ply
format ascii 1.0
comment PCL generated
element vertex 686
property float x
property float y
property float z
property float nx
property float ny
property float nz
property float curvature
element camera 0
property float view_px
property float view_py
property float view_pz
property float x_axisx
property float x_axisy
property float x_axisz
property float y_axisx
property float y_axisy
property float y_axisz
property float z_axisx
property float z_axisy
property float z_axisz
property float focal
property float scalex
property float scaley
property float centerx
property float centery
property int viewportx
property int viewporty
property float k1
property float k2
end_header
66 101.7778 498.33331 -0.014839664 -0.6651215 -0.74658769 0.039180402
69.272728 100.3636 500.45459 -0.015351208 -0.70608413 -0.7079615 0.026462233
72.099998 100.3 500.79999 0.039681751 -0.68353665 -0.72883666 0.036323018
77.75 99 499 0.12079979 -0.65141571 -0.74904275 0.034017634
81.090912 100.7273 498 0.21030302 -0.49273571 -0.84438396 0.040099729
84.975754 100.5909 499.8212 0.2289211 -0.47824135 -0.84786814 0.032975018
88.404755 101.873 499 0.21767163 -0.3886576 -0.89530122 0.041343227
90 100.3 500.39999 0.21298167 -0.45587954 -0.86418325 0.050094429
94.52404 100.72115 500.49762 0.035061684 -0.44116491 -0.89674091 0.094767176
98.9375 100.875 500.5 -0.18825731 -0.48238602 -0.85548985 0.14999901
102.0625 101.25 500.875 -0.39516458 -0.56911886 -0.7210747 0.14013632
-44.92857 104.0714 500.64291 -0.35639945 0.034467556 -0.93369776 0.022033634
-40.625 103.85 498.58334 -0.35290617 0.068790615 -0.93312651 0.017894242
20 102 499 0.68114114 -0.52837282 -0.50682229 0.068951845
23.071426 103.57143 499.5238 0.46335021 -0.70132524 -0.54170972 0.062500641
26.875 104.5 498 0.18424152 -0.83081955 -0.52516091 0.034363601
27.125 103.5 500.5 0.1501807 -0.83241165 -0.53341967 0.033518184
31.25 103.5 499.16666 -0.0043952921 -0.8626653 -0.5057562 0.0072249128
35.599998 103.2 498.10001 -0.073622726 -0.85752916 -0.50913996 0.0029908712
39.083328 103.3333 498 -0.083809957 -0.83686578 -0.54095423 0.0056491434
42.25 102 498.375 -0.090809532 -0.83792651 -0.53817552 0.0030664813
56.700001 103.3 498.39999 0.016359773 -0.66725481 -0.74464989 0.035426524
88.125 103.9375 498.83334 0.22110264 -0.35096967 -0.90990877 0.041150752
90.75 104.25 500 0.20928597 -0.2541346 -0.94425368 0.052537661
94.561539 103.75645 500.18719 0.024205027 -0.24153601 -0.97008991 0.10914684
98.634613 102.96155 499.65387 -0.25986591 -0.29236233 -0.92032272 0.16194646
101.9091 103.9091 500.09091 -0.49441874 -0.37682587 -0.78329581 0.14350112
104.7143 104.5714 498.14291 -0.79138643 -0.35452771 -0.49801379 0.16155086
106.25 103.1111 499.52777 -0.78288388 -0.42093465 -0.4581559 0.15386973
-45.111111 107.1111 500.55551 -0.30100355 -0.16937596 -0.93846077 0.037585288
-42.875 105.875 500 -0.32230538 -0.042624105 -0.94567567 0.028418805
-40.4375 107.03125 498.625 -0.35016012 -0.14687684 -0.92510277 0.03475529
85.354172 106.75 498.58334 0.25684765 -0.37244394 -0.89180428 0.040010311
88.375 106.75 499.5 0.27859062 -0.32796872 -0.90267587 0.047048029
90.066673 107.1333 500.26669 0.28083146 -0.34896135 -0.89406914 0.049553718
101.75 106.625 500.625 -0.48939672 -0.26586485 -0.83054602 0.13476799
102.83335 105.66665 498.5 -0.72237104 -0.3098422 -0.61820537 0.16962902
-48.200001 109.8 500.20001 -0.26512796 -0.38374454 -0.88456053 0.042916138
-45.25 109.75 500 -0.2865364 -0.34380203 -0.89425784 0.034867126
-44.375 110.75 498.875 -0.25649792 -0.40810272 -0.87616259 0.033539392
-42 110.0833 498.25 -0.27549157 -0.34617761 -0.89680845 0.026915435
80.85714 109.8571 498.07141 0.15924664 -0.38555434 -0.90883905 0.047124375
85.34375 110.16665 498.875 0.22753291 -0.43630108 -0.87055731 0.049408522
88.694443 109.83335 500 0.29861721 -0.42598596 -0.85402793 0.052506927
91.25 110.73865 498.375 0.27213728 -0.53378242 -0.8006357 0.066041932
93.222221 110 500.88889 0.18198957 -0.41200706 -0.89282131 0.10193277
101 109.5 499 -0.61624044 -0.27508092 -0.73795539 0.15146686
102 110.5 500 -0.51474106 -0.30495343 -0.80127716 0.12933767
-114.0833 113 500.91669 -0.12075265 -0.81449485 -0.56746531 0.0030975679
-103.53336 112.9588 500.84119 -0.044850133 -0.85082167 -0.52353698 0.0020763078
-99 113.75 498.75 -0.033252839 -0.84403312 -0.53525907 0.0026713402
-93.083344 112.5 500.91669 -0.016625704 -0.83201265 -0.55450743 0.0028799919
-91.428574 113.25 499.57144 -0.0051172883 -0.84418964 -0.53602022 0.004208826
-69.199997 112.8667 500.66669 -0.054337986 -0.7798351 -0.62362218 0.0066906228
-66 113 500.5625 -0.073120959 -0.76040924 -0.64531475 0.0089065954
-61.508335 112.725 500.72501 -0.10316604 -0.72106862 -0.68514001 0.010626169
-57.18182 112.3636 500.36359 -0.13773759 -0.65602487 -0.74206454 0.015261342
-56.777779 113.8889 498.55551 -0.11039894 -0.7336182 -0.67053437 0.010051356
-53.83654 112.5 499.23074 -0.16012524 -0.64610243 -0.74626499 0.019321622
-50 112 500 -0.17978635 -0.59383512 -0.78424281 0.023136033
-47.708336 111.83335 498.5 -0.21823061 -0.5329777 -0.81750238 0.031546138
96 112.96429 499.67853 0.12833259 -0.58418411 -0.80141103 0.11699818
101.5556 113.3333 500.66669 -0.37429002 -0.4297432 -0.82172245 0.13885248
102.2 113.4 498.79999 -0.35767016 -0.52271706 -0.77384681 0.14112847
-127.58635 116.25455 499.45911 -0.36259633 -0.75732994 -0.54311627 0.035219572
-123.3333 116.6667 498.5 -0.19853905 -0.80922282 -0.55293822 0.011584278
-122.8667 115.6667 500.79999 -0.18124829 -0.7983681 -0.57424515 0.0095971096
-119.0889 115.8906 499.99658 -0.1253823 -0.81772697 -0.56178451 0.0026569632
-116.6364 116.1818 498.45459 -0.13809757 -0.81915218 -0.55670357 0.0034286673
-112.625 114 499 -0.12961692 -0.82262599 -0.55361164 0.0038308569
-108 115 498.125 -0.079495639 -0.83146954 -0.54985344 0.0038525274
-104.8 115.5 498.10001 -0.053207699 -0.83632731 -0.54564226 0.0030693198
-101.75 114 499 -0.037923876 -0.84281641 -0.53686345 0.0016139235
-96.25 114 498.75 -0.036832139 -0.84705859 -0.5302217 0.0030164111
-89.75 114 499 0.003744313 -0.84625435 -0.53276581 0.0039683483
-85.625 114 499 0.021954698 -0.84537631 -0.53371984 0.0031105748
-81 114 499 0.016129633 -0.834768 -0.55036551 0.0026239944
-77.75 114 499 -0.0050039319 -0.83089685 -0.55640399 0.0023969256
-73.625 114 498.70834 -0.024174735 -0.8287397 -0.55911183 0.0035259202
-69 114 499 -0.050075967 -0.80869126 -0.5860979 0.0053714025
-65.75 114 499 -0.058033165 -0.80257052 -0.59372771 0.0055964044
-61.525002 114 498.9375 -0.066460788 -0.7709474 -0.63342166 0.0068216003
98.5 114 499 0.094379567 -0.61481082 -0.78300703 0.11217345
104 115.16665 498 -0.63157564 -0.50860459 -0.58517832 0.11921232
-131.25 118.75 498.5 -0.59977591 -0.61192596 -0.51557302 0.042396229
-126.3333 117 498.16669 -0.32946482 -0.77107489 -0.54488218 0.035276838
-133 124.5 499 -0.81290603 -0.40931758 -0.41429812 0.019639751
-146 127.16665 499.66666 0.28433466 -0.7534166 -0.59288889 0.13850188
-134 127 499 -0.83392435 -0.35228842 -0.42480949 0.030864479
-146.75 131.25 498.5 0.36934441 -0.68902576 -0.62356091 0.12015495
-135.39999 131 500.60001 -0.58354938 -0.54576796 -0.60133797 0.11733398
-134.5 131.5 498 -0.72768623 -0.45675224 -0.51171291 0.077956714
-146.1429 134 500.57141 0.38851541 -0.71202338 -0.58487469 0.11055028
-135.625 134.125 499.125 -0.54525936 -0.57472181 -0.61023533 0.096973054
87.5 132.5 498.5 0.40942058 0.80491674 -0.42951584 0.029920466
-144.8557 136.93846 498.91586 0.33187887 -0.7661857 -0.55028713 0.10177577
-139.54166 136.16666 500.16666 -0.12477753 -0.752119 -0.64710706 0.11865278
-137.9091 137.18179 498.27271 -0.27785796 -0.75352955 -0.59580874 0.10353193
82.25 136.5 499.25 0.35923171 0.812473 -0.45917329 0.0081825322
85 135 500 0.3410199 0.82081407 -0.45822451 0.0070212968
-141.125 138 498.5 0.0895781 -0.82884789 -0.55225617 0.10676205
71 140 500 0.43521619 0.76100862 -0.48109537 0.013129391
72.5 139 498 0.42299053 0.7693525 -0.47872305 0.013295279
75 138 498 0.40355897 0.78397924 -0.47171676 0.009775267
70 141 500 0.43505424 0.74961144 -0.49880916 0.013649541
-45.5 146 498.5 0.13735677 0.90524828 -0.40206805 0.00085897214
-39.5 146 499 0.12377504 0.89789069 -0.42245951 0.0013667427
-51.333328 147 498 0.14279693 0.9072566 -0.39559385 0.00075534784
-50 147 500 0.13993926 0.9083398 -0.39412665 0.00070707034
-7.1809521 29.190475 502.96509 -0.11816661 -0.88608676 -0.44820398 0.00062218576
-0.25 29 501.25 -0.05471576 -0.87239492 -0.4857296 0.012005609
1.9 28.466667 502.86667 -0.030102195 -0.86423552 -0.50218606 0.020977767
5 28 503 0.12150095 -0.81500685 -0.56656969 0.056340601
7 27 502 0.20444754 -0.75140446 -0.62736952 0.056910709
9.25 27 501.25 0.29152018 -0.69638908 -0.65578818 0.0797901
13.166665 28 501.66669 0.51932836 -0.50930369 -0.68622714 0.083694115
-99 32.888889 503.66669 -0.012705437 -0.87097269 -0.4911671 0.0016735409
-74.875 32.5 503.625 -0.034859795 -0.88173103 -0.47046265 0.0010765149
-69 32.57143 503.85709 -0.006007256 -0.88603264 -0.46358398 0.0010171367
-65.875 32.5 503.5 -0.0037856721 -0.886136 -0.46340966 0.00074393582
-60.14286 32.57143 503.85709 0.0026014717 -0.88694352 -0.46187049 0.0011603486
-42 32.375 503.875 -0.028677758 -0.88620412 -0.46240669 0.0010465635
-28.57143 32.035713 502.39285 -0.076203465 -0.90366983 -0.42139506 0.0022232735
-24.25 32.5 501.5 -0.092532448 -0.89785039 -0.43046772 0.0011431287
-24 31 503.33331 -0.10202713 -0.90300912 -0.41733098 0.0019895602
-21 31 503 -0.11627125 -0.89894527 -0.42234862 0.0018879753
-16.15873 31.222223 501.98938 -0.10813193 -0.88807255 -0.44680476 0.00087323802
-11.5 30 502 -0.1175225 -0.88541043 -0.44970745 0.0005851126
-9 30 502 -0.1168833 -0.88726074 -0.44621372 0.00069758558
14 31.5 502 0.78619242 -0.062682852 -0.61479461 0.052684229
-130.5909 35.004543 503.66364 -0.31364384 -0.48867446 -0.81414056 0.059959482
-124.5 34.5 503.5 -0.178865 -0.70786983 -0.683321 0.035293169
-120.125 34.5 503.5 -0.11760844 -0.77181756 -0.62487274 0.021112613
-117.25 35.625 501.25 -0.16401438 -0.77333021 -0.6124211 0.023871915
-116.75 34 503.5 -0.077565834 -0.83782619 -0.54039872 0.0038844508
-112.625 34 503.25 -0.075485498 -0.85905617 -0.50628495 0.0011655916
-108.5 34 503 -0.057208877 -0.86919028 -0.49115723 0.0009990508
-107.6 34.599998 501.39999 -0.05003484 -0.8683629 -0.49339879 0.0012983715
-104.8571 34.57143 501 -0.041866329 -0.87300074 -0.48591861 0.0012358447
-101.9375 33.75 502.375 -0.02987973 -0.8724665 -0.48775962 0.0012852224
-98.85714 34.42857 501.14291 -0.013204568 -0.87456363 -0.48473093 0.0013025268
-94.625 33 502 0.013551014 -0.87493801 -0.48404536 0.0014126912
-91 33 502 -0.0016493603 -0.87358993 -0.48666 0.0014737458
-87 33.75 502.42853 -0.016105082 -0.87247217 -0.48839837 0.0015770559
-81 33 502 -0.039467532 -0.87453663 -0.48335081 0.0014278697
-77.75 33 502 -0.044006854 -0.87856084 -0.47559887 0.00094550173
-73.625 33 502 -0.030925471 -0.88166928 -0.47085324 0.00090533518
-69 33 502 -0.011293328 -0.88726979 -0.46111247 0.0009910767
-64.625 33 502 -0.0037920964 -0.88847375 -0.45891172 0.0012427457
-59.875 33.5 501.5 0.0047443709 -0.88775146 -0.46029857 0.00083022518
-56.75 33 501.25 0.0034013384 -0.88642031 -0.46286869 0.00093019148
-54 33 502 -0.0062528672 -0.8865003 -0.46268585 0.00098662893
-51 33 502 -0.013827594 -0.88678753 -0.46197051 0.0010407121
-47.75 33.5 501.5 -0.0084752208 -0.88893074 -0.45796317 0.0011915736
-45 33 501.66669 -0.017853376 -0.88916469 -0.45723888 0.0009337599
-42 33 501.25 -0.031378668 -0.88846743 -0.45786583 0.00071589806
-38.75 33 501.5 -0.042320408 -0.8860333 -0.46168596 0.00069567992
-34.4375 33 501.375 -0.049941473 -0.8906818 -0.45187595 0.0010076888
-29.75 33 501 -0.070671596 -0.90037996 -0.42932689 0.0012240674
11.6 35.200001 501.20001 0.7908625 0.0087578408 -0.61193126 0.04220676
13 35 503.33331 0.8049854 0.037106432 -0.5921331 0.037266083
-132.5 37.75 503 -0.45754108 -0.2140208 -0.8630476 0.066862158
-131 37 502 -0.40793237 -0.28897658 -0.86607373 0.064177983
-127.5625 36 501.75 -0.30284193 -0.51097113 -0.80448449 0.069381952
-122.875 36 501.5 -0.22544464 -0.65995306 -0.71668452 0.045227796
-120 36 501.33331 -0.18777199 -0.6791923 -0.70953465 0.039283857
11 38 501.75 0.81283849 0.11636204 -0.57074803 0.014118332
-132.28571 41.285709 503.71429 -0.51759779 0.13953772 -0.84416932 0.045148801
-131 40.75 502 -0.52095717 0.10119026 -0.84756368 0.043543309
11.357145 41.261906 502.85715 0.82357448 0.15380131 -0.54595804 0.0040862709
-129.64285 43.07143 503.14285 -0.53415263 0.23777436 -0.811261 0.034252368
-127.16665 44.166664 501.66666 -0.54104143 0.27554595 -0.7945745 0.028952226
11 44 502 0.82380354 0.090131275 -0.55966431 0.0063387509
-126.2 47.599998 503.20001 -0.54067427 0.4569205 -0.70632499 0.0026371945
-125.5 46.25 501.5 -0.54168397 0.33229375 -0.7721135 0.018284891
9.333333 46.888889 501 0.80753279 -0.045534026 -0.58806252 0.021336701
-124.8889 50.069443 503.44446 -0.53255624 0.49796978 -0.68440479 0.0028835877
-122.8571 49.714291 501.71429 -0.54162389 0.4739829 -0.69425046 0.002408341
9 50.083328 501 0.7494489 -0.1990851 -0.63142025 0.035600264
-122 52 502 -0.53924841 0.52878541 -0.65543664 0.0028440652
-119.7778 52.888889 501.44449 -0.54400927 0.5330714 -0.6479882 0.0027376644
11.46154 53.102566 502.61542 0.61816913 -0.39964718 -0.67686707 0.028160674
-120.5 54 503 -0.52151918 0.58067667 -0.62516588 0.002604177
-116.7778 55.777779 501 -0.5399344 0.57733452 -0.61249948 0.0033447158
16.25 55.666664 501.16666 0.67885751 -0.41317996 -0.60698825 0.035329226
18.5 55.666672 503 0.77053607 -0.33131406 -0.54452294 0.040178914
-115.3 58.700001 502.89999 -0.52143693 0.65299994 -0.54926735 0.0057004597
-113.25 58.75 501.5 -0.5346719 0.644602 -0.54645616 0.0043680728
19 59 503 0.83837479 -0.17426442 -0.51648772 0.046765454
-111.25 62.25 503.75 -0.50031835 0.7347908 -0.45799997 0.0046280487
-110.3333 61.333328 501 -0.52942717 0.68371993 -0.50222898 0.0047048805
17.66667 62 501 0.87909162 -0.091309786 -0.46782535 0.045763239
-108 63 503 -0.49057099 0.75446951 -0.43602291 0.0044341288
-105 64.5 501 -0.49955034 0.76183003 -0.41238865 0.0045072595
17 65 501.66669 0.90796322 0.0034864957 -0.41903543 0.023017265
-100.25 67.75 502.75 -0.46197498 0.81510353 -0.3495501 0.0016138225
17 68 503.66669 0.91851455 0.015068698 -0.39510003 0.012807442
-97 69 501 -0.45414594 0.82353741 -0.33990818 0.0015998895
-96 70 502 -0.43870628 0.83646923 -0.3284145 0.0011897705
-93 71 501.5 -0.42171052 0.84761202 -0.32204667 0.0011233191
15.5 71 501 0.92427754 -0.035542041 -0.38006288 0.014416187
-91 72 502 -0.41008934 0.85690117 -0.31232518 0.00096198748
-88.25 73.75 502.75 -0.41312471 0.85769928 -0.30607158 0.00077090878
15.666667 73.25 502.33334 0.88275117 -0.16865772 -0.43852589 0.022169387
-85 75 501 -0.42222059 0.85493106 -0.30136806 0.00084716408
-82.75 76.25 502 -0.42831528 0.85109752 -0.30361 0.00098883652
16.452381 77.190475 501.40479 0.83242708 -0.30346072 -0.4636558 0.014421032
18.222219 77 503.88889 0.81103462 -0.32270297 -0.48794025 0.011153803
-79 78 501 -0.44446245 0.84158278 -0.30690643 0.00083580386
19.700001 79.800003 502.10001 0.82166201 -0.30884758 -0.4790456 0.012855305
21.1 79.400002 503.89999 0.8211711 -0.30385232 -0.48306489 0.013821333
-74 81 503 -0.47636503 0.77729934 -0.41095263 0.033297893
-70.833328 82.833328 502.83334 -0.49033403 0.72266877 -0.4871574 0.056707017
22 83 503 0.85869569 -0.21100463 -0.46703196 0.022014733
-67 85 502 -0.43028039 0.70900309 -0.55872482 0.076735549
-63.5 85.5 501.5 -0.4099943 0.73985541 -0.53340292 0.053516921
22 86 503.25 0.90330511 -0.083568931 -0.42078036 0.016235203
-60.5 87 501 -0.43319637 0.73228508 -0.52545172 0.04976381
-57 88.833328 502.33334 -0.40826225 0.61909842 -0.67084944 0.064636238
-54 89.5 501.5 -0.44528162 0.54668778 -0.70912391 0.06224025
21 89.25 501.5 0.90995556 -0.041368514 -0.41263738 0.010922397
-54.099998 91.900002 503.5 -0.40700832 0.31850171 -0.85609633 0.054198444
-51.666672 91.666656 503 -0.4236595 0.35273036 -0.83432233 0.047539946
-50.583328 92.5 501.58331 -0.42460683 0.35185623 -0.83420992 0.046845522
20.5 92 501 0.91687208 -0.033086136 -0.39780769 0.011564379
-63 94.916656 503.75 -0.33089665 0.12557729 -0.93527418 0.046963517
-58.714287 94.589287 503.09375 -0.35784701 0.16799045 -0.91854495 0.044473466
-55.216663 94.733337 502.16666 -0.3985604 0.22938968 -0.88799214 0.041499984
-54 93 502 -0.43225875 0.32945877 -0.83941013 0.055572521
21 95.25 503.5 0.86560988 -0.19148795 -0.46265736 0.03580568
66 95.666656 503.66669 -0.053106382 -0.81432062 -0.57798058 0.0041800761
-58.561539 98.088455 503.28076 -0.31489721 0.051341385 -0.94773614 0.015416309
-56 97 502 -0.34104416 0.1639884 -0.92563307 0.025854919
-54 97.53846 501.69229 -0.35926881 0.16265459 -0.9189502 0.021728383
20.200001 98 501.20001 0.81180459 -0.27607986 -0.51454175 0.048411548
21.57143 97.85714 503.85709 0.70703059 -0.43119898 -0.56051332 0.067486331
48.400002 98.800003 501.60001 -0.1077304 -0.83438635 -0.54054934 0.0040189829
52.4375 98.5 501.5 -0.09274599 -0.82539463 -0.55688584 0.0052152867
55.4375 97.375 503.375 -0.088970393 -0.82374102 -0.55994189 0.0055635176
58.465912 97.681824 502.04547 -0.068831496 -0.80960196 -0.58292955 0.0046159481
62.666672 97 503 -0.058398083 -0.8104437 -0.5828985 0.0048194123
67.949997 97.550003 502.14999 -0.05614562 -0.8066833 -0.58831096 0.0039497837
70.837608 97.307701 502.66666 -0.027933305 -0.80392575 -0.5940733 0.0043787993
82.300003 98.066673 502.75 0.13131024 -0.69056982 -0.71124601 0.017620862
90.07692 97.769234 503.84619 0.12624291 -0.60535765 -0.78587836 0.026091693
93.133331 98.26667 503.8667 0.13387856 -0.54242039 -0.82937127 0.049051449
-54.611111 100 503.05554 -0.32758069 0.042602062 -0.94386232 0.017411616
-53 100 502 -0.33125803 0.070946865 -0.94086909 0.01429247
-50.57143 101.0714 501.57141 -0.33683714 0.067349024 -0.93915111 0.013980668
20.888889 101.2222 501.33331 0.69214076 -0.46076503 -0.55555081 0.070262983
22.966665 100.6 503.56665 0.59138834 -0.5339725 -0.60426241 0.059356775
27.18182 101.3636 503.90909 0.2179912 -0.77090985 -0.59847963 0.041869801
36.083328 101.3333 501 -0.098238021 -0.8647747 -0.49245715 0.0021258413
41.450001 100.35 502.39999 -0.11282101 -0.85446566 -0.50710928 0.0016839105
45.125 99.75 502.5625 -0.10411188 -0.84578204 -0.52327192 0.0039771535
88.375 99 502 0.19633643 -0.52680939 -0.82699686 0.040758837
96 99 502 0.043272987 -0.52940553 -0.84726459 0.071351953
99 99 501 -0.056764998 -0.71410781 -0.69773048 0.086285099
103.70455 100.4091 502.27271 -0.36862209 -0.67850232 -0.6354152 0.12678236
106.5 100.36111 502.36108 -0.27790448 -0.7327438 -0.62117279 0.12419214
108 99 501 -0.44051802 -0.72335809 -0.53169245 0.12182285
-51.650002 103.05 503.10001 -0.32521829 -0.025181945 -0.94530362 0.024782382
-50 103.3333 502 -0.3257983 0.0053951507 -0.9454239 0.022224916
-48 104 501.7778 -0.34846541 0.012442939 -0.93723899 0.023412988
23.75 102 501.75 0.43872365 -0.68481016 -0.58185607 0.076375909
27.25 102 502 0.21393204 -0.79505092 -0.56756246 0.048993353
30.916666 102.33334 501.5 0.018787727 -0.85424715 -0.51952755 0.013154073
107 103 501 -0.61527008 -0.48909029 -0.61825037 0.13854274
-54.07692 107.0769 503.46149 -0.25032887 -0.26230454 -0.93195045 0.036110856
-51.599998 106.4 503 -0.282704 -0.17421272 -0.94325411 0.038620345
-50.45454 107 501.63641 -0.29032344 -0.22102696 -0.93105286 0.039399046
-48 106.75 501.5 -0.30846974 -0.18388638 -0.93329114 0.035531435
92.909088 107.1818 501.36359 0.12912293 -0.22529498 -0.96569633 0.083767213
95.5 106.25 502 0.047733974 -0.19891609 -0.9788534 0.10951904
96.428574 107.2857 503.14291 0.026710117 -0.23414415 -0.9718349 0.11932395
99.75 106.25 502 -0.25228649 -0.24343379 -0.93653166 0.11697139
-105 110.5 503.89999 -0.036311258 -0.84114534 -0.53958869 0.0031228769
-93.153847 109.9231 503.7692 -0.043698244 -0.79783809 -0.60128599 0.0079877898
-84.099998 110.7 503.89999 -0.0045547076 -0.74968582 -0.66177821 0.0078552058
-72.090912 110.7273 503.90909 -0.069434762 -0.6767053 -0.73297256 0.016297607
-68.8125 110.125 503.9375 -0.13346027 -0.62842107 -0.76633888 0.023161821
-64.53846 110.03845 503.41879 -0.12836377 -0.60789841 -0.78357029 0.02164647
-58.944447 110.02777 502.77774 -0.17153755 -0.52091169 -0.83619726 0.022992225
-56.777779 110.2222 501.7778 -0.18549736 -0.54099667 -0.82031292 0.025386937
-54 109.875 501.5 -0.20577098 -0.52788025 -0.82401508 0.031327285
-50.92308 109.6923 501 -0.2419952 -0.43569231 -0.86695474 0.037195235
94.666672 109.83335 502.5 0.11431087 -0.2958391 -0.9483735 0.097055092
96.222221 109.8889 503.7778 0.03297716 -0.24550158 -0.96883512 0.096297078
101 110.125 503.75 -0.26418456 -0.25724843 -0.92953199 0.11209629
-117.4286 112.7143 503.57141 -0.11931397 -0.80961448 -0.57470745 0.0023549087
-116.2 113.4 501.39999 -0.1271726 -0.80758286 -0.57587945 0.0023865083
-114 112 503 -0.10628697 -0.82867897 -0.54953998 0.0031915742
-110.05953 112.38096 502.35715 -0.079516403 -0.83865517 -0.53882706 0.0038791108
-106.96429 112.57145 502.03571 -0.051206499 -0.8435545 -0.5345968 0.0027221527
-99.071426 112.8571 501.07141 -0.041599866 -0.85040998 -0.52447343 0.0031030115
-97.333328 112 503 -0.044367153 -0.8470943 -0.52958733 0.0035997082
-95.909088 113.0909 501.09091 -0.026527738 -0.8360157 -0.54806393 0.0031038607
-92 111 502 -0.022314074 -0.8256911 -0.56368107 0.0041546258
-88.25 112 503 -0.0055278484 -0.8064723 -0.59124607 0.0052594012
-86.92308 113.2308 501.0769 0.0076925685 -0.82071388 -0.57128757 0.0036248392
-83.933327 112.9333 501.33331 0.014289644 -0.81628883 -0.57746714 0.0037009201
-79.607147 113 501.10715 0.006159083 -0.80143642 -0.59804833 0.0043963967
-76.333328 112 503 -0.037634861 -0.7613917 -0.64719868 0.0068238811
-74.846153 113.1538 501 -0.039716139 -0.77492154 -0.63080847 0.0057563372
-71.92308 112.6923 501 -0.048247214 -0.76987606 -0.63636708 0.0066744816
-66.25 111 502 -0.13517027 -0.65759891 -0.74114287 0.024094233
-63.333328 111 502 -0.12897921 -0.62879807 -0.76679689 0.021918198
97 112 503 -0.026589528 -0.38079685 -0.92427629 0.12542734
99.75 112.67926 502.39392 -0.13106869 -0.39903972 -0.90751761 0.12136721
-131 116.25 501 -0.59288186 -0.63439035 -0.49602416 0.036047462
-127.77777 115.11111 502.44443 -0.36115468 -0.74153233 -0.56541765 0.030436441
-133 119 503 -0.66981399 -0.56311202 -0.48399797 0.057606954
-132 119 501 -0.70311201 -0.54265469 -0.45952085 0.0348088
-145 122.25 502 -0.40010253 -0.8405664 -0.36519328 0.14746244
-133 121.5 501.5 -0.75359172 -0.48229545 -0.44664383 0.045187742
-146 125 501.66669 0.03132512 -0.83816147 -0.54452181 0.15236275
-134.5 124.66665 502.33334 -0.73276955 -0.4692907 -0.4927626 0.094642572
-134.6667 127.6667 501.33331 -0.72356111 -0.4249216 -0.54396772 0.096217245
-146 131 501 0.47606924 -0.6606105 -0.58047563 0.10599227
-145.14285 133.85715 502.69049 0.44426081 -0.70470345 -0.55319566 0.10607062
-139.14166 134.14442 502.19998 -0.09669584 -0.75734532 -0.64581573 0.13348769
86.333344 134.3333 501 0.30772385 0.84066069 -0.44564062 0.012550548
-49 148 501 0.1402116 0.90591276 -0.3995783 0.00077349006
6.0714283 25.976196 505.4881 0.049494643 -0.82965761 -0.55607426 0.039037712
10.375 25.25 505.16669 0.2703391 -0.73073703 -0.62684935 0.070515312
16.017317 25.588743 505.68399 0.55283111 -0.47233441 -0.68649691 0.088378645
-21 29.200001 506.79999 -0.13790429 -0.89779752 -0.41826069 0.0030064371
-12.1 29.4 504 -0.11503545 -0.88098061 -0.45895532 0.00072601892
-12 28 506.5 -0.11852491 -0.88240707 -0.45531255 0.00097019516
-8.75 28 506 -0.1065242 -0.88545096 -0.45235956 0.00061686989
-6 28 506 -0.10736508 -0.88929111 -0.44456053 0.00072602462
-1.8333334 27.5 504.66666 -0.12157355 -0.89030117 -0.43884367 0.0011034105
2.75 27 505 -0.037171524 -0.87037438 -0.49098539 0.017703936
15.33333 29.111111 504 0.71741194 -0.25466993 -0.64843148 0.08473102
-134.7778 32.777779 506.88889 -0.2506178 -0.59780502 -0.76145911 0.056423116
-109.49445 32.011108 506.84442 -0.056023601 -0.86277527 -0.50247413 0.0012208964
-103.5 31.5 506.5 -0.033887766 -0.86638904 -0.49821845 0.0010896231
-99.166656 31.33333 506.5 -0.0068237437 -0.87004495 -0.49292514 0.0016855113
-96.125 32.5 504.5 0.0046475539 -0.86895317 -0.49487251 0.0017093169
-95.75 31 506.75 0.0068123289 -0.87266386 -0.48827383 0.0016702472
-92.875 32.5 504.5 -0.0013292728 -0.86859453 -0.49552184 0.0016101224
-90 31.5 506.75 -0.0019364173 -0.86878347 -0.4951883 0.0014326258
-85.553574 31.339285 506.53571 -0.013699264 -0.87245864 -0.4884958 0.0015733248
-83.800003 32.700001 504.20001 -0.017948387 -0.87041682 -0.49198833 0.0014040695
-80.047615 32.023808 504.79166 -0.034889419 -0.87465167 -0.48349473 0.0013709792
-76.625 31 506 -0.035944153 -0.88023102 -0.4731822 0.0012738295
-71.928574 31.714285 505.32147 -0.013532694 -0.88429111 -0.46673992 0.00097146368
-66.25 31 506 -0.0057401075 -0.88905352 -0.45776731 0.0007860231
-62.92857 31.714285 505 0.00050509471 -0.88844186 -0.45898893 0.0010196741
-58.625 31 506 -0.00082500407 -0.88716561 -0.46145055 0.00099012558
-57 32.5 504 0.0012409267 -0.88451856 -0.46650323 0.0011209893
-53.007935 32.03175 504.92065 -0.0043578004 -0.88407165 -0.46733108 0.00081720692
-49.125 31.583334 505.33334 -0.011357983 -0.88536566 -0.46475655 0.0011775186
-44.119049 31.476191 505.38098 -0.021908995 -0.88611859 -0.46294042 0.00098549866
-39.113094 31 505.42853 -0.020162147 -0.89492738 -0.44575617 0.001291767
-35.019047 31.047621 505.60001 -0.027841929 -0.91117501 -0.41107765 0.0021008155
-32.5 30.75 504.75 -0.042550772 -0.91382498 -0.40387285 0.0023555229
-26.75 31 504 -0.081935048 -0.90922886 -0.40815362 0.0026065996
-23.5 30 505 -0.11454756 -0.90514916 -0.40937012 0.0026389894
-21 30 504 -0.11939789 -0.89608914 -0.42751428 0.0022889711
-17.6 30 504.39999 -0.12607315 -0.89064819 -0.43686527 0.0019715384
15.666667 31.4 505.60001 0.79048443 -0.065998651 -0.60891598 0.057952613
-138.0833 34.583328 506.5 -0.38949469 -0.37717655 -0.84025693 0.069623023
-136 34 506 -0.36524245 -0.40594387 -0.83773953 0.073032536
-134.8 35 504.5 -0.35473546 -0.36767852 -0.85963678 0.062719122
-131.75 33 505 -0.25360137 -0.60681129 -0.75330371 0.056660041
-127.625 33 505 -0.20837002 -0.69567907 -0.68746835 0.043835726
-123 33 505 -0.092857122 -0.80463147 -0.58646882 0.013405653
-118.625 33 504.75 -0.07480374 -0.83972633 -0.5378328 0.0048619951
-113.75 33 504.25 -0.076057233 -0.86042887 -0.5038625 0.0012954015
-111 33 504.66669 -0.068535917 -0.8595295 -0.50647002 0.0013441821
-108 33 504 -0.051425207 -0.8652522 -0.49869242 0.0010271627
-105 33 504.25 -0.04185247 -0.86504054 -0.49995321 0.0011269104
-89.85714 33 504.14291 -0.0080442782 -0.86956221 -0.49375793 0.0016443332
14.25 34.25 504.5 0.81971157 0.077895693 -0.56745499 0.023567127
15.375 35.375 506.875 0.83064967 0.13843742 -0.53931081 0.0097237201
-138.3333 38.111111 506.66669 -0.52268863 0.10754269 -0.84571344 0.045270491
-137 36.666664 505 -0.46139595 -0.0868323 -0.88293475 0.064472117
-135 37.75 504.16669 -0.48908046 -0.06605909 -0.86973357 0.048582602
13.5 38.125 505.45834 0.83540267 0.1552238 -0.52726454 0.0034654522
-135.60001 41.400002 506.20001 -0.53766048 0.28423458 -0.79380846 0.024598187
-134.28571 40.85714 504.57141 -0.52152663 0.17559481 -0.83497089 0.037770145
13 41.5 506 0.81469339 0.086076833 -0.57346791 0.011646064
-134 43.888889 506.44446 -0.53751749 0.39014921 -0.74756843 0.0086472025
-131.5 44 504.5 -0.53854388 0.33294162 -0.77402866 0.014205904
11.375 43.75 504 0.81007832 0.064082824 -0.58280903 0.0097878193
12.8 44.200001 506.20001 0.77339721 -0.025224011 -0.63341963 0.019371634
-131 46 505 -0.53829694 0.4460324 -0.71504641 0.00307947
-128.8889 46.777779 504.2222 -0.53890914 0.44211659 -0.71701455 0.0031312001
11.11111 47.222221 504 0.75833905 -0.15388639 -0.63343579 0.026716102
12.5 47 506.5 0.72328287 -0.21715781 -0.65551841 0.026858959
-129.55554 49.111111 506.38892 -0.53537953 0.50733435 -0.6752634 0.0023887034
-128 49 505 -0.53926462 0.49859196 -0.67867494 0.0024481243
11.5 50.099998 504 0.69566458 -0.28330466 -0.66014332 0.031755429
13 49.333328 506 0.68616366 -0.2775403 -0.67242157 0.023696959
-126.5 51 506 -0.522879 0.53574729 -0.66300261 0.0027863141
-125.5 52.5 505.85715 -0.51819879 0.57200968 -0.63582617 0.0052420935
-123 53 504 -0.53400296 0.55575109 -0.63716674 0.0037522737
15.533335 52.466667 505.03336 0.6699301 -0.36510625 -0.64644492 0.02307635
19.107143 52.922615 505.47617 0.71427631 -0.34250382 -0.61032814 0.02751285
-124 54 506 -0.51926279 0.60587996 -0.60272348 0.0053126919
-121.65873 55.626987 505.27774 -0.52300197 0.61973846 -0.58514374 0.0055916402
20 56.125 505 0.80752522 -0.25167617 -0.53344363 0.042728607
-120.5 57 506.5 -0.50753319 0.67845857 -0.53113472 0.0058440105
-118.2889 58.044445 505.0889 -0.514736 0.66472542 -0.54146755 0.0047948989
20.200001 58.400002 505.89999 0.87148893 -0.10892913 -0.47816464 0.039402913
-114 61 505 -0.50805366 0.72571313 -0.46392027 0.0049843402
18.75 62 504.25 0.90393907 -0.012391032 -0.42748171 0.030452266
-108.5 64 504.5 -0.47452995 0.78049695 -0.40699601 0.0033837741
-105 65.5 504 -0.48289511 0.79155606 -0.37450141 0.0025983443
18.5 64 505.16666 0.91631669 0.028812004 -0.39941654 0.014231268
-103.25 67.25 505 -0.46078679 0.81441891 -0.35270023 0.0016142112
18 67.75 506.5 0.91082042 0.018771702 -0.4123756 0.014825866
-96.5 70.5 504.5 -0.42954743 0.84422022 -0.32059506 0.0013072455
17 70.75 504.5 0.89692849 -0.097886041 -0.43120483 0.021577889
18.200001 71.199997 506.79999 0.87465745 -0.16306616 -0.45649064 0.020333208
-94 72 505 -0.41804278 0.853917 -0.30994529 0.0009289814
-91.5 73.5 505 -0.40422472 0.86218649 -0.30534711 0.00067697262
-89 74 506 -0.40992951 0.85912311 -0.30637434 0.00070877775
17 74.25 504.75 0.84952253 -0.2588177 -0.45970079 0.017944722
18.57143 73.85714 506.85709 0.83025539 -0.27415892 -0.48529661 0.015189659
-85 76 505 -0.42688 0.8519696 -0.30318508 0.0010438868
-84 77 506 -0.42988381 0.84625864 -0.31471601 0.0010764002
19.886362 76.825752 505.9697 0.81232399 -0.32006201 -0.48753458 0.011325276
-82 78 506 -0.45118377 0.82099813 -0.34985036 0.019118775
-80 78 505 -0.44595838 0.83626729 -0.31902707 0.0015493159
-77.5 79.5 504 -0.45784587 0.81782055 -0.34863558 0.012818162
23 80.5 505 0.8333413 -0.28037372 -0.4763748 0.016587291
-75 82 506 -0.50708491 0.70065767 -0.50193989 0.079365872
-71 83 505 -0.48948193 0.72026497 -0.4915545 0.064782254
23 83.25 505 0.89251685 -0.16045137 -0.42150795 0.020047229
-68 85 505 -0.4903121 0.60651946 -0.62588197 0.094635591
-65.5 86.25 505.375 -0.42120707 0.60391152 -0.67666495 0.091507688
23.25 85.75 506.5 0.90239602 -0.085800022 -0.42227921 0.013697233
-61.599998 88.300003 505.39999 -0.43095842 0.416484 -0.80050981 0.083931968
-60 88.25 504.25 -0.40421027 0.48088211 -0.77805299 0.080460213
22 89 504.66669 0.91842967 -0.030131655 -0.39443502 0.0063692671
-75.153847 91.92308 506.53851 -0.26943737 -0.12425745 -0.95496786 0.091625139
-70.466675 92.008331 506.64999 -0.28950053 -0.059404284 -0.9553327 0.070556
-66.166656 92 506.75 -0.32360116 0.053513315 -0.94467902 0.073069401
-61.471588 92.204544 505.49429 -0.3663207 0.14097573 -0.91974729 0.060140081
-58.5 90.833336 506.11108 -0.40012169 0.28873104 -0.86979139 0.070752122
-56.85714 92.071426 504.57141 -0.43687484 0.25822958 -0.86165994 0.063631512
21.5 92 504 0.90030432 -0.079120949 -0.42800939 0.021893019
78.181824 92.727272 506.90909 -0.0039466708 -0.80313706 -0.59578115 0.0066195587
-75.083344 95 506.5 -0.18171386 -0.18408532 -0.9659673 0.045185409
-74 93 505 -0.25848532 -0.058089867 -0.96426702 0.081895761
-70.8125 94.166664 505.5 -0.24137588 -0.057455923 -0.96872932 0.053842694
-69 94.777779 505 -0.24473375 -0.022276752 -0.96933436 0.04103104
-65.708328 94.066666 504.86664 -0.30676278 0.10394722 -0.94609272 0.062321492
-63 93 505 -0.35080108 0.12051571 -0.92866278 0.064030685
22 93.875 506 0.87874919 -0.13993315 -0.45630983 0.030674566
56.833328 95.333344 506.66669 -0.10666843 -0.840038 -0.5319379 0.0041016475
61.611107 94.388885 506.83334 -0.07147719 -0.83637935 -0.54347092 0.0043650293
64.513885 95 505.38892 -0.05741445 -0.82238716 -0.56602383 0.0042975363
68.900002 95.5 504 -0.06095833 -0.81789285 -0.57213229 0.0048607746
69.099998 94.199997 506.60001 -0.060074288 -0.82357526 -0.5640167 0.0037661837
73.366669 94.53334 505.43335 -0.03817923 -0.80435717 -0.59291822 0.0044489088
76.516663 95.049988 504.06665 0.013746204 -0.78658801 -0.61732513 0.0059723957
82.027779 94.972221 505.75 0.048470523 -0.76303732 -0.64453441 0.0068398309
96.090912 95.727272 506.90909 0.14070189 -0.69210303 -0.70795232 0.031244284
107 95.25 506.5 0.23991248 -0.80640972 -0.54050463 0.056750692
-69.07692 97.692307 506.38461 -0.22339547 -0.05109819 -0.9733876 0.028086057
-66.571426 98.14286 506 -0.2348657 -0.051006425 -0.97068864 0.027342288
-65.166656 97.666656 504.83331 -0.23759016 -0.0227549 -0.97109896 0.024925875
-63 98 504.11111 -0.26682833 -0.016649073 -0.96360022 0.020264504
33.333328 98.888893 506.66669 0.032607276 -0.84633529 -0.53165138 0.017593656
38.92308 98.230766 506.84619 -0.12749805 -0.87214226 -0.47234738 0.00078966707
42.18182 97.727272 506.90909 -0.13363108 -0.86914194 -0.47616702 0.00092870189
47.714291 97.428574 506.71429 -0.14445814 -0.85748774 -0.49380827 0.0013708691
48 98.25 504.25 -0.11783575 -0.83954126 -0.53036338 0.0037710411
51.125 97.25 505.125 -0.11522733 -0.83592248 -0.53661561 0.0038871448
55.375 96 505 -0.10857745 -0.8311215 -0.54538792 0.0055613685
59.875 96 504.5 -0.080505788 -0.81637198 -0.57188767 0.0052006221
85.066666 97.566673 504.76669 0.13320592 -0.69495648 -0.70660579 0.014718183
88 97 506 0.13233346 -0.6500181 -0.74830765 0.018031817
97.46154 97.818176 504.24475 0.059193175 -0.64107895 -0.76518893 0.057908736
100.95 97.150002 506.5 0.11154788 -0.71774137 -0.68731678 0.072270989
104.7778 97.333344 506.88889 0.12476018 -0.7910797 -0.59885538 0.080873206
106.26666 97.508331 504.91666 0.11173419 -0.80578852 -0.58156717 0.088554785
108 97 506 0.17368677 -0.80098492 -0.57293636 0.088744968
-66.153847 101.1538 506.7692 -0.210747 -0.0792014 -0.97432685 0.027530391
-65 100 505 -0.22289096 -0.046605758 -0.97372866 0.024583511
-62.063488 100.8143 505.33334 -0.23304556 -0.071979888 -0.96979833 0.022992853
-56.81818 101.0909 504 -0.31170583 0.022510899 -0.94991195 0.016569789
23 99 505 0.66281408 -0.48684025 -0.56891489 0.061751965
25 100 506 0.44234264 -0.62577283 -0.6424495 0.066512458
28.883333 100.43333 505.33334 0.20418742 -0.80610508 -0.55542976 0.045050964
33 100.3333 504 -0.0066658827 -0.85607666 -0.51680577 0.010422841
37.5 100 504.21429 -0.11750039 -0.86774325 -0.48292369 0.0015516606
40 99 505 -0.12863605 -0.87138695 -0.47343165 0.00081288244
42 99 504.14291 -0.11710961 -0.85777009 -0.50051558 0.0017964094
102.125 99 504.5 -0.076327741 -0.68837935 -0.72132379 0.10521761
-63.099998 103.9 506.70001 -0.2399282 -0.12118701 -0.96319681 0.027461076
-60.75 104.125 506 -0.23191594 -0.11030107 -0.96646196 0.025234342
-59.200001 104 505 -0.23418757 -0.096095175 -0.96743053 0.023314433
-56.75 104.25 504.9375 -0.283335 -0.071016289 -0.956388 0.027514607
-54 104.0833 504.16669 -0.31440189 -0.042678151 -0.94833016 0.029319549
-69.099998 106.8 506.60001 -0.1622169 -0.40326351 -0.90059108 0.040487416
-66.090912 106.2727 506.36359 -0.21731998 -0.29847738 -0.92934561 0.042093273
-64.4375 107.125 505.4375 -0.17749345 -0.40763751 -0.89572746 0.035280753
-61.272221 107.06944 504.96667 -0.19483116 -0.35620481 -0.91387028 0.033494722
-56.799999 107.2 504.1333 -0.24563223 -0.28293744 -0.92715228 0.031380303
98.875 107.375 504.25 -0.13789263 -0.25841326 -0.95614237 0.10884654
-108 110.1558 505.62341 -0.044512384 -0.83518052 -0.54817176 0.0034901369
-102 110.25 504 -0.048291344 -0.84160125 -0.53793609 0.0035399925
-97.927773 109.44444 505.66113 -0.07596194 -0.80504268 -0.58833331 0.0078666201
-95.818176 110.3636 504.09091 -0.059663165 -0.82556993 -0.56113696 0.0047159642
-92.75 109 506 -0.058633417 -0.77496552 -0.62927783 0.0099765602
-90 109.625 505 -0.055670228 -0.76315331 -0.64381504 0.01171567
-86.933334 109.6 505.13336 -0.049900088 -0.74210823 -0.66842008 0.010349847
-83.75 109 506.125 -0.024950625 -0.66652828 -0.74506205 0.018670827
-80.083336 109.61114 505.38892 -0.031992555 -0.67501807 -0.73710716 0.015300875
-76.508331 110.35 504.17499 -0.048505101 -0.68835992 -0.72374564 0.013640406
-74.571426 109.4286 506 -0.078763247 -0.59998006 -0.79612833 0.021319913
-71 109.5 506 -0.13176359 -0.52137184 -0.84309542 0.027988033
-68.333344 108 504.66669 -0.17285943 -0.47274262 -0.86407989 0.035795793
98.866669 110.2667 504.46671 -0.11567328 -0.23360486 -0.96542662 0.10965951
100.5 109 505 -0.20701349 -0.26768556 -0.94100469 0.11916418
-129.84763 113.2441 505.02188 -0.44230902 -0.70482451 -0.5546034 0.035559438
-126.1667 112.5833 506.58331 -0.31482542 -0.74802893 -0.58424109 0.024961133
-123.0769 113.5385 504.0769 -0.1715032 -0.79385036 -0.58342814 0.0053493283
-121.625 112 506.20001 -0.13252275 -0.80187601 -0.58260858 0.0028031867
-118.93335 112.6 505.10001 -0.11058396 -0.8089518 -0.57738042 0.0028184885
-115.2381 111 504.54764 -0.097889483 -0.81816369 -0.5665915 0.003748483
-111.125 111 504.5 -0.073645942 -0.82990152 -0.55302775 0.0034976697
-132.58334 115.5 505 -0.6520974 -0.57778811 -0.49084619 0.035448361
-126 114 504.16669 -0.285653 -0.74882412 -0.59805089 0.021961085
-145 120.66665 505.83334 -0.44282901 -0.78796244 -0.42780575 0.14064269
-134.5 120.75 505.25 -0.7509371 -0.47699398 -0.45669487 0.0614888
-146 125.25 504.75 0.046906766 -0.84932703 -0.52577883 0.14519621
-134.5 123 504.5 -0.73306906 -0.48933306 -0.47240126 0.087389603
-146 128 504 0.31852028 -0.77192879 -0.55015534 0.13447553
-136 128 504.33331 -0.60271227 -0.52458197 -0.60129172 0.12079059
-145.5 131.25 504.5 0.50669909 -0.65820575 -0.55679542 0.1029911
-144 130.9444 506.94449 0.097271502 -0.77149504 -0.62875569 0.12756963
-138.2 130.39999 506.20001 -0.39345115 -0.6782276 -0.62064767 0.12987292
-137.8889 131.5556 504.33331 -0.2951971 -0.72996265 -0.6164521 0.11635045
-142.49091 133.7061 504.11212 0.065479532 -0.75374496 -0.65389669 0.13279422
-140.5 132 505 -0.050377436 -0.75826532 -0.64999682 0.12707356
86.5 136.5 504.5 0.32418016 0.83721226 -0.44043481 0.012960858
88.5 135 504.5 0.45115042 0.79861718 -0.39833885 0.037816864
8.75 23.25 509.75 0.054473959 -0.85252976 -0.51983237 0.037289329
16.366665 23.733334 507.43335 0.46027288 -0.56545764 -0.68440235 0.086995699
18.14286 22.57143 509.71429 0.44342279 -0.58458161 -0.67944139 0.085259005
-12.25 26.25 509.75 -0.1197446 -0.8842932 -0.45131665 0.001340027
-8.5714283 26.57143 507.57141 -0.099235356 -0.88804626 -0.44891658 0.0010022559
-4.5714283 26.464285 507.39285 -0.10654491 -0.89193356 -0.43943453 0.00091972109
1.4464285 26.07143 507.26785 -0.12341057 -0.88800567 -0.4429625 0.001355478
5.5 25 509 -0.039349534 -0.87109739 -0.48953128 0.020849831
10.625 24 508 0.1605902 -0.77779925 -0.60765052 0.058483519
-110.75 29.875 509.625 -0.058157556 -0.86128056 -0.50479048 0.0011244096
-108 29.5 509.875 -0.046876334 -0.86425084 -0.50087231 0.0012147839
-79.553574 29.401785 509.59821 -0.023764528 -0.8774972 -0.47899267 0.0010958023
-74.714287 29.14286 509.85709 -0.013981055 -0.88468248 -0.46598434 0.0010262026
-69.25 29.5 509.5 -0.0031284576 -0.88616639 -0.46335664 0.00076712453
-60 29.57143 509.85709 -0.0040590465 -0.88866353 -0.45854184 0.00076445617
-54.14286 29.57143 509.42859 0.00058509427 -0.88692796 -0.46190748 0.00094024691
-51.111111 29.33333 509.66669 -0.0093977153 -0.88513952 -0.46523082 0.0010620099
-45.14286 29.57143 509.71429 -0.0064319386 -0.88438326 -0.46671706 0.00097613997
-39 28.5 509.66669 0.0070498325 -0.90014875 -0.43552572 0.0020632902
-27.16667 29.33333 509.83331 -0.091253266 -0.91450638 -0.3941457 0.0049211951
-23 28.9 508.10001 -0.13951308 -0.90564102 -0.40043786 0.0033915336
-17.887501 27.9 508.4375 -0.15176576 -0.89010137 -0.42975181 0.0025134603
-15 27.75 508.25 -0.14234631 -0.88560373 -0.44209012 0.0023740795
-11.66667 27 508 -0.11711836 -0.88589633 -0.44885525 0.0013887774
17.4 28.799999 507 0.73958308 -0.19701053 -0.64358658 0.076873183
18.875 28.125 509.375 0.7662918 -0.10492428 -0.63386744 0.073207043
-144.10001 32 509.29999 -0.28946871 -0.48074999 -0.82770002 0.065987282
-141.0909 31.54545 509.72729 -0.24037826 -0.56817514 -0.78701675 0.069745637
-131.71429 32.42857 507.14291 -0.1715641 -0.71807677 -0.67448598 0.036231697
-129 32.57143 507.28571 -0.16061585 -0.75886327 -0.63113326 0.031076651
-125.875 31.75 508.1875 -0.096511796 -0.81371737 -0.57319236 0.013605921
-121.5 32.5 507.42856 -0.057332702 -0.85055935 -0.52274454 0.0023485969
-118.55355 31 509.66071 -0.054316193 -0.85939479 -0.50841939 0.0015840705
-115.54545 32.101013 507.05554 -0.060500715 -0.85940981 -0.5076952 0.0017055691
-112.5 31 509.25 -0.065402284 -0.86188978 -0.50286037 0.0012199765
-107.5 30 508 -0.044375047 -0.86500984 -0.4997887 0.0012995475
-105 30 508 -0.037145857 -0.86725932 -0.4964689 0.0010753943
-100.625 30 508 -0.013398534 -0.86981624 -0.49319395 0.0016234684
-94.75 30 508 0.0068765813 -0.87399256 -0.48589066 0.0014046448
-92.5 31 508 -0.00075686304 -0.87245029 -0.48870242 0.0014066036
-88.625 31 509 -0.009327217 -0.87282705 -0.48794043 0.0011384551
-85 31 509 -0.014636102 -0.87518358 -0.48356947 0.0014352693
-82.375 30 508 -0.024214234 -0.87369967 -0.48586261 0.0013214495
-76.599998 30 507.77499 -0.030827407 -0.87933898 -0.47519752 0.00084182451
-72.25 30 508 -0.0051853545 -0.88587195 -0.46390095 0.00072639162
-69 30.5 507.25 -0.0018955929 -0.88852936 -0.4588159 0.0011188736
-64.599998 30 507.35001 0.0018199629 -0.89110386 -0.45379585 0.0010412959
-58.474998 30 507.20001 -0.0064313044 -0.88893235 -0.45799327 0.0010614491
-54 30 507 -0.0014331576 -0.88648045 -0.46276388 0.00091272715
-50.75 30 507 -0.01122326 -0.88696229 -0.46170539 0.0011766194
-48 30 507.25 -0.011661757 -0.8848514 -0.46572751 0.00089578138
-45 30 507 -0.028198354 -0.88352746 -0.46752971 0.00083774416
-41.599998 30 507.39999 -0.013772501 -0.89015001 -0.45545942 0.0012881957
-36 30 507.5 -0.019745987 -0.90934312 -0.41557807 0.0025270008
-30.25 30 507 -0.05755068 -0.91692024 -0.39489883 0.0029613674
-26.66667 30 507.16669 -0.082080737 -0.91079193 -0.40462425 0.0042087287
17 31 508 0.8166576 -0.014033312 -0.57695186 0.046919771
-144.0909 34.81818 509.36359 -0.48431346 -0.037934683 -0.87407172 0.055794004
-143 34 508 -0.42443201 -0.17320204 -0.88873988 0.060483146
-139.91667 33.583332 507.91666 -0.3432869 -0.40270019 -0.84852028 0.073817462
16 35.25 509.25 0.82796568 0.16004694 -0.5374549 0.0033884493
-141.6667 38.5 509.16669 -0.53342146 0.15365387 -0.83177644 0.047701243
-140.3333 38 507.66669 -0.53440797 0.12769541 -0.83552504 0.038027532
16 38 509.33331 0.82610899 0.11413872 -0.55182993 0.0079703229
-141.1429 41.14286 509.71429 -0.51749879 0.30449584 -0.7996732 0.028921241
-139.14999 40.5 507.89999 -0.53178 0.22683121 -0.81593972 0.03559567
14.5 40.75 507.375 0.81287527 0.071275592 -0.57806015 0.011310303
16 40.85714 509.42859 0.79761285 0.0077618486 -0.60311979 0.014548802
-138.375 44.25 509.875 -0.54285944 0.43038625 -0.7211597 0.0070559555
-137.3333 43 508 -0.53919679 0.37221423 -0.75546235 0.011096835
14.2 44 507.60001 0.78331268 -0.046643123 -0.61987561 0.019312507
15.6 44.200001 509.39999 0.76248717 -0.11509277 -0.6366843 0.020987295
-135.625 46.125 509.125 -0.53201616 0.47923318 -0.69806474 0.0025899895
-133.35001 46.849998 507.5 -0.53532082 0.48315892 -0.6928125 0.0024746694
14 47 508 0.71829104 -0.24814846 -0.6499849 0.024125082
15.63636 46.81818 509.63641 0.71067429 -0.23228268 -0.6640684 0.021549907
-132.60001 50.200001 509.39999 -0.53386205 0.56111324 -0.63256878 0.0040576821
-131.3333 49.333328 508 -0.53626281 0.53955477 -0.64907843 0.0027307747
15.53846 49.666664 508 0.69451731 -0.30081618 -0.65357125 0.02046055
18.777777 50.222225 508.16666 0.72527629 -0.28849381 -0.62509656 0.020351572
-129.28571 53.285709 509.85709 -0.52897954 0.62144166 -0.57791948 0.005173292
-128.3333 52 507.66669 -0.52938354 0.58150339 -0.61774337 0.0052697756
21.6 53 509.79999 0.81418473 -0.20108798 -0.5446713 0.033626348
-126.625 55 509.375 -0.50288373 0.66822809 -0.54825109 0.0061164438
-125.3333 55.333328 507.66669 -0.49843222 0.65234673 -0.57097214 0.0065301466
21.200001 55.599998 509.60001 0.86082548 -0.14960423 -0.48641342 0.036782116
-124 57 509 -0.49666661 0.69820714 -0.51558608 0.0067507247
-120 59.333328 509.66669 -0.48671889 0.74409753 -0.45762828 0.0043639736
-117.5 60 507 -0.48960999 0.73242879 -0.47310698 0.0046384535
-116 61 507 -0.48369926 0.74269837 -0.4630703 0.0048165289
-113.75 62 507.25 -0.48948306 0.76110882 -0.42558175 0.0040573771
20.25 61.75 508.5 0.92329323 0.043132 -0.38166642 0.0085192258
-111 64 507 -0.47574532 0.78412491 -0.39851543 0.0028842848
-108 65.5 507 -0.45824337 0.80771273 -0.3709625 0.0015287109
19 64.5 507.5 0.92160445 0.050724883 -0.38480154 0.008244073
-106 66 507 -0.45969549 0.80920094 -0.36588779 0.0016251252
-104.6667 68 509.66669 -0.44755021 0.82889748 -0.33560064 0.00067579851
19 67.125 509.125 0.90567166 -0.031027719 -0.42284286 0.017892852
-102 69 508 -0.4473632 0.82970464 -0.33385098 0.00089324743
-98 70.75 507.5 -0.42612389 0.84597129 -0.32054803 0.00095043512
19 70.5 509 0.8631711 -0.18928102 -0.46809003 0.02163708
-96 72 509 -0.41401312 0.85260987 -0.31882522 0.00083977869
-93 73.5 509 -0.40693498 0.85724646 -0.31548765 0.00081312709
20 74.5 508 0.82722157 -0.28951707 -0.48154369 0.01349705
21.07692 74.153847 509.7692 0.80713707 -0.29916805 -0.50894809 0.012347057
-91 75 509 -0.40372312 0.85795742 -0.31767386 0.00067563308
-88 75 507 -0.41106206 0.85843712 -0.30677965 0.0006824127
-86 76 508 -0.42609468 0.84688735 -0.31815913 0.0010903763
-84 77.5 509 -0.45361793 0.79870963 -0.39534003 0.020296846
22.625 76.75 508.25 0.8195833 -0.29150704 -0.49326137 0.012918307
24.285721 76.85714 509.71429 0.82634383 -0.27736098 -0.49012941 0.015001549
-80 80 508 -0.49198875 0.72664744 -0.4795109 0.065839604
-78 80 507 -0.48198521 0.74018776 -0.46884152 0.060515836
23.66667 80 507 0.85838056 -0.24516909 -0.45063829 0.018610787
-76 81 507 -0.54341877 0.67188811 -0.50325185 0.080562368
-72.5 83.5 507 -0.51640558 0.59770858 -0.61324519 0.11221863
24 83 508 0.88974035 -0.1389509 -0.43480426 0.018997472
-70.166672 85.833328 508.83334 -0.56478655 0.40571222 -0.71861935 0.1181306
-69 85 507 -0.47842214 0.5128777 -0.71278936 0.10269034
24.33333 86 509.66669 0.91166979 -0.044963565 -0.40845624 0.0073263948
-90.125 89.625 509.75 -0.14369361 -0.39923608 -0.90551788 0.080352858
-66.5625 88.0625 509.125 -0.481444 0.1501791 -0.86351484 0.10940657
-65.333344 89.333344 508 -0.4188382 0.13227063 -0.89837581 0.097088508
-63 89.333344 507.5 -0.42242572 0.21876183 -0.87960207 0.078114867
23 89 507.33331 0.9016692 -0.076148197 -0.42566893 0.016932307
-90.333344 91.888893 509.11111 -0.16350749 -0.28371119 -0.94486678 0.069639862
-89.333344 91.666656 508 -0.17712285 -0.29435998 -0.9391377 0.068922877
-85.930138 91.710442 508.33334 -0.10764206 -0.43482038 -0.89406067 0.064614654
-82.708328 91 509 -0.12846339 -0.40137181 -0.90686142 0.075510323
-80.392853 91.071426 507.82147 -0.21081063 -0.36423722 -0.90713292 0.083903283
-77.83654 91.57692 508.11542 -0.26894698 -0.2437603 -0.93179846 0.089382164
-74 91 509 -0.28028899 -0.16859956 -0.94499332 0.084615804
-71.5 90 508 -0.28287223 -0.036285542 -0.958471 0.10111532
-67.875 91 509 -0.35223985 -0.053885244 -0.93435729 0.080200665
-64 90 509 -0.37052041 0.11257201 -0.92197734 0.08049535
23 91.75 508 0.86200941 -0.15589005 -0.4823257 0.036372885
63.125 92.75 509.75 -0.075454965 -0.86578804 -0.49468943 0.0015286235
66.099998 92.400002 509.89999 -0.075057879 -0.87131393 -0.48495197 0.00082930975
72.222221 91.888893 509.88889 -0.076047309 -0.84935927 -0.52230793 0.0029442019
75.400002 92.800003 507.79999 -0.046120647 -0.81821287 -0.57306248 0.0049455827
80.900002 92.599998 507.20001 0.01453242 -0.79787838 -0.60264319 0.0060101398
81 91 509.42859 -0.0019170331 -0.81614637 -0.577842 0.0066701388
85.398819 92.690475 507.45236 0.047095787 -0.77371728 -0.63177812 0.0066844309
87 91.111107 509.44449 0.040462535 -0.78014243 -0.62429214 0.008107869
