ply
format ascii 1.0
comment PCL generated
element vertex 699
property float x
property float y
property float z
property float nx
property float ny
property float nz
property float curvature
element camera 0
property float view_px
property float view_py
property float view_pz
property float x_axisx
property float x_axisy
property float x_axisz
property float y_axisx
property float y_axisy
property float y_axisz
property float z_axisx
property float z_axisy
property float z_axisz
property float focal
property float scalex
property float scaley
property float centerx
property float centery
property int viewportx
property int viewporty
property float k1
property float k2
end_header
116 31 578 0.92376471 0.067192271 -0.37701997 0.011689069
117.5 33.5 578 0.9215036 0.072829098 -0.38148007 0.011386344
117.5 37.5 577.38892 0.89495069 0.15222013 -0.41939518 0.011540935
114.83335 43 576.83337 0.83071613 0.24790275 -0.49845254 0.014023955
-106 45.5 578.5 -0.82333595 -0.12962374 -0.55255365 0.0063452804
114.3333 45 577.66669 0.80344278 0.30289078 -0.51257867 0.010480731
-106.2 48.599998 576.90002 -0.8338713 -0.10451514 -0.54197347 0.0066809477
112.71429 49.42857 577.7381 0.75974804 0.15920986 -0.63042456 0.024809018
-106.5714 51.14286 578 -0.82434052 -0.10716119 -0.55585903 0.0071491865
111.5 52.42857 576.92859 0.7292313 0.02080504 -0.6839509 0.030037679
-106.75 54 577.08337 -0.82426107 -0.069426268 -0.56193751 0.0077573946
111.8 55.900002 576.79999 0.71137506 -0.13282214 -0.69014764 0.024248267
-106.5 57.666668 576.5556 -0.7771312 -0.093066156 -0.6224193 0.013368596
113 59.5 577 0.69618815 -0.23678103 -0.6776849 0.016594315
-107.125 60.125 578 -0.72900671 -0.21672572 -0.64929128 0.020107346
114 60.5 578.5 0.71528763 -0.23746039 -0.65724891 0.013456953
-197 65.800003 577.40002 -0.16485654 -0.90022767 -0.40300435 0.0070183123
-194.1429 65.428574 578.14288 -0.11548568 -0.89716798 -0.4263247 0.0049115676
-191 65.5 577.66669 -0.069621161 -0.89251816 -0.44560549 0.0034148749
-188 65.5 577.66669 -0.008069464 -0.88463324 -0.46621767 0.0018532864
-185.1667 65.5 578 0.011997218 -0.88091427 -0.47312379 0.0017287729
-181.8571 65.428574 577.57141 0.022234038 -0.87663996 -0.48063278 0.0010531076
-178.8571 65.571426 577.85712 0.022914331 -0.87334114 -0.4865697 0.0013055237
-175.875 65.875 578.125 0.014923431 -0.87042844 -0.4920688 0.0015634511
-173.25 65.625 578.375 0.011617719 -0.86750883 -0.49728617 0.0011900411
-170 65.5 578.16669 0.0095416792 -0.86517316 -0.50138253 0.00076523528
-167 65.571426 577.71429 -0.0029326668 -0.8611505 -0.50834173 0.00099686836
-164 65.5 577.5 0.0006922523 -0.85858858 -0.51266479 0.00095252501
-161.10001 65.900002 578.09998 0.0099081835 -0.85750389 -0.514382 0.001091244
-158.25 65.75 578.25 0.011902275 -0.85689044 -0.51536107 0.0010376603
-155 65.5 578.5 0.010562612 -0.85896379 -0.51192737 0.00019155302
-151.8571 65.428574 578.57141 0.011174904 -0.86094916 -0.50856829 0.00042148717
-149.1429 65.714287 578.28571 0.023821203 -0.85920036 -0.51108438 0.0010082872
-146 65.571426 578.14288 0.047405258 -0.85337216 -0.51914233 0.0013635997
-139.89999 65.900002 578.09998 0.10058113 -0.82908773 -0.54999721 0.003850858
-125 65.800003 577.79999 -0.0004015569 -0.85405314 -0.52018565 0.012401294
-122.3333 65.166656 578.5 0.0010551616 -0.85019112 -0.5264731 0.014918068
-109.8 64.5 578.09998 -0.51672524 -0.55944192 -0.64808929 0.039613415
-107.6667 63 577.33331 -0.64708275 -0.33729133 -0.68375325 0.034051158
114.95237 63.714283 577.11908 0.72548026 -0.27151167 -0.63242376 0.0057013463
-203.3333 68.333344 577.66669 -0.25447822 -0.87030292 -0.42167962 0.043778379
-200.5 66.5 578 -0.20115763 -0.90050709 -0.38551617 0.0045740372
-172.5 67 576 0.014815032 -0.86670399 -0.49860284 0.00093217415
-163.75 67 576 0.004080622 -0.85681665 -0.51560503 0.00064371421
-157.5 67 576 0.0099552125 -0.8594628 -0.51110142 0.00096058217
-155 67 576 0.003842202 -0.85972911 -0.51073581 0.0011466363
-152 67 576 0.018675545 -0.8570565 -0.514884 0.00092010171
-148.5 67 576 0.037105333 -0.85738385 -0.51333821 0.00097988383
-146 67 576 0.049883574 -0.85301936 -0.51948971 0.0011792696
-143.10001 66.099998 577.79999 0.079195403 -0.84401935 -0.5304333 0.0028785805
-136.5 67.214287 577.57141 0.064842999 -0.83290559 -0.54960322 0.0081452578
-134.2 67.685715 578.08569 0.038990956 -0.83335555 -0.55136025 0.0090347175
-131.25 68.25 577.75 -0.029218171 -0.84294504 -0.5372057 0.0099995425
-127.91665 67.333328 577.75 -0.016240155 -0.85830343 -0.51288539 0.010513964
-125 67 576 -0.00016971673 -0.85647023 -0.51619643 0.012444464
-119.2963 67.333336 577.14813 -0.0028823288 -0.83697581 -0.54723245 0.016102863
-112.83335 67.666672 578 -0.27694526 -0.74437678 -0.60762209 0.038892906
117.3333 66.333344 578.5 0.73194242 -0.22512503 -0.64310116 0.0079309754
-206 70 577 -0.4929195 -0.77673352 -0.3920655 0.15969065
-115.95 69.5 577 -0.05950525 -0.83794457 -0.54250169 0.021023568
117.8333 69 578 0.69786853 -0.21708532 -0.68253452 0.028936727
118.2857 73.5 578.21429 0.64389533 0.017963352 -0.76490271 0.055974867
132 74 578 0.43255347 -0.066308461 -0.8991667 0.099378124
118 77.85714 578 0.67889404 0.13014852 -0.7226094 0.056870889
129.5 75.25 577.25 0.47213665 -0.0046326937 -0.88151324 0.097585574
117.3333 80.333344 578.66669 0.70241243 0.16765705 -0.6917426 0.052033447
-197 82 577 -0.38130563 0.85060489 -0.36204588 0.083197221
-195 82 578 -0.35214686 0.82261378 -0.44642922 0.1068081
-187.5 81 576.5 -0.070066325 0.88489264 -0.46049511 0.075892478
-184 82 578 -0.10010016 0.94593078 -0.30853671 0.0047027064
-179 83 577.5 -0.17149159 0.9342218 -0.31276241 0.00074045092
115.5 82.5 577 0.75477004 0.15119408 -0.63832784 0.04033583
-173.5 84 577.5 -0.16538939 0.93507606 -0.31349504 0.00057619537
-169 85 578 -0.17038736 0.93473977 -0.3118166 0.00056674157
-162 85 577 -0.18284081 0.93299466 -0.30998409 0.00060714857
114.5 84.5 578 0.75269312 0.217758 -0.62131673 0.041587055
-158 87 578.5 -0.19891936 0.929097 -0.31178477 0.00058116845
-153 87 577 -0.20986307 0.92651635 -0.31228974 0.00044879955
-149 88 577 -0.22122608 0.92378557 -0.31253672 0.00040908446
-146.5 89.5 578.5 -0.22422403 0.92296529 -0.31282365 0.00047167559
-142 90 578 -0.23567155 0.92065763 -0.31120467 0.00053264789
-137.5 91 577 -0.23553456 0.91963291 -0.3143228 0.00059386069
-133.5 92 577.5 -0.24009193 0.91550756 -0.32280311 0.0006086643
-130.5 93 578 -0.27195194 0.88120759 -0.38667214 0.039233916
-127 94 578 -0.29049569 0.81752729 -0.49725389 0.066586785
-126 94 577 -0.3059285 0.81489229 -0.49229896 0.066837199
-122 95.5 578.5 -0.31121659 0.7736426 -0.55192518 0.080824092
-118.25 96.25 577 -0.29313746 0.78575963 -0.54465801 0.065610893
-116 97.5 577.5 -0.262104 0.78332746 -0.5636484 0.066100754
-113.5 98 576 -0.24744496 0.79229677 -0.55770671 0.044128269
-112.5 99 578.5 -0.28885254 0.71303678 -0.63886046 0.059454717
-110.3333 99.666656 578.33331 -0.2544674 0.71485376 -0.6513297 0.051725861
-108 100 578 -0.24922819 0.74249166 -0.62176478 0.034775317
-104.125 101.375 577.125 -0.19755645 0.76460427 -0.61347514 0.031428449
-101.5 101 576 -0.21402963 0.8265214 -0.52062821 0.016339926
-203 103.25 577 0.70976317 -0.5238353 -0.47099137 0.074800298
-100.5 103 578.5 -0.16538836 0.74002755 -0.65192473 0.034003325
-98 103 577.33331 -0.16194341 0.79732621 -0.58141667 0.021713078
-95 104 578.5 -0.12175331 0.76930034 -0.62717861 0.024725862
-92 104.3333 577.66669 -0.13934976 0.81935138 -0.55609787 0.017693516
-88 104 576 -0.17457922 0.88295668 -0.43578601 0.0061849896
-202.7262 106.45235 577.84521 0.76150912 -0.44046926 -0.47548985 0.098122105
-181.89999 107.9 578.09998 -0.2733019 -0.71243411 -0.64633095 0.056131542
-179 107.6667 578 -0.20604496 -0.77270108 -0.60039866 0.049250755
-151.8 107.6 578.20001 0.025728477 -0.82903451 -0.55860519 0.042991322
-149 107.5 578 -0.010454969 -0.79714209 -0.60370129 0.047576189
-146.3333 107.5 578 -0.020638313 -0.7878952 -0.61546338 0.049476404
-143.1429 107.4286 577.57141 0.013692096 -0.77106065 -0.63661444 0.06040157
-140 107 577.66669 0.073491596 -0.74885744 -0.65864378 0.068937436
-137 107 577 0.094557069 -0.66835999 -0.73780352 0.082256645
-133.875 106.5 577.75 0.05649196 -0.6668967 -0.74300569 0.079319343
-131.125 106.5 577.5 0.0898531 -0.65375459 -0.75135309 0.067356311
-127.92855 106.78571 577.5 0.12962806 -0.5254401 -0.84089792 0.08075951
-124.8 106 578.40002 0.10058884 -0.37922511 -0.91982073 0.098881222
-122.25 106 578.25 0.09647958 -0.24475074 -0.96477395 0.10545561
-119.85 106.95 578.15002 0.077001028 -0.12711126 -0.98889512 0.099685527
-89.5 105 577.5 -0.12243211 0.83523905 -0.53608412 0.016351229
-86 105.6667 578 -0.15251598 0.84420455 -0.51386535 0.011591558
-81 107 578 -0.18645994 0.88700593 -0.42243707 0.005618134
-77 107.6667 578 -0.19206655 0.8963691 -0.39954078 0.0044044526
-199.91666 109.66665 577.5 0.72410709 -0.19674963 -0.66102844 0.16892672
-197.53336 109.9 577.96667 0.66627622 -0.11804317 -0.73630285 0.17434712
-184.89999 110.8 578.40002 -0.38135397 -0.51524705 -0.76752174 0.09829089
-181 109 576 -0.33775365 -0.65276963 -0.678096 0.065583505
-176.1429 108 577.57141 -0.17437661 -0.81335807 -0.55501467 0.052712455
-173.07144 108.71429 576.92859 -0.090109289 -0.84799862 -0.52228218 0.031282693
-170 108.71429 577.07141 -0.016241107 -0.8950392 -0.4456917 0.0065276492
-166.92856 108.78571 577.14282 0.023081835 -0.89321864 -0.44902974 0.0077447728
-163.6667 108.5 578 0.018955322 -0.8966465 -0.44234115 0.006760899
-161 108.5 578 0.027953353 -0.87056834 -0.49125281 0.019742288
-158 108.5 577.5 0.0028039687 -0.84850556 -0.52917904 0.027055938
-155.2 108.2 577.79999 0.015587782 -0.83864605 -0.54445362 0.035757232
-128.39999 109.6 576 0.19850002 -0.2235553 -0.95426446 0.071415804
-125 108 577 0.17673226 -0.28720114 -0.94142503 0.072370745
-122 108 577 0.17667933 -0.19419791 -0.96492052 0.062454592
-120 110.8 578.59998 0.2423126 -0.11368972 -0.96351403 0.049555302
-73 109 578 -0.20040128 0.89553505 -0.39731139 0.002981551
-69 109 578 -0.24476296 0.89538258 -0.37199605 0.002844485
-65 110 576 -0.30223384 0.89233524 -0.33524981 0.0022577508
-197.5 113.3333 578 0.65734315 0.30352023 -0.68976474 0.13853772
-194 111 578.83331 0.33819988 0.30806628 -0.88922209 0.16877657
-182.1111 111.77777 577.11108 -0.46978369 -0.48159742 -0.73984271 0.093957126
-131 113.7 577 0.21952733 0.073262379 -0.97285169 0.056489211
-127.94051 112.5298 577.33337 0.19673224 -0.018683136 -0.98027921 0.067627832
-125 111 577.11108 0.21822815 -0.13328722 -0.96675277 0.066723049
-122 111.1 578.20001 0.25045103 -0.047567647 -0.96696001 0.059675682
-64 111 578 -0.30661085 0.88547045 -0.34918752 0.0031198554
-59 113.5 577.5 -0.34002855 0.87767732 -0.33773234 0.0024940576
-199.8333 114 577.5 0.85367543 0.17816247 -0.48938376 0.11207362
-133.75 115.5 576.5 0.23611972 0.1443359 -0.96094459 0.048766084
-130.89999 116.4 577.79999 0.24339017 0.2317698 -0.9418301 0.035643708
-128 116.7778 578.66669 0.21601078 0.30738699 -0.92674297 0.016646771
-125 114 578.22223 0.23879418 0.092231452 -0.96668017 0.049115788
-202.39999 117.2 577.59998 0.95227063 0.17231786 -0.25196663 0.086288065
-181 118 578 -0.68989867 0.032278638 -0.7231859 0.058740325
-180 117 576 -0.69735503 -0.003685886 -0.71671635 0.059821811
-139.83334 118.66665 576.5 0.24401489 0.35480687 -0.90253466 0.011881303
-136.75 117.75 577 0.2451736 0.31520244 -0.91680831 0.017399933
-133.92856 118.33035 578.08929 0.22905527 0.33271962 -0.91478491 0.01380714
-202.41666 121.33335 578.16663 0.97500741 0.21234493 -0.065345578 0.052123278
-180 121 578 -0.72805333 0.21628915 -0.65050548 0.025088955
-149 122.5 576 0.21692123 0.43161783 -0.87558621 0
-147 122.5 576 0.22220819 0.43493241 -0.87261516 0.0012658389
-139.8889 121.5 577.88892 0.23364653 0.4354828 -0.86934692 0.0013538122
-137 120 578.22223 0.24113365 0.39657533 -0.88576669 0.0041226507
-178.5 124 577.5 -0.65709621 0.31791383 -0.68348771 0.031832937
-155 125.5 576 0.24046487 0.44028401 -0.86505878 0.00171858
-153 125.5 576 0.22735405 0.44186455 -0.86779368 0.0020193101
-149.25 124 577 0.21581991 0.43933046 -0.87201524 0.0012815364
-145.8333 123.6667 577 0.22588378 0.440319 -0.86896241 0.0010622013
-143.04999 124.2 578.15002 0.22950457 0.44087654 -0.86773008 0.0011826329
-158.25 128.25 576 0.25566068 0.44468915 -0.85842252 0.0024202766
-155 127 577 0.24135745 0.44151026 -0.86418474 0.0014501375
-152.04166 127.56945 577.90271 0.23082328 0.4521375 -0.86156392 0.0018343311
-149.3 126 577.59998 0.21834284 0.44963977 -0.86611235 0.0013083288
-145.6667 126.1111 578.44452 0.2225499 0.4446153 -0.86763412 0.00040378395
-202 130.33334 578.66669 0.96200472 0.26892668 -0.04717306 0.045907155
-176.5 129 577 -0.33181792 0.40762264 -0.85072941 0.056906402
-164 131 576 0.16341825 0.48635641 -0.85834253 0.010355239
-160 130 577 0.24485192 0.45679989 -0.8552084 0.0022404639
-158.02855 130.34285 577.91431 0.24475656 0.45280653 -0.85735673 0.0013461888
-155.38336 130.05 578.43335 0.23985004 0.45311955 -0.85857707 0.0012701162
-201 133.75 577 0.96203113 0.26881269 -0.04728638 0.045898639
-175.3333 132 577.66669 -0.19441061 0.45370236 -0.86968881 0.053963467
-172.5 134 576 -0.077314615 0.52469844 -0.84776998 0.046018161
-170.57144 134.28571 576.5 -0.050280333 0.49945265 -0.86488086 0.046397101
-167 133.89999 577.40002 0.059097573 0.52264106 -0.85050201 0.031454682
-163.92856 133.78571 577.81433 0.12653734 0.51873845 -0.8455168 0.020176804
-160.8 132 577.70001 0.23419984 0.46702561 -0.85266489 0.0019193965
-173 135 577.33331 -0.064862162 0.50687116 -0.85957813 0.046438623
-38 -100.16666 580.25 -0.093165614 -0.70517123 -0.70288962 0.020207873
-34.972225 -100.02778 580.0556 -0.072099932 -0.69428915 -0.71607554 0.019346505
-26.125 -101.5 581.5 0.038859747 -0.64619952 -0.76217854 0.0090277828
-23 -101 581.66669 0.045903813 -0.62399691 -0.7800774 0.0086315833
-43.833336 -97.333328 580.66663 -0.27059951 -0.74844104 -0.60548478 0.015050347
-40.5 -98.416672 580 -0.17388795 -0.7441445 -0.64498991 0.020372115
-31.799999 -97.699997 580.59998 0.046293154 -0.60873425 -0.79202247 0.017505486
-29.166664 -97.666672 580.52783 0.05829373 -0.55777711 -0.82794112 0.016372515
-26 -99 580 0.036794875 -0.53908271 -0.84144866 0.0083735632
-22.75 -98 580.27771 0.020317569 -0.52041721 -0.85367042 0.0080062281
-20 -97.75 580.88892 0.026418086 -0.57021368 -0.82107157 0.0095013082
-17 -97.5 581 0.009765747 -0.60365242 -0.79718781 0.0082592824
-13.8125 -97.8125 580.6875 -0.015233687 -0.61751902 -0.78640842 0.008465929
-10.875 -97.833328 580.66663 -0.012553391 -0.62328565 -0.78189349 0.0072698118
-8.25 -98 580.33337 -0.00272455 -0.61915088 -0.78526723 0.0073269391
-5.25 -98.5 580 0.025171893 -0.61961687 -0.7845006 0.0084575387
-2 -97.5 580 0.080196925 -0.59100389 -0.80267233 0.012692197
-50 -93.5 581 -0.50720304 -0.66797721 -0.5445655 0.012127012
-46.799999 -95.800003 581.40002 -0.34281468 -0.72670943 -0.59529108 0.013405668
-32.5 -95.5 579 0.096997119 -0.54409617 -0.83339721 0.018347576
-28.33333 -95.333344 579 0.085628748 -0.47528517 -0.875655 0.012439915
-20 -95 579 -0.041910458 -0.47313476 -0.8799926 0.0086250724
-17 -95 579 -0.047769248 -0.53315836 -0.84466577 0.0086106341
-14.2 -95.400002 579 -0.043498497 -0.56965631 -0.8207311 0.0086606583
0.94999999 -94.900002 580.5 0.25145659 -0.56892014 -0.78300673 0.023865813
-52.75 -91.25 580.75 -0.65936828 -0.58620805 -0.47073743 0.021912722
-55 -90 581 -0.72924161 -0.52683538 -0.43663618 0.026054753
-56 -87 580.25 -0.82201976 -0.39409396 -0.41106385 0.028780745
-57 -84 580 -0.87137258 -0.21623373 -0.44040081 0.028187007
-58 -79.75 581.25 -0.91761893 -0.017189691 -0.39708945 0.018106466
-57 -81 580 -0.9101401 -0.064327806 -0.4092761 0.019226724
9 -80 579.5 0.84494758 -0.11613221 -0.52208889 0.02210452
-56 -78 579 -0.90571105 0.038776521 -0.42211825 0.012100936
9.375 -76.375 580.625 0.87445408 0.032071389 -0.48404694 0.013245028
-57 -74 581 -0.91804504 0.18617408 -0.35004658 0.0082655279
9 -74.5 579 0.86771023 0.049246743 -0.49462485 0.012480433
-56 -72 580 -0.90882069 0.24084762 -0.34064275 0.0061767097
9.5 -70.75 580 0.88776076 0.15086861 -0.43487868 0.009575963
-55 -68.5 581 -0.8769629 0.33896178 -0.34064782 0.0057457015
9.75 -68.75 581.5 0.89329022 0.18116742 -0.4113526 0.010204789
-54 -66 581 -0.86313611 0.38067278 -0.33178943 0.0055640191
8 -65 580 0.84012341 0.2765739 -0.46658269 0.0096513359
9 -66 581 0.87116688 0.24256089 -0.42688698 0.0099803042
-52.5 -63 580.75 -0.81494057 0.44014165 -0.37702417 0.0053409189
6.6999998 -61.900002 580.09998 0.79357308 0.38011643 -0.475135 0.0077230604
-49.666664 -58.666664 580.91663 -0.7484979 0.53524089 -0.3914946 0.0066248411
4.125 -57.125 580.875 0.72172791 0.5004158 -0.47821847 0.0069828699
6.333333 -59.833328 580.83331 0.77372187 0.42444941 -0.47031596 0.0064846631
-47.041664 -55.583336 581.04163 -0.66882986 0.60731906 -0.42875424 0.0066779093
2 -56 580 0.67277235 0.53979802 -0.50595987 0.0065071401
-44.166672 -52.25 580.83331 -0.56816304 0.692936 -0.44388115 0.0063749519
0.85000002 -52.900002 581.04999 0.63605261 0.59254074 -0.49429995 0.0046948409
-40.875 -49.625 581 -0.45284966 0.74628985 -0.48783064 0.0053097713
-37.5 -48.583336 580 -0.36688671 0.77620387 -0.51273942 0.0031093187
-5 -49.5 579.5 0.51060325 0.66297174 -0.5474968 0.0025856446
-1.8 -50.799999 580.59998 0.57069463 0.63685983 -0.51837921 0.003105341
-35 -47.5 580.5 -0.32951447 0.79071283 -0.5159393 0.0017606828
-32.025002 -46.424999 580.92499 -0.30485833 0.80469787 -0.50943369 0.0019249254
-28 -46 579 -0.26542747 0.80541706 -0.52995437 0.002219209
-7.8214288 -46.214287 580.75 0.42378557 0.72971988 -0.53657681 0.004262012
-5 -48 581 0.50491726 0.68381125 -0.52674532 0.0028197642
-29 -45 580.85712 -0.27347913 0.81495678 -0.51093507 0.001721316
-26.25 -44.25 581 -0.22949538 0.82958663 -0.5090363 0.0023359535
-23 -43 581.16669 -0.15454294 0.84577584 -0.51066595 0.0060742819
-20 -42.75 580.25 -0.039466146 0.84884608 -0.52716488 0.0090701357
-17 -42.75 580.25 0.037890568 0.84756851 -0.52933162 0.010425482
-14.14286 -42.85714 580.85712 0.17771591 0.81710887 -0.54840702 0.011827158
-10.964285 -43.785713 580.98218 0.29377607 0.78315878 -0.54804915 0.0088056922
69.333344 -30 580.66669 -0.43795186 -0.71376801 -0.54656506 0.016634079
67 -24.16667 580.83331 -0.36143968 -0.75386781 -0.54867536 0.017162802
69.76667 -25.633335 580.75 -0.42989197 -0.70812398 -0.56013685 0.017438358
72 -26.33333 580.66669 -0.43815005 -0.69383478 -0.57150489 0.015585817
58.125 -21.5 581.25 -0.17408562 -0.84941393 -0.49818686 0.0012208386
61 -22 581 -0.26217845 -0.81433028 -0.5178116 0.011410422
63.875 -22.625 580.875 -0.33143267 -0.77444547 -0.53887516 0.018230978
67.5 -23 579 -0.377992 -0.73484051 -0.56314421 0.017130554
42.799999 -18.6 581 -0.16648452 -0.85344923 -0.49386972 0.00040665362
46 -19 580.66669 -0.17193456 -0.85540432 -0.48859176 0.00074947154
49 -20 581 -0.16192389 -0.85611135 -0.4907687 0.00055173371
52.200001 -20.4 580.79999 -0.15542732 -0.85702825 -0.49126858 0.0005689697
55.25 -20.5 580 -0.15704735 -0.8545118 -0.49512193 0.00071651244
58 -20 579 -0.17270128 -0.84597868 -0.50447428 0.0015270717
24.6 -15.8 581 -0.15831855 -0.8391031 -0.52042407 0.00073731848
28 -16 581 -0.14618503 -0.83926028 -0.52370995 0.00048457106
31 -16.5 580.83337 -0.13432351 -0.84505391 -0.51753366 0.00069132098
33.599998 -16.700001 580.59998 -0.13346674 -0.84633154 -0.51566422 0.00066009583
37.400002 -17.299999 580.09998 -0.14623927 -0.84799767 -0.50942516 0.00080253242
40 -17.5 580.125 -0.15250114 -0.84980756 -0.50454986 0.00086871546
10.2 -12.4 581 -0.21482711 -0.84964424 -0.4816159 0.0005846495
13 -13 580.66669 -0.20864101 -0.84582067 -0.49097484 0.00047809779
16 -13 580 -0.19255665 -0.84395224 -0.50066602 0.00048225722
19.200001 -14.4 580.79999 -0.17473963 -0.84018952 -0.5133689 0.0002222959
22.32143 -14.42857 579.85718 -0.16112314 -0.83866948 -0.52026224 0.00027648432
-112.75 -9.25 581.25 -0.12568857 -0.84567946 -0.51867968 0.0088741025
-110.1667 -9.5 581 -0.1215624 -0.84865689 -0.51478553 0.0081269527
-103.8333 -9.5 581 -0.029113123 -0.86571991 -0.49968147 0.0013759395
-101 -9.5 581 -0.033028983 -0.86277306 -0.50451136 0.00068709842
-98 -9.5 581 -0.032465223 -0.86072415 -0.50803542 0.00062929332
-95 -9.5 580.83331 -0.027894046 -0.85964894 -0.51012313 0.00077098777
-92.166656 -9.666667 580.66669 -0.026423823 -0.85605252 -0.51621306 0.00066129013
-89 -10 581 -0.029911958 -0.8507731 -0.52468115 0.00051480322
-86 -10 581 -0.029540235 -0.85140568 -0.52367526 0.00054102589
-83 -10 580.33331 -0.025998134 -0.85013455 -0.52592331 0.00082356721
-80 -10 580 -0.011953568 -0.84882903 -0.52853227 0.0010084299
-77 -10 580 0.00035605827 -0.85158944 -0.5242092 0.00087597506
-74.25 -10 580.25 0.01277785 -0.85442388 -0.51941949 0.0013351656
-70.75 -9.75 580.75 0.034729775 -0.86082548 -0.50771374 0.00064534345
-68 -9.5 580.5 0.039791692 -0.86668074 -0.49727353 0.00072505209
-65 -9.5 580.5 0.057036355 -0.86881864 -0.49183428 0.00082503381
-62.14286 -9.5714283 581 0.069253221 -0.87089431 -0.48656669 0.0013719804
-59.333328 -9.333333 581.16669 0.080524489 -0.872455 -0.48201466 0.0011005893
-4.8000002 -9.3999996 581 -0.096298233 -0.88893986 -0.44778621 0.00092013506
-1.8 -9.3999996 580.79999 -0.12435277 -0.88341743 -0.45178548 0.00063574308
1 -10 581 -0.15207648 -0.87501156 -0.45959494 0.0012276331
4 -10 580 -0.17271426 -0.87211096 -0.45781237 0.0011334891
7.166667 -11.33333 580.83331 -0.19794518 -0.86229694 -0.46611345 0.0009976502
-118.25 -7.625 580.75 -0.1829762 -0.81229317 -0.55380452 0.012540345
-116.2 -8.6000004 581 -0.14194252 -0.84041464 -0.52302527 0.007489759
-113 -8 579 -0.13770227 -0.84389317 -0.51853871 0.0090841195
-107 -9 580.75 -0.051148344 -0.86218685 -0.50400168 0.0023320247
-56 -9 580.83331 0.084109686 -0.87152386 -0.48308554 0.00074230402
-53 -9 581.16669 0.078549579 -0.87226892 -0.48267698 0.00037440058
-50.099998 -8.5 580.20001 0.074034363 -0.87044871 -0.48666 0.00079244841
-47 -8.5 580 0.061886434 -0.86974216 -0.48961067 0.0010120994
-44.5 -8.2857141 579.92859 0.05334593 -0.86520118 -0.49857923 0.00081858359
-40.875 -7.625 580.625 0.036024038 -0.86537683 -0.49982509 0.00091464556
-38.599998 -7.6999998 580.59998 0.030113952 -0.86619657 -0.49879521 0.00077959878
-34.875 -7.625 580.625 0.012941935 -0.87173444 -0.48980761 0.00024153253
-32.25 -7.5 580.5 0.0042323372 -0.87316597 -0.48740458 0.00047965848
-28.75 -8 581 -0.011040565 -0.87849551 -0.47762302 0.00084519695
-26 -8 581 -0.028391071 -0.88216376 -0.47008607 0.00087295368
-23 -8 581 -0.045898672 -0.8855868 -0.46220055 0.00040518964
-19.799999 -8.3999996 581 -0.064777754 -0.88841689 -0.45444384 0.00038613612
-16.875 -8.375 580 -0.070389181 -0.89284188 -0.44483563 0.00063102529
-14 -8.5 580 -0.072358087 -0.89364213 -0.44290864 0.00050494756
-10.791665 -8.5 580.16663 -0.074829042 -0.89433432 -0.4410972 0.00020294084
-8.1999998 -9 580.59998 -0.077588461 -0.89251202 -0.4442997 0.00065004366
-118 -4 579 -0.19965808 -0.81430155 -0.54502255 0.01257732
116 30 580 0.92450136 0.049279265 -0.37797976 0.01062292
118 32.5 581 0.92054516 0.040475413 -0.38853371 0.011255321
118 40.583336 581.25 0.89033091 0.14111438 -0.43289432 0.0090462286
-107 43.708336 581.20837 -0.80749577 -0.17261031 -0.56405342 0.0052356282
116 43 580 0.85967827 0.19946581 -0.47028351 0.0095772725
-107 47 580 -0.80672014 -0.1434819 -0.57324994 0.0059667593
114.75 46.25 579.75 0.80752534 0.24086325 -0.53841227 0.013974909
115.5 48 580.75 0.80836368 0.13005917 -0.5741365 0.016374357
-108 52 580.5 -0.79117006 -0.14060819 -0.59521359 0.0072252513
115 51 581 0.79832906 0.055024065 -0.59970248 0.018523686
-109.3333 54.166672 581.16669 -0.76047266 -0.15505788 -0.63058573 0.0085294368
114.6 54 581 0.76087862 -0.080770552 -0.6438477 0.018161941
-109.5714 57 581.28571 -0.70148432 -0.2319262 -0.67389172 0.020407328
115 58.375 580.70837 0.74073708 -0.2244556 -0.63318896 0.012174072
-109.4 60 581.79999 -0.65264487 -0.30356914 -0.6941905 0.020898843
116 62.5 580 0.72207969 -0.28344771 -0.63107711 0.0053020776
117.25 60.25 581.5 0.73611635 -0.2487742 -0.62947929 0.0076914071
-200 65.25 580.25 -0.22383451 -0.89488441 -0.38610864 0.0047278008
-197.25 64.5 581 -0.19110584 -0.89285266 -0.40779015 0.0058480804
-193.8 64 581.20001 -0.13703549 -0.89857823 -0.41686741 0.005247653
-191 64 580.83331 -0.092260174 -0.89576054 -0.43485758 0.0042740768
-188.5 64 579.83337 -0.033341087 -0.88983071 -0.45507103 0.0024453092
-185 64 581.14288 -0.0010700141 -0.8851251 -0.465352 0.0016380425
-181.7778 63.666672 581 0.017901555 -0.87743753 -0.47935683 0.0013035928
-178.5 64.333336 581.11108 0.016333211 -0.87646192 -0.48119405 0.0013528704
-176 65 581 0.0096343672 -0.87382025 -0.48615363 0.0011861466
-173.125 64.5 581.25 0.0068044728 -0.87044853 -0.49221241 0.0011923595
-170 64 580.66669 0.0016438768 -0.86753821 -0.49736771 0.0011753194
-166.8571 64 580.42859 -0.0091341054 -0.86469007 -0.5022226 0.00044711703
-163.5625 64.3125 580.5625 0.0035187695 -0.86384672 -0.50374246 0.00072535157
-161.125 64.375 580.625 0.0076759043 -0.86356008 -0.50418752 0.0009312515
-158.29166 64.5 580.91663 0.015242009 -0.8619864 -0.50670213 0.00038587771
-154.875 64.5 580.5 0.011666412 -0.86337095 -0.50443476 0.00064366375
-152 64.5 580.66663 0.012541895 -0.86279565 -0.50539726 0.00041396872
-149 64.5 580.66663 0.024012236 -0.86174816 -0.50676775 0.0011242105
-145.875 64.5 580.5 0.035951909 -0.8520447 -0.52223295 0.00080296939
-142.875 64.5 580.5 0.074945323 -0.83945173 -0.53824168 0.0028322409
-140 65 580.33331 0.085268214 -0.83173984 -0.54857832 0.0030906145
-137 65.5 580.5 0.098719239 -0.83031166 -0.54848605 0.0047212685
-133.89999 65.800003 581.09998 0.036895793 -0.84598178 -0.53193372 0.010102529
-125 65 581 -0.018662551 -0.86976302 -0.49311662 0.014308586
-121.5 64.214287 580.64282 -0.069259584 -0.83657539 -0.54345626 0.022185672
-119.15 64.574997 581.04999 -0.090469882 -0.80385756 -0.58790159 0.03033418
-110.5 63 580.75 -0.54663199 -0.45928141 -0.70018142 0.037149895
118.13335 64.400002 580.6167 0.70674795 -0.2641077 -0.65631884 0.0064228829
-202.5 67 580 -0.22149643 -0.89632189 -0.3841176 0.0046757031
-131.58334 67.5 580.91663 -0.0019622038 -0.85458374 -0.51931 0.011874276
-128.1667 66.166656 580.83331 -0.015961204 -0.87092972 -0.49114823 0.011340534
-116.45835 67.375 580.875 -0.1373889 -0.78943944 -0.59825557 0.032779805
-113.4 67.099998 580.59998 -0.2829124 -0.7179122 -0.63605243 0.04006185
119 68.666656 580 0.64315075 -0.26156801 -0.71968001 0.034409966
120.2 69.400002 581 0.63500303 -0.23796791 -0.73494375 0.038952302
120.75 72.125 581.125 0.55687541 -0.10398753 -0.82406086 0.074007064
133.3333 72.666656 581.33331 0.35337195 -0.48744375 -0.79845279 0.094495289
120.83335 76.333328 581.16663 0.53215784 0.14096053 -0.8348282 0.091144539
127.88889 76.833336 580.5 0.53143901 0.30498084 -0.79029065 0.10390931
129.6667 75 581.66669 0.47924086 -0.056858428 -0.87583983 0.13509388
118.75 79.75 580.5 0.63935941 0.19095169 -0.74482018 0.075710349
-197 83 579 -0.32449892 0.87426353 -0.36105907 0.063856423
-195 82 581.5 -0.29396978 0.83630431 -0.46279258 0.083539955
-187.5 82 581.5 -0.0915896 0.95037496 -0.29731923 0.0043877601
-186 82 580 -0.090593517 0.95010322 -0.29849073 0.0044624414
-181.5 83 580 -0.15081269 0.94020396 -0.30540487 0.0014192911
-176 84 580 -0.17338027 0.93502772 -0.30929345 0.00057165907
-170.5 85 580.5 -0.16837186 0.93544656 -0.31079033 0.00055952783
-166.5 86 581 -0.17009546 0.93575174 -0.3089273 0.00058700424
116 84 581 0.72497499 0.38818613 -0.56896645 0.052460194
-155 88 580 -0.20764768 0.92631721 -0.31435451 0.00045341076
-152 89 581 -0.21474794 0.92258 -0.32051429 0.00058434787
-150 89 579 -0.21966492 0.92308336 -0.31569678 0.00047009552
-148 90 581 -0.2210433 0.92064792 -0.32178751 0.00053577311
-143 91 580 -0.2347683 0.91593611 -0.32549176 0.00061362347
-140.5 92 581 -0.26422453 0.87953889 -0.39572307 0.027835749
-136.5 93 581 -0.28307763 0.81476575 -0.50598788 0.06609533
-132 94 580 -0.30254832 0.78701395 -0.53765571 0.087239094
-129 95 581 -0.31873685 0.74861878 -0.5813576 0.090512432
-125.5 96 580.5 -0.32338414 0.68237466 -0.65558183 0.12729491
-122.5 96.5 581 -0.36370522 0.65187103 -0.66541916 0.12011147
-119 97 580 -0.28179422 0.69902062 -0.6572383 0.099702664
-116.3333 99 581 -0.24074179 0.59173816 -0.7693435 0.1026148
-113 99.666656 580.33331 -0.24141011 0.64583057 -0.72430938 0.077344798
-107 101 579 -0.24974763 0.69424629 -0.67501718 0.041969258
-203 102 580.66669 0.52755016 -0.68514329 -0.50226438 0.045546226
-125.1429 104.7143 580.85712 -0.048516233 -0.48617548 -0.87251335 0.10152311
-110 102.2222 581.77777 -0.22638278 0.48613274 -0.84405321 0.068546064
-107.1429 102.2857 580.85712 -0.1769913 0.5523361 -0.81461585 0.056292228
-104 103 580.33331 -0.15224202 0.64281434 -0.750741 0.037459712
-101.5909 103.95455 580.72729 -0.1423102 0.63514698 -0.75916809 0.033884428
-97 104 579 -0.11939014 0.7401517 -0.66175634 0.028777702
-202.25 106 580.58337 0.70343643 -0.50215703 -0.5030064 0.094354078
-200.4375 106.875 581.1875 0.66941613 -0.48025191 -0.56678045 0.13516371
-188.28571 107.8571 581.14288 -0.25010413 -0.66908193 -0.6998409 0.1243948
-184.625 106.6875 581.125 -0.27787521 -0.72792441 -0.62682652 0.08630047
-181.8571 105.8571 581.28571 -0.23292165 -0.79432613 -0.5610646 0.041816302
-179 106 581 -0.11929289 -0.84182543 -0.52640212 0.028675934
-176.16666 106.5 580.66663 -0.090238303 -0.862638 -0.49770749 0.028969342
-173.125 106.5 580.5 -0.0009300221 -0.88911885 -0.45767555 0.0078752665
-170 107 581.14288 0.03286678 -0.90772349 -0.41827962 0.0012246026
-167 107 581 0.026728211 -0.9133305 -0.40634099 0.00076935143
-163.8571 107.1429 581 0.0089033004 -0.91561705 -0.40195295 0.0013581838
-161 107 581 -0.0092748767 -0.9164291 -0.40008962 0.0010524839
-158 107 581 -0.017121492 -0.9170444 -0.39841729 0.0014186749
-155 107 580.71429 -0.025203317 -0.91121662 -0.41115582 0.0034968178
-152.25 107 580.75 -0.025576811 -0.89725876 -0.4407635 0.0075077233
-149 107 581 -0.030877624 -0.89581603 -0.44335115 0.0094506806
-146 107 580.66669 -0.016666347 -0.87117511 -0.49068946 0.020300584
-143 107 580 0.0036858898 -0.84150219 -0.54024112 0.037321199
-139.83333 106.33334 580 0.008738175 -0.82483023 -0.56531298 0.042299759
-137 106 579.66663 0.0029981991 -0.82854986 -0.55990732 0.035459772
-134 105.5 581 -0.039010759 -0.7467978 -0.6639061 0.072383061
-131.1429 105.4286 581.14288 -0.11267845 -0.67817134 -0.72621435 0.092687815
-128 105.5 580.66669 0.03310075 -0.56106603 -0.82710898 0.086432509
-122 105 581 -0.038694769 -0.308393 -0.9504717 0.11425611
-118.625 106.375 580.65002 0.077672921 -0.13456824 -0.98785543 0.084495351
-115.9 105.1 581.59998 -0.022510897 -0.027956933 -0.99935561 0.09787479
-113 105 581.66669 -0.086875349 0.14303574 -0.9858973 0.088814333
-104.2 105.1 581.70001 -0.11516249 0.48164496 -0.86876678 0.040405512
-98.0625 106.49105 581.36609 -0.088436373 0.58900827 -0.80327338 0.031264681
-95 105.5 581 -0.071022563 0.67536056 -0.73405987 0.027944351
-92.199997 105.6 580.59998 -0.10535492 0.73130834 -0.67386079 0.023365853
-89 106 580.66669 -0.085827477 0.78224707 -0.61702776 0.017060164
-86 107 580.66669 -0.1005201 0.79573017 -0.59725124 0.017521031
-83 107 579 -0.14887011 0.83610642 -0.5279808 0.014840798
-197 108.5 581 0.50849885 -0.43993458 -0.74019349 0.16696496
-194 108.5 581 0.20736174 -0.60467339 -0.76900673 0.13430189
-191.03571 109.71429 580 -0.051818803 -0.50325614 -0.86258227 0.1911715
-187 109 579 -0.24751478 -0.59210527 -0.76690799 0.10829648
-185 109 579 -0.35581067 -0.61251962 -0.70584589 0.095613927
-118.4286 110.8571 580 0.22769876 -0.053101022 -0.97228265 0.046026852
-115.8782 109.46155 580.91992 0.15703361 -0.098403893 -0.98267853 0.048817948
-113 108 581.55548 0.072421834 0.032760642 -0.99683595 0.049497128
-83 108 581.66669 -0.10778575 0.79793012 -0.59303439 0.016987083
-80 108 580.33331 -0.14360718 0.84301543 -0.51836467 0.011920899
-74.5 109 580.5 -0.17282474 0.86959594 -0.46253058 0.0074325441
-71.5 110 580.5 -0.20317054 0.87389785 -0.44161567 0.0062798224
-194.5 113 579 0.45305756 0.22766513 -0.86192077 0.173861
-191.25 113.5 581 0.011881341 0.31414571 -0.94930041 0.18777597
-187.875 112 579.625 -0.31114572 -0.31953883 -0.89503253 0.15947445
-122.0909 113.9091 579 0.25881168 0.12529266 -0.95776725 0.039425354
-115.8333 113.6667 581.16669 0.25142917 0.14324969 -0.95721626 0.023246074
-113 112.3889 581.33337 0.21339341 0.13466392 -0.96764094 0.021411987
-110 111 581.77777 0.15094149 0.20203751 -0.96767634 0.016587211
-67.5 111 580 -0.24845175 0.87675369 -0.41179445 0.0047486643
-65 112 581 -0.25360823 0.87336856 -0.41582486 0.0049896236
-62 112 579 -0.30651399 0.88120735 -0.35989287 0.0038523758
-200.16667 115.66666 579.88892 0.82564747 0.31555241 -0.46768883 0.11659266
-196.3333 114.3333 580.33331 0.63113719 0.444846 -0.63543516 0.1536978
-194 114.3333 581 0.29259747 0.65111893 -0.70030761 0.17147397
-185 114 581.66669 -0.48109183 -0.32297665 -0.81500721 0.11475467
-183 115 580 -0.51744419 -0.11471532 -0.84799284 0.10138084
-125.125 116.875 579 0.23753661 0.30915853 -0.92086768 0.014608203
-122 115.75 579.5 0.24103211 0.23838912 -0.94078374 0.020864446
-119 114 580.22223 0.26576826 0.11097158 -0.95762861 0.032682221
-110 114 581.66669 0.18866275 0.21826924 -0.9574784 0.012695492
-59 115 581 -0.3039602 0.86812258 -0.39239192 0.0041335695
-57 115 580 -0.33632061 0.86890829 -0.36316216 0.0040698349
-202 117.6667 581 0.93292677 0.27897856 -0.22763683 0.09159115
-131 119 579 0.22690992 0.41021711 -0.88330841 0.001712071
-128.5 119 579 0.24027126 0.3924579 -0.88783252 0.003493791
-124.4091 118.95455 580.31824 0.23362517 0.40495652 -0.88398504 0.0032544171
-122 118.25 580.86108 0.23010293 0.38485155 -0.89383548 0.0029236975
-119 117 581.22223 0.24858871 0.31696218 -0.91528058 0.010179777
-136.625 121.625 579.5 0.23440582 0.43371522 -0.87002587 0.0011435833
-133.75 121 580 0.23328848 0.42578587 -0.87423283 0.00071241066
-130.95 121.9 580.25 0.23431452 0.43449524 -0.86966121 0.0012349071
-127.6591 121.70455 580.71973 0.23141007 0.42761409 -0.87383962 0.0022401083
-202.6667 123 580.66669 0.9534359 0.29144457 -0.077589519 0.05878479
-140 124.5 579.5 0.22941537 0.43991944 -0.86823922 0.0014297061
-136.625 123.375 580.25 0.23795323 0.43951178 -0.86614531 0.00093726075
-134.125 123.25 580.625 0.23692581 0.43727818 -0.86755633 0.00015880421
-202 126 579 0.95264012 0.30240387 -0.032072935 0.049175732
-179 127 580 -0.6324563 0.38730979 -0.67081314 0.047780115
-149 128.6667 579 0.22033663 0.45281944 -0.86394811 0.0015908651
-146 128 579 0.22328654 0.4408755 -0.86935145 0.0012459166
-142.8 126.6 580 0.2257513 0.43729961 -0.87052023 8.6723143e-05
-139.79999 127.55 581.30005 0.22633675 0.44427067 -0.86683065 0.0010076624
-137 126.1 581.29999 0.23283321 0.44522846 -0.86461574 0.00045191328
-134 126.2222 581.77777 0.23484433 0.44684401 -0.86323726 0.00034900979
-178 129 580 -0.58676845 0.42364189 -0.69009441 0.059432767
-148.8 130.78336 580.54999 0.22365327 0.45013294 -0.86449963 0.00099211326
-145.8571 129.28571 580.57141 0.21803607 0.44862959 -0.86671317 0.0012749336
-142.81821 129.0909 581.27271 0.22315773 0.44446477 -0.86755496 0.0014638526
-176.5 133 579.5 -0.17989485 0.47546142 -0.86114705 0.0554794
-160.83334 134.16666 579.5 0.19327925 0.51915431 -0.83253944 0.0079565104
-158.60001 133.3 580 0.23501225 0.47143695 -0.85000968 0.00091294764
-154.75 132 580.25 0.23910804 0.45728847 -0.85657132 0.0014641749
-151.7 132.10001 580.59998 0.23341557 0.45893413 -0.85726118 0.0011480977
-146 132 581.66669 0.21721819 0.45491594 -0.86363637 0.0012063429
-38 -102.3333 584 -0.17499378 -0.75708383 -0.62944514 0.015255975
-35 -103 584.33331 -0.10572679 -0.72339171 -0.68229485 0.015787739
-32 -102.5 583.5 -0.071365647 -0.72749287 -0.68239367 0.014544604
-29 -102.5714 583.42859 -0.012998248 -0.70023483 -0.71379411 0.013186493
-26 -103 584 0.023818245 -0.69608349 -0.71756572 0.012114964
-23 -102.5 583.5 0.039768733 -0.66592532 -0.74495769 0.0093038408
-41 -100.5 583.5 -0.21215968 -0.75403976 -0.62162077 0.014528578
-32 -101 582 -0.039331745 -0.70596296 -0.7071557 0.016535701
-29 -101 582 0.017321413 -0.67921722 -0.73373294 0.012128176
-20 -102 583.66669 0.047550499 -0.65523332 -0.7539286 0.0082663717
-17.0625 -100.9375 583.375 0.029663432 -0.64072222 -0.76719952 0.0086504463
-14.5 -100.75 583.25 0.0064802486 -0.63773948 -0.77022487 0.0090559404
-11 -101.6667 583.66669 0.027544528 -0.66700381 -0.74454504 0.0055225627
-8.25 -101.25 583.75 0.0054309955 -0.64792615 -0.76168376 0.007427868
-5.25 -100.5 583.75 0.024532024 -0.62809819 -0.77774727 0.0070142383
-47.25 -97.5 584 -0.34388056 -0.74167395 -0.57590443 0.011588032
-44.25 -99 583.75 -0.28758359 -0.73987329 -0.60818017 0.015882649
-50 -95.666656 584.33331 -0.46695185 -0.7028352 -0.53663647 0.011575796
-53 -93 583.33331 -0.67823803 -0.59790748 -0.42719996 0.024404708
-55.5 -90 584 -0.82183611 -0.48345327 -0.30142736 0.029136023
-58 -85 583 -0.8839767 -0.27989554 -0.37449101 0.032586437
-58 -84 582 -0.88481241 -0.21411867 -0.41383582 0.027506504
-58 -77.5 583 -0.9301123 0.069230266 -0.36069152 0.016778842
10 -78 583.66669 0.8981452 -0.031938173 -0.43853757 0.014501185
-57 -74 583 -0.92258614 0.2066723 -0.32576266 0.0086189033
-56 -70.5 583.5 -0.91361481 0.29219645 -0.2827177 0.0046921372
11 -72 584 0.92129451 0.13038787 -0.36635426 0.008148212
-55 -66.5 584 -0.88153011 0.37291044 -0.28955552 0.0046405788
-53.5 -63.5 584 -0.8585012 0.41767874 -0.29752329 0.0052603907
9.5 -64.833336 584 0.9022761 0.25409606 -0.34832895 0.0078077046
-52 -60.75 583.25 -0.81972522 0.46737602 -0.33107427 0.005169319
8 -62.5 583.5 0.84721684 0.35907626 -0.3915199 0.0062556146
-51 -59.5 583.5 -0.80736905 0.4908894 -0.32738793 0.0046516624
6.7249999 -58.625 584.125 0.81109524 0.44769472 -0.37642249 0.0065770154
-49.666672 -57 584 -0.77108294 0.54370958 -0.33137748 0.005590132
4 -55.5 582.5 0.72368854 0.53354931 -0.43772158 0.0057185814
-46.75 -52.416668 583.33331 -0.6450491 0.64978725 -0.40210471 0.0076734307
2 -53 583 0.68358195 0.57756037 -0.44625059 0.0061769001
3.833333 -54 583.83331 0.7167064 0.54903859 -0.42998683 0.0048716767
-43.916664 -49.5 584.08337 -0.55926061 0.71733725 -0.41551754 0.0069131074
-41.14286 -48.14286 584.14288 -0.46532723 0.76467741 -0.44580147 0.0055285757
-2 -49.166668 583 0.57368332 0.66318995 -0.48069385 0.0029374734
1 -50.833328 584 0.64262462 0.6237818 -0.44489312 0.0039816471
-38.200001 -47 584 -0.39718795 0.79868966 -0.45203599 0.0038878368
-34.75 -45.833336 583 -0.33409101 0.81102234 -0.48023528 0.0018256785
-5.0555558 -46.222225 583.33331 0.51797843 0.70324922 -0.48696917 0.0026333949
-32 -44.714291 584.42859 -0.3070074 0.83189046 -0.46228203 0.0016827658
-29.200001 -44.400002 583.79999 -0.28351459 0.83208787 -0.47670668 0.0015018607
-25.799999 -42.599998 584 -0.21331389 0.85553032 -0.47176799 0.002462612
-10 -44 583 0.36296386 0.78483224 -0.50229055 0.0067247497
-8.3999996 -43.700001 583.90002 0.41150108 0.7756812 -0.47852445 0.0060364553
-22.799999 -41.599998 584 -0.14535043 0.8791284 -0.45387939 0.0048465673
-20 -41 584 -0.031493306 0.88277364 -0.46874177 0.0078312038
-17 -41 583.66669 0.054389562 0.88360322 -0.46506691 0.0085828602
-13.8 -41.400002 583.40002 0.17848186 0.85782254 -0.48195922 0.0084415562
-11.25 -42 584.125 0.28091598 0.83717579 -0.46927923 0.0097664567
68 -29.66667 584.66669 -0.45942485 -0.69445783 -0.55376619 0.017060356
69 -28.25 583.25 -0.4335998 -0.71631044 -0.54670882 0.016629163
64 -24.5 584.16669 -0.33572063 -0.78945941 -0.51385349 0.01790694
67 -26 583 -0.40286148 -0.7490015 -0.5260222 0.019369518
49 -21.5 584 -0.16728349 -0.85333508 -0.49379703 0.0009500751
51.75 -21.75 583.25 -0.15906781 -0.85412264 -0.49514845 0.00056859298
54 -22 583 -0.1560216 -0.85491931 -0.49474257 0.00031760038
58.25 -23.25 584 -0.22048354 -0.83687949 -0.5010187 0.0058868467
61.150002 -23.299999 583 -0.2923485 -0.80570793 -0.51513803 0.014946465
31 -18.5 584 -0.12912485 -0.84686315 -0.5158968 0.00073954824
33.75 -18.75 583.75 -0.12745278 -0.84761995 -0.51506907 0.0009074402
37 -19 584 -0.1308502 -0.84845901 -0.51283097 0.00079642632
40 -19 583.33331 -0.14787494 -0.85109782 -0.50375152 0.00090211723
42.700001 -19.6 583.5 -0.160988 -0.85101539 -0.49985555 0.00058672915
46.25 -20.5 583.16663 -0.16797803 -0.85337186 -0.49349746 0.00037372857
16 -15.5 584 -0.20503181 -0.84169132 -0.49951753 0.00036597351
18.75 -15.75 583.5 -0.18446028 -0.84130496 -0.50811458 0.00048095931
21.875 -16.625 583.75 -0.16826317 -0.84222096 -0.51220244 0.00023530422
25.125 -17.5 583.75 -0.15852936 -0.83989614 -0.51907885 0.00019321885
28.5 -17.5 582.92859 -0.13828881 -0.84309018 -0.51968753 0.00026170269
-82.85714 -12.42857 584 -0.027073635 -0.83398497 -0.55112261 0.0003188274
-80 -12.5 583.83331 -0.015447384 -0.83454764 -0.5507192 0.00084782887
-77 -12.5 584 0.0097264666 -0.83558857 -0.54926962 0.00096888293
-74 -12.5 583.83331 0.039838944 -0.84013098 -0.54091841 0.00094259909
4.1999998 -12.4 584.40002 -0.18910597 -0.86155444 -0.47112927 0.00093095994
6.833333 -12.66667 583.83331 -0.20411414 -0.85592937 -0.47510234 0.00067701616
9.6000004 -13.7 583.79999 -0.22477856 -0.84666026 -0.48232892 0.00046023072
13.5 -14.416665 583.16663 -0.21589622 -0.84270328 -0.49319363 0.00062941742
16 -14 582 -0.20069203 -0.83908457 -0.50562805 0.00046831463
-119.2 -9.1999998 584.40002 -0.17161964 -0.82535946 -0.53789264 0.0073907878
-115.8 -10.7 583.8667 -0.13653502 -0.82900941 -0.54231125 0.0072604236
-113.25 -10.75 583.66663 -0.11859087 -0.83488625 -0.53749543 0.0083790785
-109.625 -10.625 583.625 -0.093349606 -0.84261411 -0.53036529 0.0076245009
-107 -10.5 583.5 -0.046611492 -0.85398585 -0.51820409 0.0019602517
-104 -11.57143 584.28571 -0.033349104 -0.85264802 -0.52142036 0.00087807182
-100.8333 -11.5 583.66669 -0.036494531 -0.85141444 -0.52322233 0.00038445217
-98 -11.42857 583.57141 -0.036457326 -0.84824032 -0.5283553 0.00042722054
-95 -11.3 582.79999 -0.031295341 -0.84659076 -0.53132343 0.00047258029
-92 -11.5 583.5 -0.032555576 -0.84289622 -0.53709042 0.00066391594
-89 -11.5 583.5 -0.031992521 -0.83953786 -0.54235852 0.00075208076
-86 -11.5 583.5 -0.033167519 -0.83610123 -0.54757166 0.00011965482
-83 -11 582 -0.023222603 -0.84040636 -0.54145896 0.00095665664
-79.75 -11 582 -0.0095894011 -0.84184289 -0.53963739 0.0014889754
-77 -11 582 0.0009084788 -0.8429687 -0.53796178 0.0010091556
-74 -11 582 0.025903402 -0.84938973 -0.52712995 0.00081343355
-71.5 -11.5 582.92859 0.038897123 -0.84957951 -0.5260244 0.00077318627
-67.85714 -11.57143 583.57141 0.062286865 -0.85461897 -0.51550639 0.0010408707
-65 -11.42857 583.85712 0.069837965 -0.86102968 -0.50373662 0.00087135518
-62 -11.5 584.5 0.082832098 -0.86372203 -0.49711487 0.0012047456
-58.599998 -10.7 583.70001 0.089402966 -0.8697632 -0.48530304 0.0007269386
-56 -10 583.66669 0.085607216 -0.87155479 -0.48276672 0.00087312545
-53 -10 584 0.078365706 -0.87278306 -0.48177639 0.00079767575
-49.599998 -9.8000002 583.79999 0.065815866 -0.87252599 -0.48411435 0.00081533188
-47.14286 -9.4285717 583.57141 0.053537834 -0.87324101 -0.48433852 0.00030832039
-44 -9.833333 584.33331 0.045703903 -0.87015462 -0.49065465 0.00086512865
-41 -9.7142859 584 0.038976859 -0.86877346 -0.49367365 0.00070510898
-37.85714 -9.8571424 584.28571 0.031009212 -0.86911702 -0.4936336 0.00058573758
-35.333328 -9.666667 583.83331 0.023911465 -0.87329042 -0.4866128 0.00038494301
-31.85714 -9.5714283 583.85712 0.010879674 -0.87585288 -0.48245555 0.00021511393
-29.14286 -9.4285717 583.85712 0.0055748867 -0.87824416 -0.47817993 0.00043741151
-26 -9.5 584 -0.015999924 -0.88065773 -0.47348282 0.0005182107
-23 -9.5 584 -0.038807899 -0.88432443 -0.46525732 0.00082622503
-20 -9.833333 584.33331 -0.051858548 -0.8873052 -0.45825779 0.00055398751
-17 -10 583.66669 -0.059330285 -0.88888597 -0.45427042 0.00070928701
-14 -10 583.5 -0.066710778 -0.89075798 -0.44955516 0.00052642182
-11.5 -10 583.66669 -0.070295416 -0.88997585 -0.45055678 0.00018797643
-8 -10 583.33331 -0.082576387 -0.88879609 -0.45080215 0.00049562624
-5.5 -10.5 583.66663 -0.090030119 -0.88726628 -0.45238605 0.00061113026
-2.5 -10.5 583.5 -0.11801881 -0.87974638 -0.46056253 0.00057332212
1 -11.5 584 -0.16007794 -0.86854929 -0.46903872 0.0012639981
4 -11 582 -0.1838053 -0.86642146 -0.46425137 0.0013440214
-120 -6.5 584 -0.21188851 -0.8030228 -0.55700779 0.010475641
118.33335 31 583.83337 0.92541194 0.0065778843 -0.37890559 0.0097637977
120 34 584 0.92550504 0.034464188 -0.37716398 0.011377812
-108 37 583 -0.76386577 -0.25935817 -0.5909673 0.004942405
120 37.25 583 0.91724354 0.057797484 -0.39411137 0.012962311
-107.3 40.799999 582.90002 -0.78940749 -0.2219341 -0.5723471 0.0050643096
-109.525 43.674999 584.02502 -0.77570009 -0.2142038 -0.59363794 0.0044948352
117.83335 43 582.83337 0.87808722 0.17154965 -0.44669181 0.0059838989
-109 45.5 582 -0.79512286 -0.18331102 -0.57808024 0.0052170772
117.3333 45.333328 583.66669 0.86288869 0.15812635 -0.48001984 0.007449219
-109.75 48 583.16663 -0.77969658 -0.16861308 -0.60302806 0.0055936505
116 49 583 0.83319539 0.090340719 -0.54554927 0.012513482
117 48 584.66669 0.84660792 0.079966038 -0.52617526 0.012572926
-112 51.5 584.5 -0.73504359 -0.20337991 -0.64679784 0.0087121837
-110.75 52 583.41663 -0.75204998 -0.18743204 -0.63189399 0.0082326569
116 51 583.66669 0.81393152 -0.020261563 -0.58060747 0.016280299
-112 54 584.33331 -0.70473659 -0.21266812 -0.67684466 0.014624002
116 55.25 583.75 0.79124308 -0.13448937 -0.59652913 0.016127529
-112 57 584 -0.65610653 -0.29231405 -0.69575632 0.026376981
117.76785 58.55357 584.17859 0.73483163 -0.23499617 -0.63623828 0.010826902
-193.8333 62.833328 584.16669 -0.16108494 -0.88863778 -0.42938852 0.0075140046
-191 62.400002 583.79999 -0.11653336 -0.88946682 -0.44189224 0.0059180097
-188.1429 62.57143 583.42859 -0.047712144 -0.88116103 -0.47040278 0.0026250724
-185 62.5 583.5 -0.0082657905 -0.87568212 -0.48281732 0.0017319561
-182.3333 62 584 0.008535183 -0.8724165 -0.48868853 0.0016008198
-179 62.200001 583.59998 0.015115919 -0.87030435 -0.4922823 0.0010930402
-173 62.42857 583.85712 1.8993516e-05 -0.86485755 -0.50201744 0.00091761473
-170 62.5 584 -0.0099525349 -0.8636412 -0.50400883 0.0013096909
-167 62.5 583.66669 -0.011342722 -0.86274654 -0.50550938 0.00097621052
-164 62 584 -0.0019052454 -0.86428732 -0.50299495 0.00064713939
-161 62.5 583.5 0.012871602 -0.86351514 -0.50415856 0.0010297683
-158 62.5 583.5 0.012770076 -0.86338216 -0.50438899 0.00045921092
-155.1429 62.42857 583.57141 0.0091871666 -0.86299014 -0.50513703 0.00020721779
-152 62.57143 583.42859 0.0011316296 -0.86119318 -0.5082764 0.00040934052
-149 62.5 583.5 0.0086151185 -0.85663056 -0.51585829 0.00085172831
-146 62.5 583.5 0.015777403 -0.85071611 -0.52538848 0.001069932
-143 62.42857 583.57141 0.039808825 -0.84264773 -0.53699166 0.0018698239
-139.8571 62.57143 583.57141 0.082446121 -0.83085859 -0.55034238 0.0044717225
-137 62.5 584 0.098345496 -0.83116889 -0.54725355 0.0052884328
-125 62.799999 584 -0.071580455 -0.84422112 -0.53119397 0.021799525
-122 62 584 -0.15058839 -0.80185354 -0.57823348 0.030402999
-118.875 62.5 583.875 -0.23578891 -0.7432763 -0.62605429 0.047016755
-116.7778 62.777779 584.88892 -0.30362687 -0.68430215 -0.66297913 0.052880511
-113 61.42857 584.42859 -0.48019999 -0.50801635 -0.71507156 0.051258538
-111 61.25 583 -0.58129054 -0.41010156 -0.702793 0.038466889
120.66665 61.833336 584.13892 0.68025738 -0.29920635 -0.66912287 0.0058833519
-200.5 65 583.5 -0.23092768 -0.88118428 -0.41253686 0.005919768
-196.8 63.599998 584 -0.20136213 -0.88852185 -0.41228896 0.0072830175
-176.5 63.5 582.66663 0.013091953 -0.87069559 -0.49164805 0.0010370542
-140 64 582 0.093858719 -0.83106172 -0.54820347 0.0046244566
-136.75 64 582 0.094029769 -0.82994586 -0.54986203 0.0053949417
-134 63 584 0.083886839 -0.8395561 -0.53675753 0.008569913
-131.5833 64.416664 584.25 0.036183249 -0.8512091 -0.52357793 0.011829857
-128.25 64.5 584 -0.020314232 -0.86151159 -0.50733143 0.011948071
-124 64 582 -0.03065441 -0.85071194 -0.52473766 0.018724073
-118 65 583 -0.11763322 -0.77642155 -0.61913806 0.030400941
