ply
format ascii 1.0
comment PCL generated
element vertex 708
property float x
property float y
property float z
property float nx
property float ny
property float nz
property float curvature
element camera 0
property float view_px
property float view_py
property float view_pz
property float x_axisx
property float x_axisy
property float x_axisz
property float y_axisx
property float y_axisy
property float y_axisz
property float z_axisx
property float z_axisy
property float z_axisz
property float focal
property float scalex
property float scaley
property float centerx
property float centery
property int viewportx
property int viewporty
property float k1
property float k2
end_header
136.8889 69.666656 553 0.021286273 -0.76317185 -0.64584488 0.0057196259
139.875 69.5 553.25 0.011216958 -0.78632092 -0.61771637 0.0093238605
143 69.5 553.5 0.01581255 -0.80453813 -0.59369045 0.011073092
146.1667 69.333344 553 0.03328586 -0.80563587 -0.59147525 0.010510591
149 69.599998 552.79999 0.090914749 -0.80989408 -0.5794878 0.011741879
152.1429 70 553 0.1691975 -0.81524312 -0.55385095 0.016046565
154.7778 69.666656 553.11108 0.21960308 -0.77672005 -0.59032232 0.023566058
157.5714 70.428574 553.14288 0.35036272 -0.7655558 -0.53960204 0.022553507
-54.75 72.25 553.5 -0.32458314 -0.028429817 -0.94542986 0.028140415
-51.909088 73.181824 553.36359 -0.3241294 0.056427423 -0.94432837 0.020282108
-48.799999 73.066673 552 -0.36963376 0.051073898 -0.92777276 0.019778278
-47 73.5 552 -0.35783395 0.026205201 -0.9334175 0.025737423
158.5 72 552.5 0.37179893 -0.77235484 -0.51500833 0.018255416
161.2 73.199997 553 0.38691556 -0.79180801 -0.47258481 0.011049129
-78.5 77 554 -0.098778836 -0.77827251 -0.62010849 0.0027426884
-75.833344 76.5 553.66669 -0.087278634 -0.76523149 -0.63781136 0.0023122907
-73.14286 76.571426 553.57141 -0.088217027 -0.74859041 -0.65713793 0.0028736216
-70 76.5 553.66669 -0.051271267 -0.73702216 -0.67392105 0.003637502
-66.875 76.25 553.5 -0.015089341 -0.69837445 -0.71557355 0.015413606
-64 75.916656 553.08331 -0.0089436369 -0.62755543 -0.77852052 0.037729826
-61.285709 76.14286 553.42859 -0.003926056 -0.53739375 -0.84332228 0.064501807
-56 76.25 554 -0.14724268 -0.19783518 -0.96911341 0.083286643
-52.285709 75.85714 552.85712 -0.29124758 0.0036004644 -0.95664096 0.05079734
-49.5 75 552 -0.36862603 -0.00068860914 -0.92957753 0.028056363
-46.5 75 552 -0.36844376 0.00020742137 -0.92965001 0.033701871
-41.166664 76 552 -0.24042439 -0.018842459 -0.97048497 0.042414326
164.25 75.5 552.75 0.33409581 -0.80320174 -0.49320069 0.022235477
167.2 77 553.20001 0.21910933 -0.7979359 -0.56150639 0.045119345
170 76.428574 553 0.19592987 -0.7902689 -0.58059156 0.058039345
-138.6667 80 554 -0.42501581 -0.76428324 -0.485008 0.020047622
-136.1429 80 553.42859 -0.27744031 -0.83112007 -0.48194015 0.0157641
-132.875 79.375 553.25 -0.12206708 -0.86509442 -0.48652986 0.0066050957
-130 79 553 -0.054150783 -0.87399572 -0.48290697 0.0029037371
-127.1429 79 553 -0.021839663 -0.87961692 -0.4751811 0.0025146618
-124.2857 79.571426 552.85712 -0.002675537 -0.88149011 -0.47219494 0.0017929341
-121.1429 79.714287 552.57141 -0.0010853254 -0.88358915 -0.46826163 0.0016694738
-118 79.5 553.5 -0.017159581 -0.87736267 -0.47952086 0.00052558992
-115 79 552.71429 -0.022941973 -0.87674677 -0.48040468 0.0011098227
-112.1429 79 552.42859 -0.0042253658 -0.87275004 -0.48814911 0.00068760803
-109 79 552.5 0.0074486881 -0.86959475 -0.49371004 0.00079138856
-106 79.333344 552.88892 0.0054258863 -0.85955936 -0.51100731 0.0009012589
-103 79.666656 553 -0.011423314 -0.85469282 -0.51900834 0.0022381553
-100.125 79.25 553 -0.020893548 -0.84887683 -0.52817756 0.0018922046
-97 79 552.42859 -0.031780899 -0.83940101 -0.54258275 0.0022033462
-94 79 553 -0.028065195 -0.83542502 -0.54888743 0.0025057592
-91.199997 79 553 -0.018465225 -0.82965112 -0.55797672 0.002529467
-88.14286 79.571426 553.28571 -0.028742848 -0.82324892 -0.56695241 0.0022709046
-84.85714 79.428574 553.57141 -0.058679122 -0.81805801 -0.57213444 0.0028770345
-81.900002 79.099998 553.09998 -0.077053979 -0.81647766 -0.57221228 0.0030814442
-79 78.5 552.66669 -0.083189867 -0.80560124 -0.58658844 0.003031766
-75.800003 78.400002 552.20001 -0.070067905 -0.79524529 -0.6022253 0.0039378656
-73 78.333344 552.16669 -0.066290677 -0.78168505 -0.62014031 0.002476983
-70.199997 78.400002 552.40002 -0.044621974 -0.77694505 -0.62798512 0.0034680667
-67 78 552 0.0052338382 -0.7640478 -0.64513838 0.0081788655
-60.5 78 552.5 0.14378783 -0.60432225 -0.78365791 0.071404576
-58.333328 79.166656 553.33331 0.19946009 -0.46919003 -0.86027688 0.1120533
-55 79 554 0.046221524 -0.085952327 -0.9952265 0.1379125
-52.285709 79.14286 552.85712 -0.29146764 -0.015057666 -0.95646214 0.12821274
-50 80 552 -0.43142152 -0.0047380943 -0.90213794 0.077626526
-141.3333 82 553.66669 -0.60160071 -0.65035081 -0.46381074 0.018974422
-139 81 552.33331 -0.43028685 -0.76061541 -0.4861249 0.018845258
-136.5 81 552 -0.30902943 -0.80918473 -0.49972084 0.018467698
-57.14286 81.85714 553 0.53250247 -0.44622535 -0.71925235 0.13683896
-55.5 81 554 0.36791515 -0.27879295 -0.88708115 0.16533627
-50.166664 81.583328 552.66663 -0.4794144 -0.043998025 -0.87648499 0.11403278
-143.5 85.5 553.25 -0.73724693 -0.51198757 -0.4408353 0.016640866
-55.5 85 553.5 0.7191745 -0.46821618 -0.51338255 0.13814121
-48.5 85 552.5 -0.64890647 0.026839415 -0.76039463 0.11188406
122 86 552 0.068588011 0.71104538 -0.69979292 0.13783695
124 86 552 0.029933469 0.71973944 -0.69359869 0.13046762
131 86 552.33331 0.10525902 0.60603237 -0.78844494 0.14840731
134 86 553 0.11930905 0.56263709 -0.81804937 0.13297991
137.1429 85.571426 553 0.06858401 0.57673573 -0.8140468 0.12826344
139.75 85.25 552.5 0.043109566 0.59319669 -0.80390257 0.1279683
143 85 552.5 0.052303337 0.61908269 -0.78358209 0.14201032
146.1667 85.5 553 0.081002004 0.54223365 -0.8363142 0.20231329
148.75 85.25 553.25 0.023489514 0.72685313 -0.68639106 0.15545268
152 85 554 -0.18746918 0.68693072 -0.70212632 0.16494355
155 84.666656 553 -0.080210932 0.44362783 -0.89261448 0.22186629
157 85 552 0.2216689 0.49221969 -0.84177351 0.17387985
-143.5 87.75 552.25 -0.76874292 -0.4474594 -0.45696211 0.019835455
-54.5 87.5 552.5 0.77029622 -0.5124433 -0.37953335 0.14614297
-53 89 553 0.82573491 -0.52497333 -0.20631242 0.15848301
-48.5 88 553 -0.76921666 0.10089712 -0.63097191 0.13313989
97 89 552.33337 0.41577506 0.39736235 -0.81806743 0.12998746
102.875 88 552 0.17230618 0.52390707 -0.83416539 0.1316599
107 88 552 0.11624901 0.62673926 -0.77050894 0.11599816
110.4 87.800003 552.40002 0.14610927 0.62771231 -0.76461053 0.13552755
112.8 88.199997 553.20001 0.1432744 0.58507442 -0.7982232 0.14728034
116 88 553.33331 0.13016607 0.61382335 -0.77863836 0.15887929
119 88 554 0.10283993 0.61782652 -0.77956039 0.15121377
122.25 88 554 0.06387037 0.22220604 -0.9729054 0.18440604
125 87.5 553.5 0.029391186 0.58052528 -0.81371158 0.14921924
128 87 553.33331 0.035207514 0.53040904 -0.84701043 0.1581368
130.6667 87 554 0.079527065 0.52611715 -0.84668541 0.13131593
148 89 554 0.11410239 -0.47735852 -0.87126881 0.14473622
151.5 89 554 0.0027599905 -0.57596272 -0.81747133 0.14032221
158.2 88 552.79999 -0.66353744 -0.70981795 -0.23638226 0.22113669
-145.5 91.5 553.5 -0.78184402 -0.35292122 -0.51397139 0.042379145
-51.5 91.5 553 0.82047415 -0.56773609 -0.067066669 0.15578711
-47.5 91 553.25 -0.82369483 0.11467453 -0.55531669 0.12286795
96.875 91.25 553.5 0.40832305 0.10098116 -0.90723485 0.14097904
100.3333 91.333344 554 0.23341048 -0.072082438 -0.96970284 0.13545752
104 92 554 0.066662744 -0.31121388 -0.94799894 0.13604647
107 91.14286 553.85712 0.057417508 -0.29199502 -0.95469481 0.16007176
109.75 91.5 553.25 0.00018522603 -0.46634883 -0.88460088 0.16607054
113 92 553 -0.01637855 -0.59468007 -0.80379552 0.1439828
116 92 553.33331 0.066367686 -0.65016907 -0.75688535 0.13537882
119.25 92 553 -0.038628411 -0.63639224 -0.77039784 0.1496062
122 91.428574 553.57141 -0.067873761 -0.71076608 -0.7001462 0.088540256
125.1429 91.571426 553 -0.046682507 -0.69753236 -0.71503097 0.12512793
128.28571 91.428574 553.28571 0.014652589 -0.68114316 -0.73200369 0.14256325
131 91.5 553 0.0050205993 -0.70614153 -0.70805293 0.098629802
133.8333 91.5 552.83331 0.025713611 -0.65707266 -0.75338858 0.10380611
137.10001 91.199997 553.09998 -0.022619516 -0.6551308 -0.75517678 0.094292879
140.10001 91.099998 553 -0.026323143 -0.62267977 -0.78203386 0.10781765
143 91 553 -0.081824459 -0.65283418 -0.75306863 0.092155799
146 90.428574 553.28571 0.00037171703 -0.62494028 -0.78067243 0.11044239
149 90.571426 552.42859 0.083810188 -0.66285574 -0.74404174 0.10301822
152.125 90.625 553.125 -0.013677057 -0.65898436 -0.75203222 0.14126265
154.9091 91.181824 553.45453 -0.043114454 -0.73277712 -0.67910147 0.12370992
158.125 91.25 552.75 -0.12992707 -0.84615362 -0.51685888 0.22582066
-146 95 553 -0.80542552 -0.33644697 -0.48794779 0.028967712
-48.875 94.25 553.125 0.81720686 -0.57629645 0.0074457666 0.12874012
-46.599998 94.199997 553.40002 0.06587901 -0.75883722 -0.64793986 0.14501004
95.5 93.5 552 0.46735898 -0.2655068 -0.84325665 0.11061178
97.85714 93.428574 552.57141 0.3082222 -0.38802087 -0.86858445 0.13147728
101 93.5 552.5 0.082672454 -0.37827778 -0.92199308 0.12495874
103.8333 93.333344 552.66669 0.016012026 -0.47856647 -0.87790537 0.12124223
107 93 552.33331 -0.021528153 -0.56810588 -0.82267386 0.10721008
110.25 93 552 0.051678021 -0.60287362 -0.79616123 0.11323239
113 93 552 -0.0031477632 -0.62748879 -0.77861917 0.11503736
116 93 552 -0.010647758 -0.69233471 -0.72149795 0.091439351
118 93 552 -0.041162111 -0.71707529 -0.69577914 0.071288243
156.66666 93 552.5 -0.16666691 -0.83425492 -0.52558625 0.16093579
-151.5 97.25 553.75 -0.73745668 -0.28754538 -0.61112618 0.055442091
-147 97.5 552.5 -0.79386348 -0.3198956 -0.51715338 0.03456112
-47.25 96.25 552.125 0.40874863 -0.81156641 -0.41747385 0.12952353
-150.72729 100.3636 553.18182 -0.7854932 -0.29293954 -0.54514837 0.038910467
-148.60001 100.4 553 -0.81172413 -0.2591432 -0.52340114 0.039215155
35 101 552 0.077137731 0.86950535 -0.48786291 0.0026126835
38 101 552 0.083733 0.84240651 -0.53229696 0.0034557646
46.333328 101 552 0.020783789 0.81493998 -0.57917261 0.0052192942
-153.25 103.75 553.25 -0.82766861 -0.15271413 -0.5400399 0.051367242
-151.10001 102.8 553 -0.83916247 -0.14748628 -0.52350181 0.052056815
-148.3333 103 552 -0.81188744 -0.17537698 -0.55684978 0.046329334
12.5 104 553.25 0.17926456 0.92952979 -0.32224011 0.00076789234
17.5 103 552.5 0.14520825 0.92491889 -0.35133979 0.0015901546
61.666672 102 552 -0.15236032 0.82668298 -0.54164714 0.0056915996
-154 105 554 -0.83783811 -0.10521967 -0.53568292 0.055851582
-150.8333 106 553.66669 -0.78091633 0.00019598655 -0.6246357 0.065082699
-149 105 552 -0.78163016 -0.021705789 -0.62336433 0.068263501
-5 107 552 0.2819986 0.8951875 -0.34513205 0.0013441956
-0.5 106.5 553 0.24807593 0.91265476 -0.32483798 0.0010038509
-154 110 554 -0.66764838 0.22373945 -0.71006078 0.055039313
-149 109.5 552.83337 -0.64394468 0.27641672 -0.71339267 0.054940887
-13 110 553 0.3358795 0.83406663 -0.43762749 0.010768437
-9.5 109.5 553.5 0.33538738 0.85308695 -0.3996973 0.0082551576
-6.5 108.5 553 0.30814758 0.87696022 -0.3687627 0.0036273811
-4 108 553 0.3056677 0.88229519 -0.35794193 0.0024303331
-153 112 553.66669 -0.59429067 0.30794814 -0.74295801 0.049628969
-148.5 112 553.5 -0.53885299 0.36316833 -0.76009625 0.048948731
-20 112.75 552.625 0.48302054 0.60670894 -0.63134408 0.040071499
-16 111.3333 553 0.39748868 0.75404018 -0.52290177 0.021758087
-152.5 115.25 553 -0.57263565 0.38300821 -0.72483999 0.034528233
-147.3333 114.3333 553.33331 -0.55179435 0.3911103 -0.73658383 0.041842368
-145.2 115.4 552.79999 -0.52496463 0.40911078 -0.74635148 0.047625739
-142 115.5 552 -0.49358872 0.35092413 -0.79575276 0.062226009
-139.25 116 552 -0.43068412 0.19047682 -0.88217336 0.084352836
-21.92308 115.0769 552.69232 0.53344369 0.44172564 -0.72132957 0.037822023
-20 114 554 0.50352216 0.56026012 -0.65770352 0.036590178
-152 118.5 554 -0.57839757 0.37275243 -0.72561133 0.033550806
-144.5714 117.5714 553.42859 -0.56406921 0.32363057 -0.75966388 0.042857539
-142.3333 117.6667 552.16669 -0.54557031 0.28033036 -0.7897898 0.062937096
-23.045456 117.95455 552.68176 0.56997353 0.23663037 -0.78685212 0.031110048
-143.5 121 553.33337 -0.63669068 0.19967265 -0.74481934 0.034051813
-23.200001 121.175 552.5 0.62813038 0.12288775 -0.76834297 0.014990221
-143.33334 124.5 553.16663 -0.70300686 0.19158021 -0.68489295 0.027762918
-22.299999 124 553 0.68960565 0.14099304 -0.71032739 0.0083510056
-142 127 553 -0.75404352 0.19738695 -0.62646371 0.01503865
-23.35714 126.92855 552.71429 0.72769481 0.1551504 -0.66812313 0.0053588385
-141.5 129.5 553.5 -0.78614759 0.25493431 -0.56301022 0.0083818603
-140 130 552 -0.79775429 0.21843603 -0.5620265 0.0053703957
-24.66667 130.3333 552.5 0.74614406 0.20101193 -0.63471508 0.0036419139
-23 129.5 554 0.73568255 0.19959815 -0.6472494 0.003547807
-140.25 133 553.25 -0.80993915 0.27194265 -0.51965928 0.0014828807
-26.07143 133.10715 552.64282 0.75106913 0.24006243 -0.61503273 0.0018556254
-139.3333 136 553.33331 -0.81576353 0.28469846 -0.50346464 0.00077653426
-27.4 136.39999 552.40002 0.74811488 0.24826775 -0.61537576 0.00083214021
-26 136 554 0.75327879 0.24079071 -0.61203831 0.0014989889
-138 138.6667 552.33331 -0.81515652 0.30126014 -0.49473441 0.00068201008
-27.875 139.25 552.625 0.74487448 0.24436967 -0.6208427 0.0016708686
-137.5 141.25 553.25 -0.81204534 0.30979595 -0.49457937 0.00076490757
-29.0625 142.125 552.625 0.73465508 0.24520835 -0.63257784 0.0014187869
-135.6667 145 553.33331 -0.80570406 0.32138473 -0.49754679 0.00074812438
-30.125 145.25 552.375 0.72294891 0.24942595 -0.64430708 0.0013036781
-28.6 144.8 553.59998 0.72641897 0.23518209 -0.64575917 0.0010773235
-134.33334 147.83334 553.5 -0.80764568 0.31712493 -0.49713191 0.00075684197
-30.25 148.375 553.125 0.72267038 0.2449097 -0.64634877 0.0011883995
-29 147.5 554 0.72527838 0.23741868 -0.64622253 0.0013735353
-132.6667 151 553 -0.81094193 0.31171536 -0.49518356 0.00053115585
-31 150.5 553 0.72230685 0.2415245 -0.64802682 0.0013199599
-132.5 154 553.5 -0.81081516 0.31491372 -0.49336416 0.00073426723
-131 153.5 552 -0.81383371 0.31600666 -0.48766229 0.00057373778
-11 -79.25 556.83337 -0.079777777 -0.27699712 -0.95755315 0.057939947
-7.5 -79.5 556.75 0.22041485 -0.30810621 -0.9254663 0.047303777
-11 -77 556.5 -0.094606571 -0.12064985 -0.98817676 0.066361412
-7.2857141 -76.85714 556.42859 0.2054994 -0.097654864 -0.97377276 0.059207715
-13 -74 556.11108 -0.30033645 0.11585795 -0.94677079 0.056035303
-10 -74.14286 555 -0.039299097 0.11900759 -0.99211532 0.075940095
-7 -74 556.11108 0.23217633 0.092370033 -0.96827781 0.061239243
-12.90909 -70.909088 556.27271 -0.24051133 0.35378987 -0.90387338 0.057197422
-10 -70.75 555.91669 -0.016222391 0.35795185 -0.93359917 0.072181597
-7.333333 -71.5 556.66669 0.16985415 0.31262022 -0.93456841 0.064159408
118 -13 557 0.03059325 -0.76321274 -0.64542258 0.032360356
122.4 -13.2 556.79999 0.22933388 -0.65729094 -0.7178961 0.070342645
124.75 -13.25 557 0.37695652 -0.54844093 -0.74640226 0.07094463
101 -10 557 -0.11794407 -0.80296117 -0.58424538 0.00052885979
104.1667 -10.33333 556.33331 -0.11507591 -0.8015995 -0.5866819 0.0010744107
106.8571 -10.57143 556.28571 -0.12363531 -0.80222458 -0.58408052 0.0010313672
110.1429 -10.42857 555.85712 -0.11127751 -0.80012089 -0.58942676 0.0016446533
113 -11 555.875 -0.072591379 -0.77493918 -0.62785333 0.0071127089
115.6667 -11.66667 556 -0.024388829 -0.76862431 -0.63923544 0.01905619
119 -12 556 0.093376599 -0.70518696 -0.70284569 0.048654366
122.1429 -11.42857 555.71429 0.33849129 -0.50562233 -0.79358035 0.081323437
124.5 -11 556.5 0.56796956 -0.31144854 -0.76184666 0.083016425
80 -7 557 -0.087970592 -0.84931278 -0.52050835 0.0022097961
83 -7 557 -0.089696541 -0.84688425 -0.52415794 0.0014425273
86.400002 -7.1999998 556.59998 -0.094959766 -0.84707862 -0.52291542 0.0018400365
89 -7.5714288 556.57141 -0.097913876 -0.84023541 -0.53330791 0.0017760589
92 -8 556 -0.1157072 -0.82378697 -0.55496562 0.0006593212
95 -8.4285717 556.28571 -0.13445513 -0.8154521 -0.56299174 0.00067297049
97.85714 -8.5714283 556.28571 -0.13584588 -0.81414545 -0.56454682 0.0012307141
100.8 -8.6000004 555.59998 -0.11326523 -0.81242579 -0.57195741 0.0017189734
103.3333 -9 555 -0.11140241 -0.81240171 -0.57235748 0.0013488852
123.5 -8.25 555.91663 0.64297539 -0.15136322 -0.75078088 0.069147877
41.25 -4 557 -0.10730321 -0.86433113 -0.49134287 0.0018414303
44 -4 556.33331 -0.10095225 -0.87031156 -0.48204395 0.0018362573
47 -4.5 556.33331 -0.081196301 -0.87602413 -0.47538283 0.0016175349
49.799999 -4.5999999 556.20001 -0.073320299 -0.87837422 -0.47231644 0.0016527259
52.75 -5 557 -0.075277612 -0.87409592 -0.47988498 0.0014827953
56.200001 -5 556.40002 -0.06532196 -0.87491798 -0.4798454 0.0018323214
59.125 -5 556.125 -0.058950052 -0.8734498 -0.48333248 0.0020643547
62.200001 -5 556 -0.065503895 -0.8784582 -0.47330785 0.0017755528
65 -5 556 -0.061294001 -0.88041842 -0.47021958 0.0011971095
68 -5 555.79999 -0.059238005 -0.87621129 -0.47827259 0.001381187
71.199997 -5.4000001 556.40002 -0.071732521 -0.86701471 -0.4930923 0.0018956577
74 -5.5 556.33331 -0.079989597 -0.85981548 -0.50430059 0.0016314054
77.125 -5.5 555.5 -0.084602714 -0.86067289 -0.50208026 0.0023341312
79.75 -5.75 555.5 -0.089343533 -0.8559376 -0.50930202 0.0018865446
83 -6 555 -0.087954476 -0.85752863 -0.50686175 0.001649154
85.333344 -6 555 -0.084497914 -0.85939229 -0.50428665 0.0016276392
122.4 -5 556 0.71732831 0.023671884 -0.69633305 0.054587472
-77 -1 557 -0.043600824 -0.82198417 -0.56783897 0.0015659078
-72.75 -1 557 -0.031218452 -0.82198155 -0.56865782 0.0013846416
-70 -1 557 -0.014244718 -0.81583047 -0.57811552 0.00073151523
-67 -1 556.66669 0.0011269602 -0.81800514 -0.57520974 0.0010267865
-63.75 -1 557 0.016535968 -0.81405622 -0.58055055 0.0010367621
-61 -1 557 0.028136902 -0.81944913 -0.57246089 0.00067630509
-59 -1 557 0.029455079 -0.82083368 -0.57040721 0.0007122645
-54 -1 557 0.0089080874 -0.82127213 -0.57046717 0.0008187014
-47 -1 557 0.021881908 -0.82200176 -0.56906444 0.001229708
-43.666672 -1 557 0.036456943 -0.82514143 -0.5637486 0.0011173328
23 -1 556.5 -0.13624197 -0.83665115 -0.53052145 0.0018948971
26 -1 556 -0.15605395 -0.84038204 -0.51904243 0.0021614272
29.200001 -1.4 556.20001 -0.15981032 -0.84081692 -0.51719201 0.0018237759
32.111111 -1.666667 556 -0.1512291 -0.84354126 -0.51533288 0.0016116974
34.85714 -2.2857139 555.85712 -0.13656959 -0.84770906 -0.51257992 0.0013325087
38 -3 556 -0.11657983 -0.85534626 -0.50476921 0.0023756628
41 -3 555.5 -0.11394226 -0.86359173 -0.49114808 0.0019474848
44 -3 555.33331 -0.099352889 -0.8701359 -0.48269293 0.0021409469
46 -3 555 -0.096278474 -0.87094826 -0.48185009 0.0019989777
120.875 -1.625 555.625 0.73289198 0.20174527 -0.64974463 0.027672745
-95 1.75 556.75 -0.4222708 -0.268309 -0.86585087 0.063451737
-90.900002 0.89999998 556.09998 -0.32405153 -0.49195614 -0.80806535 0.061503492
-88 1.090909 555.90912 -0.29978442 -0.53528088 -0.78968585 0.065155737
-85.125 0.875 556.125 -0.19931448 -0.64089394 -0.74130201 0.047934394
-81.85714 0.4285714 556.28571 -0.15242247 -0.73078799 -0.66536933 0.023941081
-79 0.5714286 555.57141 -0.089150719 -0.79276639 -0.60297066 0.0063918885
-76 0.5 555.5 -0.048210125 -0.82044476 -0.56968951 0.0015567219
-73 0.5 555.5 -0.031660024 -0.82539743 -0.56366354 0.0018001426
-70.285713 0.4285714 555.42859 -0.014871383 -0.82047033 -0.57149571 0.001120828
-67 0 556 0.0021305473 -0.81918734 -0.57352215 0.0016060275
-63.75 0.25 555.75 0.011785452 -0.82452917 -0.56569678 0.0020010241
-61.25 0 556 0.022906125 -0.82493323 -0.56476569 0.002169129
-57.75 0.25 555.75 0.024032315 -0.82998967 -0.55726081 0.0018833769
-55 0.5 555.66669 0.015974235 -0.82810771 -0.56034136 0.0016395828
-52.125 0.5 555.5 0.015009883 -0.82814759 -0.56030911 0.001498483
-49 0.5 555.5 0.017201703 -0.82704204 -0.56187683 0.0014685325
-46 0.5 555.33331 0.019312384 -0.82977843 -0.55775875 0.0015909943
-43.125 0.5 555.5 0.028740432 -0.83298743 -0.55254495 0.0015261862
-40 0.5 555.83331 0.043038186 -0.84113628 -0.5391081 0.0019981409
-37 0.5 555.66669 0.057894133 -0.85135603 -0.52138382 0.0014981342
-34.125 0.5 556 0.071204707 -0.85661119 -0.51102561 0.0017350101
-31 1.166667 555.83331 0.066061847 -0.85856098 -0.50843763 0.0013849353
-27.799999 1.4 555.79999 0.053358544 -0.86522174 -0.49854207 0.001302989
-25 1.5 556.25 0.052617047 -0.86431044 -0.5001989 0.0011340736
-22 1.5 556 0.063769944 -0.86343759 -0.50040871 0.001674182
-19 1.5 556.16669 0.065202266 -0.86245495 -0.50191647 0.0017470425
-16 1.666667 556.5 0.052986842 -0.85777527 -0.51128674 0.0019084327
-13.5 2 557 0.054878309 -0.85428691 -0.51689667 0.0017165679
-7.875 2 557 0.022362972 -0.8475467 -0.53024954 0.00119077
-5 2 557 -0.00057367195 -0.85273743 -0.52233958 0.0012301211
2 2 557 -0.068157122 -0.84919071 -0.52366948 0.0016363849
4.75 2 556.5 -0.09491954 -0.84919184 -0.51948375 0.0011207621
8 1.5 556.16669 -0.11470655 -0.84772718 -0.51788133 0.0007713766
11 1.5 556.16669 -0.10211837 -0.84665102 -0.52225852 0.00075747957
13.81818 1.090909 556.54547 -0.096235894 -0.8428418 -0.52948689 0.0013647578
17 1 555.77777 -0.094315238 -0.84580243 -0.52509314 0.00093216548
20 0.5 555.5 -0.11575305 -0.84778202 -0.51755857 0.0020486237
22.75 0 555.25 -0.14403108 -0.8395257 -0.52388144 0.0020382807
25.5 0 555 -0.15441528 -0.83951199 -0.5209372 0.0023139599
120.66665 0.91666663 556.33337 0.75753152 0.290465 -0.58461618 0.0078648757
-94.888885 3.4444447 556.72229 -0.49748728 -0.05196527 -0.86591339 0.069247253
-91.428574 4.2857141 555.28571 -0.55260307 -0.0091803893 -0.83339399 0.07028462
-24 3 555 0.062489547 -0.86702293 -0.49433428 0.0015598349
-15.6 3.2 555 0.063518398 -0.86442864 -0.49872702 0.0016543927
-13 3.5 555.5 0.060644951 -0.85596156 -0.51347053 0.0014820637
-10 3.5 555.5 0.04863878 -0.85570031 -0.51518089 0.001736614
-6.75 3.5 555.5 0.012324946 -0.85701501 -0.51514399 0.0011633009
-4 3.5 555.5 -0.015024827 -0.85824114 -0.51302665 0.0013893492
-1 3.5 555.5 -0.036358967 -0.85495704 -0.51742285 0.0018698821
2 3 555.33331 -0.064065076 -0.85385829 -0.5165478 0.001939561
4 3 555 -0.081507072 -0.84457046 -0.52920461 0.0018533554
118.8333 3.833333 556 0.76725227 0.33807305 -0.54500508 0.0022241555
-90.666656 6.666667 556.33331 -0.5690245 0.20675866 -0.79590321 0.05255064
-88.666656 7.666667 555.33331 -0.59449905 0.22702764 -0.77138144 0.067602105
116.75 7.25 555.75 0.77298826 0.37171909 -0.51411486 0.0013581073
118 6 557 0.77187145 0.37275299 -0.51504332 0.001357349
-89 9.5625 556.5625 -0.55928403 0.38877797 -0.73215646 0.028558481
-86 11 555 -0.59112418 0.4048824 -0.69759768 0.030869368
115.6 10.2 556 0.77604532 0.40553954 -0.48300248 0.0020084041
-87.333344 12.33333 557 -0.55763507 0.52209133 -0.64534009 0.0039441776
-85 13.22222 556 -0.5655216 0.52887702 -0.63283056 0.0047979555
-83 14 555 -0.57533175 0.52975219 -0.62318224 0.0039481162
113.6667 13.66667 555.33331 0.78095692 0.42270133 -0.45981494 0.0024637522
115 13 556.66669 0.77521229 0.43188718 -0.46099818 0.0025960924
-81.800003 15.8 556 -0.56872696 0.56924289 -0.59372735 0.0008000306
-80 17 555 -0.56439161 0.58726716 -0.58015454 0.00066900277
113 16 556.33331 0.77844644 0.45373392 -0.43375868 0.0026967321
-79.916672 18.583336 556.5 -0.55844492 0.58925861 -0.5838781 0.0014970974
-77 20 555 -0.55864847 0.59155959 -0.5813511 0.0019660934
111.5 18.5 556.5 0.77598453 0.47594905 -0.41390899 0.0019304513
-77 21.5 556.64282 -0.55176938 0.5538559 -0.62353367 0.0043351981
-73 23 555 -0.52348316 0.58398515 -0.62042463 0.0032079064
108.66665 22.5 556 0.78561205 0.48286685 -0.38685045 0.0012058127
-72.85714 24.57143 556.71429 -0.50705612 0.56120676 -0.65417212 0.0045697056
-70.599998 25.6 555.40002 -0.51153475 0.57792884 -0.6358698 0.0036084407
106.6667 25 556 0.78087777 0.49870211 -0.37619972 0.0013177132
-70.928574 27.35714 556.42859 -0.49001014 0.57656556 -0.65380597 0.005403867
-67.5 29 555.5 -0.49531218 0.58740842 -0.64001346 0.0050905407
104 29 555 0.77641749 0.52551723 -0.34786144 0.0011565884
106 28 557 0.77810663 0.52087528 -0.35105398 0.0011364515
-66.333344 30.33333 556.66669 -0.4838444 0.58520496 -0.6507147 0.0057016499
-64.333344 31.33333 555.66669 -0.4760828 0.6075545 -0.63578504 0.0065769744
-62 32 555 -0.47897884 0.62636173 -0.61502057 0.0061035296
103.5 31.5 556.5 0.76759386 0.53899592 -0.34681833 0.00099491526
-61.916664 33.583336 556.58337 -0.44870365 0.60459924 -0.65812224 0.0085700238
-58.25 34.75 555.25 -0.47086868 0.62754947 -0.62005192 0.0077349897
100 35 557 0.75903851 0.54359365 -0.35828266 0.0014149988
-57.75 36.25 556.5 -0.46099779 0.5709669 -0.67932159 0.010547062
-55.14286 37.285709 556 -0.45288235 0.58125228 -0.67604983 0.010359315
98.5 36.5 555 0.75806993 0.54579324 -0.35698703 0.0012654169
-53.142853 39.82143 556.35718 -0.45997182 0.52888674 -0.71323544 0.012930263
-49.333328 41 555 -0.46213216 0.56111741 -0.68671757 0.012780602
95.5 40 555.5 0.8016848 0.38074979 -0.46079391 0.037329711
97 39 556 0.79134583 0.3953934 -0.46630022 0.03307889
-51.666672 43 556.88892 -0.43252274 0.41733268 -0.79922301 0.013968455
-49.099998 42.900002 556.20001 -0.45093551 0.44919312 -0.77128631 0.011577584
-46.5 43 555.16669 -0.46606207 0.51024181 -0.72279966 0.013579561
94.333344 43 556.33331 0.80125535 0.19345587 -0.5661844 0.076256908
-49.9375 45.4375 556.875 -0.42526582 0.26841861 -0.86434972 0.020602833
-46 46 556 -0.41754323 0.34894317 -0.83898526 0.015732914
-43.666672 46.666672 555 -0.43024102 0.33081481 -0.83991325 0.024968144
92.75 46.25 556 0.73764437 -0.060668673 -0.67245823 0.095866174
-46 49 556.77777 -0.40093365 0.090287775 -0.91164708 0.03286365
-43 49.5 555.125 -0.39151126 0.15515575 -0.90699816 0.031652395
90.900002 49.450001 555.90002 0.59351844 -0.26609322 -0.75955915 0.096504904
94.800003 50 556.20001 0.50047183 -0.42631322 -0.75351501 0.070387907
97.5 50 556 0.5478183 -0.46580189 -0.6949271 0.058281608
-45.5 52 557 -0.30058584 -0.14521562 -0.94263488 0.0538099
-42.92857 51.85714 555.85712 -0.35465279 -0.045045275 -0.93391234 0.052850742
-40.200001 52.599998 555 -0.31967273 -0.060580645 -0.94558942 0.06019472
89.5 51 555 0.53127509 -0.37178516 -0.76126373 0.090431921
92 51.333328 555.33331 0.48642978 -0.4509742 -0.74833709 0.072059244
95 51 555 0.483154 -0.50506639 -0.7151714 0.066751808
98.25 51 555.5 0.51078463 -0.51630038 -0.68741035 0.040898304
101 51.666672 556.16669 0.57967108 -0.49814105 -0.64485425 0.038213432
103 53 557 0.70426154 -0.38117474 -0.5989337 0.036799267
-66.5 56 557 -0.24373762 -0.40745276 -0.88009894 0.031776655
-64 55.5 556.5 -0.19584887 -0.50149602 -0.84270096 0.024227466
-61.400002 55.799999 556.79999 -0.18188943 -0.51832211 -0.83561862 0.021744974
-58 56 557 -0.15885049 -0.53060019 -0.83260429 0.021466862
-54.799999 55.599998 556.40002 -0.16829525 -0.55848122 -0.81226569 0.020368118
-52.285709 55.57143 556.42859 -0.18472405 -0.5265491 -0.82983309 0.025743121
-48.75 55.75 556.25 -0.20715629 -0.53685039 -0.81784958 0.028603975
-46 55 556.66669 -0.2405023 -0.47877771 -0.84435207 0.043903135
-43.166672 55 556.33331 -0.24543783 -0.3869524 -0.88883531 0.064416759
-40 55 555 -0.24951155 -0.2983951 -0.92125148 0.062234975
-37.5 55.5 555 -0.24999906 -0.26658314 -0.93082434 0.072317466
102.5 55 556 0.73363179 -0.32294199 -0.59790713 0.033432484
-68 58 556.83337 -0.29452047 -0.23694745 -0.92580432 0.035761245
-64 58 555.66669 -0.24795747 -0.31590429 -0.91581744 0.035126016
-60.714291 58.14286 555.28571 -0.2029714 -0.39407375 -0.89638633 0.033371061
-58.14286 57.714291 555.42859 -0.16930069 -0.46850392 -0.86708784 0.029636402
-55.25 57.25 555 -0.17018794 -0.52177024 -0.83593774 0.024070416
-51.75 57 555 -0.19321367 -0.54005885 -0.8191489 0.0221573
-49 57 555 -0.19860069 -0.57286316 -0.79522675 0.022874566
-46 57 555 -0.20873824 -0.53436482 -0.81907415 0.034109998
-42.666672 57 555 -0.1898777 -0.53233802 -0.82496214 0.0423478
-40.5 57 555 -0.18758795 -0.52141577 -0.83242798 0.047622502
101.75 58 555 0.75427049 -0.29148307 -0.58831424 0.027856423
-66.777779 61.111111 556.88892 -0.34782222 -0.021499554 -0.93731397 0.021320188
-64 60.833328 556.08331 -0.31445891 -0.099061556 -0.94408816 0.026678009
-60.85714 60.85714 555.42859 -0.27295023 -0.20375986 -0.94020218 0.02824037
101 61 555 0.75715429 -0.27666458 -0.59175509 0.023132889
-66.25 63.75 557 -0.36953139 0.04967403 -0.92788959 0.010709235
-64 64 556.66669 -0.35919121 0.050752446 -0.93188298 0.013622086
-60.81818 63.909088 555.36359 -0.33105457 0.017182348 -0.94345516 0.015772836
101 63.5 555 0.73875642 -0.33077708 -0.58721846 0.032024287
103 64 557 0.64393973 -0.4556807 -0.61457038 0.047023088
131.6667 65 556.33331 -0.018398374 -0.82706791 -0.56180078 0.0069356984
133.5 65 556 -0.0079422472 -0.82083195 -0.57111454 0.0072855367
139.125 65 556.75 0.0064568911 -0.80758619 -0.58971417 0.0083047468
142.75 65 556.5 0.017126795 -0.78932971 -0.61373055 0.0082019949
145.6667 65 557 -0.00032552684 -0.78258288 -0.62254637 0.0086929081
150.5 65 557 0.022847442 -0.7476539 -0.66369551 0.010033212
170.25 64.375 556.5 -0.13332324 -0.25075325 -0.9588263 0.024948483
-64.9375 66.4375 556.875 -0.35326391 0.040205557 -0.93465936 0.021317966
-60.81818 67.181824 555.36359 -0.33850667 0.030531274 -0.94046855 0.02097057
-59 68 555 -0.32336256 0.043564215 -0.94527179 0.020883173
103.05555 66.5 555.5 0.55538166 -0.54393148 -0.62903881 0.049907383
106.875 67.375 555.875 0.36648294 -0.69581795 -0.61767924 0.038730875
110.1111 67.444443 555.66669 0.12119864 -0.82253963 -0.55564332 0.016361106
113 67.5 555.5 0.0092133256 -0.86464804 -0.50229365 0.0094976723
116 67.833344 555.83331 -0.065258011 -0.87939167 -0.47160557 0.0065889833
119 67.199997 555.59998 -0.082050972 -0.87844682 -0.47074282 0.005360465
122.1111 66.777779 556.11108 -0.087820143 -0.87025201 -0.48471543 0.0065404209
125.1429 66.285713 556.14288 -0.069978066 -0.85837632 -0.50822556 0.0073350179
128.1429 66 556 -0.026722159 -0.84107733 -0.54025453 0.0071898079
130.5 66 555.5 -0.0041575111 -0.82743961 -0.56153929 0.0074282009
134.75 66.25 555.25 0.009455069 -0.81030232 -0.58593577 0.0066730366
136.75 66.125 555.5 0.0087326169 -0.80138361 -0.59808701 0.0071879737
139.5 66 555.5 0.023187686 -0.79311657 -0.60862833 0.0085117854
143.27271 66.727272 555.36359 0.024185222 -0.79229629 -0.60965705 0.0099239675
146.0833 66.916656 556.25 0.011891429 -0.79192138 -0.61050719 0.011031395
149 66.916656 556.66669 0.047134966 -0.7545225 -0.65457928 0.0093857143
152 66.846153 556.69232 0.12900707 -0.7127772 -0.68942428 0.015208052
154.69231 66.769234 556.30768 0.17603514 -0.68845177 -0.70359492 0.019153919
157.6667 67.333344 556.33331 0.28712177 -0.65342218 -0.70042884 0.026582399
171.5 66.5 556.33337 -0.13929065 -0.30411321 -0.94239765 0.03246795
-62 69.363632 556.59094 -0.3041485 -0.062725984 -0.95055729 0.036007859
-58.75 70.25 555.25 -0.305821 -0.012756531 -0.9520036 0.027010163
107 69 555 0.2697579 -0.76580644 -0.58375615 0.032979488
109.75 69 555 0.10288557 -0.82325083 -0.55827647 0.017546752
112 69 555 0.016224386 -0.85402489 -0.51997912 0.0088712582
145.5 69 555 0.028141037 -0.80252755 -0.59595102 0.010401021
149.5 69 555 0.079114877 -0.78552556 -0.61375117 0.013072067
152 69 555 0.17707622 -0.76345438 -0.621113 0.01811455
158 69.599998 555.20001 0.35675678 -0.70586604 -0.61194587 0.023957973
160.75 70.25 556.75 0.35332575 -0.59372497 -0.72294652 0.027009485
173 69 557 -0.19819459 -0.39218396 -0.89828205 0.044172294
-76 74 557 -0.14246723 -0.70065582 -0.69913131 0.007028548
-73 74 557 -0.13532139 -0.66889137 -0.73093945 0.012021678
-70 73.800003 557 -0.099313758 -0.63201839 -0.76856339 0.020547535
-67 73.5 556.5 -0.1191548 -0.5683102 -0.81414098 0.03432909
-64 73.5 555.83331 -0.12690392 -0.46858814 -0.87425429 0.052454438
-61.200001 73.800003 556.59998 -0.1592467 -0.3347258 -0.92876214 0.05534064
-58 73 556.44452 -0.25247142 -0.1288992 -0.95898026 0.051991995
-55.200001 73.599998 555.40002 -0.2811203 -0.029558608 -0.95921719 0.038711451
161 72.333344 555.66669 0.39199591 -0.70556486 -0.59035373 0.018938771
163.8 73.599998 556 0.23838608 -0.74017459 -0.62873977 0.044377897
166.5 74 557 0.21114752 -0.6973902 -0.68488222 0.06406977
170.10001 73.699997 556.59998 0.12969108 -0.68879038 -0.71326584 0.072804905
172.3333 72.833344 555.83331 -0.05471044 -0.59990114 -0.79820132 0.080134556
-137 77 557 -0.23073678 -0.83573663 -0.49830201 0.012039607
-133 77 556.33331 -0.10935173 -0.85267651 -0.51086688 0.0051563699
-130 77 556 -0.047034107 -0.86771441 -0.49483281 0.0034719177
-127.25 77 556.75 -0.0044025099 -0.862939 -0.50528884 0.0011805405
-124 77 557 0.0039122473 -0.86750513 -0.49741289 0.00029651989
-121.25 77 557 -0.010056799 -0.86926955 -0.49423611 0.0016309863
-118 77 557 -0.028913215 -0.8644737 -0.50184578 0.0012028506
-114.6 77 556.79999 -0.034446672 -0.8626824 -0.5045715 0.001311174
-112 77 556.42859 -0.016206374 -0.86190957 -0.50680304 0.0015620594
-109 77 556.5 -0.01255558 -0.85295802 -0.52182847 0.0018998802
-106.2 77 556.59998 -0.012511228 -0.85059762 -0.52566826 0.0014272589
-103 77 557 -0.022295089 -0.84139371 -0.53996265 0.0017227621
-99.5 77 556.5 -0.037693132 -0.83851784 -0.54356879 0.0014823957
-97 77 556.57141 -0.053426079 -0.82445359 -0.56340218 0.0020824496
-94 76.599998 555.90002 -0.042003669 -0.81449479 -0.57864833 0.0022982045
-91 76.666656 556 -0.02802084 -0.80167359 -0.59710497 0.0020333314
-88 76.63636 556.09088 -0.037198268 -0.79556292 -0.60472792 0.0019205465
-85 76.699997 555.90002 -0.07003516 -0.78875619 -0.61070353 0.0026245124
-82 76.666656 556 -0.099912807 -0.7750755 -0.62391943 0.0023052136
-79 75.909088 556.09088 -0.11498128 -0.75788695 -0.64217335 0.003546379
-76.14286 75.571426 555.57141 -0.11465766 -0.73850411 -0.66442859 0.0024339708
-73 75.5 555.5 -0.10575241 -0.71147251 -0.69471091 0.0040155468
-70 75.428574 555.57141 -0.07280758 -0.69489312 -0.71541774 0.011787021
-67.333344 75.5 555.33331 -0.030924333 -0.64002663 -0.76773006 0.02493057
-65 75 555 -0.071395025 -0.57235229 -0.81689388 0.041316584
-60.555561 75.777779 555.55548 -0.06791281 -0.42834499 -0.90105963 0.065931797
-58.25 76 555.25 -0.11462922 -0.18403029 -0.97621363 0.074346155
-55 75.5 555.16669 -0.25610623 -0.078846298 -0.96342766 0.059663009
-53 75 555 -0.33180404 0.031853389 -0.94281042 0.03939195
166 75.300003 555.5 0.21878077 -0.73881143 -0.63741082 0.059550483
169.8571 75.428574 555.71429 0.15725629 -0.70398062 -0.69259059 0.070489958
-140.0625 79.1875 556.3125 -0.44550699 -0.7566033 -0.47861785 0.020274922
-136 78.428574 555.57141 -0.25371414 -0.83539993 -0.48758182 0.01350629
-133.25 78.25 555.25 -0.13288094 -0.86669159 -0.48082054 0.0080883205
-130 78 555 -0.041061588 -0.87218487 -0.48745006 0.0030612205
-126.75 78 555.25 -0.011221141 -0.87446445 -0.48495981 0.0020282255
-124 78.5 555.5 0.00080265669 -0.87820452 -0.4782846 0.00091334258
-121 78.5 555.5 -0.0083990404 -0.87863863 -0.47741351 0.0017781177
-118 78 555 -0.023234759 -0.876755 -0.48037577 0.0011529328
-115 78 555 -0.028784508 -0.87202018 -0.48862264 0.0011119299
-112 78 555 -0.010715879 -0.86907095 -0.49457139 0.00086048141
-109.25 78 555 -0.0018486658 -0.86694348 -0.49840301 0.0010949016
-106 78 555 -0.0012913835 -0.85616726 -0.51669717 0.0009898704
-103.25 78 556 -0.017825536 -0.84620756 -0.53255516 0.0013471859
-100.25 78 555.75 -0.034092132 -0.842641 -0.53739554 0.0017912799
-97 78 555 -0.040207524 -0.835334 -0.54827034 0.0022082524
-89 78 555 -0.028248206 -0.818048 -0.57445586 0.0021625697
-85 78 555 -0.063417934 -0.80543482 -0.58928174 0.0025237536
-58 78.714287 555.14288 0.036091361 -0.28947434 -0.95650506 0.11329243
-142 81.5 555.75 -0.60918146 -0.6427145 -0.46456003 0.018542811
-55.92857 82.142853 555.14282 0.35208315 -0.2070917 -0.91277075 0.14117645
-52.125 82.25 555.5 -0.15040003 0.034370784 -0.98802757 0.13206887
-144.6667 85 556.66669 -0.71714991 -0.50502616 -0.48025483 0.025206896
-143 84 555 -0.67746532 -0.57094711 -0.46374574 0.0164214
-54.666672 84.666656 555.83331 0.38401878 -0.23879582 -0.89191157 0.14738196
-51.727268 84.909088 555.90912 -0.46121854 0.11812446 -0.87938851 0.15569901
-50 85.5 555 -0.59110856 0.17028968 -0.78841108 0.12915432
140.5 86 555 -0.020200625 0.39360034 -0.91905969 0.13967615
143 86 555 0.043727178 0.47510943 -0.87883961 0.13625923
145 86 555 0.17717777 0.30824062 -0.93466341 0.16150139
149.5 86 555 0.015737729 0.12288781 -0.9922958 0.14917503
152.25 85.75 556 0.015256475 -0.25651547 -0.9664197 0.16290565
155.25 86 556.25 -0.22392352 0.57818782 -0.78457445 0.21422045
157 86 555 -0.081378452 0.11505858 -0.99001974 0.15766664
-155.5 88.333328 556 -0.6350919 -0.42274004 -0.6464898 0.062308483
-145.5 88 556 -0.72599947 -0.41762903 -0.54636139 0.053667866
-52.92857 87.464287 556 0.8495459 -0.52627236 0.036183286 0.15910621
-49.599998 88.199997 556.20001 -0.70996535 0.14939205 -0.68820876 0.13896415
115 89 555.33337 0.12678435 0.2458121 -0.96099019 0.14680336
119 89 556 0.029022383 -0.05912441 -0.99782866 0.1644326
122 89 556 0.028254652 0.25982127 -0.96524328 0.16180131
125.2 88.800003 555.20001 -0.0024845582 -0.098499455 -0.995134 0.16023926
128 88.5 555.5 -0.010779 -0.20197751 -0.97933078 0.16710995
131 88.5 556 -0.011710873 -0.27523872 -0.96130455 0.13721436
134 88 555.81818 0.07603734 0.17164747 -0.98221964 0.13575524
136.89999 88 556.09998 0.018951915 0.23893847 -0.97084975 0.14944498
140 88 556.11108 0.0084600169 -0.059460428 -0.99819481 0.15154287
143 88 556.27271 0.030356539 -0.17426705 -0.9842304 0.13536666
145.9231 88.230766 555.76923 0.024854524 -0.34532896 -0.93815255 0.15834422
148.75 88 555.08331 0.062885717 -0.22996688 -0.97116458 0.14169361
152.1111 88.222221 556 -0.017091788 -0.53845006 -0.842484 0.13607137
155.25 88.875 556 0.003763221 -0.58008856 -0.8145448 0.14111942
157.6667 88.111107 556 -0.16728693 -0.027053909 -0.98553699 0.1640369
-153.39999 90.800003 556.40002 -0.62472624 -0.40153465 -0.66969174 0.058305722
-146 90 555.5 -0.73871416 -0.3777748 -0.55820042 0.057830095
-51.25 90.25 555.5 0.87729138 -0.47662821 -0.056439035 0.15636186
-49.444439 91.222221 555.55548 -0.86617494 0.27496085 -0.41729772 0.13789347
100.04545 91.386368 555.13635 0.23437096 -0.07136254 -0.96952444 0.1365996
104 91 555.66669 0.094874509 -0.16015264 -0.98252219 0.13515656
107.1111 91.333344 555.11108 0.015662726 -0.48172414 -0.87618291 0.11403852
110.125 90.875 555 0.029063787 -0.35689649 -0.93369168 0.16285199
113 90.666656 555.33331 0.074126326 -0.34820107 -0.93448442 0.15399368
116 90.699997 555.59998 0.093201302 0.12582047 -0.9876653 0.15181968
118.8182 90.63636 555.72729 0.0048611443 -0.4822053 -0.87604475 0.14546829
122 90.5 556 -0.09112186 -0.55663788 -0.82574272 0.12574771
125.125 90.5 555.5 -0.087627061 -0.57078403 -0.81641108 0.13564171
128 90.166656 555.33331 -0.029386299 -0.58943212 -0.80728328 0.14260553
131.1429 90 555.42859 0.0077074817 -0.62808728 -0.77810472 0.10207979
134.1429 90 555.57141 0.012927048 -0.60890609 -0.79313707 0.10653418
136.8 90 555.40002 0.0055253441 -0.56325656 -0.82626361 0.10658157
139.6667 90 555.33331 -0.0066801962 -0.53601176 -0.84418404 0.10514481
143 90 556 -0.059297711 -0.55508268 -0.82967883 0.10415724
157.60001 90.400002 555.20001 -0.11598435 -0.80577803 -0.58074903 0.21626021
-151.25 94.25 556 -0.66662204 -0.34313992 -0.66171753 0.053978257
-147.3333 94 556.33331 -0.73528177 -0.33664292 -0.58824515 0.056481667
-49.14286 93.428574 555 -0.86225951 0.28502148 -0.41865414 0.137979
-150.5556 97.222221 556 -0.71499425 -0.30703568 -0.62810218 0.055509415
-148.39999 97.199997 555.79999 -0.75580579 -0.32922789 -0.56600928 0.048352778
-149.25 99 555 -0.78742576 -0.30045223 -0.53822774 0.037853952
22 104 557 0.11720195 0.92861396 -0.35205084 0.0013633844
-153.875 106.125 555.125 -0.82526964 -0.030722473 -0.56390274 0.057108235
-152 106.5 555 -0.80657578 0.013304923 -0.59098089 0.061988965
10 106 557 0.19698779 0.92943734 -0.31199685 0.00089646608
-154 109 556.11108 -0.6200605 0.17648791 -0.76444554 0.059540983
-151.5 109 555.5 -0.64790165 0.18969464 -0.73772573 0.061703742
-7 109.6667 556.33331 0.36366108 0.8284955 -0.42584723 0.011102148
-2.5 108 556 0.30548808 0.87891454 -0.36631447 0.0031959782
-153.25 111.75 555.75 -0.56144047 0.30718508 -0.76838917 0.04407521
-151.28571 111.7143 556.42859 -0.56354266 0.30461627 -0.76787275 0.045193754
-149 113 555 -0.5420934 0.35404828 -0.76209217 0.042753872
-16.9 112.9 555.5 0.48080522 0.6217438 -0.61827254 0.029589389
-13.66667 111.6667 556 0.42251003 0.72648865 -0.54194057 0.02085343
-10.5 111 556.5 0.35483509 0.80828691 -0.46985579 0.011074767
-152.33334 114.66665 556.33337 -0.54449737 0.37505865 -0.75023568 0.033231519
-148.60001 115 556 -0.55275548 0.38528734 -0.73892826 0.0365282
-18.875 115.125 555.5 0.53262621 0.48704219 -0.69217002 0.031172063
-16.4 115 557 0.5607608 0.4717001 -0.68047506 0.025112437
-151.6667 118 556 -0.56349671 0.37401086 -0.73660529 0.03178658
-147.8333 118 556.16669 -0.53295863 0.38111812 -0.75544965 0.03716265
-146 119 555 -0.57175285 0.3303507 -0.7509774 0.035035174
-20 118.5 555.38892 0.61734891 0.27419618 -0.73735791 0.01749499
-17 117.5 557 0.62465525 0.33531275 -0.70524544 0.012544321
-146.5 120.83335 555.83337 -0.62113416 0.29560551 -0.72581667 0.032075495
-20.111111 120.81945 555.55554 0.67005962 0.22084424 -0.70869452 0.0096862018
-145.39999 123.6 555.79999 -0.66782182 0.27456614 -0.69182909 0.026693113
-20.25 123.91665 555.75 0.70218492 0.19236957 -0.68551457 0.0039577479
-144.3333 126.3333 556 -0.72503567 0.28515777 -0.62690383 0.013280683
-21.4 127.2 555.40002 0.7249338 0.20412785 -0.65787756 0.0039778943
-20 126.5 557 0.71290141 0.21798114 -0.66652513 0.0024411036
-142.75 130 555.5 -0.74463266 0.31489277 -0.5885275 0.012202809
-22.222219 130 556 0.739793 0.22813293 -0.63297832 0.0023367961
-141.5 133 556 -0.75853509 0.31944373 -0.56796145 0.015462396
-23.4 133.2 556.20001 0.74588054 0.24921122 -0.61770219 0.0013233951
-142 135 557 -0.77546328 0.32418928 -0.54180992 0.01309262
-140 137 556 -0.81640106 0.30070072 -0.4930197 0.00093803008
-24.33333 135.7778 555.88892 0.74788904 0.23900405 -0.61930525 0.0014247575
-140 138.25 556.25 -0.81594455 0.30216247 -0.49288169 0.00072052859
-24.90909 139 556 0.74714291 0.22769667 -0.62444514 0.0015450371
-139.3333 142 556.66669 -0.8139317 0.31122097 -0.49056765 0.00087111129
-26.25 142.5 555.66663 0.73700482 0.21701898 -0.64009893 0.0010968159
-137.5 144.5 555.5 -0.80979317 0.31933543 -0.49219891 0.00080979464
-27.25 145.25 555.25 0.72982317 0.22642012 -0.64505196 0.001263127
-25.75 144.75 556.5 0.73080099 0.21664083 -0.64729947 0.0013292239
-136.5 147.5 556 -0.81005949 0.32084027 -0.4907802 0.00072245172
-27.83333 148 555.66669 0.72479129 0.23574845 -0.64737952 0.0010192946
-26 147.5 557 0.72689247 0.21733573 -0.65145409 0.0011397097
-134.5 151.25 555.5 -0.81183791 0.31591505 -0.49103653 0.00071881176
-17 -82.5 560 -0.32275152 -0.34352186 -0.8819434 0.029963581
-13 -82.5 559.83331 -0.14020863 -0.49369514 -0.85825795 0.043728426
-10 -82.888893 559 0.086676076 -0.56629515 -0.81963223 0.035546251
-7 -82.666656 559.11108 0.23156382 -0.55436975 -0.79940748 0.024704311
-17 -80 559.95837 -0.38864881 -0.23725246 -0.89031649 0.025566233
-13.125 -80.125 559 -0.21651542 -0.33913994 -0.91548085 0.041774996
-10 -81 558 0.037454575 -0.44919458 -0.89264858 0.048406176
-6.375 -80.25 558.25 0.26685807 -0.40226254 -0.87576914 0.040367875
-4.75 -79.75 559.5 0.34931424 -0.40938172 -0.84284407 0.02912569
-17.035715 -76.928574 559.75 -0.50085849 -0.0082105827 -0.86549026 0.026211379
-13.5 -77 558.33331 -0.33144745 -0.059841853 -0.94157398 0.044660214
-5.2142859 -77.028564 558.78571 0.38188544 -0.16825043 -0.90876585 0.039391443
-15.6 -74 559 -0.44060242 0.12151805 -0.88943958 0.036688417
-5.0500002 -73.875 558.79999 0.35434207 0.080798209 -0.93161863 0.041839205
-15.4 -71.199997 559.59998 -0.42382607 0.3662 -0.82841361 0.031971991
-14 -70 558 -0.34803 0.42066318 -0.83780521 0.040757295
-6.4444451 -70.777779 558.44452 0.25918657 0.37065318 -0.8918736 0.047728214
-4 -71 559.55548 0.37686136 0.34045687 -0.86143172 0.034970567
-2 -72 560 0.38588476 0.25062603 -0.88785106 0.042828847
-12.8 -68.599998 558.79999 -0.27443337 0.51645106 -0.81115013 0.038313523
-10 -68 559 -0.029496001 0.58945835 -0.8072601 0.043043122
-6.75 -68.5 559.625 0.22409971 0.53507245 -0.81454086 0.034209851
-4.5 -69 560 0.29759687 0.52389926 -0.79810131 0.024510728
-9.5 -66 560 0.00076335995 0.66924185 -0.74304432 0.026837539
126.75 -16 560 0.33572528 -0.59188074 -0.73277938 0.066212215
104 -13 560 -0.10773968 -0.81844902 -0.56438768 0.0012714959
107 -13 560 -0.10914229 -0.82128435 -0.55998206 0.0012304261
110.25 -13 559.75 -0.11356913 -0.82672256 -0.55102795 0.0013042298
113.25 -13.25 559.25 -0.10072732 -0.82362771 -0.55811417 0.0011728798
116.25 -13.75 558.625 -0.072200239 -0.80814838 -0.58453685 0.0066413428
119 -14.5 559 0.0026906838 -0.76011664 -0.64978105 0.030805267
122 -14.375 559 0.13644747 -0.6892361 -0.71157265 0.05787193
125.1111 -14.33333 558.55548 0.34985405 -0.54124629 -0.76462704 0.075378388
127.5 -14.33333 559.33331 0.50921679 -0.3839747 -0.77023482 0.087512642
86 -10 560 -0.11204768 -0.81990409 -0.56142908 0.00039304447
89 -10 560 -0.12161903 -0.81322432 -0.56910026 0.00086346018
92.333344 -10.33333 559.5 -0.12952641 -0.81212181 -0.56892985 0.0012584832
95.14286 -10.71429 558.71429 -0.13768946 -0.81090808 -0.56874394 0.001387567
98.181824 -10.90909 558.72729 -0.13933627 -0.80715156 -0.57366526 0.00091326272
101 -11.5 559 -0.12719364 -0.80367279 -0.58131897 0.00041003071
103.6 -11.8 559 -0.1134541 -0.80594003 -0.58102393 0.00095139077
107.25 -12 558.25 -0.11913535 -0.81333566 -0.56946629 0.0016939009
110 -12 558 -0.11556889 -0.81541395 -0.56722468 0.0009666275
112 -12 558 -0.10490053 -0.81289512 -0.57288516 0.0017444179
126.66665 -11.5 558.66663 0.63351494 -0.20317473 -0.7465781 0.078669548
59 -7 560 -0.053639669 -0.87394118 -0.48306274 0.0012376189
62 -7 560 -0.062991284 -0.87020242 -0.48865116 0.0015375777
65 -7 559.75 -0.065763772 -0.86656332 -0.49471533 0.0015572452
68 -7.5 559.5 -0.07780496 -0.8618778 -0.50111187 0.0014871187
71.14286 -7.4285712 559.14288 -0.090663977 -0.85291028 -0.51412463 0.0015833792
74 -7.5714288 559.14288 -0.092848122 -0.84743899 -0.52271062 0.001293471
77.14286 -7.7142859 558.71429 -0.089785732 -0.84635973 -0.52498931 0.001966258
80.14286 -8.4285717 559.28571 -0.094293632 -0.83416593 -0.54339296 0.0014249464
82.85714 -8.5714283 558.57141 -0.095632322 -0.8343907 -0.54281366 0.00065508165
85.800003 -8.6000004 558.59998 -0.10329036 -0.83387482 -0.54220277 0.0014138563
89.25 -9 558.75 -0.1132104 -0.82119673 -0.55930257 0.0013891646
91.5 -9 558 -0.12052588 -0.81832355 -0.5619787 0.00076515513
125.5 -7.75 558.75 0.73611802 0.023791263 -0.67643499 0.050442331
127 -9 560 0.70504624 0.018584635 -0.70891786 0.055239849
-68 -4 560 -0.0055419952 -0.83148128 -0.5555253 0.0020382898
29.25 -4.25 559.5 -0.1479366 -0.86201096 -0.4848215 0.0020003938
32.14286 -4.4285712 558.57141 -0.14673391 -0.8590669 -0.49038067 0.0020157727
35 -4.625 558.75 -0.1363162 -0.8556819 -0.49922568 0.0019017756
37.85714 -4.5714288 558.71429 -0.11146178 -0.85722226 -0.50273883 0.0023640362
41 -5 559 -0.10410028 -0.86103117 -0.49778357 0.0024563372
43.875 -5 558.625 -0.092895098 -0.86765403 -0.48841274 0.0021735856
47.25 -5.25 559.25 -0.077495702 -0.87133121 -0.48453718 0.0023935763
50 -5.5 559.5 -0.079217657 -0.8688674 -0.48866561 0.001771634
53.125 -5.5 559.125 -0.075295337 -0.87588006 -0.47661808 0.0016868653
55.75 -5.75 558.75 -0.060367398 -0.87655789 -0.47749561 0.0014900184
59 -6 558.33331 -0.058691699 -0.87627929 -0.4782154 0.0018416231
62 -6 558 -0.060135622 -0.87910652 -0.47281647 0.0013694011
65 -6 558 -0.063678667 -0.87407428 -0.48160061 0.0014953254
68 -6 558 -0.070390135 -0.87079537 -0.48658052 0.0016204803
70.5 -6 558 -0.077111058 -0.86346459 -0.49848047 0.0017017965
124.8571 -5 559 0.75064105 0.17546831 -0.63698423 0.025878953
