ply
format ascii 1.0
comment PCL generated
element vertex 690
property float x
property float y
property float z
property float nx
property float ny
property float nz
property float curvature
element camera 0
property float view_px
property float view_py
property float view_pz
property float x_axisx
property float x_axisy
property float x_axisz
property float y_axisx
property float y_axisy
property float y_axisz
property float z_axisx
property float z_axisy
property float z_axisz
property float focal
property float scalex
property float scaley
property float centerx
property float centery
property int viewportx
property int viewporty
property float k1
property float k2
end_header
-55.5 83.416672 532.41663 0.14976287 0.82584268 -0.54364961 0.028062442
-53 81.5 532 0.26687798 0.72687912 -0.63278973 0.025775943
34.222221 83.111107 533.77777 -0.071935333 -0.88394278 -0.46202868 0.0013860851
40 82.75 533.875 -0.039238486 -0.89143044 -0.45145553 0.0010320062
46.14286 82.571426 533.85712 -0.0069797467 -0.88912034 -0.45762038 0.00087334251
52 82.75 533.875 -0.0038979293 -0.89041597 -0.45513099 0.00065635907
64 82.5 533.83331 -0.051568877 -0.89110023 -0.45086688 0.0011443252
67 82.400002 533.79999 -0.065320574 -0.89276713 -0.44575775 0.00094570615
70 82.5 533.5 -0.083948053 -0.89922065 -0.42936569 0.0011974905
72.982147 82.714287 532.21429 -0.099892952 -0.90649593 -0.41022757 0.0014056127
75.75 82.388885 532.05554 -0.080102712 -0.90519053 -0.41738915 0.0036027387
79 82.333344 531.16669 0.0075637563 -0.8833546 -0.46864426 0.020283272
82.25 81 532 0.088485479 -0.86726767 -0.4899154 0.031196432
85 81.5 532.5 0.17787467 -0.83529121 -0.52023953 0.035358064
-63 84 533 -0.40353921 0.77997905 -0.47831875 0.042858619
-32 86 533.25 -0.26473615 0.095644951 -0.95956588 0.089542605
-28.833336 86.166672 532.54163 -0.20709978 0.00038139851 -0.97831976 0.094756134
-25.97143 85.842857 532.5 -0.2015989 -0.20616354 -0.95752519 0.10935193
-22.966665 85.76667 532.5 -0.15114449 -0.31603608 -0.93663043 0.099167429
-20 86 532.58337 -0.14466786 -0.46607378 -0.87283814 0.10075538
-16.883335 85.76667 532.3667 -0.13098912 -0.63447142 -0.76176625 0.060921561
-14 85.5 532.33331 -0.12404721 -0.675053 -0.72726595 0.050722528
-10.75 85.5 533.5 -0.10311333 -0.75288695 -0.65002221 0.034089062
-8 85.5 533.5 -0.069874711 -0.77835608 -0.62392259 0.027514318
-1.75 86.25 531 -0.045804631 -0.82424349 -0.56437987 0.015874567
1.1964285 86.035713 532.42859 -0.018054985 -0.87144899 -0.49015382 0.0062185917
4 86.5 531 -0.029247511 -0.85705328 -0.51439697 0.0084133837
6.75 86.75 531 -0.035855141 -0.85974544 -0.50946271 0.0072228517
9.7619047 86.063492 532.43652 -0.044058584 -0.87344676 -0.4849222 0.0039496487
13 86 532.41663 -0.041571032 -0.87834483 -0.47621655 0.0036436238
15.8125 86 532.5 -0.026622998 -0.88481587 -0.46517968 0.0025000439
19 86 531.33331 -0.037745357 -0.88477433 -0.46448866 0.0016421448
21.875 85.5 532 -0.057641953 -0.88451231 -0.46294203 0.001621682
24.9375 85.4375 532.0625 -0.085510857 -0.88545012 -0.45679963 0.0012040784
27.944445 85.222221 532.05554 -0.088525221 -0.88705277 -0.45310113 0.00067468773
30.875 85.25 531 -0.087458983 -0.88706869 -0.45327696 0.00077822001
34.666672 84 531.33331 -0.07237184 -0.88723993 -0.45559588 0.0011428688
36.75 84 531.25 -0.060904529 -0.88586873 -0.45992094 0.0012826591
40.14286 84 531.42859 -0.034590058 -0.89047217 -0.45372108 0.0010629996
49 84 531.5 -0.0078708967 -0.8864361 -0.46278405 0.0005847789
52.285709 84 531.28571 -0.0062561845 -0.88857937 -0.45868027 0.00068976817
55 84 531 -0.012252549 -0.89233226 -0.45121303 0.00066635292
57.833328 84 531.33331 -0.016191274 -0.89463115 -0.44651198 0.00064484752
61 84 531.5 -0.035178922 -0.89254373 -0.44958654 0.0005474037
64.125 84 531.25 -0.052400041 -0.89769733 -0.43748564 0.0012234383
87.5 85.5625 532.0625 0.74805081 -0.42256477 -0.51172155 0.085364468
-28.5625 88.375 532.8125 -0.27629232 0.10550817 -0.95526463 0.099715568
-26.025 89.074997 532.625 -0.33658046 0.14822711 -0.92991519 0.10144088
-22.76923 89.07692 531.46149 -0.30531353 0.10542419 -0.94639808 0.091443256
-22.5 91 532 -0.30931488 0.095142417 -0.94618833 0.087894715
-20.5 92.5 533 -0.42029545 0.142222 -0.89617229 0.063499227
-16.833336 95 532.5 -0.40218103 0.067227751 -0.91308862 0.056093123
85.666656 95.333344 531.33331 0.86843312 0.33185703 -0.36836764 0.043606371
-13.82143 97.714287 532.64282 -0.344172 0.018402977 -0.93872625 0.080752701
-10.7 98 531.40002 -0.29777876 0.12843187 -0.94595611 0.072221346
-8 98.5 531 -0.22251947 0.16959919 -0.9600631 0.073902048
87 96 533 0.83260721 0.39654073 -0.38667896 0.052481461
-16.63636 101.7273 531.36359 -0.29938531 -0.48078322 -0.82414556 0.084637836
-14.125 100.375 533.5 -0.25926331 -0.12697995 -0.95742291 0.096001439
-11.52381 100.28571 532.5238 -0.2413018 -0.0073806653 -0.97042203 0.088321634
-8.1000004 101.1 531.79999 -0.21100391 0.063150778 -0.97544312 0.09535481
-4.75 101 531.58331 -0.22634017 0.203926 -0.9524622 0.068995811
-2.2 101.6 531.20001 -0.21758063 0.2454183 -0.94468439 0.067969315
47 101.5 533 0.36577496 0.82956952 -0.42192799 0.048845425
49 100 531.33331 0.21975259 0.86213118 -0.45655081 0.043304969
52 100.75 531 0.065570474 0.90787989 -0.4140709 0.035184342
54.75 101 531 -0.02280765 0.89674282 -0.44196394 0.017234839
63.833328 101 531 0.0017317949 0.8927322 -0.45058423 0.0086085377
66.5 100.16665 532.66663 0.089398511 0.90393627 -0.41821885 0.0084212506
71 100 531.5 0.10967167 0.92211288 -0.37105238 0.0074326899
82.5 99.5 531.5 0.50979263 0.73768342 -0.44264501 0.0321244
-28.875 104.5 531.25 -0.41146904 -0.54542249 -0.73021066 0.042498741
-26 103.5 533.5 -0.38920128 -0.58282793 -0.71332592 0.034867194
-23.083336 103.625 532 -0.32522294 -0.61193377 -0.72094876 0.034383085
-19.85 102.8 531.5 -0.29274824 -0.56866926 -0.76870912 0.062560268
-14 102 531.33331 -0.1375095 -0.35761181 -0.92369092 0.10101756
-4.75 103.75 531.375 -0.11835694 -0.072366096 -0.99033064 0.08474838
-2 103.75 531.75 -0.16113871 0.070599362 -0.98440343 0.068037242
1.153846 103.9231 531.30768 -0.21235846 0.13196312 -0.9682405 0.075634889
45 103.5 531 0.56270909 0.69792259 -0.44301522 0.035275418
55.5 103 533.5 -0.032222848 0.90681034 -0.42030549 0.01668914
58 103 532 -0.075336635 0.89744025 -0.43465549 0.0096034836
61 103 531.33331 -0.018792108 0.89176857 -0.45210141 0.010159055
-31.950001 105.9 531.33337 -0.51801658 -0.37103778 -0.77070725 0.038488995
43.75 105.75 532 0.63498855 0.66149813 -0.39901105 0.024399137
-32 109.89999 532.40002 -0.58231175 -0.12218109 -0.8037318 0.039508324
40.5 109.5 531.66669 0.62877965 0.55919951 -0.54030728 0.045793202
42 108 532 0.6891467 0.57869369 -0.43610838 0.018072022
-31.958336 112.95835 532.66663 -0.60891318 0.10927755 -0.78567362 0.034342643
27.5 113.1667 531.33331 0.33845726 0.54765207 -0.76519531 0.057056241
30.5 113 531.5 0.32976803 0.54201764 -0.7729618 0.084570177
39.5 112.875 532.875 0.56323665 0.4350704 -0.70248002 0.12032417
-31.966663 115.85 532.59998 -0.58798552 0.34032667 -0.73379207 0.030926874
9.8571424 116.5714 531 0.070724443 0.0081348438 -0.99746275 0.058795188
27 115 532 0.38031447 0.4124184 -0.8278116 0.077130094
33 114 533 0.34649581 0.4441551 -0.82623655 0.1058158
38 114 533 0.43799388 0.45714241 -0.77406853 0.1228294
-28.910715 119.03571 532.39282 -0.53219938 0.56785804 -0.62793392 0.011589434
9.75 119.0625 531.4375 0.13825712 -0.024009271 -0.99010533 0.054574881
13 119.25 531.75 0.041256465 0.040570579 -0.99832457 0.065507434
15.64286 119.2857 531.35712 0.0017902415 0.11064223 -0.99385864 0.085344262
26 119 533 0.33277085 -0.085614912 -0.93911326 0.084870473
-25.75 121.5 532.90002 -0.59295851 0.50822884 -0.62458277 0.02144148
-22.875 122 532.5 -0.63687217 0.4469738 -0.62817848 0.029823618
-20.5 122.5 531 -0.66038841 0.35410956 -0.66218847 0.038855363
25.1 121.9 531.29999 0.28126118 -0.26081184 -0.92350918 0.088665962
27.875 121.5 532.41663 0.28412396 -0.28007987 -0.91696721 0.082931302
31 121.5 532.5 0.25344318 -0.37306455 -0.89251858 0.075647481
33.918182 121.64545 532.5 0.18044898 -0.37970677 -0.90733725 0.084573686
37.099998 121.8 533 0.14245632 -0.53175676 -0.83482981 0.075688712
40.1875 122.1875 533.75 0.20914818 -0.58074546 -0.78676027 0.06946373
72.85714 122.7143 533.71429 -0.049997631 -0.84853595 -0.52677023 0.0057160044
76.222221 122.2222 533.77777 -0.015768917 -0.84963202 -0.5271402 0.0092555387
-20 123.75 532.25 -0.69342983 0.3385348 -0.63604188 0.040041
36.5 123 532 0.087978512 -0.56953859 -0.81724268 0.072269991
39.909088 124.63635 532.04541 0.067280084 -0.70231748 -0.70867729 0.038643781
43 124 533 0.11370675 -0.7242586 -0.6800884 0.03717849
45.900002 124.6 532.09998 0.036437407 -0.81168199 -0.58296192 0.011376095
49.125 124.5 532.5 0.012626026 -0.81638151 -0.57737499 0.0084259585
52 124.6 532.09998 -0.0030791846 -0.8353774 -0.54966819 0.0097407242
55 124 533 -0.0041716709 -0.83287472 -0.55344576 0.0095089143
57.954544 124.63635 532 0.02298132 -0.82482725 -0.56491762 0.011367226
61 124 533 -0.0042342395 -0.83242315 -0.5541243 0.0088554909
64.02597 123.63635 532.474 -0.0327258 -0.84000629 -0.54158884 0.0067554046
67 124.3333 531 -0.06117202 -0.84489065 -0.53142983 0.0085481042
69.988098 123.66665 532.44049 -0.058295827 -0.85934311 -0.50806594 0.0039093443
74 123 532 -0.036390897 -0.85164499 -0.52285415 0.0077087036
76.333344 123 531.66669 -0.0043251081 -0.86476105 -0.50216478 0.0072064102
79 123 531.5 0.049196176 -0.87288284 -0.48544338 0.011816532
81.666656 123 531.33331 0.13648325 -0.88381076 -0.44749412 0.018079901
84.666672 123.5 531.16663 0.18324353 -0.86306494 -0.4706811 0.018853122
88.224998 124.725 532.125 0.3440671 -0.80548394 -0.48250753 0.030591357
-17.666664 127.83335 532 -0.7805689 0.060811501 -0.62210459 0.037613429
90 126 531 0.45507026 -0.69391495 -0.55802613 0.047579929
93 128 533 0.63288099 -0.54873228 -0.5462184 0.041349526
-20.07143 131 532.57141 -0.83222586 -0.018820312 -0.5541172 0.023405092
-22.266668 133.26666 532.18097 -0.84338069 0.0040818932 -0.53730094 0.025753245
-22.25 143.25 532.5 -0.77558732 0.23789468 -0.58469683 0.046026383
-22 145 532 -0.72369349 0.32084167 -0.61100608 0.046037283
81.900002 146.2 531.20001 -0.011504872 0.47627011 -0.87922376 0.0026549781
85 146 531 -0.011172069 0.47051254 -0.88232255 0.0022338147
-20.1 149.05 532.79999 -0.5942719 0.40842235 -0.6928435 0.067701213
-16.63636 148.9091 531.54547 -0.38359481 0.48446313 -0.78622556 0.043839358
-14 149 531.11108 -0.28348213 0.50312102 -0.81639886 0.036899135
-11 148.75 531.625 -0.140292 0.51769865 -0.84398234 0.012626031
-4.75 149 531 -0.0022492032 0.51186746 -0.85906154 0.00060198974
4 149 531 0.025842723 0.50539279 -0.86250234 0.0011043727
7.2222219 148.7778 531.33331 0.030908896 0.49739838 -0.86697143 0.00098326907
10 148.8889 531.55548 0.02428964 0.49456009 -0.86880398 0.00074080256
16 148.8889 531.11108 0.0020323738 0.49717852 -0.86764586 0.00065623276
19.1 148.89999 531.40002 -0.016376756 0.49075961 -0.87114114 0.00082340528
21.81818 149.0909 531.72729 -0.019335013 0.48499686 -0.87430215 0.00036205904
25.25 149 531.25 -0.018910967 0.48240653 -0.87574321 0.00056984066
34 149 531.55548 -0.00090525707 0.47527784 -0.87983531 0.00091613689
45.900002 149.10001 531.70001 0.020640841 0.48449939 -0.87454808 0.00032993744
49.099998 148.89999 531.59998 0.01790937 0.49453336 -0.86897415 0.00058256369
51.81818 149.0909 531.63641 0.012372996 0.50102443 -0.8653447 0.00091670128
55.18182 148.9091 531.27271 0.014530439 0.5021472 -0.86466014 0.00027583897
57.888889 149 531.55548 0.017368698 0.50018191 -0.86574614 0.00092215696
61.200001 148.8 531.5 0.018488551 0.49591467 -0.86817443 0.0011686365
63.900002 149.10001 531.40002 0.021383025 0.50202894 -0.86458641 0.0014561248
67 149 531.55548 0.034303773 0.50048822 -0.86506355 0.00011500978
69.818176 148.3636 532 0.04361685 0.50395495 -0.86262798 0.00082377676
72.875 148.875 532.5 0.040917069 0.50150514 -0.86418658 0.00077596935
75.875 148.5 532.5 0.027172871 0.4865891 -0.87320822 0.00073775678
79 148.5 532.5 -0.00090546283 0.46848348 -0.88347179 0.0026808055
82 148.5 532.5 -0.0073150182 0.47098929 -0.88210857 0.0029225112
85.400002 148.8 532 -0.01363411 0.47031862 -0.88239133 0.0022351628
88 149 532 -0.013749606 0.46244156 -0.88654315 0.0020746712
90.5 148.75 532.5 -0.014197689 0.46242133 -0.88654661 0.0020643913
-16.444445 151.55554 532.72229 -0.31748 0.50579304 -0.80210966 0.043109234
-14 151.75 532.5 -0.27323276 0.54397774 -0.79336756 0.038500804
-10.66667 151.8667 533.13342 -0.15014789 0.55708295 -0.81677061 0.018079514
-7.6111112 151.5 532.61108 -0.062013913 0.54438311 -0.83654124 0.0055399677
-4.75 151.75 532.6875 -0.015001321 0.52922463 -0.84834915 0.0014233569
-2 151.75 532.33337 0.0079274382 0.52125543 -0.85336387 0.00073848537
1.25 151.75 532.5 0.017798964 0.5220108 -0.85275322 0.00056806789
3.8214285 151.64285 532.57141 0.018766657 0.51657492 -0.85603637 0.0003745984
6.9000001 152 533.40002 0.023365453 0.50441086 -0.86314756 0
9.6428576 152.0714 533.5 0.020195607 0.49554074 -0.86834991 0.0001178351
13 152.1111 533.44452 0.012461369 0.49164546 -0.87070626 0.00057215139
15.64286 152.1429 533.57141 -0.0030353058 0.48738137 -0.87318397 0.0010718904
19 151.75 532.875 -0.014909031 0.48240009 -0.87582409 0.00075261289
21.75 152 533.08331 -0.019266818 0.48293397 -0.87544471 0.00054472015
25 152.2222 533.44452 -0.01880434 0.48393431 -0.87490231 0.0004460612
27.785715 151.8857 532.5 -0.016255671 0.48475003 -0.87450165 0.00059299183
31 152 531.88892 -0.0062352247 0.48341966 -0.87536651 0.00091156072
33.75 151.75 532.5 -0.0015389423 0.48178989 -0.87628537 0.0012443741
37 151.75 532.5 0.0087939724 0.47759843 -0.87853426 0.0001549593
39.75 151.75 532.5 0.016919393 0.47537664 -0.87961966 0.00023486055
42.82143 151.64285 532.71429 0.023684297 0.47611547 -0.87906379 0
45.916672 152 533.5 0.028204661 0.48735362 -0.87274909 0.00077604759
49 152 533.33331 0.021183988 0.49608847 -0.8680135 0.00073550979
51.833328 152 533.33331 0.015790479 0.50278175 -0.8642692 0.00017374862
55 152 533.33331 0.016230868 0.50841486 -0.86095923 0.00043150084
57.954544 151 533.27271 0.019606864 0.50983983 -0.86004579 0.001134949
61 151.05554 533.38892 0.020464074 0.51379544 -0.85766864 0.00088717556
64 152 533.33331 0.025905451 0.51937985 -0.85415077 0.0002882875
67 152 533.33331 0.033509638 0.51647788 -0.85564464 0.00016626593
70 151 533.33337 0.037823491 0.50970209 -0.85951918 0.00071239256
73.099998 151.89999 533.79999 0.023089088 0.49491352 -0.86863548 0.0011846391
84.699997 151.05 533.45001 -0.011036233 0.46765447 -0.88384247 0.0022585816
88.363632 151.54544 532.63635 -0.0093893232 0.45800987 -0.88889754 0.0024716274
90.5 152 533 -0.0082771741 0.45845404 -0.88867956 0.0023738623
33.777779 154.6667 533.77777 -0.0015301108 0.47994193 -0.87729889 0.0005950756
88 154 533.75 -0.013269895 0.46436501 -0.88554448 0.0026522656
91 153 532 -0.0082771741 0.45845404 -0.88867956 0.0023738623
-106.3333 11 534.66669 -0.16130649 -0.84091347 -0.51657027 0.015766995
-104.5 10 536 -0.13333443 -0.83763486 -0.52970731 0.016126812
-101 10.27273 534.09088 -0.092003793 -0.8523888 -0.51475108 0.014196258
-95 10 536 0.0094483821 -0.8586185 -0.51252806 0.0013253505
-91.75 10 536.5 0.015830319 -0.86192906 -0.5067817 0.0009282431
-89 10 536 0.012104792 -0.86428881 -0.50285017 0.0010346938
-85.666672 10.083335 535.08337 0.0068941172 -0.86756539 -0.49727532 0.0014016635
-83.416672 10 535.08337 0.0024446279 -0.86834079 -0.49596202 0.0012479489
-80 10 536 -0.00080308382 -0.86448914 -0.50265092 0.00092788087
-77.25 10 536 0.0078175571 -0.86325431 -0.50470865 0.00072994235
-74.25 10.1 535 0.017148048 -0.85063529 -0.52547652 0.0013773753
-70.5 10 535.16663 0.011258774 -0.84127957 -0.540483 0.0029247797
-67.833328 10.083335 535 0.013676614 -0.81816918 -0.57481492 0.0076606502
-65 10 536 0.016086653 -0.83657807 -0.54761153 0.0032531761
-62.25 10 535.09998 0.042911522 -0.79353565 -0.60700887 0.017092178
-58.5 10.142855 535 0.08691626 -0.75220382 -0.65317297 0.03297564
-56 10 536 0.072227582 -0.75327349 -0.65372956 0.036038596
-52.75 10 536.25 0.098499425 -0.72275817 -0.68404573 0.048083954
-50 10.25 535 0.12082817 -0.62819558 -0.7686162 0.064235181
-46.9375 10.4375 535 0.13590266 -0.56754744 -0.81204706 0.070809275
-45 10 536 0.15482801 -0.54232931 -0.82577676 0.07073506
-41 10 536 0.1242565 -0.529625 -0.83908147 0.069446057
-37.958336 10.5 535.33337 0.22890303 -0.3149367 -0.92109621 0.07597436
-35.222225 11.055555 535.5 0.22865912 -0.21523367 -0.94941533 0.075216927
-31.8125 10.75 536.1875 0.28409207 -0.23176174 -0.93036455 0.085601769
-29 10.75 536.91669 0.29284897 -0.11444387 -0.94928503 0.07942038
-41.125 13.875 534.5 0.23177652 -0.11889122 -0.96547621 0.080370165
-38.099998 13.885715 535.61426 0.27216846 -0.029991684 -0.96178216 0.084989518
-43.743591 17.217949 535.30774 0.29769018 0.14658143 -0.94334221 0.057295609
-40.799999 16.066668 535.73334 0.26109752 0.18060195 -0.9482674 0.058091838
-50.083328 20 534.41669 0.29137626 0.2611846 -0.92026216 0.038259175
-46.833328 20.16667 535.5 0.32024273 0.27162799 -0.90755874 0.035851572
-44.299999 19.6 535.70001 0.31726578 0.31178224 -0.89561945 0.028740354
-53.14286 22.57143 534.85712 0.2973066 0.36858281 -0.88076985 0.021225872
-50.288887 23.022221 535.61108 0.30582389 0.41267517 -0.85800397 0.0076933876
-58.5625 26.270836 535.25 0.33189589 0.40195137 -0.85339326 0.011943921
-55.841267 25.09524 535.7619 0.31234804 0.4212127 -0.85148025 0.0056095873
-52.702377 25 536.41663 0.28684682 0.40875289 -0.86639476 0.010056111
-62.333328 28.66667 534.66669 0.33518657 0.35001847 -0.87472117 0.022022841
-58.833328 29 536.33331 0.31909797 0.30290398 -0.8980121 0.032042764
-68.25 32 534.08331 0.28873074 0.22916867 -0.92957854 0.044918552
-64.723808 31.314285 535.64764 0.3149595 0.20872846 -0.92586875 0.045520369
-62 30 536 0.33974314 0.23042646 -0.91185433 0.044370819
-74.1875 35.25 534.125 0.27345473 0.15372625 -0.94952136 0.058710385
-70.800003 35.200001 534.79999 0.27971774 -0.033544403 -0.95949602 0.07201346
-67.958328 35.125 535.5 0.26799768 -0.023877673 -0.96312356 0.06838432
-65.083344 35 536.58331 0.25187987 -0.1174869 -0.96060055 0.07088352
-76.818176 37.909088 534.27271 0.17481539 -0.15326573 -0.97259921 0.082739346
-74.099998 38.099998 534.5 0.20619869 -0.25066963 -0.9458577 0.06868396
-70.449997 37.450001 535.25 0.23092456 -0.24459609 -0.94172537 0.064807728
-67.333344 37 536 0.23453942 -0.25654328 -0.93764436 0.068483792
-64.928574 37.714287 535.20532 0.17190051 -0.40669319 -0.89724636 0.044927035
-62 37.333328 536.55548 0.22626406 -0.34623748 -0.91045272 0.054877639
-59.090912 37.272732 536.72729 0.20114636 -0.36549628 -0.90881932 0.04064633
-56.0625 37.833336 535.66663 0.2202062 -0.36555868 -0.904365 0.035296574
-53.25 38.75 534.75 0.24751461 -0.36032328 -0.89939064 0.033495646
-50.099998 37.599998 536.79999 0.2705785 -0.29359686 -0.9168359 0.03466652
-46.833328 37.75 536.83331 0.32960173 -0.21019813 -0.92042345 0.036211144
-95 41 534.5 -0.27559498 0.80276763 -0.52878308 0.052863348
-91.800003 40.599998 534.20001 -0.25811964 0.77616489 -0.57527572 0.075682774
-62.25 39 534.75 0.24207203 -0.443865 -0.86277747 0.041260771
-59 39 535 0.23881175 -0.41778377 -0.87659895 0.033190548
-50.19643 40.07143 534.5 0.31172526 -0.28806794 -0.90545243 0.040105015
-47.283337 40.350002 535.41669 0.34652674 -0.19747716 -0.917018 0.036708795
-88.400002 43.400002 535.79999 -0.482575 0.62963134 -0.60883963 0.098310001
-50.153851 43.76923 534.61542 0.41362295 -0.053374298 -0.90888244 0.043161932
-46.92308 44.07692 536.9231 0.47923601 0.048594993 -0.87633973 0.028406745
-86.5 47 535.33337 -0.692307 0.38527739 -0.61014128 0.078903534
-53 47 534.55548 0.46296403 0.023720607 -0.88605958 0.037381653
-50.033337 46.066666 535.83331 0.46868074 0.080544598 -0.87968796 0.029065406
-85.25 49.75 534.25 -0.76514405 0.27812898 -0.58068824 0.043312833
-52.666664 50.244446 535.70001 0.49023348 0.18270266 -0.85222697 0.0087158745
-83.666656 53 534 -0.80557883 0.27503377 -0.52478492 0.021257197
-56.18182 52.909088 534.36359 0.50945896 0.18011016 -0.84143448 0.0070943013
-54 52 535 0.50558794 0.18267554 -0.84321439 0.0065226313
-83.833328 55.333336 536.16663 -0.81725639 0.38245356 -0.43106991 0.0026632994
-55.733334 55.433334 535.73334 0.48686707 0.09302479 -0.86850846 0.018319681
-80.666656 59 534 -0.74747795 0.46055719 -0.47871059 0.0074665085
-59 59 534.44452 0.41726828 -0.057537671 -0.90696013 0.043473434
-56.450001 58.950001 535.75 0.42797211 -0.077941827 -0.9004249 0.039521284
-79.75 61.916664 535.33337 -0.73123437 0.49811485 -0.46602336 0.0073921555
-58.5 62.333336 535.20837 0.33825561 -0.28871146 -0.89567232 0.058579672
-56.545456 61.590912 535.77271 0.32919535 -0.31420076 -0.89045399 0.060150098
-77.333344 65 534.33331 -0.62273055 0.5265137 -0.57878321 0.030575277
-58.5 64.5 535.22229 0.23452134 -0.39185238 -0.8896355 0.054126211
-55.9375 64.75 535.375 0.23407057 -0.49990058 -0.83385277 0.051501483
-53.104164 64.5625 535.39587 0.20503984 -0.5802871 -0.78817856 0.050669376
-50 64.545456 535.09998 0.17781138 -0.66159284 -0.72847658 0.02926762
-47 64.75 535.41663 0.19914226 -0.64422071 -0.73845923 0.026681898
-44 64.75 535.375 0.2060824 -0.61933929 -0.75759411 0.03074858
-41 64.833328 535.41663 0.26309234 -0.5997957 -0.75566363 0.038237318
-37.84127 64.89682 535.69049 0.34643981 -0.47808269 -0.80710375 0.055302996
-35.125 64.9375 535.625 0.35260934 -0.42461008 -0.83389026 0.054498892
-76 67 534 -0.58046812 0.52058131 -0.62614048 0.043111909
-37.799999 68 534.06671 0.42299989 -0.25128847 -0.87058902 0.060516752
-35.166672 67.833344 535.58337 0.44288886 -0.22709897 -0.86733818 0.051648684
-73 70 535 -0.59321684 0.43394256 -0.67807639 0.052492529
-71.166656 71 534 -0.56218642 0.38889626 -0.72986716 0.063849933
-37.662498 70.9375 535.125 0.50908393 -0.069260813 -0.85792571 0.035005033
-35 70.916656 536.83331 0.50118411 -0.063060947 -0.86303991 0.027512424
-70.699997 73.900002 535.29999 -0.66649956 0.40504196 -0.62587488 0.045700725
-38.085716 73.971436 535.51428 0.49042258 0.056241535 -0.86966807 0.021606188
-40.650002 77.099998 535.09998 0.37941548 0.25605443 -0.88908935 0.044945929
-38.5 76.571426 535.89282 0.38585979 0.15778898 -0.90896368 0.046274155
-68.25 78.75 535.25 -0.72638309 0.48438865 -0.48758104 0.017089708
-43.75 80 534.16669 0.21574542 0.51092297 -0.83211273 0.061702915
-40.924999 80 535.5 0.19843522 0.34543678 -0.91722238 0.091091864
-37.846149 79.92308 536.69232 0.17526163 0.1837901 -0.96721488 0.08686652
75.875 80.5 536.75 -0.079689644 -0.90241897 -0.42342603 0.0013324267
79 80 536.79999 -0.010357661 -0.90785283 -0.4191609 0.0094569642
82 79.75 535.66663 0.058310091 -0.90114164 -0.42958534 0.017187046
85.125 79.767853 535.19641 0.10612115 -0.88521951 -0.45290697 0.021515144
-65.25 82.25 535.25 -0.56646532 0.71763527 -0.40511316 0.033050261
-53 82.333344 534.33331 0.21161209 0.82105023 -0.53018582 0.024795739
-49.625 82.5 535.75 0.13727957 0.78833908 -0.59972984 0.045934733
-46.799999 82 535 0.075647622 0.69802731 -0.71206415 0.059333235
-43.976189 82.841263 535.71429 0.044646811 0.63411176 -0.77195132 0.064032227
-41 82.75 535 0.065459304 0.45229745 -0.88946164 0.097681157
-37.709091 82.645454 535.5 -0.020267963 0.22772066 -0.97351551 0.10924858
-35 83 535.66663 -0.077510171 0.071814679 -0.99440175 0.11526971
-31.875 83 535.5 -0.099729046 -0.15382327 -0.98305261 0.095964551
-29.25 83.5 534.5 -0.10694052 -0.28759462 -0.95176315 0.088653676
-26.25 83.75 534.25 -0.061452277 -0.45249146 -0.88964885 0.086087659
-23.18182 82.727272 536.90912 0.016504029 -0.61455446 -0.78870171 0.061498325
22.18182 82.909088 536.90912 -0.057866875 -0.873833 -0.4827705 0.0016261096
28.07143 83.071426 535.71423 -0.086581849 -0.88263643 -0.46201339 0.0014952958
30.875 83 535.39587 -0.085155457 -0.88391113 -0.45983669 0.0011572844
33.799999 82.400002 536.59998 -0.077755995 -0.88810188 -0.453022 0.0014089639
36.9375 82.4375 535.4375 -0.0563807 -0.88935828 -0.45372134 0.0012005263
40 82 536 -0.033552334 -0.89242285 -0.44995075 0.00093614543
42.92857 82.214287 535 -0.027051359 -0.89232087 -0.4505904 0.0008497184
46 82 536 -0.017947711 -0.89478827 -0.44612986 0.00089145824
48.92857 82.214287 535.14282 -0.0051411767 -0.8889361 -0.45800233 0.00073340297
52 82 536 -0.0028155218 -0.88937449 -0.45717075 0.00049644173
55.125 82.214287 535 -0.0075080604 -0.8888458 -0.45814487 0.00047764473
57.875 82.3125 535.125 -0.011760375 -0.89014256 -0.45553032 1.4190562e-05
61.013889 82.333328 535.05554 -0.033647165 -0.89004821 -0.45462289 0.00086837111
64 82 536 -0.048585977 -0.88865924 -0.45598695 0.00093466765
67 81.5 535.5 -0.056397099 -0.89058357 -0.45130938 0.00076855265
70 81 535 -0.075427085 -0.89544582 -0.43873399 0.0008764558
73.25 81 535 -0.088346347 -0.90735859 -0.41096878 0.001677347
76 81 534.33331 -0.076810054 -0.91228944 -0.40227878 0.0031246876
79.166656 81 534 0.0091333967 -0.90177906 -0.43210092 0.015929645
87.799995 82.400002 535.26666 0.28030831 -0.79510456 -0.53780663 0.04595688
-61.75 85.75 535 -0.24786459 0.87825 -0.40894991 0.047919117
-59 86 534.33331 -0.075807028 0.88938069 -0.45083827 0.042703047
-56.166668 84.666664 535.5 0.10072321 0.9045254 -0.41435337 0.02069132
-40.5 85 535 -0.089173667 0.51952702 -0.84978807 0.087193392
-37.958336 86.208328 535.79163 -0.16500573 0.48887488 -0.85660636 0.097457364
-35.18182 85.909088 534.09088 -0.19884218 0.29697326 -0.93395323 0.10987375
-23 84 534 -0.060220987 -0.54610574 -0.83554888 0.092982464
-20 84 535 -0.10375795 -0.59759569 -0.79505587 0.08798749
-17 84 535 -0.085733414 -0.68457925 -0.7238791 0.056152478
-14 84 535 -0.047325447 -0.74649346 -0.66370761 0.030878801
-4.75 85.5 534.25 -0.0036090447 -0.85323536 -0.52151358 0.0063852938
-2 85.5 534 -0.0014523584 -0.86282539 -0.50549996 0.0058758673
1 84 536.83331 -0.0081914719 -0.87370706 -0.48638353 0.0033004198
3.8571429 85.428574 534.57141 -0.033579763 -0.87033796 -0.49130881 0.0040494464
7.125 85.625 534.125 -0.032911744 -0.87067014 -0.49076509 0.0042115753
11 84 535 -0.031181175 -0.87570643 -0.48183599 0.0036877757
13 84 535 -0.02606624 -0.87745351 -0.47895288 0.0033292577
16.33333 84 535 -0.032044649 -0.87729532 -0.47887999 0.0032179863
19 84.5 534.5 -0.042564057 -0.88089842 -0.47138751 0.0018274906
22 84 535 -0.060583875 -0.87703085 -0.47659898 0.0015224492
25 84 535 -0.077979088 -0.87851137 -0.47131422 0.0013030705
-34 88 535 -0.28644279 0.46259007 -0.83902383 0.082504719
-31.75 88.833328 535.58337 -0.32727191 0.3787131 -0.86571902 0.086422332
-29 90 536 -0.40307105 0.36744493 -0.8381635 0.072885476
-25.75 91.5 535.54999 -0.41374454 0.27134305 -0.86901581 0.061630815
-23.25 92.125 534 -0.42801982 0.25559479 -0.86687386 0.059737816
-22.4 94.400002 535.90002 -0.46631375 0.19045751 -0.86387354 0.061310817
-19.85714 94.714287 534.42859 -0.42343491 0.10933027 -0.89930516 0.062255453
-20.299999 97.099998 536.45001 -0.48111546 -0.012164369 -0.87657279 0.083044142
-17.1875 98 535.25 -0.44584844 -0.011654211 -0.89503264 0.079821184
85 98 534 0.60157961 0.65319175 -0.45982888 0.037586607
89 97 535 0.71558988 0.51915038 -0.46734795 0.055563003
-29.14286 101.3571 536.5 -0.40516704 -0.49806267 -0.76666373 0.055340853
-26 101 535.75 -0.39341384 -0.51954967 -0.7584812 0.064682759
-23.200001 100.7818 535.23633 -0.32506588 -0.54412854 -0.77347028 0.075983137
-20.5 100.3889 535.11108 -0.3841421 -0.46949884 -0.79498786 0.078686379
-17.111111 100.1111 534.33331 -0.34672144 -0.39703012 -0.84979492 0.087106489
49 101 534 0.2933051 0.86233884 -0.41272736 0.044028625
52 101.5 534 0.083244428 0.90791339 -0.41080859 0.039986908
82.5 101 534 0.41786653 0.78680664 -0.45422778 0.037719067
84 100 535 0.4458513 0.77033508 -0.45585141 0.025945662
-37.8125 103.8125 536.625 -0.50298285 -0.32834801 -0.79949725 0.035771586
-35.025002 103.6 535.42499 -0.46959171 -0.41929445 -0.77696574 0.040375937
-32 103.6667 534 -0.43152159 -0.53899908 -0.72337341 0.038837206
-29.25 103.5 534.5 -0.41404831 -0.56848752 -0.71090502 0.032205433
46.25 103.75 535.25 0.44816619 0.77680969 -0.4423956 0.04858895
48 102 536 0.33623269 0.83954048 -0.42675453 0.045768835
52 102 536 0.087880798 0.89746839 -0.43223554 0.040337972
54 102 534 -0.017161369 0.90713334 -0.4204933 0.022093229
58.5 104 534.5 -0.071343794 0.90974504 -0.40899149 0.011497877
64.25 102.75 534 0.063002333 0.90722829 -0.41589358 0.01212981
79.5 102 535.5 0.18046473 0.82124358 -0.54128695 0.066212952
81.5 102 536.5 0.40851718 0.75059325 -0.5193491 0.062207732
-37.25 106.875 536.625 -0.570934 -0.21922009 -0.79118705 0.035940129
-35.099998 107 534.20001 -0.58863884 -0.20510374 -0.78194422 0.036887787
45 106 535 0.61221451 0.65251487 -0.44656211 0.033102304
60.666664 105 535.33337 -0.063705444 0.84749478 -0.52696699 0.055858575
-35.25 110 535.41663 -0.5876497 -0.014491344 -0.80898565 0.029604901
42.75 108.5 535.5 0.69202638 0.49928099 -0.52136159 0.036439344
-35.25 112.9375 535.25 -0.61839151 0.20000833 -0.75999248 0.039151512
41 113.5 536.5 0.59216225 0.24347562 -0.76815593 0.12428882
-35.099998 115.9 535.40002 -0.59202296 0.32066694 -0.73937917 0.032808755
28.444443 115.36111 535.0556 0.39333314 0.32858694 -0.85867316 0.089537874
31 114 534.66669 0.36738425 0.43615386 -0.8214612 0.089155294
34.222221 115.66665 535.33337 0.41065067 0.31503764 -0.8556385 0.12901695
37 115.75 535.33331 0.38696417 0.20421658 -0.89919651 0.13858984
-32 119 535.33331 -0.53968787 0.5378564 -0.64764768 0.016979184
28.423075 118.70509 535.23071 0.34231192 -0.053125046 -0.93808329 0.090736754
30.97143 118.9143 535.17145 0.27120134 -0.20371301 -0.94071829 0.078363158
34.166664 118.66665 535.04163 0.25895545 -0.2167405 -0.94125742 0.11177903
37.200001 118.6 535.15002 0.31193817 -0.33278477 -0.88991511 0.1168687
40.19643 118.96429 535.58929 0.35932893 -0.38077623 -0.85199308 0.098388582
49.07692 119.0769 536.9231 0.13803032 -0.70585483 -0.69477808 0.028549632
52 119.25 536.91669 0.039913129 -0.76009369 -0.64858657 0.007032997
55.0625 119.25 536.625 0.0098661436 -0.76984805 -0.63815093 0.0043398938
-29 121.3333 535.16663 -0.5406369 0.5792982 -0.6100207 0.015756555
42.833332 121.08334 535.13892 0.21834759 -0.60374612 -0.76669085 0.057215072
46.07143 121.67855 535.21429 0.1685639 -0.70155114 -0.69239599 0.038032509
48.75 121.73335 535.34998 0.084738366 -0.74992919 -0.65606821 0.022611085
52.283337 121.96664 535.29999 0.010834408 -0.80126339 -0.59821367 0.0073536229
55 121.5 536 0.0074476385 -0.79027742 -0.61270398 0.0064855032
58.14286 121.4286 536.14288 0.0085200649 -0.78286612 -0.62213176 0.0059921527
61.166672 121.5 536.5 0.013076032 -0.77954453 -0.62621033 0.0050443737
64 121.6667 536.66669 -0.0025189288 -0.77735794 -0.62905347 0.0049587335
66.944443 122.1111 535.27771 -0.031748608 -0.80552036 -0.59171706 0.0059046661
70 121.3333 536.66669 -0.042870082 -0.80243868 -0.59519273 0.005181435
73.099998 121.3 536.59998 -0.037914649 -0.80752176 -0.58861786 0.0064229281
75.85714 121 536.57141 -0.012607112 -0.80251843 -0.59649408 0.010537555
78.875 121.35 535.42499 0.057205088 -0.82119095 -0.56777906 0.014726986
82.055557 121.55555 535.33337 0.1435823 -0.83197224 -0.53591627 0.026942465
85.013885 121.8472 535.3125 0.26988745 -0.80129546 -0.53393489 0.038687628
-26.5 123 536 -0.57946706 0.54268163 -0.60804152 0.027300969
-22.5 124 534.5 -0.68567151 0.42714062 -0.58941108 0.040211774
-20 125 534 -0.75230217 0.30039349 -0.58634907 0.046761785
54.85714 123 534.57141 0.011288123 -0.80346787 -0.59524101 0.0081023276
58.14286 123 534.42859 0.012718945 -0.80715722 -0.59019959 0.0073212325
60.85714 123 534.57141 0.0037813741 -0.81080019 -0.58531076 0.0075595411
88.166672 123.5 535.33337 0.33161107 -0.80807859 -0.48687083 0.035471234
90.5 125.3333 534.16669 0.43435362 -0.74928677 -0.49990627 0.029003086
-23.133329 128 536.86658 -0.79546469 0.22611301 -0.56223547 0.054357905
-20.333334 127.27777 535.5 -0.82602614 0.15875785 -0.54081118 0.046939954
92 127.5 535 0.50577718 -0.67977661 -0.53112453 0.032738093
-23.21818 130.75455 535.53638 -0.86601019 0.10405476 -0.48907974 0.043199245
-23 137 534 -0.88647187 0.0040609199 -0.46276468 0.019411435
-23.25 139.75 535.75 -0.88437605 0.074396424 -0.46080822 0.026862089
-23 146 536.5 -0.79000872 0.26073387 -0.55489099 0.048593834
-22 148 534.5 -0.66792095 0.36544308 -0.64833081 0.060137011
-22 150 536 -0.71338701 0.32111043 -0.62286997 0.066954739
-20.16667 152.1667 535.33331 -0.54809266 0.43430912 -0.71482176 0.07552667
76.199997 151.73331 534.26672 0.004690432 0.47022054 -0.88253653 0.0018911145
78.92308 152.0769 534.53851 0.0036206439 0.46397814 -0.88583922 0.0020267535
82.199997 151.8667 534.40002 -0.0020276678 0.46777922 -0.883843 0.0025887883
-19.4375 154.625 535.9375 -0.50334835 0.42108998 -0.75453538 0.07842008
-16.63636 154.9091 534.90912 -0.33706924 0.53774124 -0.77279925 0.059024137
-14 155 534.66669 -0.28055087 0.52007228 -0.8067317 0.04267342
37 154.71429 534 0.0075981738 0.47525185 -0.87981695 0.00067619403
40 154.5 534.25 0.014431606 0.47292134 -0.88098651 0.00043108562
61 154 535 0.021833705 0.51616138 -0.85621297 0.00039792841
70 154 534 0.035514358 0.50974345 -0.85959315 0.00050648075
82 154 535 -0.00044473895 0.4677448 -0.88386345 0.0025011546
84.75 154 535 -0.0050825048 0.46301892 -0.88633382 0.0026012508
90 154 534 -0.010873244 0.45577738 -0.89002746 0.0028898588
-17.66667 156 536 -0.41150954 0.49677002 -0.76412004 0.07894434
-106.66665 8.083334 538.66663 -0.16259672 -0.82738131 -0.53758967 0.016357847
-104.07145 7.7857141 538.21429 -0.13605531 -0.83561182 -0.53220475 0.0180714
-100.92855 7.7142859 538.28571 -0.11139955 -0.84251845 -0.52702266 0.017723445
-98 7.7857141 538.07141 -0.045710709 -0.84785968 -0.52824658 0.0091190832
-95.01667 7.9666667 538.71667 0.01172388 -0.86290061 -0.5052377 0.0015425086
-92 7.5 539.83331 0.020832997 -0.86613226 -0.49938056 0.0011438768
-89 8.5 537.5 0.020410333 -0.86344725 -0.50402606 0.0010866493
-86 8.5 537.5 0.011181892 -0.86543274 -0.50090033 0.0010006099
-83 8.5 537.5 -0.0013351223 -0.86417001 -0.50319821 0.0007128084
-79.900002 8.0333338 538.65002 -0.0067967931 -0.86597413 -0.50004256 0.00084164133
-73.899994 8 538.69995 0.0009052605 -0.86342907 -0.50446951 0.00048189372
-71.14286 8.5714283 537.42859 0.00057000271 -0.8591823 -0.51166922 0.00068546721
-67.85714 8.4285717 537.57141 0.0069885077 -0.8575967 -0.51427525 0.0010780244
-65.041672 7.9583335 538.54163 0.0092267105 -0.86028534 -0.50972933 0.0010370425
-62 8.5 537.66669 0.013564092 -0.84561843 -0.53361547 0.0023128556
-59.285709 8.5714283 537.42859 0.032729216 -0.83178329 -0.55413485 0.0070587508
-52.799999 8.8000002 537.79999 0.040234849 -0.78492463 -0.61828357 0.026204405
-46.57143 8.5714283 537.42859 0.099460766 -0.71485794 -0.69216025 0.052443784
-44 8.5 537.16669 0.067267321 -0.67982996 -0.73027825 0.049703985
-40.900002 7.8499999 538.65002 0.06463749 -0.71034753 -0.70087683 0.054037616
-38.125 7.9583335 538.45837 0.068363041 -0.66344464 -0.74509579 0.058807936
-35 8.5 537 0.15674944 -0.50447935 -0.84907609 0.074481294
-32.125 7.75 538.375 0.17107819 -0.56152713 -0.80957985 0.072104417
-29 7.75 538.08337 0.2286489 -0.47634283 -0.84900957 0.072422743
-25.95714 8.0857143 538.57141 0.25649866 -0.42545804 -0.86786747 0.079980433
-107.5 10.35 538 -0.19216126 -0.82165217 -0.53662074 0.01414141
-92.25 9 538 0.016790321 -0.86306769 -0.5048092 0.0012845548
-77 9 538 0.0033608926 -0.86294538 -0.50528616 0.00075448497
-56 9 538 0.029332243 -0.82166702 -0.56921256 0.010929248
-50 9 537 0.084571369 -0.70650452 -0.70263726 0.054655477
-25.992065 10.825396 538.65082 0.28778079 -0.04929005 -0.95642704 0.088257119
-108 13 539 -0.18948345 -0.82144338 -0.53789103 0.013762447
-35 14 537 0.27922472 0.10731105 -0.95421058 0.076388836
-32.090912 13.90909 537.45453 0.30911034 0.15517509 -0.93828118 0.062714413
-29.17857 13.642855 538.78571 0.31465477 0.17165771 -0.93355554 0.069615357
-38.46154 16.846149 537.53851 0.28630137 0.26786235 -0.91993541 0.043280158
-35 17 538.6875 0.34009898 0.29735419 -0.89213967 0.042140439
-31.880953 16.142857 538.9762 0.317141 0.32613581 -0.8905375 0.036972683
-40.5625 20.270836 538.125 0.34647349 0.34544906 -0.87213588 0.022022521
-38.111111 19 538.92596 0.33015493 0.36537722 -0.87034321 0.022648221
-46.799999 23.200001 537.06671 0.29940638 0.37566701 -0.87705761 0.012571744
-44.025002 22.924999 538.47498 0.33527082 0.39842594 -0.85372734 0.0076968945
-40.833328 23 539.83331 0.34259507 0.39012995 -0.85465038 0.0090435175
-50 26 537.22223 0.2851378 0.31455433 -0.90540153 0.026307901
-46.912498 25.825001 538.46252 0.31658429 0.29212102 -0.90246314 0.028798191
-56.125 28.875 537.75 0.29648912 0.23942301 -0.9245382 0.035447806
-53.1875 28.875 538.5 0.2675671 0.21919313 -0.93827623 0.037352469
-50 29 539.44452 0.25433326 0.12553816 -0.95893419 0.052871432
-61.900002 31.9 537.5 0.30742562 0.11129287 -0.94504148 0.054016013
-58.875 32.041664 538.41663 0.27612695 0.046323724 -0.96000415 0.057310246
-55.904766 31.047621 538.92853 0.24123085 0.029243395 -0.97002703 0.059687696
-62 35 538 0.24358192 -0.15752636 -0.95700222 0.064124279
-59.25 35 538.5 0.1990038 -0.22144625 -0.9546513 0.054889914
-55.777779 34.777779 539.44452 0.19586779 -0.27265802 -0.94196254 0.046195861
-53.18182 35.090912 539.63641 0.22191298 -0.24660842 -0.94336569 0.042729415
-57 36 538 0.20873877 -0.31198183 -0.92687398 0.048536662
-52.799999 37.599998 537.20001 0.22493218 -0.34020206 -0.91305429 0.032268088
-47.5 36 538 0.28514293 -0.23770358 -0.92854214 0.035501122
-43.903847 37.615387 538.23071 0.37465271 -0.18623142 -0.90826935 0.030551901
-40.981819 38.145454 538.68176 0.38783693 -0.09254536 -0.91707021 0.029726049
-44.25 41 537.33331 0.43753827 -0.038043719 -0.89839464 0.034302328
-41.31818 40.545456 538.95459 0.4393965 -0.017153308 -0.89812946 0.031418744
-97.5 42 538 -0.55214292 0.74294162 -0.37838581 0.033547603
-94.75 42 538.5 -0.4503696 0.76778507 -0.45571193 0.05522655
-92.25 42 538.25 -0.40189868 0.76160955 -0.50835848 0.074439213
-89.5 44.5 539.5 -0.6581893 0.57103264 -0.49062058 0.064261556
-44.4375 43.5625 538.4375 0.48726547 0.032431997 -0.8726514 0.031696029
-88 46 538 -0.68747532 0.44848293 -0.57117486 0.066965982
-46.539677 46.285717 538.4762 0.50323462 0.12971337 -0.85435903 0.018722555
-86.666672 49.833336 538 -0.78515869 0.37183312 -0.49524337 0.02908228
-50.18182 49.909088 537.36359 0.50786698 0.17279935 -0.84392625 0.008256956
-47.454544 49.545456 538.77271 0.5031932 0.18154667 -0.84488899 0.0074319774
-86.125 52.75 538.625 -0.82685667 0.37009686 -0.42348137 0.0030665731
-52.727268 53.090912 537 0.49169216 0.13681725 -0.85995346 0.013590683
-49.8125 53 538.5 0.48682797 0.10963281 -0.86659056 0.01711392
-47 53.0625 539.9375 0.45590574 0.051132642 -0.88855803 0.025999257
-85 55.5 537.5 -0.81906199 0.39574295 -0.41536129 0.0021508553
-52.916672 56 537.41669 0.46347752 -0.0096985362 -0.88605559 0.03132448
-50.357147 55.82143 538.5 0.46154615 -0.0066070552 -0.88709158 0.029170748
-82.75 58.75 537.5 -0.80277348 0.44239914 -0.39979711 0.0013973349
-52.836365 59.109093 538.31824 0.40666485 -0.18908742 -0.89379513 0.0438434
-50 59.083328 539.25 0.34988034 -0.28748739 -0.89159107 0.05095771
-81 62 539 -0.77999687 0.48660415 -0.3934733 0.0021467702
-52.666664 61.816666 538.34998 0.31903675 -0.36406413 -0.87502736 0.057199601
-50 61.5 539.16669 0.33231089 -0.4266488 -0.8411541 0.054293402
-46.777779 61.444439 539.55548 0.23464128 -0.52909726 -0.81547499 0.04775523
-40.85714 61.64286 539.57141 0.22308768 -0.62372661 -0.74913079 0.0269389
-38.18182 61.54546 539.72729 0.2216793 -0.61168379 -0.75940847 0.026423074
-35 62.5 537.83331 0.26805615 -0.56014603 -0.78382546 0.038849
-32.07143 61.57143 539.85712 0.26795688 -0.54675978 -0.79325461 0.032065839
-80.5 64.5 539.5 -0.76607728 0.50372434 -0.39923334 0.0027097019
-78 65 537 -0.70447302 0.51631641 -0.48696512 0.010901258
-50 63 538 0.22309059 -0.55660743 -0.80026168 0.049189776
-46.75 63 538 0.19044472 -0.60595167 -0.77236873 0.035238862
-44.5 63 538 0.20887567 -0.62782359 -0.74980557 0.031567745
-38 63 537.66669 0.22364935 -0.59786344 -0.76976633 0.036089238
-31.944443 64.361115 538.08331 0.34310701 -0.39615372 -0.85166883 0.047000974
-29 65 539.66669 0.41325486 -0.22775951 -0.88167226 0.04547482
-77.25 68.25 538.25 -0.72206849 0.50414455 -0.47376725 0.011107737
-31.7875 67.9375 538.1875 0.47161281 -0.16318965 -0.86657399 0.044106726
-76 70 538 -0.69415301 0.49634966 -0.52133346 0.020817887
-74.125 71.125 538.125 -0.66714299 0.49781749 -0.55416429 0.023730686
-32.07143 71.071426 538.42859 0.51648724 -0.041979384 -0.85526526 0.020443149
-73 73 538 -0.68772668 0.476621 -0.54759878 0.023668598
-72 72 537 -0.66370136 0.44890022 -0.59832186 0.032126598
-35.125 73.875 537.75 0.49043193 -0.0079603214 -0.87144309 0.027064789
-32.458336 74 538.75 0.49104843 -0.10486637 -0.86479741 0.034465678
-70.75 76.5 537 -0.70655829 0.46576253 -0.532767 0.023368733
-34.5 76 539.05554 0.390661 -0.073625319 -0.91758555 0.043830361
85 77.571426 539.85712 0.063393638 -0.88395739 -0.46325001 0.016242085
-70 79 539 -0.71542603 0.55752248 -0.42111081 0.0056466223
-68 80 537.66669 -0.68833894 0.59514767 -0.4147152 0.010374791
-34.9375 79.6875 538.5 0.21035728 -0.01534504 -0.97750413 0.092075936
-32 79.769234 539.46149 0.17437705 -0.26783589 -0.94755298 0.083788358
-23 80 539.75 0.1735522 -0.6920771 -0.7006489 0.022984149
28 80.571426 539.85712 -0.073444255 -0.87183046 -0.48427013 0.0014265898
46.200001 80.599998 537.40002 -0.014694061 -0.88822824 -0.45916736 0.00059009885
49 80.800003 537.20001 -0.0084910374 -0.88438702 -0.46667698 0.00094978366
51.75 80.75 537.25 -0.0042331484 -0.88069957 -0.47365639 0.00071048591
55.200001 80.599998 537.40002 -0.0045798435 -0.88010716 -0.47475296 0.00017863687
57.75 80.5 537.5 -0.0097736288 -0.88466406 -0.46612662 0.00045348235
61 80.5 537.5 -0.032787167 -0.88780743 -0.45904583 0.00080013985
63.666672 80.666656 537.5 -0.044539295 -0.88659102 -0.46040484 0.00066301
67 80.5 537.5 -0.053386547 -0.88686937 -0.45892558 0.001005939
69.949997 79.599998 538.29999 -0.053795218 -0.89101422 -0.45077693 0.0018978837
73.011902 79.642853 538.4881 -0.067861848 -0.89611042 -0.4386124 0.0020524012
79 79 539.71429 -0.020755785 -0.89631331 -0.44293526 0.0059060026
82 79 539 0.043147169 -0.8970803 -0.43975592 0.014181096
84.75 78 538 0.064691558 -0.89699495 -0.43728149 0.013962521
87.300003 78.900002 537.5 0.10725238 -0.8799594 -0.46278328 0.016363423
-47.25 83.75 537 -0.0094093336 0.78043038 -0.6251719 0.04719954
-32.333328 81 538 0.081392959 -0.24966241 -0.9649061 0.092388615
-29 82.5 537.33331 -0.020605195 -0.42049968 -0.90705866 0.10296396
-25.777781 82.555557 537.22223 0.016943192 -0.5702697 -0.82128274 0.061629053
-19.771431 82.642853 538.58569 0.041396145 -0.72406411 -0.68848938 0.026628768
-17.19643 82.75 538.60718 0.012070931 -0.76144707 -0.64811474 0.018968085
-14 82.75 538.66663 0.043710928 -0.80752224 -0.58821523 0.0037437666
-11 83.666656 537 0.018634196 -0.83625609 -0.54802245 0.0044339108
-8.0089283 83.053574 538.375 0.030419366 -0.84345835 -0.53633249 0.0045217825
-4.75 82.333344 539.66669 0.057769861 -0.8442173 -0.53287876 0.0035094058
-1.9910715 83.053574 538.375 0.029079141 -0.86001283 -0.50944316 0.0030971721
1 82.333344 539.66669 -0.010688179 -0.8497538 -0.52707142 0.0035252625
7 82.333344 539.66669 -0.032245968 -0.86152667 -0.50668722 0.0033060506
9.7636366 82.818176 538.09998 -0.029365756 -0.8664608 -0.49838069 0.0033744222
13 83 537 -0.022455672 -0.86992866 -0.49266595 0.0035907242
15.92308 83.07692 537.23077 -0.033602785 -0.86420745 -0.50201225 0.0025214129
19 82 538.33337 -0.040908724 -0.86537874 -0.49944583 0.0022469186
21.799999 81 539.79999 -0.034784362 -0.86438757 -0.50162154 0.002093317
24.619047 81.888885 538.78571 -0.061701972 -0.87351871 -0.48286426 0.0013757456
29 81 538 -0.081004292 -0.8811841 -0.46578214 0.0015769183
30.75 81 538 -0.076680802 -0.88307261 -0.46292859 0.0013120108
34 81 538 -0.071156904 -0.88462275 -0.46084622 0.0010565893
37 81 537.75 -0.050068747 -0.8895027 -0.45417857 0.00089745328
40 81 537 -0.036674153 -0.89219517 -0.45015845 0.00080381578
43 81 537 -0.024011791 -0.89219326 -0.45101506 0.00090422749
90 82 538 0.15461385 -0.86356676 -0.47994485 0.017927935
-64.5 85 538 -0.443488 0.81266701 -0.37800884 0.044078033
-62 86.5 539.5 -0.23501147 0.89264804 -0.38464147 0.047445666
-59 86.5 537.5 -0.061830495 0.92064202 -0.3854804 0.039433617
-53.166668 84.333336 538.16669 0.11197982 0.88452107 -0.45286089 0.017810468
-50 84 539.66669 0.040306523 0.86673194 -0.497143 0.025094684
-46 85 538 -0.095985182 0.78730732 -0.60904354 0.048495408
-43.875 85.875 538.625 -0.19635595 0.74857551 -0.63330805 0.050971307
-41.25 85.75 537 -0.15154979 0.62462229 -0.76608068 0.083766781
-4.75 84 537 0.041505728 -0.85991061 -0.50875431 0.002881268
4 84.5 537.16663 -0.030824494 -0.8735885 -0.48568821 0.0035884574
7 84.5 537 -0.033404894 -0.87466931 -0.48356766 0.0034840105
-59 87 539 -0.058731761 0.91642147 -0.39588162 0.037776027
-40 87 539 -0.22637984 0.64787406 -0.72733164 0.067886457
-37.5 88 537.5 -0.25625089 0.6392138 -0.72508013 0.067017823
-35 88.5 537 -0.28668267 0.51493603 -0.80786991 0.087003492
-32 90.5 538.5 -0.38451231 0.44490513 -0.80883235 0.060156934
-29.125 92.041672 538.375 -0.44497922 0.36981818 -0.81561512 0.059910048
-25 94 538 -0.45812169 0.24037592 -0.85577089 0.068965465
-23.833336 94.333328 538.16663 -0.4976941 0.13798973 -0.85630572 0.073687874
-23 98.25 538.33337 -0.43634811 -0.26452282 -0.86001623 0.091847979
87.75 97.75 538 0.46045697 0.69212931 -0.55582052 0.037976898
-38.18182 100.7273 539.90912 -0.4474147 -0.40168607 -0.79904211 0.040109076
-34.9375 101.125 538.75 -0.40685758 -0.44891202 -0.7955783 0.04353267
-31.950001 100.5 538.34998 -0.40567109 -0.46115717 -0.78915459 0.054866444
-28.75 99.5 538.5 -0.37945127 -0.46186128 -0.80168629 0.074920855
-25.75 99 538 -0.4422949 -0.36106247 -0.82098055 0.10124777
85.25 100 537.5 0.33788154 0.77484357 -0.53427839 0.05508858
-40.75 104 538.83337 -0.50166368 -0.29111201 -0.81460869 0.030019687
-38 102 538 -0.44552228 -0.42277029 -0.78916103 0.032797668
-32 103 537 -0.42761818 -0.51304609 -0.7442624 0.038449429
49.666672 103 538 0.2625457 0.86282027 -0.43198493 0.049262028
52 103.5 537.5 0.093459316 0.90438038 -0.41636702 0.039688237
55.25 103.75 537 -0.05195361 0.91259265 -0.40555575 0.014563904
58 104.6667 537 -0.079599679 0.88998401 -0.44899046 0.020628752
64.199997 104.2 537 0.101245 0.83601809 -0.5392803 0.050179511
66.75 102.5 537 0.12254398 0.85222828 -0.50861579 0.030930363
77 103 538 0.12766682 0.78823495 -0.60198563 0.079865314
78 103 537 0.18026209 0.72439057 -0.66540504 0.090548389
-38.75 107.25 539.25 -0.51732826 -0.17696758 -0.83728969 0.035244212
46 106.33334 538.58331 0.62907159 0.59374505 -0.50173265 0.048645664
61.25 106.25 538.75 0.042864956 0.76246136 -0.64561224 0.098235093
63 106 538 0.0521552 0.75528914 -0.65331334 0.1002871
-38.049999 110.05 538.45001 -0.57289207 0.041100081 -0.8185997 0.032471996
43.333336 110.16665 538.25 0.7221635 0.30884519 -0.61894631 0.07659664
-41 113.0833 539.33331 -0.58384758 0.18280473 -0.79101485 0.026421623
-38.375 112.5 538.08337 -0.59026003 0.13638617 -0.79560792 0.031666916
42 112 537 0.58916348 0.28385034 -0.75651532 0.10316644
-40.85714 115.7143 539.85712 -0.57207465 0.34251881 -0.74525934 0.025072973
-37.63636 115.7273 537.36359 -0.57514721 0.33927423 -0.74437803 0.02292054
31 116.3333 537 0.35762531 0.20904642 -0.91016686 0.10343711
39.888889 116 537.11108 0.45175153 -0.10781177 -0.88560551 0.11764805
55 116.5 539.83331 -0.034877665 -0.68197936 -0.73053944 0.038534399
58 116.5 539.875 -0.051505219 -0.65390664 -0.75482005 0.060726125
-38 117.5 538.5 -0.55923086 0.38763726 -0.73280162 0.0250494
-34.333328 118.3333 537 -0.54945314 0.50516057 -0.66551793 0.021341434
41 117 539 0.42764884 -0.29538995 -0.85431916 0.096567906
43.099998 118.6 538.09998 0.33674103 -0.45767424 -0.82288504 0.083139494
46 119 538.25 0.25067243 -0.62076873 -0.7428388 0.055463493
51.75 118 539.25 0.091972038 -0.73692852 -0.66968465 0.020964893
54.833336 117.5 538.5 -0.0054924218 -0.74203289 -0.67034096 0.020683635
