ply
format ascii 1.0
comment PCL generated
element vertex 720
property float x
property float y
property float z
property float nx
property float ny
property float nz
property float curvature
element camera 0
property float view_px
property float view_py
property float view_pz
property float x_axisx
property float x_axisy
property float x_axisz
property float y_axisx
property float y_axisy
property float y_axisz
property float z_axisx
property float z_axisy
property float z_axisz
property float focal
property float scalex
property float scaley
property float centerx
property float centery
property int viewportx
property int viewporty
property float k1
property float k2
end_header
-175.14999 34.700001 624.79999 0.095397741 -0.90643549 -0.41142926 0.001980331
-172.2 34.400002 625.59998 0.086697467 -0.90991455 -0.40563408 0.0017989128
-169.14999 34.700001 625 0.073746406 -0.90425402 -0.42057821 0.0015087377
-166 34.5 626 0.051449619 -0.89830363 -0.43635261 0.0020448328
-162.75 34.75 626.25 0.056258719 -0.88156652 -0.46869549 0.0037569164
-160 35 626 0.02288221 -0.86583823 -0.49980059 0.0065117739
-157 35 626 -0.12731406 -0.81314349 -0.56796908 0.016197149
-150.75 34.75 626 -0.41336772 -0.64930707 -0.6383788 0.030262752
-148.6667 33.333328 626 -0.50827575 -0.52786064 -0.68045491 0.039513759
114 34 624 0.91744071 0.1036856 -0.3841247 0.030847797
-221 37.25 626.25 -0.44989881 -0.79274368 -0.41127661 0.0030807578
-218 36 625 -0.39990866 -0.80569834 -0.43694767 0.0045022536
-162.5 36 625 0.064111128 -0.87656522 -0.4769938 0.0040011266
-160 36 625 0.035791673 -0.8617413 -0.50608397 0.0058677061
-157 36 625 -0.084601931 -0.83642334 -0.54151493 0.01493929
-154 36 625.66669 -0.23306139 -0.77086902 -0.5928266 0.022819214
-152 36 625 -0.26167247 -0.75100851 -0.60622907 0.020134749
115 37 626 0.88014388 0.2650308 -0.39383417 0.019695001
-229 41 626.5 -0.48869467 -0.7713443 -0.40768301 0.005755336
-225.5 40 625.5 -0.46488428 -0.79809892 -0.38330236 0.0015671547
-223.5 39 625.5 -0.46781811 -0.79285693 -0.39054334 0.0024456619
112 39 624 0.82411736 0.41662949 -0.38373223 0.012341646
114 39 626 0.86751312 0.32391042 -0.37749562 0.018409474
-232.3333 43 626 -0.56991529 -0.66294193 -0.48549402 0.016247299
-230 42 626 -0.53642714 -0.72196639 -0.43704745 0.012495793
110.5 43.5 626 0.78111124 0.47351453 -0.4070003 0.0056871776
-235 46 626 -0.65927458 -0.45575961 -0.59803033 0.039216366
107.3333 46 625.33331 0.77197057 0.4627206 -0.43583369 0.0060013053
-236.5 48.75 626.25 -0.73559082 -0.12765782 -0.66528922 0.062520474
105.625 49.375 625.375 0.78953254 0.38781363 -0.47564596 0.0076286113
-237.5 51.75 626 -0.72345752 -0.028279757 -0.68978941 0.058117412
105 52 625.66669 0.80139047 0.33130288 -0.49800771 0.0061695152
-234.5 55.5 626 -0.57312727 0.5776968 -0.58119839 0.070339352
-233 56 625 -0.52347469 0.65547913 -0.54435396 0.05590944
104 55 625.33331 0.81802231 0.27863607 -0.50319117 0.0056152083
-229.75 57 625 -0.43494028 0.73379183 -0.52189696 0.035504658
-226 58 626 -0.32884324 0.80473608 -0.49422854 0.0053127878
-223.3333 58.666672 625.66669 -0.34073961 0.80185193 -0.49084634 0.0053823567
103.33335 57.5 625 0.83647525 0.24147469 -0.49193403 0.0049525178
-219.75 61 626 -0.41390345 0.72634608 -0.54873061 0.0099614421
-217 62 625 -0.45890918 0.68651807 -0.56399941 0.0098009482
102 61.5 625.5 0.84806681 0.27194715 -0.45478278 0.0052936804
-214.25 64.25 625.5 -0.49655783 0.62292647 -0.60447747 0.010172185
-212 65 625 -0.49819124 0.60571116 -0.62041885 0.010705296
101 65 626 0.85697484 0.309955 -0.41173044 0.0036025061
-210.8333 67 625.66669 -0.49180442 0.60765523 -0.62360531 0.011142759
-209.25 67 624.75 -0.4915466 0.57704037 -0.65223181 0.012475448
-213.5714 69.571426 626.57141 -0.50348705 0.59566933 -0.62584251 0.0099300407
-211.72223 70.611115 624.61108 -0.50125706 0.58056152 -0.64163059 0.012102448
-207.96664 69.900002 624.70001 -0.48491973 0.56908029 -0.66407865 0.021146096
99 70 626 0.86051697 0.3612023 -0.35922605 0.0013461885
97.25 73 625 0.8646751 0.36014503 -0.35018927 0.0011978877
96 76 625 0.86109805 0.37360096 -0.34486592 0.00094261189
95 78.5 626 0.85988438 0.38022912 -0.34062394 0.0009353169
94 81 626 0.8579278 0.38674435 -0.33821395 0.00078420684
-31 -65 627 0.90076226 0.42926958 -0.065992154 0.0013077389
-32 -62 629.5 0.94203722 0.30167603 -0.14682427 0.030111721
-33.5 -59 629.5 0.95077652 0.23616527 -0.20062406 0.045619193
-33 -60 627 0.92135888 0.36941177 -0.12096563 0.017709881
-34.666672 -56 629.66669 0.93285125 0.20558105 -0.29584593 0.074343428
31.5 -55.5 627 -0.37178296 -0.72866255 -0.57517689 0.025000848
-36.333328 -53 629.33331 0.89626038 0.14962146 -0.41752931 0.11446901
34 -52.5 628 -0.37831739 -0.72729647 -0.57263929 0.022161024
-99.5 -50 628.5 -0.51450384 -0.62582618 -0.58619744 0.10388985
-38.375 -49.625 628.75 0.82124233 0.027852854 -0.56989926 0.13870014
26.200001 -49.400002 629.79999 -0.25629842 -0.81053948 -0.52662784 0.024538413
29.16667 -49.833328 629.83331 -0.2967636 -0.78207207 -0.54799151 0.023056578
30.9 -49.799999 627.90002 -0.32501388 -0.76737744 -0.55271858 0.022363
-97.666656 -46.333328 629.66669 -0.57987583 -0.44136024 -0.6847958 0.11906557
-39.666672 -46.666672 629.16669 0.60175419 -0.32910436 -0.72772402 0.12621179
-13.2 -46.599998 629.20001 -0.094400533 -0.8569048 -0.50675708 0.001898354
-12 -46 627 -0.093307197 -0.85269564 -0.51400769 0.0024131613
-4 -46 627 -0.057255447 -0.86807019 -0.49312878 0.0016320471
-1 -47.5 629.5 -0.052747399 -0.88147968 -0.46926683 0.0012864391
2.25 -47.75 629.5 -0.061914586 -0.8810209 -0.4690083 0.00084971421
8 -48 629.33331 -0.058745794 -0.87649977 -0.47780448 0.00099224306
11 -48 629 -0.051002849 -0.87337607 -0.48436859 0.00089366775
14 -48 628 -0.047080662 -0.87065947 -0.48962784 0.00070156157
16.5 -48 628 -0.047250632 -0.87172025 -0.48772046 0.001064245
20 -48 628 -0.068036273 -0.87008047 -0.48819155 0.0015142569
22 -48 628 -0.13986041 -0.8506279 -0.50682467 0.012627354
-154.1667 -44.333328 629.16669 -0.060851198 -0.83516288 -0.54662597 0.0080143735
-151 -44.5 629 -0.027854389 -0.83666658 -0.54700375 0.0072157257
-148 -43 627 -0.01984421 -0.83971393 -0.54266638 0.0065917871
-145 -43 627 0.0028311037 -0.84889197 -0.52855879 0.0051060612
-141.92856 -43.5 628.28571 0.030720249 -0.85771531 -0.51320624 0.0017039472
-139 -43.5 629 0.021892 -0.86010194 -0.5096522 0.0013132606
-136 -43.5 629 0.0094444184 -0.86185569 -0.50706565 0.00082980411
-133 -44.125 629.75 0.0049504158 -0.85518855 -0.51829326 0.00057294738
-130.95833 -43.375 627.95831 0.0063244393 -0.85279918 -0.5222007 0.0010795569
-127 -44 629.66669 -0.005078577 -0.84720027 -0.53124934 0.00119956
-124.1429 -43.714291 629.28571 0.00309078 -0.83985585 -0.54280061 0.0013181176
-121 -43.5 629 0.03501102 -0.83638072 -0.54702985 0.0017104646
-118 -44 629.625 0.042259768 -0.83532929 -0.5481233 0.001415498
-115 -43.75 629.5 0.038616762 -0.83615971 -0.54712492 0.0012357357
-112.2 -43.400002 629.59998 0.037000008 -0.83831954 -0.54392213 0.0014016996
-100 -43.5 629.83331 -0.33573684 -0.69735897 -0.63322288 0.0759767
-97.125 -43.875 629.125 -0.43677092 -0.51731813 -0.73594368 0.1007611
-96 -45 627 -0.68858606 -0.120893 -0.71500635 0.12829584
-39.75 -44.75 628.5 0.57442057 -0.38847288 -0.72050661 0.12146802
-37 -43.75 627.83337 0.35735402 -0.56838775 -0.74110299 0.1183186
-34.200001 -44.599998 628.59998 0.31585303 -0.63863397 -0.70170051 0.096950591
-31.200001 -44.599998 628.59998 0.13593525 -0.74272412 -0.65565431 0.042395141
-28 -45 629 0.027157631 -0.80647755 -0.59064072 0.018175559
-25 -45 629 -0.059848133 -0.83632362 -0.54495972 0.0013375549
-22 -45 629 -0.084758155 -0.84482658 -0.52828407 0.0012961219
-19.5 -45 628 -0.10712066 -0.84858996 -0.51809293 0.0013288922
-16.5 -45 628 -0.11486217 -0.84863222 -0.51636225 0.0013110364
-108.5 -42 628 -0.026481206 -0.82403499 -0.56591958 0.013277986
-106.5 -42 628 -0.080238663 -0.80642545 -0.58586669 0.022920363
-102.5 -42 628 -0.29047209 -0.73076457 -0.61774528 0.075547457
-98.25 -42 628 -0.38448724 -0.56935328 -0.72664052 0.10824882
-152 -20.25 627.5 -0.8730256 -0.06318032 -0.48356435 0.018080434
-154 -17 629 -0.84133995 -0.12682913 -0.52541548 0.016682543
-153 -16 627 -0.85031837 -0.044163208 -0.52441227 0.016434856
-157.3333 -14 629.66669 -0.82345915 -0.058706392 -0.56433022 0.018665355
-155 -15 628 -0.83207208 -0.042774335 -0.55301577 0.019240616
-157 -11.25 629.5 -0.831236 0.028367484 -0.55519533 0.018809993
-154.5 -8 628 -0.83983266 0.10834529 -0.53192335 0.015100311
-154.3333 -5 629 -0.83507133 0.18754935 -0.51718581 0.0066167326
-153.75 -1.75 629.75 -0.82607895 0.20056467 -0.52665681 0.0051829126
-152 -2 628 -0.82946324 0.2053339 -0.51945043 0.0056006676
-151.5 1.5 628.5 -0.82173276 0.13553531 -0.55352098 0.0085628638
-152 4 629.33331 -0.80214792 0.070990913 -0.59289038 0.0076185293
-150 4 627 -0.82763964 0.098945998 -0.55246943 0.0078733694
-151.6667 7 628.66669 -0.79465908 0.034525756 -0.60607332 0.0046320222
-150 7 627 -0.81730735 0.049547579 -0.57406777 0.006074002
-152 10.5 628 -0.79502207 0.048559196 -0.60463369 0.0051124417
-152 13 628 -0.79746324 0.068436354 -0.59947377 0.0058838697
106 13 627.66669 0.75734353 -0.56888449 -0.32062611 0.0077358498
-152.5 16.25 629.25 -0.80616343 0.12124224 -0.5791381 0.0048467964
108 16.5 629.5 0.77403289 -0.54273361 -0.32605726 0.0099918144
-151.5 19.25 629.25 -0.79871482 0.14621407 -0.58367467 0.005807254
108 18.5 628 0.78659123 -0.52562946 -0.3240183 0.0099964952
-149 22.5 628 -0.7941708 0.13610515 -0.59225678 0.0079790857
-149 25.25 628.83337 -0.76537228 -0.03295267 -0.64274365 0.030125126
-148.6667 28 628.66669 -0.71578592 -0.2351191 -0.65754807 0.042769942
-147 28 627 -0.74172097 -0.14066474 -0.65579224 0.038226042
115 27.75 627.75 0.8647992 -0.23868571 -0.44175953 0.035558015
-217.2 31.4 629.79999 -0.36392352 -0.81523561 -0.45050043 0.0078737568
-213.85001 31.4 628.20001 -0.26364347 -0.84913778 -0.45766488 0.0083678961
-211.25 30.25 629.25 -0.17897129 -0.87056983 -0.45834208 0.0057885307
-208 30 629 -0.091447078 -0.88197333 -0.46234241 0.0031492685
-205 30 629 -0.025720626 -0.88978893 -0.45564687 0.0031167869
-202 30 629 0.034338355 -0.89314187 -0.44846234 0.0028041501
-199 30 629 0.060384754 -0.89755338 -0.43675119 0.0022718275
-196 30 629 0.068064235 -0.9028973 -0.42443332 0.0020601905
-193 30.57143 629.14288 0.072265312 -0.90693611 -0.41502362 0.0019938673
-190.4375 31.4375 628.25 0.073103763 -0.90422696 -0.42074868 0.0021070088
-187 31.33333 629.33331 0.089177325 -0.91289032 -0.39834502 0.0019870417
-184 31.5 628.5 0.092330538 -0.91632992 -0.38963401 0.0015858983
-180.8571 31.57143 628.85712 0.096365422 -0.91604096 -0.38933614 0.0011882902
-148.5 31 628 -0.61243612 -0.41320547 -0.67393124 0.038946785
-218.25 34.25 627.5 -0.40622342 -0.80141985 -0.43898597 0.0051320638
-175 33 629.16669 0.085385963 -0.91436815 -0.39577779 0.0011591095
-172 33 629.5 0.073647626 -0.91109401 -0.40556589 0.0013563937
-169.3333 33 629.83331 0.04421524 -0.9039079 -0.42543578 0.0022370005
-166.1429 33.42857 629.71429 0.018743103 -0.89051682 -0.45456392 0.0029835899
-163.125 33.625 629.5 0.0071246829 -0.87830544 -0.47804701 0.0042912322
-160 33.666672 629.33331 -0.081050225 -0.82482469 -0.55954909 0.017526144
-157 33.666672 629 -0.16424161 -0.78601164 -0.59599531 0.020783143
-154 34.333336 628.16663 -0.29033709 -0.73258924 -0.61564386 0.025937261
-151.3333 33.833328 628.66669 -0.40354162 -0.65309024 -0.64080203 0.03364566
116 34 629 0.88377547 0.1398225 -0.4465318 0.028446825
-223 37 629 -0.47702789 -0.78140837 -0.40230015 0.0034900205
116 37 629.33331 0.84730762 0.27423796 -0.45482224 0.031724904
-229 40 629.66669 -0.46540108 -0.78769505 -0.40365621 0.0045804055
-226.6667 39 629.33331 -0.47960392 -0.78165096 -0.39875028 0.0037643388
113.5 40.5 628.5 0.82171267 0.40425062 -0.40170845 0.0081039583
-234.75 43.375 628.375 -0.56993711 -0.6144582 -0.54553896 0.023577048
-233 42 629 -0.52064747 -0.7083407 -0.47663364 0.017782433
111.5 43 628 0.79609144 0.44685414 -0.40811744 0.0049445797
-236 45 629 -0.62839735 -0.50159949 -0.59457105 0.042965114
109.5 46 628.29999 0.77969766 0.44192952 -0.44358736 0.0045733247
-238.6667 48.666672 629.33331 -0.67947495 -0.26585668 -0.68383765 0.059203241
108.5 49 629 0.79861003 0.37921369 -0.46735308 0.0050021135
-239 53 628 -0.70025641 0.14351273 -0.69931751 0.074123502
107.25 51.5 628.25 0.81153095 0.34023222 -0.47503629 0.0048841597
-237 54.5 627.5 -0.62934208 0.45710978 -0.62847376 0.083057523
106.25 54.5 628 0.82108808 0.30208799 -0.48431107 0.0045571714
-232.3333 58 628.66669 -0.46615314 0.72266716 -0.51034647 0.02733908
-229.5 58 627 -0.38308635 0.76849264 -0.5125075 0.014798303
-225 59 628 -0.34417579 0.77428478 -0.53106141 0.0098775439
105 58.5 628.5 0.83884662 0.28884989 -0.46141317 0.0036943939
-226 60.5 629.75 -0.36027265 0.76154363 -0.53875321 0.011847183
-223 61.666672 629.33331 -0.3921656 0.73347205 -0.55517995 0.012179759
-222 60 627 -0.37760863 0.75589436 -0.53482288 0.01106374
104.16665 60.5 628.16663 0.84397578 0.29235631 -0.44970283 0.0042891712
-217 64 627.75 -0.4861429 0.65293354 -0.58081228 0.011326274
103 63 627 0.85622758 0.30200011 -0.41913036 0.0036200981
-214.5 67.375 627.75 -0.50372207 0.61273843 -0.60894638 0.009395414
101 68 627 0.85776603 0.35866305 -0.36823669 0.0017350798
102 66.5 628.5 0.85583448 0.35102305 -0.37990794 0.0020282716
100.5 70 629.5 0.85145485 0.38404131 -0.35712305 0.0010878497
99 73 629 0.85964197 0.37938783 -0.34217042 0.0012632424
97.666656 76.333344 629 0.85936028 0.38868904 -0.33229628 0.00091047765
95.5 82 629.5 0.85865998 0.39197534 -0.33023986 0.00083715678
-31 -64 630 0.944731 0.30802593 -0.11226451 0.021672634
31.5 -56 631 -0.43912783 -0.68678403 -0.57921875 0.023392064
-101 -52 631 -0.38885078 -0.75862414 -0.52276623 0.081157923
32.033337 -53.133335 631.26666 -0.41953763 -0.70554286 -0.57113695 0.021747429
-36.5 -49.75 632.75 0.73265409 -0.23939489 -0.63710916 0.12512539
10 -49 630.83337 -0.054725997 -0.87896764 -0.47373095 0.00097426941
14 -49.5 631.16663 -0.049738631 -0.87651056 -0.47880611 0.00083058397
17 -49.5 631.16663 -0.054248992 -0.8727321 -0.48517606 0.00077808165
20 -49.5 631.33337 -0.085220858 -0.86813182 -0.48896271 0.0019979493
23.25 -49.5 631.41663 -0.22299355 -0.83134031 -0.50906485 0.022079261
26 -50.5 632.5 -0.2766237 -0.79305547 -0.54271752 0.024721181
28.5 -51 632 -0.32169271 -0.76255786 -0.56126577 0.027739238
-153.5 -46 631 -0.051753841 -0.84116077 -0.53830296 0.007256784
-36.950001 -47.049999 631.625 0.49042764 -0.53325593 -0.68928856 0.11424288
-34 -46 631 0.2438805 -0.66788983 -0.70316827 0.06532234
-31 -46 631 0.19957767 -0.72363925 -0.66069275 0.057293698
-28 -46 631 0.060531512 -0.80096352 -0.59564525 0.019730212
-25 -46 631 -0.040356964 -0.84272856 -0.53682387 0.0027653703
-22 -46 631 -0.085670695 -0.84636682 -0.52566504 0.0013814067
-19 -46.5 630.5 -0.10750072 -0.85000521 -0.51568854 0.0013900069
-16 -47.25 631.33337 -0.10654026 -0.85704076 -0.50411344 0.0014202221
-12.5 -48 632 -0.08099623 -0.86593539 -0.49355403 0.0018145913
-10 -47.5 630 -0.075364999 -0.86694378 -0.49267492 0.0019239499
-7 -47.5 630 -0.053423177 -0.8725239 -0.48564172 0.0019526334
-4 -47.5 630 -0.037216414 -0.87751585 -0.4781014 0.0012919136
5 -48 630 -0.065978132 -0.87889552 -0.47242934 0.00092085236
-156.5 -44 630.5 -0.1828562 -0.81105071 -0.55566216 0.043169342
-148.1429 -44.42857 630 -0.0072688423 -0.84114724 -0.54075748 0.0061231814
-144.875 -44.625 631.125 0.028614497 -0.85127807 -0.52393401 0.0022592675
-143 -45 632 0.046113275 -0.85609573 -0.5147559 0.0014646129
-139 -45 632 0.020468865 -0.85747552 -0.51411748 0.0010915565
-136 -45 632 0.0073386207 -0.85831749 -0.51306641 0.00061944104
-123.5 -45 632 0.0039434647 -0.84724855 -0.53118187 0.001630279
-121 -45 632 0.021722816 -0.84457064 -0.53500336 0.0018778909
-114.5 -45 632 0.04898962 -0.84429365 -0.53363675 0.001199186
-111.75 -44.75 632.75 0.006908861 -0.8362717 -0.54827183 0.0060544135
-108.75 -43.25 630.25 -0.066109255 -0.80772728 -0.58583802 0.02354278
-106 -43.400002 630 -0.16444194 -0.78389895 -0.59871638 0.040865269
-103 -43.5 630 -0.2584399 -0.73134416 -0.63114536 0.066106841
-100.5 -45 632.5 -0.33643013 -0.7050826 -0.62423819 0.067650087
-154 -19.75 631.5 -0.82392877 -0.16361499 -0.54256022 0.018300463
-156.91666 -16.791664 631.54163 -0.81799167 -0.13953976 -0.55804861 0.019155575
-155 -18 632 -0.81348604 -0.17234653 -0.55546117 0.018128529
-159.6667 -14 632.66669 -0.80604583 -0.039708111 -0.59051961 0.024717826
-158 -11 632 -0.82352912 0.054384872 -0.56466103 0.022589756
-156.91666 -7.75 631.25 -0.82653838 0.12428063 -0.54898876 0.01643756
-155.5 -5 631.5 -0.82272476 0.17370366 -0.54124939 0.0074483743
-155 -2.5 632 -0.81529605 0.16763861 -0.5542469 0.0085788583
-154.6667 1 632.66669 -0.80636352 0.093605377 -0.58396572 0.0091603296
-153 1 630.33331 -0.8180061 0.13334484 -0.55954009 0.0089953048
-154 4 632.66669 -0.7957508 0.054554697 -0.60316211 0.0062481109
-153.95 7.0999999 631.20001 -0.78957987 0.028721293 -0.6129753 0.0042528156
-154.28571 9.8571424 630.14288 -0.7905224 0.038553156 -0.61121839 0.0047649634
102.75 9.75 630.25 0.72679847 -0.58906466 -0.35322329 0.011565989
-154.375 12.5 631 -0.79687208 0.072843783 -0.59974045 0.0056940778
107.5 12.5 632 0.74041069 -0.57013333 -0.3560057 0.015452626
-154.25 16.25 632.75 -0.7972486 0.12256368 -0.59107763 0.0055056713
109 15 632 0.74313527 -0.56644678 -0.35621345 0.013988244
-153.6667 19 632.66669 -0.78462178 0.1136044 -0.60947746 0.0096891485
-151.625 21.875 631.125 -0.76537746 0.080477692 -0.63853008 0.019254299
112 23 630 0.79807806 -0.46159616 -0.38729891 0.022341531
-151 25.5 632 -0.71333885 -0.11548707 -0.69123828 0.039218642
114.5 25.5 630 0.82724547 -0.35627714 -0.43443251 0.030919544
-210.625 28.625 631.875 -0.15444222 -0.88855469 -0.43199325 0.0045258244
-208 29 631 -0.095410265 -0.89086848 -0.44412869 0.003603535
-205 28.416664 631.83337 -0.01152411 -0.90737981 -0.42015383 0.0046513649
-202 29 631 0.041242767 -0.90158421 -0.43063328 0.002802274
-199 29 631 0.070920445 -0.90390569 -0.42181137 0.0020136959
-196.5 29 631 0.078627199 -0.90823931 -0.41099772 0.0017011525
-151 28 632 -0.65341145 -0.29031768 -0.69912028 0.046442904
-150 28 630 -0.66626555 -0.28826904 -0.68774348 0.046871345
117 28 632.33331 0.80758566 -0.2390722 -0.53911954 0.044517085
-218 31 631.91663 -0.38861841 -0.80978143 -0.4395791 0.00718003
-195.5 30 632 0.078569211 -0.90847635 -0.41048464 0.0015098235
-193 30 632.66669 0.083947055 -0.91357464 -0.3979125 0.00097008975
-181.2 30.6 632.79999 0.094070226 -0.91072899 -0.40214857 0.0011503665
-178.2 31.799999 630 0.090376236 -0.91506898 -0.39304057 0.0012501853
-175.2 31.6 632.79999 0.063362524 -0.90647197 -0.417485 0.0021234041
-172 32 632.66669 0.052085727 -0.9012689 -0.43011799 0.0019861944
-160 31.5 632.83331 -0.19475202 -0.77305537 -0.60370272 0.023840422
-156.92856 31.5 631.92859 -0.28569844 -0.72069544 -0.63164431 0.033699695
-154.1667 31 632.33331 -0.4357793 -0.59688735 -0.67366296 0.040791273
-151.90477 31.166666 631.04761 -0.47183543 -0.56423771 -0.67750061 0.03881098
116.3333 31 630 0.86778885 -0.031102724 -0.49595886 0.044445246
-219.75 33.75 630 -0.45021981 -0.7821967 -0.43066281 0.0052170488
-177 33 630 0.091580756 -0.91394204 -0.3953768 0.0012338269
-226 38 630 -0.47445843 -0.78486198 -0.39859852 0.0036545873
-223.5 36.5 632 -0.4819628 -0.76726002 -0.42311212 0.0041783154
-231.75 40.75 630 -0.45062846 -0.77636397 -0.44067335 0.0094427159
115 39 631 0.83588582 0.35920522 -0.41505015 0.010425006
-236.25 43.25 631.25 -0.52079797 -0.60815316 -0.59909862 0.028162863
112.5 42.5 630.5 0.80377775 0.42313215 -0.41821104 0.0043974402
-238.08334 46.166664 631 -0.62490368 -0.37475002 -0.68487793 0.058108464
-244 49 632.5 -0.62318152 -0.27263802 -0.73301655 0.040255792
-241 49.125 631.5 -0.6241414 -0.24339308 -0.74243343 0.052082688
110.6667 49 632.66669 0.81162554 0.37671345 -0.44648722 0.0032889142
-244 52.25 632.5 -0.65263909 -0.12885886 -0.74663085 0.061975978
-242.16666 51.666664 630.66663 -0.65716422 -0.16846859 -0.73467928 0.043552916
-240.5 54.5 630 -0.67164969 0.27637175 -0.68739021 0.073690347
-239 56 632 -0.60359091 0.47161841 -0.64284837 0.081854194
107 56 632 0.83878088 0.30690464 -0.44972908 0.0017312085
-236 57.5 630.5 -0.53950095 0.6654883 -0.51581407 0.048767682
106.5 57.25 631.25 0.84402066 0.30212548 -0.44311315 0.0019899094
-229.75 60.416668 631.16669 -0.39031589 0.76327312 -0.51484728 0.01033917
-226.3333 61.666672 632.66669 -0.37302637 0.7517404 -0.5438177 0.011268502
105 61 632 0.84712338 0.33888224 -0.40931746 0.0020035803
-222.5 63 630.5 -0.42696628 0.70892221 -0.56136358 0.01379384
-220 64.5 631 -0.44422051 0.67394179 -0.59031403 0.010709392
103.3333 64 630 0.84715652 0.3533203 -0.39685094 0.0021328875
-217.3333 67 630.5 -0.49313518 0.62080073 -0.60944575 0.0097537842
-220 69 632.5 -0.47127405 0.64369255 -0.60295999 0.01178312
-218.125 69.75 630.5 -0.49976999 0.60321468 -0.62158024 0.0095943771
101.5 70 632 0.8503108 0.39070329 -0.3525939 0.0010680449
99 75 632 0.85376948 0.40323168 -0.32936597 0.0009618146
97 79 631 0.85847557 0.39493638 -0.32717726 0.00076751068
-30 -66 634 0.98183733 0.044046253 -0.18454088 0.054717556
-31.5 -62 634.5 0.96263915 0.075215451 -0.26013175 0.061646633
-33 -59 634 0.95472491 0.11252588 -0.2753875 0.067090206
29.5 -59.5 633.5 -0.41801021 -0.70429605 -0.57378972 0.026037816
-34.25 -55.75 634.5 0.94235152 0.043526411 -0.33178163 0.099019758
31 -56 634 -0.42241448 -0.70012599 -0.57566458 0.025153333
-35.5 -53 633.75 0.87641484 -0.10909881 -0.46903566 0.10597781
16 -52 634 -0.055186428 -0.86833799 -0.49289307 0.00069821614
20.25 -52.5 635.5 -0.19121034 -0.81251484 -0.5506888 0.022642033
22.799999 -52.599998 635.59998 -0.24790803 -0.8003276 -0.5459097 0.0279826
24.75 -52 634 -0.28122726 -0.78229082 -0.55581677 0.027394291
28.875 -53.5 634.5 -0.35884604 -0.72526389 -0.58755583 0.026790841
-101.5 -50.25 633.5 -0.28690806 -0.76522285 -0.57629669 0.054314774
-34.400002 -49.799999 634.90002 0.53279883 -0.50740927 -0.67724532 0.097620159
-15.5 -50 634 -0.091518044 -0.86463243 -0.49399921 0.0018023441
-13 -50 634 -0.081855945 -0.86782593 -0.49007931 0.0024638092
-10 -49 633 -0.056380708 -0.87685269 -0.47744158 0.0023777825
-7 -49.333328 633.33331 -0.038459457 -0.87988853 -0.47362116 0.0017873262
-4 -49.666672 633.66669 -0.031351924 -0.88573605 -0.46312916 0.0012780731
-1 -50.166664 634.33331 -0.043859605 -0.88269204 -0.46790069 0.00088078895
1.875 -50.25 634.125 -0.057475239 -0.88256633 -0.46666187 0.0010083809
5 -50 633.16669 -0.071837343 -0.8812502 -0.46715891 0.00047252516
7.8000002 -50 633 -0.068389878 -0.88141209 -0.46737093 0.00090767595
11 -50 633 -0.057188027 -0.87685126 -0.47734824 0.0012675596
-157.125 -47.125 634.75 -0.19699457 -0.81643498 -0.5427956 0.044984333
-154.25 -46.75 633.25 -0.049099702 -0.84077007 -0.53916132 0.0067548305
-150.8571 -46.42857 633 -0.035735745 -0.84579623 -0.53230792 0.007642298
-147.5 -46 633 0.016538236 -0.85412347 -0.51980728 0.0030659549
-145.6667 -46 633.66669 0.036254264 -0.85677218 -0.51441902 0.0019276132
-142 -46.75 634.33337 0.04091835 -0.86144978 -0.50619173 0.0010383832
-139.16666 -46.75 634.58331 0.021459803 -0.86016667 -0.50956136 0.00091177464
-135.75 -46 633.25 0.0048731216 -0.86046827 -0.50948077 0.00084052625
-133 -46 634 -0.0053855898 -0.86092126 -0.50870973 0.0011311102
-130 -46.5 634.66669 -0.011761763 -0.8659575 -0.49997941 0.0012084557
-127 -46.5 634 -0.015736496 -0.86399436 -0.50325537 0.0011214066
-124 -46.5 634 -0.00089310994 -0.86359811 -0.50418013 0.0012952955
-120.75 -46.5 634 0.021402389 -0.86311263 -0.50455785 0.0019462962
-118 -46.5 633 0.041102473 -0.85255182 -0.52102405 0.0016920487
-115 -46.5 634 0.03519696 -0.85078698 -0.52433056 0.0025768036
-113 -46 634 -0.01012466 -0.83729643 -0.54665548 0.010678436
-105.8 -46.799999 635.79999 -0.13603197 -0.81729984 -0.55992526 0.029585015
-102.8571 -46.714291 635.42859 -0.22069871 -0.79521251 -0.56473815 0.037883125
-100.625 -47.125 634 -0.2772125 -0.77437037 -0.56877387 0.055985484
-34 -47.5 633.33331 0.34181607 -0.5916658 -0.7301324 0.078006305
-31 -47.5 633.5 0.28271192 -0.69994873 -0.655855 0.066096731
-28 -47.5 633.5 0.14562771 -0.78699976 -0.59951967 0.039424349
-25 -47.5 633.33331 0.020824594 -0.82038188 -0.5714367 0.016110711
-22 -47.5 633 -0.072237387 -0.84805745 -0.52495754 0.0018235183
-19 -48 633.33331 -0.094410114 -0.85771906 -0.50537592 0.0015458999
-158.5 -44.5 634.33337 -0.37913597 -0.71950561 -0.58186561 0.079543658
-109.2 -44.599998 633.20001 -0.081668764 -0.80615824 -0.58603686 0.027109876
-106 -45 633.33331 -0.16463974 -0.80112648 -0.57540429 0.041691765
-103 -45 633 -0.25774881 -0.75874615 -0.59822232 0.054657858
-155 -23.5 633 -0.82502842 -0.18803278 -0.53289008 0.022778723
-157 -20.5 635.5 -0.74678934 -0.28759655 -0.59966153 0.017231412
-156 -19 634 -0.78709292 -0.2334269 -0.57096112 0.018209834
-160 -17 634.375 -0.7798785 -0.15689299 -0.60594887 0.026481207
-161 -14 635.33331 -0.8092159 -0.041907538 -0.58601481 0.025586801
-159.75 -10.75 634.5 -0.8309285 0.063733011 -0.55271673 0.022521399
-159 -9 634 -0.82376039 0.11506048 -0.55513948 0.017379377
-157.66666 -5 634.33337 -0.81744945 0.18393236 -0.54584366 0.0051937499
-156.75 -1.75 634.75 -0.81335968 0.12614506 -0.56792027 0.010027165
-156.6667 4 635.5 -0.79431397 0.031218756 -0.60670471 0.0057414761
-157.3 6.9000001 634.46667 -0.78907418 0.035865143 -0.61325008 0.004907941
103 8 633 0.69698775 -0.61743832 -0.36466154 0.016093964
-157.5 10 634 -0.79384571 0.052939229 -0.60581052 0.0057244645
104.5 9.5 635 0.70080948 -0.60893744 -0.37156597 0.018947845
106 11 633 0.74650383 -0.5636422 -0.35360914 0.015868843
-156.8333 13 634.66669 -0.80019855 0.10623104 -0.59025186 0.0052331393
108.5 13 634 0.75063699 -0.56187516 -0.34762123 0.017384034
-156 15 634 -0.79652762 0.12225881 -0.59211189 0.004925095
-155 19 635.5 -0.7839824 0.0626425 -0.61761433 0.018408287
-154.33334 22 634.83337 -0.74080157 -0.038628671 -0.67061234 0.033322088
-154.39999 25.200001 635.40002 -0.66428721 -0.21907793 -0.71465188 0.045177825
-153 25 633 -0.66343623 -0.17045704 -0.72855806 0.044915579
115.58334 24.583334 634 0.77029186 -0.46423906 -0.43718714 0.037764743
-217 29 635.33331 -0.33254993 -0.83987254 -0.42898098 0.0090886923
-213.5 29 633 -0.20701206 -0.87939501 -0.42873114 0.0050062719
-208 28 633 -0.090032987 -0.90327221 -0.41951573 0.0044346196
-205 27 635.33331 -0.013164498 -0.91502792 -0.40317571 0.0045869369
-202 28.5 633.5 0.04104913 -0.91436923 -0.40279505 0.003458631
-199.25 28.75 633.5 0.071541563 -0.91316062 -0.40127239 0.0019987507
-196 29 634 0.088634714 -0.91269732 -0.39890784 0.00074753718
-194 29 634 0.085845284 -0.91460866 -0.3951222 0.00089505001
-157 28 635.83331 -0.50855404 -0.48258182 -0.71308309 0.0526057
-154.90477 28.214287 634.35712 -0.54320574 -0.43769422 -0.71648538 0.048061915
118.4 28.4 634.90002 0.74399155 -0.33472142 -0.5783062 0.06201306
-220.25 30.625 634.375 -0.41420636 -0.7903319 -0.4514516 0.0088838059
-215 30 633 -0.30009541 -0.84901261 -0.4348796 0.006828086
-190 30 633 0.080758117 -0.91667551 -0.39138752 0.0015627497
-186.75 30.25 633 0.091809578 -0.91471487 -0.39353231 0.0015964367
-184 30.5 633 0.093227386 -0.91371441 -0.39551824 0.0015838296
-178.66667 30.416666 634.66669 0.082353987 -0.90207833 -0.42364183 0.0015871879
-169 31.25 634.41663 -0.004902414 -0.88179153 -0.47161382 0.0032853514
-165.91666 30.916664 634.33337 -0.088216163 -0.85220313 -0.51572055 0.010726577
-163 31.5 633 -0.12059086 -0.83354872 -0.53912359 0.015937392
-160 30 635 -0.3138026 -0.71269554 -0.62736994 0.035721384
-158 30 635 -0.38955382 -0.62737393 -0.67427725 0.039263114
118.5 31 634.33331 0.75456679 -0.1897085 -0.62820351 0.063564993
-223 34 634.33331 -0.47250912 -0.76045865 -0.44546345 0.0052131414
-221 33 633 -0.45886758 -0.76635015 -0.44960877 0.0060480759
118.5 34 634 0.77251947 0.083329201 -0.62949973 0.068145119
-229 37.666672 635.66669 -0.40791553 -0.76938659 -0.49157813 0.0074197999
-225.83334 37 634.33337 -0.469017 -0.75965446 -0.45049754 0.0050146282
117.5 37 633 0.77084333 0.24450287 -0.58823365 0.059040412
-238.25 40.25 635.75 -0.35625041 -0.72832614 -0.58534324 0.015038031
-236.25 41 633.75 -0.40222839 -0.73576581 -0.54484951 0.019292604
-232.375 39.625 634.25 -0.37771961 -0.77964705 -0.49947816 0.012504775
-229.5 39 633.5 -0.42844242 -0.77717298 -0.46091121 0.0073150294
115.5 40.5 633 0.80092502 0.39181015 -0.45277369 0.023934793
-241 43 634.5 -0.49078348 -0.54683685 -0.67830747 0.031712763
-238.1667 42.666672 633 -0.48328772 -0.61095375 -0.62703145 0.032842103
113.5 43.5 633 0.80215585 0.41998166 -0.42445433 0.0036694701
114 44 635 0.80032015 0.42216137 -0.42575505 0.0025106966
-244.66667 46.5 634.38892 -0.59076953 -0.37201133 -0.71596014 0.027831167
-241 46 633.57141 -0.58627242 -0.37732413 -0.71687603 0.047086179
112.3333 46 633.66669 0.80344194 0.41551399 -0.42641434 0.0027250382
-246.60001 48.799999 633.79999 -0.60791397 -0.28643128 -0.74053884 0.036003072
111 50 635 0.81810927 0.36301827 -0.44599891 0.0017769334
-246.3333 51.333328 633.66669 -0.64414698 -0.24020517 -0.72620666 0.033899367
109.6667 52 633 0.81940776 0.34404442 -0.45848048 0.0016896067
-244 54 634 -0.64578909 -0.04284225 -0.76231295 0.063253
-242 54.5 633 -0.64150435 0.21476074 -0.73644418 0.091534674
109 54.5 633.5 0.82779568 0.32467559 -0.45753694 0.0014580238
-237 58 633 -0.54282016 0.63788259 -0.54630768 0.043471966
108.5 58 634.5 0.83356953 0.3242206 -0.44726157 0.0018466703
-231.75 61.25 634 -0.43987998 0.73455018 -0.51666397 0.015483749
-229.5 62 635 -0.39607021 0.74841225 -0.53198457 0.011285589
107 60.5 633.5 0.83809888 0.34234345 -0.42472491 0.0019184795
-231.25 64 635.75 -0.41147307 0.73391086 -0.54043025 0.0097634457
-229 64 635.77777 -0.39815998 0.7395184 -0.54275334 0.010178196
-225.79166 63.791664 634.45837 -0.39323309 0.7348302 -0.55262315 0.012082979
-223.375 64.75 634 -0.41553783 0.7151379 -0.56205535 0.014006546
105.5 64 633.5 0.84323132 0.36945543 -0.39046589 0.0016785252
-226 67 635.5 -0.41243139 0.72732204 -0.5485462 0.014212348
-223.125 67.125 635 -0.42609206 0.70048642 -0.57250702 0.012883695
-221.16666 66.5 633.58337 -0.44754866 0.66958219 -0.59275615 0.01055603
103.5 67.5 633 0.84788316 0.38287994 -0.36673838 0.0015300313
-223 69 635 -0.4302527 0.68697548 -0.58561713 0.011439067
-222 69 634 -0.46326107 0.65638131 -0.59544337 0.012695983
103 70 634 0.84617746 0.39549229 -0.3571687 0.0011826396
101 73 633.33331 0.84806967 0.40634269 -0.34009323 0.0010505145
100 76 634 0.84642977 0.40910411 -0.34086719 0.0010182828
97.5 79 633 0.85237569 0.40304893 -0.33317751 0.0008922774
-29 -67 638 0.96503693 -0.086265005 -0.24751195 0.07873673
-30 -65 637 0.97302383 -0.0065247477 -0.23061241 0.062874094
-31 -62 638 0.95972311 -0.090137698 -0.26609522 0.094674088
28 -61 637 -0.40069047 -0.72265804 -0.56321615 0.025608074
-32.5 -59 637 0.95466208 -0.011984066 -0.29745051 0.085114792
29 -58.5 638.5 -0.40752193 -0.71188599 -0.57196516 0.025102103
30 -58 636 -0.39553595 -0.71291345 -0.57905591 0.025034515
29.075001 -55.974998 637.42499 -0.40072989 -0.71629608 -0.57125789 0.025546798
-103.5 -53.25 637.25 -0.20858987 -0.81378478 -0.54244316 0.029877072
-34.666672 -53 636.33331 0.85509628 -0.18161364 -0.48562014 0.10041659
-15.75 -52.25 638.75 -0.06446331 -0.85994399 -0.50630111 0.0016408922
-13 -52 637 -0.060625937 -0.86490339 -0.49826357 0.0023524892
-10 -52 637 -0.038713802 -0.87555176 -0.4815706 0.0018457617
-7 -52 638.33331 -0.025868371 -0.87366527 -0.48583934 0.0013746085
1.25 -52 637 -0.057489879 -0.87788314 -0.47541144 0.00069310353
5 -52 637 -0.080996938 -0.87490433 -0.4774746 0.00069720985
8.1999998 -52.400002 636 -0.073733374 -0.87331253 -0.48154825 0.001062779
11 -52.5 636 -0.069109738 -0.87214869 -0.48433509 0.00069887668
13.875 -53.125 637.375 -0.070249215 -0.86532402 -0.49626544 0.00091122894
17 -53.375 637 -0.076594673 -0.8567341 -0.51003915 0.0015054628
20 -54 638 -0.22387348 -0.80738163 -0.54590803 0.023780655
23 -54 638 -0.27322397 -0.77537119 -0.56934023 0.029621664
25.875 -53.625 637 -0.34600586 -0.74366587 -0.57204992 0.029298894
-153 -49 637 -0.012696245 -0.85993648 -0.51024324 0.0057047997
-147.75 -49.75 638.75 0.031779561 -0.86116368 -0.50733334 0.0023707135
-145.25 -49.75 638.75 0.045287233 -0.8645587 -0.50048721 0.0010342756
-142 -50 638.66669 0.036966674 -0.86332053 -0.50330019 0.0011345758
-127.2 -49.400002 638.79999 -0.016017826 -0.87790954 -0.47855863 0.0013080393
-124 -49 637 -0.002356506 -0.87824667 -0.4782021 0.0011438088
-121 -49 637 0.015758833 -0.87672657 -0.48073092 0.0019968108
-117.5 -49 637 0.030626085 -0.87000287 -0.49209437 0.0018654373
-116 -49 637 -0.016763767 -0.86138779 -0.50767112 0.0077652759
-103.16665 -50.25 637.58337 -0.21802653 -0.80132979 -0.55707717 0.031754602
-30.875 -50.625 637.125 0.4679006 -0.64848769 -0.60044372 0.091807485
-28 -50.5 637 0.27540481 -0.75550711 -0.59444195 0.067074478
-25 -50.5 637.33337 0.10671002 -0.80282313 -0.58659017 0.0319985
-22 -50.5 637 -0.036509767 -0.84352493 -0.5358476 0.0060119363
-19.4 -50.700001 637 -0.077131063 -0.84965384 -0.52166951 0.0015326549
-16.25 -50.75 636.25 -0.081003584 -0.85740334 -0.50823003 0.0017252422
-13 -51 636 -0.061104015 -0.86673301 -0.49501529 0.0025650808
-9.5 -51 636 -0.039026562 -0.8733235 -0.4855749 0.0017308077
-7 -51 636 -0.023618281 -0.87864596 -0.4768894 0.0012566895
-4 -51 636 -0.023227856 -0.87876689 -0.47668564 0.0011939945
-159.5 -46.5 636.5 -0.1946831 -0.80454814 -0.5610711 0.044306941
-154 -48 636 -0.046665616 -0.85943121 -0.50911719 0.0068299375
-151 -48 636 -0.01740416 -0.86086863 -0.50852972 0.0053766803
-148 -47.5 636 0.014000767 -0.86380583 -0.50363022 0.0040541892
-144.75 -47.25 636.25 0.04918775 -0.86357844 -0.50180948 0.0013730488
-136 -47 636 0.0073374868 -0.86804599 -0.49642953 0.0012571146
-133 -47 636 -0.0011127593 -0.86970907 -0.49356338 0.0015065898
-119 -48 636 0.033052843 -0.87008876 -0.49178553 0.0017867577
-112 -47.166672 636.33331 -0.014676278 -0.8405003 -0.54161227 0.011142188
-109 -47 636.5 -0.088571347 -0.83401954 -0.54457921 0.026963299
-157 -26 638.33331 -0.68146789 -0.40261355 -0.61114961 0.012285522
-157 -22.33333 636.66669 -0.75231934 -0.28830642 -0.59236401 0.016727341
-160.75 -19.75 637.25 -0.74730396 -0.26651758 -0.60869139 0.023256449
-163 -17 637 -0.78011155 -0.13647479 -0.61057395 0.030332221
-163 -14 638.33331 -0.80493122 -0.014409672 -0.59319305 0.029252643
-162 -12 637 -0.81016964 0.050668623 -0.58400154 0.023831069
-160.33334 -7.75 637.25 -0.81412911 0.14891867 -0.5612638 0.0091934372
-159.5 -5 637 -0.81272131 0.14375469 -0.56464028 0.0079898471
-159 -2 638.33331 -0.79122394 0.092586249 -0.60447705 0.0090421448
-157 1 636.16669 -0.78718954 0.062493365 -0.61353666 0.0084938249
-159 5 637 -0.78617734 0.029522005 -0.61729544 0.0052761394
-160.5 7 637.83337 -0.78239167 0.050401703 -0.62074381 0.0059944065
103 7 636 0.65325469 -0.66143221 -0.36846399 0.017018681
-160 9.5 637 -0.79370165 0.078404717 -0.60323328 0.006421221
105.75 9.75 637.25 0.71499276 -0.59524179 -0.36670506 0.022130027
109.83335 13 637.33337 0.74995995 -0.54259682 -0.37835011 0.023991354
-157.5 16 637.16663 -0.79904306 0.09993016 -0.59291154 0.0073515051
-157.60001 19.200001 638.79999 -0.74441469 -0.057741825 -0.66521621 0.035079088
-156 23 637 -0.6951791 -0.18188567 -0.69544488 0.040836006
112 22.5 636 0.77807468 -0.5177716 -0.3556858 0.026031889
119.1 22.1 637.34998 0.65749431 -0.60399264 -0.45043764 0.037733089
-205.14999 25.700001 637.90002 -0.014251974 -0.91433728 -0.40470257 0.0048734546
-157.05 24.9 637.70001 -0.62413538 -0.32869577 -0.70881176 0.048973963
118.5 25.25 636 0.67476839 -0.53171021 -0.51183194 0.052951109
120 24.5 638 0.6129238 -0.5769555 -0.53985816 0.05160775
-218 28.5 637.66663 -0.33528912 -0.83491528 -0.43646052 0.0091616865
-213.5 28 637 -0.21204937 -0.88810515 -0.40780416 0.0044140588
-211 27.33333 636.66669 -0.14706938 -0.90226024 -0.40533561 0.0054199542
-208 27 636 -0.077415712 -0.91490686 -0.39617187 0.0047813868
-202 27 636.66669 0.042691696 -0.91597819 -0.3989504 0.0032479188
-198.875 27.375 637 0.078260124 -0.91261232 -0.40126562 0.0019469002
-195.875 27.5 637.125 0.087669514 -0.91054106 -0.40401626 0.00129226
-192.8 28.4 636 0.082099214 -0.91276681 -0.40014556 0.0014735425
-189.83334 27.75 637.33337 0.080106661 -0.90733802 -0.41269922 0.0011994691
-187.1429 28.57143 636.28571 0.081455253 -0.90995455 -0.40662968 0.0014526315
-184.2 28.6 636.40002 0.080328465 -0.90604353 -0.41549054 0.0017147011
-181 28.333336 637.91663 0.069833092 -0.89336437 -0.44387326 0.0017639949
-178.25 28.75 637.75 0.067145512 -0.88970715 -0.45156693 0.0014977374
-169 28.6 638.79999 -0.07356596 -0.84552598 -0.52884191 0.0088658398
-166 28.5 638.5 -0.19504248 -0.77158505 -0.60548741 0.021256512
-162.875 28.375 637.875 -0.31165043 -0.67767072 -0.66606045 0.037120461
-159.93335 28.033335 637.6333 -0.42237589 -0.55463111 -0.7169261 0.043241557
121 29 637 0.69165975 -0.35076258 -0.6313259 0.069103792
-223.39999 30.6 637.20001 -0.43885526 -0.76587909 -0.46993107 0.0078399759
-174.75 30.25 636.25 0.050864607 -0.89240032 -0.44836867 0.0022082611
-172 30.5 636 0.024600744 -0.88690895 -0.46128872 0.0021330356
-163 30 636 -0.20695455 -0.76322186 -0.61209643 0.026862705
121.925 31.025 637.45001 0.75665003 -0.14376833 -0.63781774 0.050603744
-225 34.5 636.5 -0.45335835 -0.75003761 -0.48157007 0.0053206477
121.925 33.974998 637.77502 0.72350693 0.066008411 -0.687154 0.069788434
-235 37.5 638.83331 -0.30385458 -0.77212411 -0.55811882 0.0075720591
-231.5 38 637 -0.36046964 -0.77215654 -0.52329338 0.008743926
-229.25 36.25 638.75 -0.39597932 -0.7566663 -0.52024645 0.0066919946
118.6667 37 636 0.71240991 0.32171381 -0.6236766 0.064544067
127 36.5 637 0.72859311 0.092390515 -0.67868704 0.071992129
-243.79166 39.958336 637.45837 -0.44138008 -0.62750632 -0.64141995 0.01699773
-241 39.75 637.16663 -0.35647374 -0.7003994 -0.61835843 0.012509589
-238.5 39 638 -0.3151249 -0.74635953 -0.58621138 0.011207294
-235.2 39.400002 636.20001 -0.33647549 -0.75904119 -0.55735153 0.014723967
117 40 636.5 0.69469118 0.44526771 -0.56492555 0.050611328
127.5 39.5 636.5 0.55893749 0.2551856 -0.78896713 0.091923214
-244 43 636.11108 -0.52282661 -0.50524133 -0.68657374 0.02361008
115.5 42.5 636 0.75045097 0.47067341 -0.4639934 0.023539424
-247.5 45.5 637.16663 -0.56887412 -0.41154286 -0.7120496 0.026397105
113 46.5 636.5 0.80804098 0.39002341 -0.44153315 0.0020158407
115 45 637 0.79549992 0.41349411 -0.44294748 0.0021486178
-249 49 636.33331 -0.6188491 -0.31802902 -0.71825027 0.028565509
112 49 636.5 0.81710786 0.36492562 -0.44627818 0.001725611
-249.5 52.5 638.5 -0.60473526 -0.30494672 -0.73573279 0.030574925
-248 51.75 636 -0.61984003 -0.26905885 -0.7371605 0.031217529
111 52.5 636.5 0.81800824 0.33620164 -0.46672368 0.0017610108
-246 54 637 -0.61245984 -0.17291024 -0.77135921 0.04968746
-242 56 636 -0.61674958 0.19318867 -0.76308459 0.091928057
110 55 636 0.82320869 0.33237985 -0.46027285 0.0015921042
109.83335 58 637.16663 0.81307745 0.33376735 -0.47697419 0.0035872546
107.5 61 636.5 0.82207251 0.36013275 -0.44102296 0.0031917505
108 61 638 0.81741816 0.37201521 -0.43980938 0.0030369987
106.75 64 637.25 0.82520419 0.38902384 -0.40951005 0.0023552901
-228.8571 66.714287 636.42859 -0.40472236 0.73475236 -0.54437017 0.011067512
105 66.5 636 0.83423024 0.38993508 -0.38988546 0.001603678
103.5 70 637 0.83590943 0.4070197 -0.36822593 0.0011728229
102 73 637 0.83440608 0.41396359 -0.36386895 0.0012702012
100.5 76 637 0.83685821 0.41692454 -0.3547425 0.0008970066
99 79 636 0.84715813 0.40696827 -0.34161371 0.0011275971
97.5 82 636 0.8484872 0.4054209 -0.34015185 0.0010509102
-29 -67 641 0.9531365 -0.16266945 -0.25508726 0.084161751
-30 -65 640 0.96177989 -0.10724302 -0.2519491 0.082624301
25.5 -64.5 641.5 -0.37515062 -0.75796479 -0.53362101 0.022067107
27 -62 639 -0.37215897 -0.74518192 -0.55335492 0.028465223
-32 -59 640 0.93460518 -0.13973142 -0.32709053 0.10512823
28 -59.333328 641.33331 -0.41613972 -0.72019869 -0.55510497 0.024169231
-33 -56 639.66669 0.89665604 -0.17816918 -0.40529463 0.11350061
11 -55 641.66669 -0.083028547 -0.86807585 -0.48943907 0.0010783579
13.5 -55 641 -0.084716119 -0.8631748 -0.49774748 0.0011949867
17 -55 640 -0.17482255 -0.82166266 -0.54250115 0.019532871
20.5 -55 640 -0.27607337 -0.79217994 -0.54427427 0.029977947
23 -55.375 640.875 -0.29884562 -0.7672106 -0.5675202 0.028550569
26.025 -55.924999 640.45001 -0.35821372 -0.75115347 -0.554483 0.029889543
-154.2 -52.400002 641.79999 -0.052509435 -0.84012586 -0.53984368 0.012478789
-33.400002 -52.799999 639 0.69327742 -0.4116399 -0.5915395 0.095543481
-31 -52.75 640.75 0.47756732 -0.65138173 -0.58960259 0.09602236
-28 -52 640 0.34912267 -0.72984564 -0.58774024 0.073928751
-25 -52.5 641.5 0.21975806 -0.81466115 -0.53668761 0.051713143
-22 -52.5 640.66663 0.0326153 -0.84905195 -0.52730161 0.015910501
-19 -52.5 640.33337 -0.06532985 -0.85895443 -0.5078674 0.0014995323
-13 -53 640 -0.042010065 -0.8710826 -0.48933655 0.0018469612
-9.666667 -52.666672 639.33331 -0.031215489 -0.87315601 -0.4864403 0.0019835427
-4 -52 639 -0.030223787 -0.87637377 -0.4806824 0.0015228151
-1.2 -52.599998 639.20001 -0.039423198 -0.87696332 -0.47893748 0.001269077
1.75 -52.75 639.25 -0.061643861 -0.87343806 -0.48301765 0.00044798688
5 -53.5 640.16663 -0.081343874 -0.8737812 -0.47946811 0.0007190312
7.75 -53.75 639.5 -0.080877654 -0.87050754 -0.48546416 0.00044917554
11 -54 639.66669 -0.073712021 -0.86973935 -0.48797533 0.00083643128
-160.75 -50.125 640.29163 -0.18583316 -0.79019779 -0.58399785 0.044350073
-157 -50.166672 639 -0.063688576 -0.84926635 -0.5241093 0.012632052
-154 -50.599998 639 -0.066999033 -0.8580687 -0.50914562 0.01221037
-151.2 -50.400002 639.20001 -0.0070370547 -0.85431075 -0.51971483 0.0058965823
-149 -51 641 0.025256207 -0.85896379 -0.51141304 0.0025841889
-145 -51 641 0.041854739 -0.86158991 -0.50587648 0.0016401339
-142 -51 641 0.03792949 -0.85989612 -0.50905794 0.0013230317
-139 -50.5 640.33337 0.02890284 -0.85817999 -0.51253462 0.001140214
-136 -49.42857 639.14288 0.013287951 -0.86286485 -0.50526011 0.0013744426
-133.2 -49.599998 639.59998 0.0081465701 -0.86729169 -0.49773353 0.0012600779
-129.8333 -49.5 639 0.0013495749 -0.87311137 -0.48751891 0.0015475746
-124 -50.5 640.5 -0.0023225062 -0.87920457 -0.47643873 0.0015582115
-121 -50.5 640.66669 0.0082874065 -0.8786329 -0.47742581 0.0015490622
-117.83335 -50.5 640.66669 0.0051248986 -0.87187082 -0.4897092 0.0026854726
-114.8 -49.599998 639.20001 -0.022367641 -0.86400694 -0.5029828 0.008087609
-112 -49 639 -0.036772758 -0.85988253 -0.50916582 0.010832964
-109.1 -49.700001 640.40002 -0.0789584 -0.85455239 -0.51332808 0.017825149
-106.17855 -50.357147 640.32141 -0.12906913 -0.84674346 -0.5161072 0.020605912
-161.25 -47.25 640 -0.34621823 -0.70117396 -0.62328798 0.080012783
-159.25 -25.75 641.75 -0.65724331 -0.40724623 -0.63417804 0.018233567
-159.5 -22 639.5 -0.71575958 -0.32013324 -0.62064707 0.019859295
-157.6667 -23.66667 639 -0.69629771 -0.36603191 -0.61740601 0.014394596
-165.8333 -20.33333 641.66669 -0.72764009 -0.26199904 -0.63395303 0.034514509
-163.8 -19.6 639.5 -0.75066429 -0.23886116 -0.61599392 0.027932091
-166 -17.5 641.5 -0.76896995 -0.093754202 -0.63237286 0.032770742
-164.5 -17.25 639.5 -0.78123218 -0.11931095 -0.61273253 0.0315607
-163.33334 -10.75 640.25 -0.8193475 0.12925336 -0.55853671 0.013123902
-162 -9 640 -0.81997079 0.1577868 -0.5502283 0.0066668885
-160.3333 -5 639.66669 -0.81200725 0.13103721 -0.5687474 0.0091227172
-161 -2 641 -0.79454792 0.061351679 -0.60409403 0.0094727045
-160.125 0.875 640.125 -0.78806317 0.043634851 -0.61404598 0.0077531207
100 2 641 0.50603455 -0.78085929 -0.36631656 0.0054859421
-163.60001 3.8 641.59998 -0.78552395 0.041252393 -0.61745471 0.0072521227
-161.0625 4.4375 639.5 -0.7810095 0.036720145 -0.62343866 0.0073641739
101.5 3.5 639.5 0.5513823 -0.74821311 -0.36899143 0.0095701888
103 5 639 0.5472604 -0.74272633 -0.38582844 0.010012631
-163.25 6.75 641.75 -0.79384631 0.0685312 -0.60424465 0.0085898191
104 7 639 0.61546797 -0.69834065 -0.36540315 0.017433414
105 7 641 0.6073733 -0.70147759 -0.37286296 0.0190331
-160.6667 10 639.33331 -0.79644459 0.0967879 -0.59691548 0.0075542722
107.5 9.5 639.5 0.70774424 -0.58111346 -0.40175268 0.03058131
109.5 11 639 0.7290588 -0.54749978 -0.41075224 0.028537421
-160.25 13.5 640 -0.80173367 0.12378453 -0.58472264 0.0055981181
111 12 641 0.74393618 -0.51753294 -0.42275134 0.031269379
-159 16.5 640 -0.79093945 0.022318337 -0.61148727 0.02020981
-160 19 641.66669 -0.74674731 -0.08772324 -0.65929741 0.038478039
120 20 641 0.61080772 -0.65983057 -0.43765 0.036979571
-157.5 22 639.33331 -0.69821858 -0.21757172 -0.6820215 0.041121833
112.5 21.5 640.5 0.75070328 -0.55360079 -0.36051455 0.03237015
116 23 639.66669 0.66828293 -0.6096521 -0.42628899 0.040069457
121 21.75 640.5 0.58789599 -0.65805405 -0.47047117 0.037125923
-211 26 639.66669 -0.14192718 -0.9090547 -0.39176056 0.0037759424
-208 25.5 639 -0.085626692 -0.91528803 -0.39359349 0.004759178
-204.5 24 641 -0.008999655 -0.90964645 -0.41528594 0.004740214
-202.10001 25 640.59998 0.023641825 -0.90916497 -0.41576457 0.0040592323
-199 26 640 0.07724034 -0.90749341 -0.41290393 0.0016345682
-196.39999 25.700001 640.90002 0.078146353 -0.89960122 -0.42966363 0.0011199864
-193 25.5 641.83331 0.07417272 -0.89288503 -0.44413361 0.00056394481
-190.5 26 640 0.070763148 -0.89911002 -0.43196493 0.0011086534
-186.8333 25.5 641.83331 0.058024481 -0.88512194 -0.46172753 0.00025477604
-184.25 25.75 641.75 0.053233255 -0.87934333 -0.47320348 0.00075735338
-160 25 640.5 -0.50787169 -0.46256438 -0.72670519 0.047464859
121.75 25.125 640.625 0.64168024 -0.55255455 -0.53191167 0.062973917
-222.5 29 639.5 -0.40183547 -0.78465992 -0.47205621 0.009524486
-220 28.33333 639 -0.36617944 -0.81976599 -0.44033656 0.010281876
-217.5 27 641 -0.30027667 -0.86193693 -0.40853223 0.0066328864
-214 27 639.33331 -0.22407264 -0.88887185 -0.39962268 0.0037476514
-193 27 639 0.081318662 -0.90568602 -0.41607708 0.0015943191
-187 27 639 0.066800401 -0.90119833 -0.42822808 0.0010969677
-183.75 27.25 639.25 0.067150138 -0.89037579 -0.45024621 0.0011985932
-179 27 641 0.04769225 -0.87231708 -0.48660907 0.001515132
-175.07144 27.714285 640 0.029967852 -0.87063938 -0.49100819 0.0021883571
-172 27.75 640.25 -0.0193594 -0.85705966 -0.5148533 0.0044050114
-169 27 641 -0.13518307 -0.79536992 -0.59085721 0.014979968
-166 27 641 -0.26979998 -0.68352437 -0.67823482 0.032494809
-164 27 641 -0.31427291 -0.67398459 -0.66856366 0.033149965
122 28 639.28571 0.69972086 -0.3412481 -0.62764674 0.077165365
124.6 28.4 640.90002 0.7410925 -0.31618798 -0.59228963 0.077923551
127.5 29 641.5 0.75226653 -0.29995215 -0.58662069 0.069515802
-226.25 30.5 640.125 -0.4124898 -0.76042122 -0.50160909 0.0070907874
124.5 31 639.66669 0.7367 -0.20322132 -0.6449607 0.056705806
127 31 640.5 0.76338893 -0.18013315 -0.62031394 0.063015513
-229.2 33.799999 641.40002 -0.39481705 -0.7547121 -0.52395529 0.0067334445
-227.33334 34.5 639.5 -0.42780691 -0.74669421 -0.50934178 0.006043267
125.15 34.200001 640.29999 0.74768263 0.0023526456 -0.66405207 0.077085391
127.16665 34.25 640 0.73161286 -0.0077041262 -0.68167675 0.07606405
-243.5 38 639.5 -0.40038905 -0.70079398 -0.59040362 0.013813544
-241.125 37.25 640.375 -0.33286342 -0.75168151 -0.56936538 0.010776085
-238 36.75 640.58337 -0.2889652 -0.78662467 -0.54563797 0.0061317189
-235 36 641 -0.29725975 -0.78441983 -0.54435486 0.0058143814
-232.375 36.375 640 -0.33647576 -0.77316475 -0.53758746 0.0076176999
120.66665 36.916664 639.16663 0.65304357 0.314163 -0.68908322 0.068888463
127 37 641.33331 0.64132476 0.14317864 -0.75379193 0.096122198
-247.125 40.125 640 -0.49609366 -0.63672167 -0.59031898 0.020221427
118.66665 40.5 640 0.60819131 0.51250237 -0.60617214 0.049271807
127 40 640 0.48396537 0.28756198 -0.82648998 0.09566813
-248.2 42.599998 640 -0.54188192 -0.55340952 -0.63253611 0.024134412
117 43 639.5 0.64189857 0.53833753 -0.54603922 0.039422441
