ply
format ascii 1.0
comment PCL generated
element vertex 729
property float x
property float y
property float z
property float nx
property float ny
property float nz
property float curvature
element camera 0
property float view_px
property float view_py
property float view_pz
property float x_axisx
property float x_axisy
property float x_axisz
property float y_axisx
property float y_axisy
property float y_axisz
property float z_axisx
property float z_axisy
property float z_axisz
property float focal
property float scalex
property float scaley
property float centerx
property float centery
property int viewportx
property int viewporty
property float k1
property float k2
end_header
115.25 -7.4166665 670.33331 -0.033208467 -0.75134814 -0.6590699 0.027484883
118.8 -7.4000001 669.40002 0.0065732533 -0.74359804 -0.6685946 0.023608642
121.6 -7.5999999 669.40002 0.062252469 -0.75232255 -0.65584713 0.02535787
125 -7.5 669.5 0.093573354 -0.77610606 -0.62362128 0.022230858
128 -7.5 669 0.1513806 -0.79338825 -0.58959222 0.024218867
131 -8 671 0.20806159 -0.77740389 -0.59359378 0.029131519
-187.3333 -4 671.33331 -0.74281377 0.12482872 -0.65775788 0.0069629946
-186 -4 669.66669 -0.748348 0.12529998 -0.65136403 0.0065150745
-184.5 -0.75 669 -0.7478559 0.083377473 -0.65860432 0.015303617
-184.33334 2 670 -0.70636493 -0.078528024 -0.70347852 0.041331347
-184.375 5.375 670.375 -0.62813187 -0.2244717 -0.74502528 0.052643768
-196 8.6000004 671.59998 -0.16236235 -0.82082856 -0.54761189 0.014408246
-193 8.5 671.66669 -0.22304645 -0.74853545 -0.62445563 0.029102812
-190 8.5 671.66669 -0.30770761 -0.6850754 -0.66029376 0.040834259
-184.25 8.5 669 -0.55156171 -0.42860457 -0.71559608 0.063450977
-208 11.33333 671.66669 -0.28962913 -0.88803267 -0.35708952 0.0046037138
-204.5 11 669.5 -0.19743046 -0.89960694 -0.38952354 0.0059313653
-202 10 671 -0.15703177 -0.89175045 -0.42440784 0.0085126199
-199 10.5 669 -0.093038239 -0.87677288 -0.47181901 0.0074175871
-190 10.5 669.16669 -0.16016725 -0.76150054 -0.62806314 0.018699305
-186 9 670 -0.45396122 -0.53316396 -0.71390152 0.058040638
-211 13 669 -0.29950443 -0.89641672 -0.32670197 0.0024866806
-218 16.5 669 -0.32954049 -0.89199686 -0.30942625 0.0011237764
-214 15 669 -0.32210764 -0.89236188 -0.3161281 0.0015530804
-178 -83 673 0.38780972 -0.61930948 -0.68268543 0.066127338
12 -82 673 -0.4965381 -0.69282079 -0.52292389 0.032911427
-180 -81 672 0.41138694 -0.64775938 -0.64122432 0.053733703
-180.3333 -76.666656 674.66669 0.46031398 -0.56318134 -0.68624908 0.084365524
11 -75.833344 674.83331 -0.39304903 -0.75758117 -0.52113646 0.037709102
13.33333 -76.666656 674.33331 -0.43127319 -0.74782777 -0.50473475 0.034997631
-179 -75 673 0.46056244 -0.5972079 -0.65667725 0.087897845
-175 -73.5 673 0.37466413 -0.66992682 -0.64095622 0.061361104
-172.3333 -72.333344 672 0.29034355 -0.6931051 -0.65977722 0.066472702
-169.2 -73.400002 674.79999 0.19472873 -0.74896878 -0.63334543 0.030038217
-114 -74 674 -0.22000287 -0.81193572 -0.54070234 0.011802924
-24.66667 -72.333344 672.33331 0.14244492 -0.86378425 -0.4833076 0.0059907944
1.6 -72.699997 673.20001 -0.12945414 -0.84600067 -0.51722765 0.0012984407
4.8000002 -72.599998 672.20001 -0.27039945 -0.79579931 -0.54183728 0.030142162
8.5 -73 672 -0.35452801 -0.75994778 -0.54478365 0.038038794
11.25 -73.25 672.25 -0.37973276 -0.74956959 -0.54217011 0.037889365
-169.3333 -72 672.33331 0.19528887 -0.81950057 -0.53877735 0.006811013
-166 -72 673 0.11997084 -0.82858741 -0.54685462 0.0013854983
-163 -71 672.33331 0.10086913 -0.8360548 -0.53929371 0.00081032747
-160 -71.5 673.66663 0.10318575 -0.84603423 -0.52304757 0.00058647903
-157 -70 672 0.095376268 -0.84606802 -0.52447331 0.00070528541
-154 -71 674 0.098962463 -0.85148805 -0.51495111 0.0012743997
-151 -70 673 0.08967761 -0.85294861 -0.51423401 0.0013142722
-149 -70 673 0.089558646 -0.85095358 -0.51754922 0.00053888984
-145 -70.400002 674.79999 0.082772128 -0.85791522 -0.5070802 0.00037338605
-121.2 -69.400002 674.79999 -0.12149277 -0.84523743 -0.52039713 0.012175295
-115.5 -70.5 674.5 -0.18687309 -0.8142854 -0.5495615 0.013220498
-22 -72 674.33331 0.12068947 -0.86412692 -0.48858854 0.0056841676
-19 -71 672.33331 0.097985528 -0.86989027 -0.48341465 0.0064086472
-15.75 -70.5 672 0.048605856 -0.86829638 -0.49365866 0.0028060181
-13.1 -71.300003 673.33337 0.017823273 -0.86118633 -0.50797677 0.0027409613
-10 -71 672 -0.025761487 -0.86300755 -0.50453371 0.0014770969
-7 -71.5 673.16663 -0.065258339 -0.8546192 -0.51513821 0.0013240884
-1 -72 673 -0.10665713 -0.8500033 -0.51586699 0.0011954334
-145 -68 672 0.07485082 -0.86201108 -0.50133264 0.0012953107
-142.25 -68.5 672.5 0.063476324 -0.86247361 -0.50210559 0.00110142
-139 -69 673 0.055707831 -0.86654598 -0.49597853 0.001405317
-136 -69 673 0.041091476 -0.86905271 -0.49300998 0.0019557413
-133.5 -69 673 0.033194214 -0.86815029 -0.49519014 0.0018094875
-130 -69 673 0.022011938 -0.86753601 -0.49688703 0.0014381494
-128 -69 673 0.012912743 -0.8662191 -0.49949753 0.0016964549
-121 -67.666656 672 -0.10367881 -0.84773952 -0.520181 0.010224151
-117.5 -69 673 -0.1511589 -0.83138907 -0.53473663 0.011217893
-178 -61 674 -0.90656137 0.021250335 -0.42153871 0.052276433
-180 -60 674 -0.91100144 0.06847287 -0.40667903 0.046738096
-175.5 -59.5 673 -0.89418179 0.032079931 -0.44655323 0.040689494
-174 -52 672.66669 -0.90388739 0.057903804 -0.42383334 0.01871529
-174 -49 672.33331 -0.91722822 0.036392387 -0.39669636 0.021839024
-176.5 -47.5 673.5 -0.9295696 0.0086378884 -0.3685455 0.033542328
-187 -25 673 -0.72404349 -0.16053993 -0.67081147 0.039644744
-186 -23 673 -0.72415853 -0.15241767 -0.67257953 0.036892008
-189.8 -19.6 674.59998 -0.67270786 -0.19699487 -0.71320206 0.033130661
-187.3333 -19.33333 674.33331 -0.67576879 -0.18894352 -0.71248639 0.028074577
-186 -19 673 -0.69392246 -0.17817758 -0.69765633 0.027712064
-193.28571 -16.14286 674.42859 -0.64859909 -0.16245137 -0.74359179 0.029697834
-190 -16.416664 673.16663 -0.65744084 -0.15105176 -0.73821056 0.026365772
-187 -16.6 672.20001 -0.68068486 -0.13385659 -0.72024339 0.023774397
116.3333 -15.33333 672.33331 -0.072855905 -0.7392047 -0.66952854 0.059077986
118 -15.5 674.5 -0.026850263 -0.77371705 -0.63296217 0.062890097
-193.39999 -13.2 674.79999 -0.6625365 -0.026680963 -0.74855429 0.029594723
-191 -13 672 -0.66048163 -0.081291094 -0.74642873 0.024676897
90 -14 674 0.36523929 -0.86660498 -0.33999413 0.0027293016
115.8571 -12.71429 674.71429 -0.11825411 -0.74941337 -0.65145642 0.058028858
118.25 -12.75 674.75 0.033339694 -0.76804262 -0.63953018 0.069083095
-190.60001 -9.8000002 672.20001 -0.71081555 0.026141182 -0.70289254 0.021296114
94.333328 -11.333335 672 0.31717598 -0.87393272 -0.36829466 0.0030973265
98 -9.666667 672 0.25387794 -0.88467199 -0.39102623 0.0066068713
106.8 -9.6000004 674.79999 -0.087286256 -0.85529619 -0.51073426 0.030032624
110.3333 -10 674.66669 -0.18935533 -0.79494822 -0.57636976 0.03736395
115.625 -10.4375 673.25 -0.086538054 -0.73341513 -0.6742503 0.05257431
119.25 -10.416666 673.08337 0.021603907 -0.72702622 -0.68626976 0.050967854
125 -10 674.5 0.17000565 -0.78063029 -0.60142702 0.042914432
-189.66666 -7.3333335 673 -0.73149544 0.088247076 -0.67611164 0.016003147
100.5 -9 673 0.20684709 -0.8911863 -0.40373403 0.0078922017
104 -9 673 0.12229956 -0.87964231 -0.45964363 0.0084582996
109 -9 673 -0.10680735 -0.81061482 -0.57575679 0.033990543
113 -9 672.33331 -0.11534949 -0.75214273 -0.64882642 0.041630279
125 -9 672 0.15773687 -0.77811366 -0.60799527 0.037404157
127.5 -9 672 0.16893531 -0.78342551 -0.59808481 0.033829648
130 -9 673 0.20509438 -0.77385867 -0.59923202 0.032205638
-189 -5 673 -0.73365068 0.10624071 -0.67117029 0.010242979
-187.1667 -1 672.16669 -0.72017711 0.045503367 -0.69229645 0.020485153
-187.33334 1.75 673.25 -0.68389177 -0.09836942 -0.72292161 0.040594772
-187.3333 4.666667 674 -0.579714 -0.32098544 -0.74893266 0.053081229
-186 4 672 -0.63777435 -0.21560708 -0.73943055 0.049589474
-198.5 8.5 672.5 -0.19466513 -0.8471446 -0.49442035 0.013450286
-196 7 674.66669 -0.23033889 -0.78749955 -0.5716542 0.02272388
-193 7 674 -0.29714212 -0.70139802 -0.64787912 0.036351264
-189.5 7 674 -0.4341934 -0.5229302 -0.73349845 0.04912455
-187.39999 7.8000002 672.40002 -0.50707144 -0.44742322 -0.73667568 0.059969544
-205.5 10 673 -0.25988391 -0.88107109 -0.39518869 0.006625447
-201.5 9 672.5 -0.20368035 -0.86809039 -0.45269564 0.010509936
-214 14 672 -0.32186559 -0.89561981 -0.30703044 0.0014234309
-210 12 673 -0.28744194 -0.89214283 -0.34850857 0.0041551543
-221 17 672 -0.3478308 -0.89000016 -0.29481101 0.00054989441
-218 15.5 673.5 -0.34092516 -0.89173996 -0.29760686 0.00065720693
-178 -82.666656 675 0.4040733 -0.60717112 -0.68415499 0.06419985
-175 -83 677 0.40714657 -0.5596289 -0.72183591 0.066317238
-172 -83 677.66669 0.37052634 -0.53951287 -0.75606614 0.075122669
11 -83 675 -0.47141725 -0.72312194 -0.50483716 0.034935508
-180.75 -79 675 0.41925114 -0.63483524 -0.64900905 0.054067314
-180 -80.5 676.5 0.39678487 -0.61923623 -0.67757535 0.06449727
13.25 -78.75 675 -0.49639779 -0.69256204 -0.52339965 0.032718472
-177.75 -75.875 676.375 0.43527657 -0.66035706 -0.61193371 0.043313835
-24.66667 -76 677.66669 0.13462299 -0.84424216 -0.51877916 0.0050218711
10.5 -77 677.5 -0.41091409 -0.76174265 -0.50089687 0.031942792
-175 -75 676 0.41763511 -0.67086369 -0.61279917 0.046681244
-172 -73.599998 675 0.34128344 -0.71655333 -0.60833943 0.036423799
-166.77777 -73.666664 676.77777 0.17351268 -0.73901045 -0.65096611 0.035876323
-163 -72.5 675 0.12317461 -0.81764072 -0.56239814 0.013406857
-160 -73 677 0.13336343 -0.8180061 -0.55953568 0.014115393
-157.5 -73 677 0.1058814 -0.83760256 -0.5359208 0.0009713535
-154 -73.25 677.75 0.10748007 -0.83702886 -0.53649867 0.00081971614
-151.25 -72.5 677.5 0.10336372 -0.84052724 -0.5318175 0.00055222725
-25 -75 675 0.14652619 -0.85319787 -0.50058323 0.0071533294
-23 -74 676 0.12848642 -0.86196107 -0.4904227 0.0059227338
-19 -73.333328 676.5 0.063473031 -0.85899556 -0.50803328 0.0048426338
-16.5 -74 677 0.048613332 -0.86209619 -0.50440747 0.005144848
-13 -74 677 -0.0091904784 -0.85932368 -0.5113495 0.0023652478
-10 -74 677 -0.040073749 -0.85447901 -0.51793802 0.0011002199
-7 -74 677 -0.06822326 -0.85408461 -0.51564038 0.0015168255
-4 -73 675 -0.088136598 -0.85169959 -0.51656532 0.0016392899
-1 -74.5 676.33331 -0.10344366 -0.85561723 -0.50716716 0.0014188214
2.5 -75 676 -0.2237515 -0.82890034 -0.51269817 0.022016622
5 -75 675.33331 -0.28712156 -0.81108809 -0.50960511 0.026412139
8.5 -75 675 -0.35308599 -0.78742331 -0.50526714 0.03318014
-157 -72 675 0.10052332 -0.84327245 -0.5280025 0.00095012761
-154 -72 676 0.10474847 -0.84144568 -0.5300914 0.00058114261
-151 -71 675 0.092891172 -0.85264891 -0.51416063 0.0010330308
-147.8 -70.599998 675.20001 0.088453859 -0.85537422 -0.51040262 0.00084737298
-145 -72 677.66669 0.093153104 -0.84968156 -0.51900274 0.0010636662
-142 -70.5 675.5 0.077864327 -0.86061794 -0.50326318 0.00040688171
-139 -70.375 676.45837 0.053306293 -0.86270058 -0.50289774 0.0017910078
-136 -70 676 0.043044824 -0.86605781 -0.49808747 0.0021671921
-133 -69.5 675 0.022860749 -0.87004179 -0.49244761 0.0022065139
-130 -70 676 0.015803376 -0.86771959 -0.4968029 0.00137917
-126.9 -70.300003 676.26666 -0.01400243 -0.86186504 -0.50694448 0.0013709756
-124 -69.599998 675.20001 -0.054993253 -0.85642457 -0.51333493 0.0059958445
-118.125 -70.375 676.25 -0.16696559 -0.83464336 -0.52487427 0.012781141
-116 -71 677 -0.19565427 -0.82033902 -0.53736687 0.012578284
-16 -72 675 0.052078564 -0.85631484 -0.51382172 0.0046553523
-10 -72 675 -0.0372869 -0.85565782 -0.51619703 0.0015226108
-180 -58 676 -0.90398329 0.051584389 -0.42444462 0.033448357
-175.5 -57.5 675 -0.89517748 0.027551016 -0.44485754 0.039060254
-176 -55 677.66669 -0.9024055 0.02145488 -0.43035346 0.028583387
-176 -52 677 -0.91322494 0.061752699 -0.402749 0.019255154
-177.5 -50 677.5 -0.92662013 0.050013077 -0.37265778 0.023048982
-176.22223 -49.555557 675.33331 -0.92099726 0.050380815 -0.38629764 0.022399658
-196.2 -21.799999 677.79999 -0.65690923 -0.21324362 -0.7231856 0.032665774
-193 -22.5 677.83331 -0.65646881 -0.24146961 -0.71466154 0.029823022
-189.8 -22.4 677.20001 -0.66359305 -0.26068315 -0.70120507 0.031028185
-187 -22.9 675 -0.67612219 -0.25742459 -0.69035596 0.030731972
-197 -19.5 677 -0.65661776 -0.21065053 -0.72420961 0.032747153
-193.66667 -20 675.72223 -0.65659434 -0.21709642 -0.72232473 0.03371831
-190 -21 676 -0.66518921 -0.26093188 -0.69959837 0.032350276
82 -20 677 0.42012468 -0.85323113 -0.30901772 0.0024308055
-196.75 -15.75 677.75 -0.680843 -0.14920172 -0.71707153 0.038200688
-195 -16.5 676 -0.64700598 -0.16565096 -0.74427348 0.034012642
87 -16 675 0.38029283 -0.8679235 -0.31950936 0.0023828503
116 -16 675 -0.10200028 -0.77586997 -0.62259275 0.062414099
117.5 -18 675.5 -0.041124657 -0.79337043 -0.6073485 0.064836718
89 -15 676 0.3614805 -0.86705816 -0.34284386 0.0035387105
92 -13.33333 675.33331 0.33553806 -0.87192786 -0.35658941 0.0040283469
-193 -10 675.33331 -0.71969748 0.059820641 -0.69170588 0.021770841
95 -12 675 0.2737788 -0.88541567 -0.37561178 0.0042815232
98.333344 -10.66667 675 0.22147359 -0.88862008 -0.40162638 0.0063759875
101.25 -10.666665 676.16663 0.1349545 -0.8860482 -0.44351536 0.006401604
104 -10.5 676.16663 0.021652365 -0.87802488 -0.47812498 0.010459874
107.5 -11 677.5 -0.15902148 -0.85328543 -0.49660459 0.026375338
110 -11 677 -0.21381554 -0.81192601 -0.54319346 0.037074972
113.2 -10.6 675 -0.17512184 -0.77017665 -0.61331904 0.052054301
114 -12 676 -0.16670166 -0.77298695 -0.61212885 0.05863107
121 -11 675 0.12079904 -0.77252311 -0.6233905 0.056874555
123 -11 677 0.16725852 -0.77272779 -0.61230415 0.049546238
127 -10 676 0.18815801 -0.77665615 -0.60116702 0.042153873
-193.5 -7.5 677.5 -0.70725197 0.084940568 -0.70184028 0.014546708
-192 -7.5 675.5 -0.73457903 0.08876469 -0.67269206 0.013115161
131.5 -9 675.5 0.21889323 -0.77963561 -0.58673161 0.033283636
-190.2 -3.8 675 -0.73019749 0.10163165 -0.67563498 0.013684779
-190.5 -1 676.16663 -0.68233889 -0.090118408 -0.72546017 0.043343682
-190.375 2.125 676.375 -0.63460124 -0.2523312 -0.73048627 0.048123684
-198.5 5 677.5 -0.40114391 -0.75335944 -0.52108842 0.039138921
-195.5 5 676 -0.37016916 -0.69810736 -0.61287922 0.044382926
-192.75 4.5 676 -0.43456781 -0.57180166 -0.6958403 0.054279093
-190.2 4.4000001 675.40002 -0.60184795 -0.36211172 -0.71179646 0.054871816
-205 8.5 677.5 -0.28174105 -0.85573727 -0.4339765 0.0094440682
-202.3333 8.333333 675 -0.24682525 -0.85682935 -0.4526816 0.010780437
-199.3333 7.333333 675 -0.28217167 -0.81231636 -0.51041293 0.020021664
-209 10.5 676.5 -0.31561741 -0.87350267 -0.37064648 0.0037363488
-205 9 675 -0.26136476 -0.87001336 -0.41804937 0.0073353956
-163.5 -85 680 0.21828856 -0.52446741 -0.82297271 0.074891001
-177.96664 -81.466675 679.43335 0.42858174 -0.54596531 -0.71988857 0.064727925
-175.2 -81.400002 680.59998 0.40861183 -0.55331546 -0.72586393 0.066223688
-170 -83 680 0.3620562 -0.48640966 -0.79518604 0.076076575
-165.3333 -84 678.33331 0.2376243 -0.54676503 -0.80285913 0.070737883
12 -82 678 -0.46873307 -0.71412259 -0.51992118 0.03052382
-178.12854 -79.028564 679.61426 0.42177433 -0.58252269 -0.69481921 0.064766146
-175 -79 680.88892 0.40696362 -0.56093645 -0.72092366 0.066695847
-26 -78.5 679 0.13913783 -0.84138542 -0.52221769 0.0054179071
11.125 -79.125 679.25 -0.43636581 -0.73167574 -0.52367491 0.03234984
-175 -77 678 0.4072797 -0.63008785 -0.66114497 0.057091869
-172 -76 678 0.37154886 -0.66026634 -0.65268666 0.058016676
-169 -76.5 679.66669 0.24339667 -0.67197317 -0.69943553 0.04894786
-167 -76 679 0.1779348 -0.6674909 -0.72304577 0.056166977
-154 -75.25 680.75 0.148303 -0.74209392 -0.65368402 0.043809161
-115 -77 679 -0.19991128 -0.82787991 -0.52407092 0.012023584
-24 -76.5 680.5 0.12314726 -0.84269196 -0.52412313 0.0057504596
-13 -75.666656 680.66669 -0.014387547 -0.85219717 -0.52302289 0.0019782288
-7 -76 680 -0.064886823 -0.85463476 -0.51515937 0.001803451
-1 -76 680.33331 -0.095336691 -0.85275012 -0.5135448 0.0015008182
2.125 -76.375 679.25 -0.20917659 -0.84055793 -0.4997074 0.016381318
5 -76 678 -0.2665056 -0.82280332 -0.50196552 0.025626011
7.75 -76.75 679 -0.34895465 -0.77985972 -0.5196628 0.02908113
-163.5 -74.5 678.5 0.17802161 -0.72279233 -0.66774219 0.043970864
-160 -75 679 0.20021902 -0.71260774 -0.67238575 0.055780869
-158 -75 679 0.13888654 -0.7483021 -0.64865595 0.039593071
-150.5 -74 680 0.11201772 -0.81495702 -0.56859225 0.012156907
-148 -74 680 0.12428556 -0.79657012 -0.5916326 0.022173917
-145 -74 680 0.11213394 -0.82342434 -0.55623591 0.013139607
-142 -73.166672 679.33331 0.080100566 -0.85118073 -0.51872468 0.00066316198
-139 -73.5 680.83331 0.056355678 -0.85351413 -0.51801306 0.001793139
-132.5 -73 680.5 0.025022952 -0.85797751 -0.51307738 0.0017143815
-129.75 -73.25 680.5 0.01816977 -0.85569984 -0.51715332 0.0013870148
-128 -73 679 -0.017412925 -0.85510719 -0.51815873 0.0019318237
-116.25 -73 678.5 -0.19876955 -0.82380205 -0.53088677 0.012576785
-22 -75 679 0.11701214 -0.84455872 -0.52252144 0.0053032846
-20 -75 679 0.077750094 -0.85411817 -0.51423448 0.0046173828
-16.5 -75 679 0.041933585 -0.85921246 -0.50989765 0.0055609322
-12.5 -75 679 -0.011835477 -0.85721117 -0.51482898 0.002151662
-10 -75 679 -0.046371844 -0.85537517 -0.51592928 0.0010020118
-7 -75 678.33331 -0.059319172 -0.85874742 -0.50895381 0.0018015084
-4 -75 678 -0.071231619 -0.85608512 -0.51190281 0.00087948062
-148 -72 678 0.098348834 -0.84478134 -0.52599597 0.0010618784
-136 -71 678 0.038536057 -0.85660297 -0.51453513 0.0016518851
-133 -70.75 678.25 0.030527029 -0.85759306 -0.51342201 0.0016186185
-130.5 -71 678 0.022737086 -0.86105955 -0.50799549 0.0013687223
-124 -71 678 -0.093005478 -0.8465628 -0.52410048 0.0086166859
-121 -71.5 678.5 -0.13137376 -0.82215685 -0.55389446 0.012493095
-181 -58 679 -0.91511816 0.055160265 -0.3993946 0.028479548
-178.5 -59.125 678.75 -0.91795623 -0.0097487131 -0.39656186 0.048259798
-178.25 -54.75 680.75 -0.91224247 0.0040488793 -0.40963069 0.029418109
-179 -52.666668 679.22223 -0.91149223 0.05877918 -0.4070957 0.020087089
-189.5 -24.75 678 -0.66443253 -0.26104534 -0.70027483 0.031240519
-199 -22 680.66669 -0.67121625 -0.18965431 -0.71658909 0.034687396
-196 -23 680 -0.66192263 -0.18405966 -0.72662264 0.03403803
-198 -20 679 -0.6528033 -0.19755465 -0.73131388 0.03277602
82 -21 679 0.43331701 -0.84659511 -0.30905199 0.0028805044
86 -18.5 680.5 0.34226352 -0.87249672 -0.3487193 0.0047606863
118 -19 679 -0.025275961 -0.83924627 -0.54316378 0.068229862
-199 -16 680 -0.69633704 -0.075070031 -0.71377808 0.040301967
86 -18 678 0.35816249 -0.87153918 -0.33487186 0.0040238039
89 -16 679 0.34750852 -0.86996222 -0.34986234 0.0045712218
116 -18 678 -0.17621861 -0.81156486 -0.55705428 0.059155762
120 -17 680 0.11674162 -0.83660489 -0.53522289 0.062084675
-196.875 -13.125 679 -0.71836424 -0.026492918 -0.69516253 0.033912804
92 -14 678 0.31509873 -0.87207335 -0.37443408 0.0054691513
94.666656 -13.33333 678 0.26264971 -0.8825056 -0.39012691 0.0052240058
98 -12.33333 678 0.20328252 -0.88342094 -0.42218912 0.0053705382
104.2 -12.6 680.79999 -0.019473884 -0.8678087 -0.49651676 0.007130356
107 -12.75 680.75 -0.14703323 -0.85153401 -0.50326043 0.015195541
113 -12.83333 678.16669 -0.20285779 -0.80696446 -0.55466855 0.057905208
115 -15 678 -0.20463964 -0.80372661 -0.55870032 0.058087967
120 -14.25 678.5 0.11388646 -0.81245697 -0.57178974 0.065487653
-196.3333 -10 680.33331 -0.73266518 0.09268412 -0.67424881 0.011455282
-195 -10 678.33331 -0.71570301 0.091089047 -0.6924392 0.012950343
101 -12 678.66669 0.11674486 -0.88393098 -0.45280966 0.0056132828
107 -12 679 -0.1446265 -0.86384606 -0.48254865 0.019321449
110 -12 679 -0.27792031 -0.82562965 -0.49101529 0.031770244
121 -12 678 0.1335807 -0.80119848 -0.58329862 0.059642758
124 -11 678 0.18317741 -0.78616524 -0.59024596 0.047042884
127 -10.5 679 0.22579011 -0.8088184 -0.54298395 0.03878798
130 -10 679 0.23039094 -0.79789209 -0.55703521 0.036670566
-195 -7.5 679 -0.72869593 0.089282699 -0.67899245 0.017236879
-193.1667 -4 678 -0.70836174 0.052084684 -0.70392525 0.030565247
-193.5 -1.5 679.5 -0.7225824 -0.11410683 -0.68180227 0.054025661
-195.5 2.5 680 -0.61119884 -0.4314549 -0.66353798 0.076602496
-193.60001 1.6 679 -0.68045157 -0.24470784 -0.69072688 0.067613274
-199.5 4 680.5 -0.48115641 -0.67383558 -0.56074435 0.06941586
-196 4 678 -0.47289902 -0.58940625 -0.65495551 0.065546006
-195 3 679 -0.54789418 -0.51653725 -0.65802836 0.077964336
-202 7 678.5 -0.30274194 -0.81874502 -0.48785642 0.021978825
-208 9 680 -0.32031423 -0.85509014 -0.40770045 0.0068340404
-159.6667 -85 681 0.23544428 -0.48557657 -0.84189153 0.080136649
-158 -85 682 0.21734817 -0.51271844 -0.83058995 0.080781572
-154 -85 683.33331 0.25009602 -0.50911617 -0.82356095 0.08446952
-172.1667 -81.833344 681.16669 0.39561096 -0.47679269 -0.78495908 0.067900598
-170 -82.75 682.25 0.33607474 -0.40951255 -0.84814698 0.06106478
-167 -84 683.33337 0.26900032 -0.45202044 -0.85048008 0.065719277
-162.5 -84 683.5 0.24607156 -0.48010159 -0.84199244 0.072800957
10.5 -83 682.16663 -0.41067493 -0.75226372 -0.51521397 0.027780589
-172.28571 -78.85714 681.85712 0.36804587 -0.59066981 -0.71808875 0.064069383
-170 -79 683.33337 0.25959921 -0.60932237 -0.74922258 0.057084162
-115 -80 683 -0.22419316 -0.80193478 -0.55374897 0.018187108
-22 -78.25 683.5 0.11515717 -0.83738875 -0.53433967 0.0063583883
-9.8000002 -78.400002 683.79999 -0.038097188 -0.85385692 -0.51911175 0.0008948067
4.5 -79 683 -0.28129724 -0.80682468 -0.51952451 0.028050125
8 -79 681.33331 -0.35221547 -0.77680248 -0.52203667 0.031884134
10 -80 683 -0.37595966 -0.76581132 -0.5217157 0.03106897
-165.8 -76.599998 681 0.1876976 -0.661955 -0.72566181 0.062422976
-163.2 -76.400002 681.40002 0.18845659 -0.6727764 -0.71544117 0.064087108
-160.66667 -76.666664 682.4444 0.19085702 -0.64681262 -0.73838145 0.072803937
-156.875 -76.125 682.375 0.12863387 -0.68239725 -0.71957439 0.058260337
-154.5 -76.5 683.5 0.16069606 -0.65932816 -0.73448151 0.065425567
-151.6667 -76 683.66669 0.14380901 -0.71791983 -0.68110949 0.045646872
-115.5 -77 682 -0.21133746 -0.81385052 -0.54127967 0.015257155
-22 -76 681.66669 0.12374181 -0.84333628 -0.5229454 0.0059122695
-18.799999 -75.599998 681.20001 0.077010125 -0.84313852 -0.53215313 0.0071369414
-16 -76 681.66669 0.047273681 -0.84617108 -0.53081042 0.0054355436
-12.5 -78 683.5 -0.02165265 -0.85390985 -0.51997024 0.0019499861
-10 -76 681 -0.046006523 -0.85160834 -0.5221557 0.00092504802
-7 -78 682 -0.053423747 -0.85776883 -0.51125187 0.001654149
-4 -76 681 -0.073004976 -0.85724086 -0.50971407 0.0018292764
0.5 -78 682 -0.1415768 -0.84814888 -0.5104894 0.0058861114
4.5 -77 681 -0.2737723 -0.81582958 -0.50938284 0.030605661
-151 -75 681 0.13072884 -0.75039458 -0.64793354 0.036383435
-148 -75 681.66669 0.14651011 -0.77421165 -0.61573619 0.027062206
-145 -75 682 0.14478998 -0.79538077 -0.58856207 0.022246249
-142 -75 682 0.11181855 -0.83014256 -0.54622328 0.012960308
-135.875 -73.625 682 0.048860546 -0.85985738 -0.50819081 0.0017873091
-133 -74 683 0.034582071 -0.85951453 -0.50994003 0.0014455718
-131 -74 683 0.020547757 -0.85879678 -0.51190412 0.0016572903
-126.8 -73.599998 681.20001 -0.035707027 -0.8549909 -0.51741248 0.0032456487
-123.8333 -73.5 681.16669 -0.11170465 -0.83514917 -0.53856087 0.011592502
-121 -73.5 681.5 -0.14082472 -0.83683264 -0.52903652 0.012923338
-118.1 -74.300003 682.34998 -0.15409413 -0.83681583 -0.52535152 0.0122371
-116 -75 681 -0.19742286 -0.82645142 -0.52725923 0.012323995
-180.3333 -58.333328 681.66669 -0.93090743 -0.00051353709 -0.36525464 0.051286366
-180.375 -56 682 -0.9221046 0.024120212 -0.3861883 0.033097532
-180 -56 683 -0.92469168 -0.024241941 -0.37994426 0.040325787
-192.66666 -24.833336 682 -0.67296082 -0.18666832 -0.71573645 0.034308955
-191 -25 681 -0.67314625 -0.24740273 -0.69689745 0.032623831
-201 -22 683 -0.6640048 -0.14526229 -0.73348242 0.036124241
-195.5 -24 681.5 -0.67295593 -0.18669225 -0.71573478 0.034305558
81 -22 682 0.43462157 -0.8485269 -0.30183789 0.0031380809
-200 -19.5 681.5 -0.68534768 -0.10660715 -0.72037035 0.03928715
85 -19.5 682.5 0.36798388 -0.86563098 -0.33951557 0.0038691277
116.5 -18.5 682 -0.21678951 -0.8446781 -0.489409 0.049526885
118 -20 682 -0.12382879 -0.86231321 -0.49100125 0.058317658
89 -17 681 0.33602574 -0.87531096 -0.34773192 0.005025316
92.25 -16.5 682.58337 0.29807666 -0.88017058 -0.3693915 0.0070744394
94.333344 -16.33333 683.66669 0.21695913 -0.88654912 -0.40860674 0.0066803223
114.66665 -16.166664 681.5 -0.25184155 -0.83128852 -0.49551511 0.047649909
-199 -15 683 -0.74420059 -0.023998259 -0.66752487 0.041802786
95.5 -14 681 0.23052351 -0.8779633 -0.41957045 0.0051287226
98 -13.5 681.25 0.17966704 -0.88100511 -0.43766403 0.0045203883
101.25 -13.5 682 0.075112745 -0.87483788 -0.4785569 0.0049229651
104 -14 683 -0.011080675 -0.86509973 -0.50147748 0.007719567
106.5 -14 683 -0.11892264 -0.85464364 -0.50541246 0.011874435
109.5 -13.7 682.09998 -0.26445436 -0.82358468 -0.50176901 0.020715283
113 -14 681 -0.26983657 -0.82057667 -0.50382757 0.043583635
122 -12.5 681.5 0.14193906 -0.83462578 -0.53221518 0.058846969
127 -11 682 0.24773562 -0.83459026 -0.4920226 0.039233897
-196.3333 -7 681.33331 -0.75365871 0.073501237 -0.65314329 0.024604335
-196 -3.5 681.5 -0.74226469 -0.01850331 -0.6698513 0.049806379
-195 -0.5 681 -0.71984899 -0.26215234 -0.64272368 0.071450889
-196.5 1.5 683 -0.64465171 -0.43579385 -0.62809861 0.088558361
-201.5 5 681 -0.43020582 -0.74332243 -0.51224476 0.052008662
-198 3 681 -0.54927373 -0.56064373 -0.61965883 0.083665766
-205.5 7.5 681.5 -0.33893213 -0.82713747 -0.44829533 0.015223796
-157 -84.5 684 0.19730206 -0.50825816 -0.83829921 0.084817953
-151.5 -85 684.5 0.25136855 -0.55077821 -0.79590023 0.075565398
-148.5 -85 684.5 0.25546864 -0.5524199 -0.79345322 0.078530684
8 -87 685 -0.41511166 -0.74236745 -0.52590197 0.02533957
9 -86 685 -0.40672618 -0.74194717 -0.53299922 0.026321542
-169 -82 684.44452 0.30583265 -0.43958291 -0.84453142 0.067056216
-166 -82 686.22223 0.24437024 -0.46324366 -0.85187352 0.065110058
-163.4375 -82.4375 685.875 0.24297978 -0.43482533 -0.8671146 0.069329515
-160 -84 684.33331 0.23702152 -0.38379556 -0.89248073 0.073345423
-155 -84 686 0.24864089 -0.48953557 -0.83578259 0.078958102
8 -82.25 686.5 -0.3999722 -0.7493546 -0.52772141 0.027505718
10 -82 684.66669 -0.41912061 -0.73773324 -0.5292331 0.027708726
-166.2 -78.800003 684.40002 0.24457017 -0.55744231 -0.79337478 0.06578251
-163.66667 -79.55555 685.66669 0.22269078 -0.52599519 -0.82081538 0.069788314
-160 -79 685 0.20330268 -0.56374055 -0.80054021 0.077019915
-157 -79 685 0.16498023 -0.59615493 -0.78573579 0.075857073
-154 -78.333344 685 0.20385695 -0.62212956 -0.75590825 0.074099191
-116 -81 685 -0.23096545 -0.77676374 -0.58591223 0.025445482
-24.833336 -80.166672 684.66663 0.13865739 -0.83367687 -0.53456253 0.0066473722
-22.75 -79.75 686.25 0.12834875 -0.83504921 -0.53499472 0.0074367109
-19 -79 686 0.077122383 -0.84133661 -0.53498125 0.0083737886
-13 -79 686 -0.00074939965 -0.84906644 -0.52828556 0.0029112964
-11 -79 686 -0.025230585 -0.85253572 -0.52205968 0.0013682282
-7 -79 685 -0.052354943 -0.85423583 -0.51724279 0.0011190001
-4 -78.5 684 -0.068947263 -0.85858053 -0.50802141 0.0020343803
-1.2 -78.599998 684.20001 -0.10871953 -0.8494699 -0.51631486 0.0035068663
2 -79.5 685.33337 -0.19946027 -0.8157708 -0.54289389 0.021233262
4.5 -80 686 -0.24377601 -0.80873287 -0.53527969 0.021284405
8 -80 684 -0.37041143 -0.76826549 -0.52207625 0.028740587
9 -81 685 -0.36581612 -0.77951479 -0.50846368 0.027890025
-152 -78 685 0.1662184 -0.62370253 -0.76378441 0.062607609
-148 -76 684.33331 0.18155077 -0.7008357 -0.68983233 0.050745174
-145 -76 685 0.19612831 -0.71090823 -0.67538381 0.046136633
-142 -75.75 684.5 0.15153436 -0.75886965 -0.63336742 0.033987172
-139 -76.125 685 0.11580124 -0.76254958 -0.63648111 0.034269739
-118.5 -77 686.5 -0.20660219 -0.80627084 -0.55429494 0.019959956
-19 -78 684 0.077126056 -0.84177798 -0.53428596 0.0078526754
-16 -78 684 0.053655516 -0.84351212 -0.53442335 0.007616845
-136 -75 684.66669 0.059223156 -0.82274163 -0.5653218 0.016841969
-133 -75 685 0.028010588 -0.84542978 -0.53335154 0.0011443794
-130 -75 684 0.0079726744 -0.85204554 -0.52340692 0.0016540117
-126.5 -75 684 -0.071669549 -0.8470524 -0.52665526 0.0064923847
-124 -75 685 -0.11844696 -0.84260321 -0.52534759 0.012037105
-121 -75 684.66669 -0.14250326 -0.844791 -0.51577228 0.012795962
-196 -25 686 -0.66307837 -0.18426983 -0.72551477 0.034536898
-195 -25 685 -0.67219406 -0.17233977 -0.72003764 0.034466557
-200 -23 684 -0.67666841 -0.15266192 -0.72028762 0.036739275
-198 -24 685 -0.67609006 -0.15242204 -0.72088128 0.036149904
82 -22 686 0.42027944 -0.85229897 -0.31137055 0.0049607083
83 -21 684 0.40003711 -0.85809326 -0.32194141 0.0040521654
116 -18.5 684.5 -0.30482867 -0.84039575 -0.44812325 0.030258322
118 -20 686 -0.20441456 -0.85127926 -0.48325804 0.038980741
-201 -18 684 -0.73517227 -0.030968351 -0.67717248 0.043144677
89.5 -18 684.5 0.31197804 -0.87664753 -0.36627719 0.00665406
91.5 -18 686.5 0.2689712 -0.88270801 -0.38533247 0.0079033235
97.333336 -16.666666 685.33331 0.13321583 -0.87806928 -0.45961711 0.0051633213
101 -16 685 0.063513316 -0.86886787 -0.49095276 0.0041871113
103.5 -16 685 -0.0096533038 -0.86337739 -0.5044663 0.005536397
107 -16 685 -0.1472508 -0.85578823 -0.49592718 0.011493336
110 -16.5 685 -0.25630525 -0.84832644 -0.46330333 0.015016229
112.8 -16.6 684 -0.26861447 -0.84300715 -0.46603131 0.029901501
114 -18 685 -0.27502894 -0.84363973 -0.46111938 0.028804751
-197 -1 684 -0.65734518 -0.26256177 -0.70637006 0.081407592
-199.5 2.5 684.5 -0.57267267 -0.55333561 -0.60486835 0.090608306
-202 4 684 -0.48847106 -0.68352735 -0.54238939 0.075891927
-201 3 686 -0.58456534 -0.58724815 -0.55984187 0.090168834
-135 -88 688 0.20762697 -0.60270703 -0.77047729 0.076039404
7 -88 687 -0.3447696 -0.76455593 -0.54459906 0.026000522
-151 -84.666656 687.66669 0.24521458 -0.46914694 -0.8483932 0.078882769
-147.5 -86 687 0.24893352 -0.44416693 -0.86066711 0.079503268
-145 -86 687.33331 0.20370531 -0.4962576 -0.84393871 0.083791211
-142 -86 689.33331 0.22921935 -0.54657215 -0.80542988 0.08473441
-138.5 -87 687 0.2422374 -0.58879161 -0.77113259 0.080398582
-25 -84.5 687.5 0.17999794 -0.82334137 -0.53824681 0.0081923082
8.3999996 -84.800003 687.20001 -0.41667011 -0.74630666 -0.51904941 0.02523149
-160 -82 687.55548 0.23813023 -0.43913779 -0.86628628 0.078235455
-157 -82 687.66669 0.2474411 -0.40220103 -0.88148016 0.078699768
-154.25 -82.25 688.5 0.21738297 -0.52450484 -0.82318848 0.076984391
-152 -83 688 0.27213565 -0.52870309 -0.80399948 0.074299693
-24.5 -82 687 0.15586059 -0.8294459 -0.53640193 0.0080481963
-24 -83 689 0.16411032 -0.82490081 -0.54093122 0.0089700893
-15.8 -81.400002 689.79999 0.061441168 -0.83661205 -0.54433924 0.009029597
-10.25 -81.75 689.75 -0.025423639 -0.85265851 -0.52184969 0.0013730868
-7 -82 689 -0.054136857 -0.85270071 -0.51958704 0.0013009422
2 -82.5 689.75 -0.23731078 -0.80463243 -0.54428869 0.022779692
4 -82.333336 688.5 -0.2578319 -0.79334861 -0.55147135 0.021140596
7 -83 689 -0.29773054 -0.78096789 -0.54904068 0.021335445
-160 -80 687 0.21439362 -0.50988334 -0.83309925 0.081323698
-157 -80 687 0.19311047 -0.5574677 -0.80742681 0.078393117
-154 -79.5 687.25 0.20599076 -0.57538408 -0.79151803 0.076241821
-151 -79 687.14288 0.21924323 -0.6334703 -0.74205643 0.070967585
-148.65001 -79.383331 688.56665 0.24029623 -0.61687785 -0.74947941 0.061573543
-127.2 -78.400002 689.79999 -2.6614827e-05 -0.80211127 -0.59717464 0.029360887
-121 -78.5 689.83331 -0.19624698 -0.78267235 -0.59068692 0.02702124
-117.3333 -78.333344 687.33331 -0.21653995 -0.79759794 -0.56298125 0.02020059
-20.5 -81 688 0.10300314 -0.83669168 -0.5379011 0.0084099332
-16 -79 687 0.048887867 -0.83542031 -0.54743302 0.0068188231
-9.5 -81 688 -0.03918184 -0.85115111 -0.52345651 0.0018423855
-7 -81 688 -0.048800118 -0.85189569 -0.52143294 0.0010876947
-4 -80 687 -0.063056618 -0.84952712 -0.52376288 0.001071705
-1 -80 687 -0.16017896 -0.83076155 -0.53308338 0.017007092
-145.5 -78 687 0.20130047 -0.68456674 -0.70060438 0.049428958
-142 -78 687.33331 0.17306004 -0.67363477 -0.71851677 0.058885239
-139 -78 688 0.081557065 -0.68273515 -0.72609991 0.063811608
-136.25 -77.5 687.5 0.081811599 -0.71153319 -0.69787353 0.055634972
-133 -77.5 687.5 0.12021815 -0.74742442 -0.65337914 0.051588606
-130 -77 687 0.086415641 -0.78278673 -0.61626065 0.037670895
-127 -77 687 -0.050895005 -0.84599638 -0.53075397 0.0072672996
-124 -77 687 -0.12057878 -0.84771574 -0.51656431 0.012357538
-120.5 -77 687 -0.17547174 -0.80891025 -0.56113625 0.020409364
73 -30 689 0.55109173 -0.78604645 -0.28005162 0.004807903
-202.5 -22 687.5 -0.73060137 -0.03339617 -0.68198711 0.044464696
82 -24 689 0.4254716 -0.85120374 -0.30728829 0.004955478
118.5 -21.5 689 -0.29750717 -0.83897448 -0.4556438 0.017444426
85.75 -20.5 687.5 0.3379862 -0.87543559 -0.34551102 0.0056903735
89 -19 687.33331 0.29318237 -0.88479191 -0.36219791 0.0076099993
101.2 -18.6 689.79999 0.01291052 -0.8540563 -0.52002025 0.0031363009
106.5 -18.5 689.75 -0.080559142 -0.84358627 -0.53091657 0.0040798718
110 -19 689.66669 -0.19518149 -0.84406692 -0.49945506 0.0084871519
113 -18.5 687.25 -0.23582986 -0.83953559 -0.48945296 0.019124214
115.75 -19.666664 688.25 -0.25960484 -0.84531581 -0.46695444 0.020734048
119 -21 687 -0.19887486 -0.85453755 -0.47980657 0.037349679
95 -18 688 0.15117875 -0.88111967 -0.44807699 0.0051742825
98 -18 688 0.081045143 -0.87316889 -0.48063269 0.0043299678
100.5 -17 687 0.058329921 -0.86425185 -0.4996663 0.0030459727
104 -17 688 -0.023442399 -0.84952235 -0.52703166 0.0034024012
107 -17 687.33331 -0.1205018 -0.84648734 -0.51859283 0.0057634739
109 -18 687.66663 -0.16875851 -0.84265471 -0.51132542 0.0085296836
-201 2 689 -0.62038517 -0.46229348 -0.63356686 0.10260234
-198 1 687 -0.63067323 -0.34756088 -0.69386798 0.095714621
-134 -88 690 0.18691571 -0.62035704 -0.76172149 0.069232643
-118.3333 -87.666656 692.66669 0.0059037749 -0.77289695 -0.63450402 0.064361513
-148.25 -84.75 690 0.23803215 -0.4716202 -0.84906727 0.074900538
-145 -85 690.66669 0.23048265 -0.47897851 -0.84702855 0.08070498
-140 -86 691 0.23723884 -0.53875172 -0.80837137 0.079842791
-136.5 -87 690 0.21523321 -0.57703072 -0.78785163 0.076077804
-24.5 -85 691 0.16286574 -0.83344376 -0.52805901 0.0098712035
4.333333 -85 692.33331 -0.28123647 -0.78963792 -0.54532385 0.021573521
7 -86 690 -0.31601205 -0.76903743 -0.55562383 0.019953756
-151 -83 690.16663 0.31342316 -0.47831565 -0.82035357 0.067150041
-147.91667 -82.916664 691.83331 0.24530257 -0.51204586 -0.82318634 0.069603309
-145 -84 692.66669 0.25132531 -0.46429512 -0.84927362 0.0773893
-142 -81.85714 692.85712 0.20437177 -0.57209128 -0.79431963 0.079665862
-118.5 -82 692.75 -0.14594914 -0.74937624 -0.64585912 0.040155571
-22.33333 -82.333344 690 0.1609572 -0.81850237 -0.55149502 0.0088000242
-19.6 -82.533333 691.62225 0.09138722 -0.83383793 -0.54439199 0.010332805
-16.25 -82.75 692.75 0.072428867 -0.85202754 -0.5184623 0.0074814516
-13 -81.5 690 0.025521778 -0.84572607 -0.53300649 0.0044550765
-10 -83 692 -0.025053596 -0.85669434 -0.51521564 0.0014456294
-7 -83 692 -0.057212844 -0.85493129 -0.51557654 0.00175215
-4.25 -82.5 691.25 -0.085173376 -0.84910542 -0.52131134 0.0033964985
-1 -82.5 691.16663 -0.17395231 -0.83394814 -0.523709 0.020278143
1 -83 692 -0.21318081 -0.81915116 -0.53248984 0.023071343
5 -84 691 -0.28074667 -0.78131646 -0.55742788 0.020687027
-145 -79.5 690 0.19692779 -0.6140905 -0.76427239 0.067593835
-142 -79 690 0.16776368 -0.64506698 -0.74548233 0.072204456
-139 -79 690.66669 0.13952188 -0.6555624 -0.74213988 0.068616875
-135.6667 -78.666656 690.33331 0.12244067 -0.67932045 -0.72355509 0.06566982
-133 -78.599998 690.20001 0.15010549 -0.71044546 -0.68755776 0.058107588
-130 -78.599998 690.20001 0.14079881 -0.73246896 -0.66608179 0.043459527
-124.2 -78.400002 690 -0.14567935 -0.78785986 -0.59837651 0.027419508
-123 -80 692 -0.13066883 -0.7545011 -0.64315915 0.036990389
-118 -79.5 690 -0.21459483 -0.76831228 -0.60303009 0.025220944
71 -34 691 0.55218691 -0.77698469 -0.30229861 0.0051898244
72 -31 690 0.54735762 -0.78642178 -0.28625244 0.0051209242
76 -28 692 0.52955163 -0.79615116 -0.29277694 0.0059038149
77 -27 691 0.51069009 -0.80876857 -0.29170021 0.0057061855
81 -25 691 0.48815659 -0.81892765 -0.3017627 0.0074837049
83 -24 692 0.39865178 -0.85466552 -0.33260119 0.0074991286
84 -22 690 0.3776857 -0.86668336 -0.32590401 0.0060551949
118.5 -22 692 -0.26479802 -0.83066678 -0.48977005 0.012491744
120 -24 690 -0.27030241 -0.83427078 -0.48055053 0.014261025
86 -21 690 0.31889144 -0.8832013 -0.34389502 0.0057503451
89 -20 690.5 0.24582478 -0.88989902 -0.38425273 0.0066382443
92 -19.5 690.25 0.20278199 -0.88551813 -0.41801572 0.0075168796
94.166664 -19.666666 691.4444 0.10856158 -0.87922746 -0.46386787 0.0048353407
98.125 -19.25 691 0.048860241 -0.86663568 -0.49654323 0.003071835
101 -20 692 0.0021982833 -0.85808092 -0.51350981 0.0021681758
104 -19.25 691.25 -0.045304835 -0.84799415 -0.52806574 0.002643127
107.5 -20 692 -0.10018127 -0.84386891 -0.52711374 0.0033412685
110 -20 692 -0.15762891 -0.84406698 -0.51254666 0.0058210287
112.75 -19.75 690.25 -0.22446328 -0.84863359 -0.4789961 0.010752597
116.5 -21 690.5 -0.28323805 -0.84902751 -0.44601402 0.0081588775
-200 -1 691 -0.61369276 -0.21517368 -0.75965887 0.095471531
4 -91 695 -0.31761879 -0.75392276 -0.57508165 0.019598104
-132.3333 -88.666656 693 0.15929212 -0.58255309 -0.79703069 0.070403077
-125 -90 695 0.10301323 -0.7143994 -0.692114 0.076439813
-119.5 -88.5 694.5 0.040642276 -0.75263053 -0.65718746 0.069678612
-24.75 -88 694 0.16689748 -0.83981907 -0.51657444 0.0091625126
4.8333335 -87.75 694.58337 -0.31511447 -0.7698372 -0.55502576 0.019104157
-142.2 -84.599998 693 0.23818532 -0.51364475 -0.82427961 0.078272626
-139.125 -85.083328 694.41663 0.24425884 -0.57417119 -0.78145063 0.073359832
-136.5 -86.5 693.5 0.23125145 -0.57811171 -0.78250217 0.069816031
-118 -84.5 694 -0.084928796 -0.75191766 -0.65376365 0.051658876
-24 -86 693 0.17305884 -0.83575845 -0.52111262 0.0096379528
-18.799999 -85.400002 695.79999 0.11560881 -0.85497862 -0.50561458 0.011539245
-16 -85 695.66669 0.088721953 -0.85902119 -0.50419348 0.0095572444
-10 -85 694 -0.023483815 -0.85533065 -0.51754999 0.00095651817
-7 -85 694 -0.06289015 -0.8508389 -0.5216493 0.0020659117
-1 -85 694 -0.19067046 -0.81939322 -0.54059184 0.01718517
1.875 -85.375 694.5 -0.25873873 -0.79795527 -0.54435432 0.022712994
-145 -82.5 693.16669 0.22141911 -0.48161811 -0.84794903 0.073698923
-140 -82.875 694.625 0.23454304 -0.54841042 -0.80264288 0.075087935
-136 -82.074997 694.20001 0.18982588 -0.63466686 -0.74910897 0.067446537
-133 -82.300003 694.6333 0.18225074 -0.63982457 -0.74659842 0.064742841
-130 -81.958328 694.45837 0.14670694 -0.64650226 -0.74867338 0.066802211
-127 -82 695.66669 0.063667595 -0.67750269 -0.73275948 0.062018115
-121 -82.333344 695.66669 -0.072432652 -0.73195028 -0.67749715 0.050780158
-22.5 -84 693 0.14481877 -0.83569032 -0.5297634 0.010051393
-13.5 -83 693 0.04300829 -0.85298359 -0.5201627 0.0055846409
-127 -81 693.66669 0.091277063 -0.69920641 -0.70906907 0.061370071
-124 -81 693.66669 -0.0063518789 -0.71287858 -0.70125872 0.04754727
-121 -81 693.5 -0.12505603 -0.74272537 -0.65781456 0.037359942
71.5 -34 693 0.53890759 -0.77924669 -0.31992677 0.0061425357
73.5 -31.5 695.5 0.53846121 -0.77923489 -0.3207061 0.0060319668
75 -29 694 0.53775173 -0.78544486 -0.30643016 0.0057695913
79.5 -26.5 694 0.48508361 -0.81525534 -0.31631112 0.0082030026
83 -25 695.5 0.38089791 -0.85620695 -0.34903637 0.0086810654
119 -24.5 693.25 -0.27592117 -0.83144975 -0.48224363 0.0057644192
121 -26.5 694.5 -0.26948667 -0.83590323 -0.47816595 0.0053438856
86 -23 693.5 0.30304608 -0.88055182 -0.36440563 0.0072900886
89 -23 695.33331 0.19368088 -0.88677806 -0.41965732 0.0075801327
104.25 -22.5 695.75 -0.051171333 -0.84237307 -0.5364598 0.0024143555
109.5 -23 695 -0.13101788 -0.83834761 -0.5291574 0.0051157982
113 -23 695 -0.20798714 -0.82951182 -0.51831597 0.0055537717
116 -22.5 693.25 -0.2488005 -0.83881694 -0.48423594 0.0071306084
89 -21 693 0.20624153 -0.89375198 -0.39833629 0.0074067549
91.5 -21 694 0.15927559 -0.88904649 -0.42921758 0.0074879183
95.5 -21 694 0.068469152 -0.87917286 -0.47155812 0.0044817249
98 -21 694 0.029910188 -0.86529106 -0.50037664 0.0029243338
101 -21 694 -0.013743753 -0.85387892 -0.52029026 0.0012952148
104 -21 694 -0.03989841 -0.8519699 -0.52206838 0.0014128563
107 -21 694 -0.076072887 -0.8524887 -0.51718068 0.0019703198
110 -21 694 -0.16310781 -0.8474043 -0.505274 0.0052988972
113.3333 -21 693 -0.21747017 -0.85217953 -0.47591668 0.0068976129
-25 -91 697 0.17937334 -0.84240371 -0.50811529 0.0081887422
4 -90.5 698 -0.30334702 -0.77765465 -0.55066669 0.020323316
-135.3333 -87.333344 696 0.20447418 -0.56684023 -0.79804915 0.065195501
-133 -88 696.33331 0.17048012 -0.58983481 -0.78932345 0.066360421
-130 -88.25 697.25 0.14331257 -0.62716264 -0.76559031 0.073234871
-121.83334 -88.166664 697.11108 0.037229184 -0.73348826 -0.67868179 0.070462652
-24 -88 698 0.17234732 -0.84337199 -0.50894022 0.0087081939
3 -87.5 696.5 -0.28761965 -0.7795521 -0.55639333 0.022486348
-136.3333 -85.333344 696.66669 0.22231938 -0.56315666 -0.79588228 0.069919601
-133.56667 -86.466667 697.66669 0.1704836 -0.58981985 -0.78933388 0.066362061
-130.58333 -85.472221 697.75 0.14313042 -0.62807906 -0.76487273 0.073416203
-120.91665 -85 697.625 0.033341791 -0.73008817 -0.68253899 0.071938373
-22.5 -86.5 696.5 0.15191144 -0.84594637 -0.51117283 0.010231609
-16 -86 698 0.084992148 -0.85976666 -0.50356489 0.010131012
-13.666665 -85.666672 697 0.036227822 -0.86226726 -0.5051561 0.0050698626
-10 -86 696.33331 -0.027353711 -0.85303438 -0.52113736 0.0013622679
-7 -86 696.33331 -0.078615017 -0.84617174 -0.52707982 0.0044275206
-4.5 -85.5 696 -0.13025463 -0.82707912 -0.54678494 0.010332556
-1 -85.75 696.5 -0.19656524 -0.81946325 -0.53836983 0.01717858
-124 -82 696 0.063108481 -0.71467251 -0.6966064 0.066551767
72 -34 697 0.52668971 -0.77753544 -0.34356442 0.0072298027
78 -28 697 0.50362349 -0.79574645 -0.33637917 0.0093170125
121.5 -27.75 697.5 -0.22821638 -0.82648176 -0.51463097 0.0043034614
81 -26 697 0.46714967 -0.8186872 -0.33394969 0.0076324698
113 -25.25 698.75 -0.18817727 -0.81020439 -0.55511993 0.0054129791
115.975 -25.075001 697.375 -0.21157792 -0.82125604 -0.5298804 0.0050337431
118.75 -25.75 697.25 -0.21588123 -0.82781613 -0.5177989 0.005018075
86 -24 696 0.29121858 -0.86892945 -0.40019163 0.0083517069
89 -24 698.5 0.17956103 -0.87825441 -0.44320098 0.0082639642
92 -23 696.5 0.13637903 -0.88538301 -0.44440714 0.0075632269
94.75 -22.5 696.5 0.073232919 -0.87311363 -0.48198491 0.0053244997
98 -23 696.33331 0.014795313 -0.8577354 -0.51387852 0.0029975201
101 -23 696 -0.021893585 -0.8483215 -0.52902865 0.0019476275
104.5 -24 697 -0.065524966 -0.83166414 -0.55139935 0.0019127636
106.5 -23.5 696.5 -0.068262346 -0.82972008 -0.55398989 0.0026781042
113 -24 696.66669 -0.19224083 -0.82303077 -0.53447521 0.0059858784
2.5 -93.5 700 -0.31046548 -0.75541061 -0.57703197 0.015176001
-25 -92.5 700 0.19188257 -0.84390771 -0.50099981 0.0077391393
3 -91 699.33331 -0.30266318 -0.75830996 -0.57737428 0.016407544
-127.1429 -88.285713 699.42859 0.11489468 -0.64673901 -0.75400782 0.07047189
-124 -87.666656 699.5 0.064532913 -0.70958018 -0.70166332 0.068160526
-21.75 -88.5 700.58337 0.15886442 -0.85302949 -0.49709427 0.0090204459
-18.5 -88 700 0.10787617 -0.857903 -0.50235951 0.010126258
-16 -88 700 0.08776322 -0.85950786 -0.50353128 0.011404764
-13.5 -88 700 0.047789495 -0.85514265 -0.51618528 0.0089031365
-9.75 -88.166672 700.41663 -0.055210538 -0.85248446 -0.51982886 0.0023568368
-7.125 -88.25 700.125 -0.1193281 -0.82948726 -0.54562956 0.0094606718
-4.5 -89 701 -0.17727423 -0.80462319 -0.56670576 0.015691802
-1 -89 701 -0.20060776 -0.79896665 -0.56692934 0.014650318
1.5 -88 699.25 -0.25771371 -0.78831708 -0.55869466 0.017370412
-126.75 -86 700.05554 0.081064217 -0.6553362 -0.75097471 0.061683901
-124 -85.14286 699.42859 0.045459103 -0.70746905 -0.70528072 0.066759326
-4.5 -87 699 -0.1508339 -0.82934797 -0.53798801 0.012728001
-1 -87 699 -0.18572795 -0.80401206 -0.56486249 0.014715653
73.25 -35 699 0.52293193 -0.77411133 -0.35678262 0.0079290355
75.75 -31.25 700.25 0.51741409 -0.78058624 -0.35066777 0.0084363287
80 -27.5 699.5 0.47337708 -0.80538934 -0.3567383 0.0097715231
115.75 -27.75 701.25 -0.16931121 -0.81894535 -0.54832673 0.0060446933
118.875 -27.625 700.375 -0.19610423 -0.83197421 -0.51900089 0.005840478
121 -30 700 -0.20031875 -0.82816321 -0.52346736 0.0054314891
83.5 -26 699.5 0.34206718 -0.85031515 -0.3999429 0.0073353867
86 -25 699 0.26804394 -0.87048578 -0.41280383 0.0083415806
91.800003 -25.4 701.79999 0.054434441 -0.86121118 -0.50532395 0.0047422647
98.066673 -24.966665 700.56665 -0.029499905 -0.83502579 -0.5494194 0.0013201152
101 -24.5 699.16669 -0.044726599 -0.8316986 -0.55342299 0.0011527495
104.125 -25.375 700.25 -0.070845678 -0.82144207 -0.56587446 0.0019453599
107.33335 -25.333336 700 -0.093264706 -0.8149941 -0.57191461 0.0023414937
110 -25.25 700 -0.14302579 -0.80822355 -0.57124269 0.0038474854
113 -26 701 -0.16416962 -0.81331569 -0.55818093 0.0046868832
116.5 -27 700 -0.18753575 -0.82613027 -0.53135592 0.0059210644
92 -24 699 0.087131403 -0.87115616 -0.48321331 0.005481801
95 -24 699 0.023529628 -0.85714406 -0.51453894 0.0031598702
1.125 -95 703.25 -0.27189472 -0.77007103 -0.57711685 0.015166094
-24 -90.5 702 0.19179831 -0.84546733 -0.49839589 0.0077899797
-1 -92 704.66669 -0.25219396 -0.79000634 -0.55882752 0.015270117
1.75 -91.75 702.5 -0.26553729 -0.77165622 -0.57795894 0.014026763
-23 -90 703 0.1781294 -0.84302312 -0.50752532 0.0073539801
-19 -89 702.5 0.12375865 -0.85661101 -0.50090045 0.0097849313
-16 -89.5 703.33337 0.076163188 -0.8647002 -0.49648044 0.010496457
-13 -89 702 -0.010305149 -0.86246896 -0.50600511 0.0026518442
-9.5 -90 704.5 -0.12796618 -0.83972406 -0.52771968 0.010170831
-6.5 -90 703 -0.15051855 -0.82498068 -0.5447486 0.01355737
-4.5 -90 703 -0.20024507 -0.80496085 -0.55851573 0.017848974
-1 -90 702.66669 -0.22852731 -0.78693128 -0.57316172 0.015906418
74 -37.5 704 0.51697391 -0.75824708 -0.39723977 0.009269299
74.25 -34 703 0.51495636 -0.76979387 -0.37714377 0.0086821923
77.5 -31.5 704.5 0.47681484 -0.78419954 -0.39708772 0.012755732
122.5 -30.5 702 -0.17801726 -0.82964349 -0.52915162 0.0058771782
79 -30 702 0.48521784 -0.79402727 -0.36617532 0.011706837
81.75 -29 703.75 0.40936607 -0.8086763 -0.42244756 0.011128535
97.800003 -27.799999 704.79999 -0.056318149 -0.8248021 -0.56260973 0.0015093297
103.8 -28.200001 704.59998 -0.078855604 -0.81615072 -0.57243335 0.0015843972
106.75 -28.5 704 -0.10566048 -0.80935055 -0.57774353 0.0015424117
110.5 -29 704 -0.13801476 -0.80980337 -0.57023716 0.003252066
112.6 -28.4 703.09998 -0.14910887 -0.81852371 -0.55478418 0.0049286275
116.5 -30 703 -0.15682764 -0.82821524 -0.53801912 0.006189513
119 -30 702 -0.16077633 -0.83169705 -0.53144228 0.0068109157
83 -27 702 0.35641631 -0.83745444 -0.4142915 0.010571655
86 -26 702 0.23162305 -0.85880101 -0.45695904 0.0072940323
89.199997 -25.6 702 0.13847043 -0.86776519 -0.47729391 0.007628974
95 -25.6 702.20001 -0.012866428 -0.84467608 -0.53512317 0.0022150709
101 -26 702 -0.06215395 -0.8278724 -0.55746233 0.0015050812
106.25 -27 703 -0.090226755 -0.8129496 -0.57530189 0.0018837085
110 -27 703 -0.12322515 -0.81046438 -0.57268059 0.0031881998
0 -97 705 -0.3062281 -0.75362206 -0.58161682 0.013963436
-24.5 -94 705 0.24830081 -0.81053704 -0.53044927 0.012459302
-0.76666665 -93.76667 706.6333 -0.29626626 -0.76655978 -0.56974775 0.014226221
-22 -91 705.25 0.16479522 -0.84667188 -0.50595391 0.0079018576
-20.25 -92 707 0.14940661 -0.84533668 -0.51291668 0.0085259788
-16 -92 707 0.049471665 -0.85324872 -0.51915234 0.007971542
-13 -92 707.66669 -0.0062611094 -0.85255712 -0.5225966 0.0048453738
