ply
format ascii 1.0
comment PCL generated
element vertex 694
property float x
property float y
property float z
property float nx
property float ny
property float nz
property float curvature
element camera 0
property float view_px
property float view_py
property float view_pz
property float x_axisx
property float x_axisy
property float x_axisz
property float y_axisx
property float y_axisy
property float y_axisz
property float z_axisx
property float z_axisy
property float z_axisz
property float focal
property float scalex
property float scaley
property float centerx
property float centery
property int viewportx
property int viewporty
property float k1
property float k2
end_header
-55 10 535 0.029046919 -0.88388413 -0.46680307 0.0012193053
-51.14286 10 536.85712 0.025170946 -0.88108855 -0.47228101 0.0010571206
-50.75 11 534 0.019302528 -0.88982528 -0.45589283 0.0007962485
-46.75 10 535 0.018278087 -0.88873518 -0.45805633 0.00086792087
-42.14286 9.8571424 536.85712 0.018505918 -0.88028967 -0.47407547 0.00099469197
-31.130953 10.666667 534.90479 0.015064942 -0.90215665 -0.43114558 0.00091236777
-27 10 536.66669 0.030824902 -0.90316021 -0.4281956 0.00080516312
-24 11.5 534 0.036300234 -0.91551399 -0.40064499 0.0012278211
-21 11.5 534 0.062072683 -0.91780269 -0.39215454 0.001016041
-17.75 11.333335 535 0.069313131 -0.91883546 -0.38850626 0.00099588826
-15 11 536.33331 0.072011061 -0.91806662 -0.38983089 0.00077485968
3 11 536.5 -0.086621225 -0.91983426 -0.38262463 0.0011720522
6 11.5 534.16669 -0.098959371 -0.92078674 -0.37730461 0.00088690117
9.125 10.75 535.4375 -0.11274866 -0.91549397 -0.3862105 0.0010854527
13 10 535 -0.11718826 -0.9049809 -0.40899438 0.0011345018
15.25 10 535 -0.11609674 -0.90325457 -0.4131012 0.0012487096
18 9.75 535.58331 -0.12245698 -0.89629692 -0.42621148 0.0015883357
120 11 535 0.90023381 0.065232933 -0.43049252 0.012508481
-117.1429 12.42857 536.14288 -0.34355021 0.11931657 -0.93152392 0.071819514
-113 14 535 -0.31680685 0.14963044 -0.9366132 0.059323039
-15.2 12.4 534 0.068420701 -0.92276973 -0.37922901 0.00097040483
-11.57143 12.42857 534.14288 0.050843187 -0.92543441 -0.3754814 0.0007886822
1.3333335 12.416665 534 -0.06715028 -0.92613924 -0.37115622 0.001195992
121 12.5 536 0.90152371 0.084092721 -0.4244802 0.0063585746
-112.83335 15.611111 536.11108 -0.31444475 0.25287554 -0.91497463 0.047544427
-110.7778 15 534.66669 -0.34039944 0.15558133 -0.92732012 0.054757696
-106.425 17.700001 534.54999 -0.32539889 0.26274589 -0.90833926 0.041140821
119 15.66667 534 0.89656019 0.007132072 -0.4428643 0.018683558
-109.75 18.216665 536.56665 -0.33780679 0.35577872 -0.87138283 0.019512637
-104 20 535 -0.32625672 0.39469224 -0.85893816 0.012264426
-101.875 20.875 535 -0.34495339 0.37716618 -0.85950732 0.017791869
-105.125 21.125 536.125 -0.34033793 0.46044308 -0.81985503 0.0019925269
-102.58335 22.708336 536.33337 -0.34220338 0.44615492 -0.82694769 0.0016263127
-101 23 535 -0.34979546 0.44521061 -0.82427573 0.0025163253
-98.75 23.25 534.75 -0.34367102 0.44758379 -0.82556587 0.0013479134
118 21.25 534 0.81652546 -0.19952136 -0.54173547 0.047747057
-99.333344 24.33333 536 -0.34310806 0.43448994 -0.83276361 0.0018494353
-95.599998 25.4 534.51111 -0.34590024 0.39670989 -0.85027897 0.0047216117
118.5 24.5 534.5 0.71344405 -0.37084895 -0.59453225 0.059769526
120.78571 25 536.35718 0.6362496 -0.49446201 -0.59219402 0.041198585
123 26 536 0.55353087 -0.5798226 -0.59783727 0.034407321
126 26 536 0.56779069 -0.62085032 -0.54051691 0.021883767
-96.75 27.25 536 -0.34496385 0.33271062 -0.87766939 0.016771806
-92.333344 29 534.66669 -0.34870315 0.28130025 -0.89402252 0.016772367
-89.699997 29.6 534.29999 -0.31827629 0.23873782 -0.91744459 0.02025247
122.8571 27.57143 534.14288 0.54155111 -0.63209134 -0.55424082 0.034990996
127 27.75 534.4375 0.50994515 -0.68019968 -0.52657801 0.02223552
129.5 29.5 536.5 0.5361712 -0.66912758 -0.5145762 0.015618783
-93.099998 30.299999 536.70001 -0.30343449 0.18622856 -0.93447655 0.031264387
-90.392853 31.67857 536.07141 -0.33106709 0.1191256 -0.93605751 0.035071749
-89.409088 34.454544 535.5 -0.28615332 -0.039573062 -0.95736629 0.034790028
-87 34.458336 534.52777 -0.33622879 0.040382538 -0.94091415 0.024274614
131 33.333328 534.33331 0.53869879 -0.69132572 -0.4815312 0.018102255
-108 38 536 -0.38477775 -0.44114545 -0.81076312 0.057869416
-103.83335 38 536 -0.18299113 -0.41794276 -0.88985282 0.048441634
-96.07692 36.30769 536.9231 -0.18773909 -0.2832796 -0.9404822 0.03671981
-95.900002 38.900002 534.5 -0.1262929 -0.22346124 -0.96649635 0.038564429
-92.800003 36.200001 536.79999 -0.23268956 -0.14480022 -0.96171123 0.038267288
-89.449997 37.950001 534.65002 -0.21885975 -0.17671007 -0.95962179 0.030943541
132 36 536 0.55082726 -0.69023085 -0.46922356 0.01745598
-110.66665 39.333336 535.5 -0.48446861 -0.33657631 -0.80746925 0.070973299
-101.8571 39.285709 534.14288 -0.10285213 -0.39603314 -0.91245776 0.053034458
-93.181824 39.090912 534.27271 -0.13801603 -0.20607671 -0.96875387 0.035063684
-110.4 47.599998 534.79999 -0.49769676 0.076627403 -0.86395961 0.058819968
-105.1818 47.63636 534.45453 -0.19894271 0.20238923 -0.95888501 0.047228198
-111.3333 48.5 536.33331 -0.51779073 0.11904024 -0.8471849 0.048619255
-108.1 50.900002 536 -0.26949862 0.31189114 -0.9110952 0.028862789
-107.46155 48.5 535.30774 -0.28598106 0.21255396 -0.93436372 0.043392479
-104 49 536 -0.15650593 0.2834152 -0.94614047 0.030305812
-101.3846 49.153847 534.69226 -0.066335596 0.30916721 -0.94869131 0.015311547
-99 50 535 -0.061304748 0.31160325 -0.94823265 0.011530003
-95.75 49.208328 534.54163 -0.066793956 0.25690314 -0.96412623 0.021221396
-92.875 50.875 535 -0.085079916 0.2994588 -0.95030826 0.010994033
-87.181824 50.909088 534.09088 -0.11075205 0.30616963 -0.94551265 0.011697406
-103.7 51.099998 536 -0.11202506 0.33838686 -0.93431515 0.013677409
-102 53.900002 536.90002 -0.12814295 0.28052291 -0.95125508 0.013234211
-97.583328 51.583336 536.08337 -0.071117014 0.31978372 -0.94481784 0.0068221474
-95 52.950001 536.34998 -0.072577536 0.32544357 -0.94277197 0.0059932587
-89.449997 52.049999 534.95001 -0.10783059 0.3061994 -0.9458406 0.0095623313
-86.75 53.5 535 -0.1183425 0.33445758 -0.93495089 0.0053202547
-108 54 536.66669 -0.20200285 0.2711283 -0.94110805 0.026837207
-104.8182 54.090912 536.81818 -0.14562675 0.26116371 -0.95424646 0.021938514
-91.545456 54.045456 536.2121 -0.091955967 0.30772477 -0.94702137 0.0061781281
-87.199997 54.400002 536 -0.10701728 0.30428499 -0.94655055 0.0049710176
-84.125 56.75 536.375 -0.11908243 0.27643195 -0.95362717 0.0050540301
-82.625 54 534.95837 -0.1175009 0.32656267 -0.9378435 0.0040062051
-81 56.75 536.16669 -0.10647633 0.28738725 -0.95187777 0.0044023916
-77.066666 55.555557 534.77777 -0.12533277 0.30575046 -0.94382644 0.005259776
-77.900002 57.099998 536 -0.12873307 0.2803449 -0.95122784 0.0042485972
-72.25 59.75 536 -0.14995122 0.25502166 -0.95523751 0.0026649979
-70.583328 57 534.75 -0.14281552 0.29381594 -0.94513273 0.0042845882
-81 60 536.88892 -0.10511775 0.24898301 -0.96278644 0.0026633032
-77.75 60 536 -0.11899389 0.24969555 -0.96098518 0.0026331642
-75 60 536 -0.1339058 0.25096372 -0.95868999 0.0026450881
-70.616158 60.722225 535 -0.14005892 0.26268536 -0.95466214 0.0043829996
-67.545456 62.742424 534.95459 -0.13204861 0.26357648 -0.95555776 0.002548001
-65.900002 60.099998 534.5 -0.13174868 0.26026011 -0.95650768 0.0032335301
-78 63.1875 536.75 -0.11716425 0.23661284 -0.96451378 0.0014862644
-75 63 536 -0.12772007 0.2485245 -0.9601683 0.0035975347
-70.928574 63.07143 536 -0.14982736 0.26901206 -0.95141172 0.0031826571
-69 65.777779 535 -0.13417216 0.27297023 -0.95262009 0.0030068087
-62.833328 63 534 -0.13768904 0.25699672 -0.95655346 0.003567185
-75 66 536.44452 -0.12626167 0.25821018 -0.95780241 0.0035921352
-70.366669 67.188881 536.20001 -0.1355792 0.28399086 -0.94919306 0.0042259223
-66 66 535 -0.12118729 0.27808729 -0.95288044 0.0031205248
-62.166668 67.333336 535 -0.13466425 0.29844376 -0.94487923 0.003356576
-60 66 535 -0.14801298 0.28040749 -0.94840068 0.0045642094
-56.815483 67.214287 534.83337 -0.17198151 0.29615566 -0.9395287 0.0036011566
-52.434345 68.797974 534.37878 -0.19270988 0.31227392 -0.93024081 0.0030054159
-71.818176 69.090912 536.81818 -0.11434929 0.28858417 -0.95060158 0.0036209484
-64.615387 69.192307 536.16663 -0.12770067 0.32207698 -0.9380613 0.0031992667
-58.074078 70.392586 536.29999 -0.16034913 0.33004251 -0.93024731 0.0033115679
-54.666672 70 536 -0.18609612 0.32848281 -0.92599535 0.0021563708
-53 71 535 -0.18984775 0.32820401 -0.92533231 0.002424296
-48.099998 71.900002 534.20001 -0.18819518 0.32305291 -0.92748016 0.0028704824
-54.125 72.125 536.25 -0.19779234 0.29281408 -0.93548816 0.0045926194
-52 73 536 -0.20632905 0.29056779 -0.93434399 0.0050436114
-50.349998 73 535 -0.21021147 0.28454384 -0.93533206 0.00496628
-47.5 74 535 -0.18330115 0.27576301 -0.94358647 0.0072929864
-44.599998 74.199997 535 -0.14298087 0.29047623 -0.94613951 0.0084306821
-51.090912 75.090912 536.09088 -0.22080366 0.19363363 -0.95590365 0.013023521
-48.14286 75.285713 536 -0.19567384 0.24614638 -0.94927531 0.0089969914
-48 77.833344 536.58331 -0.20385334 0.1012876 -0.97374767 0.029373445
-43.705765 76.800522 536.2088 -0.13125531 0.16131777 -0.97813529 0.022307759
-41.777779 75 534.77777 -0.10368501 0.23478825 -0.96650088 0.013040118
-37.546875 76.125 534.69794 -0.069841124 0.22162165 -0.97262841 0.016658824
-33.090912 75.181824 534.72729 -0.056762043 0.2499833 -0.96658492 0.015239454
-32.900002 77.900002 536.29999 -0.060535986 0.12098966 -0.99080622 0.026245443
-30 75.25 534.375 -0.037435204 0.2494128 -0.96767342 0.016320309
-26.5 76.125 534.625 -0.049575727 0.1938477 -0.97977823 0.027219471
-23.89732 76.308037 534.5625 -0.042966176 0.21373302 -0.97594678 0.023896605
-51 78 536.9375 -0.20466363 0.11383088 -0.97219092 0.021455077
-37.549999 78.111115 536.20557 -0.063403532 0.061765034 -0.9960748 0.033521041
-30.25 78 536.08331 -0.044164497 0.10865672 -0.99309778 0.033903159
-27.125 78.125 536 -0.023842722 0.082812406 -0.9962799 0.039672233
-24.200001 78.800003 536 -0.010734959 0.068347707 -0.99760389 0.045022693
-23.33333 80.333344 535 -0.031974565 -0.028238658 -0.99908966 0.045042038
-21 79.25 534.83337 -0.043959912 0.040976796 -0.99819249 0.039756484
-17.75 79 534.95837 -0.065599002 0.054319747 -0.9963665 0.036625508
-15 79 534.83337 -0.099364758 0.098132953 -0.99020028 0.031985413
-11.81818 78.090912 534.36359 -0.093238473 0.14922282 -0.98439783 0.027423967
135 78.5 535.5 0.84236228 -0.037827455 -0.53758246 0.028726008
-41.125 82.888885 536.28705 -0.089697368 -0.26074287 -0.9612323 0.051397577
-37.833332 81.916664 535.66669 -0.048547864 -0.16394421 -0.98527426 0.048652917
-36 83 536 -0.054289192 -0.29574177 -0.95372397 0.045335121
-31.607956 82.068184 536.06439 -0.041675109 -0.14454599 -0.9886201 0.040983688
-26.074074 81.85186 536.03705 -0.022334462 -0.14402713 -0.98932165 0.051472452
-24 83.111107 536 0.006396153 -0.22051753 -0.975362 0.044228062
-21 82.5 536 -0.052350596 -0.12295023 -0.99103117 0.053722892
-17.708336 82.361115 536 -0.042034496 -0.12767282 -0.99092519 0.052470956
-13.916668 82.666664 536 -0.089290813 -0.13319188 -0.98705989 0.040253546
-11.57143 81.14286 534.78571 -0.090728946 -0.032904934 -0.99533194 0.042656865
-9 81.083344 534.33331 -0.092171386 -0.037950568 -0.99501967 0.046244528
-6 81.166656 534.33331 -0.12253198 -0.03357878 -0.99189639 0.041758202
134.3333 81 534.33331 0.78040314 0.12662797 -0.61232042 0.061296567
-75.25 86.875 536.75 -0.056632914 -0.66177309 -0.74756205 0.020427966
-63.333328 86.666656 536.66669 -0.079416603 -0.60321307 -0.79361641 0.027237121
-58.5625 86.5 536.5 -0.10313655 -0.57204235 -0.81371391 0.030546209
-54 86.5 536.33331 -0.1180376 -0.52821726 -0.84086478 0.035758611
-49.875 86 536 -0.10806836 -0.46734864 -0.87744319 0.047322847
-44.5 86.333328 535 -0.071229793 -0.48551059 -0.87132418 0.04809273
-40.900002 86.449997 536 -0.050674949 -0.51792061 -0.85392636 0.042228378
-36.36364 84.090912 535 -0.049840789 -0.39214537 -0.9185521 0.048171878
-31.6 84.650002 534.83337 -0.036620472 -0.4075146 -0.91246414 0.041628178
-27 85 535 -0.012416346 -0.44755593 -0.89416975 0.037710216
-24 84.571426 535 0.018464694 -0.40590757 -0.91372758 0.05483317
-21 84.5 535 -0.021405673 -0.43424872 -0.90053862 0.048109911
-17.85714 84.571426 535 -0.067836381 -0.38391313 -0.92087394 0.05265855
-15 84.5 534.83331 -0.080592901 -0.38402918 -0.91979688 0.050073594
-10.383335 84.105553 534.58337 -0.065476269 -0.28745973 -0.95555198 0.063250229
-4.625 84 534.16663 -0.087438516 -0.2957131 -0.95126671 0.05461308
0 84 534 -0.074922234 -0.28134057 -0.95667875 0.04596914
54.200001 84.800003 534 0.11120751 0.42036173 -0.90051591 0.046703123
57 85.25 534.5 0.15515612 0.44316056 -0.88291293 0.046734344
60.0625 85.25 534.5 0.13626412 0.50965923 -0.84951723 0.056963496
63 84.5 534 0.067729801 0.60425085 -0.79391026 0.048390433
67.458328 84.75 534.375 0.038584214 0.62193376 -0.78211874 0.057135366
76 86 535 -0.17057972 0.60482663 -0.77787352 0.088233583
78.25 86 534.75 -0.10051217 0.66144693 -0.74322629 0.074063256
81 86.333344 534.33331 -0.19353791 0.59906608 -0.77695757 0.096480481
91.416672 86.25 534.08337 -0.11918068 0.61368549 -0.78050369 0.077127978
-120 89.36364 536.90912 -0.38955063 -0.63305146 -0.66895163 0.026698191
-117 89.5 536.5 -0.20505872 -0.72470313 -0.65784216 0.01650562
-114 89.199997 536 -0.13023184 -0.76153094 -0.63490975 0.011976209
-111 89.699997 534.20001 -0.067788415 -0.79766941 -0.59927315 0.0050030579
-107 89 536 -0.021472542 -0.80323017 -0.59528166 0.0030768311
-105 89 536.5 -0.028315457 -0.81006598 -0.58565456 0.0024278467
-102 89 536.5 -0.012929376 -0.81889969 -0.57379091 0.0021579608
-97.574997 89.662498 534.0625 -0.020812875 -0.84137118 -0.54005682 0.0019214303
-95.909088 87.727272 536.90912 -0.028996384 -0.80417061 -0.59369087 0.0045862575
-93 89 536 -0.032643896 -0.81615877 -0.57690489 0.0048785973
-88.875 89 536 -0.019711776 -0.81038016 -0.58557272 0.0043568509
-82.75 88 535 -0.050771955 -0.78028923 -0.62335455 0.0064086206
-74.666656 87.666656 534.66669 -0.053036008 -0.74173969 -0.66858768 0.013392913
-70.550003 87.300003 535.70001 -0.04457172 -0.7186237 -0.69396925 0.013393226
-69 88 535 -0.054556895 -0.74226242 -0.66788471 0.011223354
-66 87.5 535.94446 -0.045819152 -0.67809898 -0.73354101 0.018672056
-62.714291 88 534.57141 -0.084379099 -0.71725625 -0.69168168 0.014083338
-60 88 534.5 -0.10726543 -0.69078159 -0.71506292 0.021260306
-55.5 88 534.42859 -0.10246732 -0.6880911 -0.71835303 0.021981252
-49.491665 87.291672 534.15002 -0.090723179 -0.59257764 -0.8003881 0.039248187
-42.299999 87.599998 534 -0.047314562 -0.61811155 -0.78466517 0.035922885
-38.799999 87.400002 534.70001 -0.033985265 -0.59467834 -0.80324513 0.035717219
24 87 534 -0.019432582 -0.1896998 -0.98164976 0.042863037
55.671017 88.146454 535.87671 0.25806108 0.15123472 -0.95421827 0.057233039
60 87.5 536.5 0.25955483 0.19031523 -0.94679004 0.072019964
63 87 536.83331 0.14637706 0.37594888 -0.91500616 0.075541236
84 87 535 -0.090816528 0.53716159 -0.83857602 0.093345433
88.375 87.5 535.625 -0.13245732 0.4561525 -0.87998867 0.097631738
94.541672 87.75 535.16663 -0.21148418 0.36948296 -0.90485179 0.11346451
99.5 89.25 534.75 -0.23205541 0.29669404 -0.92634922 0.1120443
134.6667 87 534.66669 0.67010295 -0.045232765 -0.74088866 0.063945182
136 87 536.75 0.64907908 -0.14982264 -0.74582136 0.0477468
-122 91 535 -0.46386006 -0.59436929 -0.65693146 0.01892167
-119.8 91 534.59998 -0.39767179 -0.65544742 -0.64206362 0.022312954
-117 91 534.5 -0.29828438 -0.69422597 -0.65503949 0.021422941
-113.875 90.75 534 -0.17668779 -0.77430314 -0.60764807 0.012667787
-104.875 90.25 534 -0.033237834 -0.82426167 -0.56523275 0.0014795038
-102 90.333344 534.16669 -0.021529242 -0.83183837 -0.55460024 0.0013773921
-86.777779 90.111107 534 -0.01308092 -0.82913357 -0.55889761 0.0028689145
54 90 535 0.21281819 0.042272795 -0.97617692 0.05792027
57.666672 92.333344 536 0.22904745 -0.21571767 -0.94921184 0.059030812
60.099998 92.900002 536.5 0.22862484 -0.28007984 -0.93235499 0.06881278
95.85714 92.428574 536.57141 -0.22698449 -0.20668854 -0.95171309 0.092983291
99 91.287498 536.28748 -0.20607443 -0.058898285 -0.97676218 0.10174667
102.1 91.433334 534.5 -0.13180745 0.055539194 -0.98971826 0.10019604
105.9697 90.958046 534.48523 -0.12870671 0.11632852 -0.98483616 0.08744397
110.8462 90.07692 534 -0.059429474 0.20713221 -0.97650623 0.075077899
111 92.75 534 0.062276609 0.15561222 -0.98585314 0.053807683
114.0714 92.85714 534 0.059380583 0.2218629 -0.97326815 0.049703564
135.66667 90.883331 535.66669 0.49564552 0.048423957 -0.86717397 0.060658347
138.2 92 536.20001 0.52260429 0.021522332 -0.85230374 0.063858099
141.0909 92.818176 536.54547 0.42608932 -0.066198505 -0.90225589 0.089826398
-124 95 536 -0.53246588 -0.57065982 -0.62516195 0.011115313
-122.25 93.25 534.75 -0.48692468 -0.58635706 -0.64737147 0.015143296
55.482639 93.340279 534.58337 0.17033622 -0.30620807 -0.9366014 0.053719405
60.25 94 535 0.20702091 -0.46120256 -0.86280626 0.051453758
64.25 94 535 0.20872076 -0.45492345 -0.86572522 0.063514434
67 95 536 0.12045927 -0.53005284 -0.83936495 0.058889437
69 95 536 0.049161866 -0.57367933 -0.81760329 0.059925355
72.25 95 536 -0.023159185 -0.54803479 -0.83613485 0.075980932
76.400002 95 536 -0.11990875 -0.53493661 -0.83634007 0.068203896
80.900002 95.900002 534.09998 -0.10134409 -0.56342381 -0.81992859 0.069131956
81 95 536 -0.096099198 -0.50024575 -0.86053419 0.087996013
85.449997 95.449997 535.04999 -0.08060874 -0.51710367 -0.85211861 0.07112696
87.666664 94.366669 536.29999 -0.1011072 -0.44075733 -0.89191389 0.074328721
90 93.07692 536.9231 -0.14839911 -0.3555257 -0.92281044 0.080542728
93.050003 93.400002 535.75 -0.201083 -0.25718471 -0.94520974 0.090998545
96.14286 93.571426 534.85712 -0.14644361 -0.2285509 -0.96245456 0.094609067
99 93.300003 534.59998 -0.20566815 -0.067283675 -0.97630608 0.088247716
136.4841 93.142853 534.59521 0.4591355 0.13190565 -0.87851894 0.061337598
139.33333 94.833336 534.88892 0.36118558 0.19963838 -0.91087294 0.075632863
-129 98.166656 536.5 -0.57958788 -0.58538216 -0.56692642 0.0094194757
-126 98.199997 536.20001 -0.54801488 -0.59540445 -0.58751452 0.0091077182
-122.4286 96.285713 534.14288 -0.4927642 -0.60886848 -0.62166113 0.011415463
68.875 96.125 534.375 0.062712409 -0.63847226 -0.76708567 0.055366036
74.900002 96.599998 534.09998 -0.053295504 -0.66934723 -0.74103576 0.044154312
78.166656 96.5 534.08331 -0.091557831 -0.6353941 -0.76674086 0.051960785
129 98 535 0.22698553 0.56063539 -0.79634517 0.028806755
134.7778 96 534.33331 0.31960481 0.41403052 -0.85230953 0.039735541
136 97 536 0.33462361 0.43316716 -0.83689493 0.05306907
138 97 536.33331 0.33926323 0.38065696 -0.86023295 0.066525578
141 96 536.71429 0.34278581 0.28172091 -0.89617586 0.089849748
-130.14285 99.785713 534.64282 -0.58412248 -0.59493154 -0.55213886 0.011100935
116.6667 101.5 534.5 0.20063764 0.59211981 -0.78047335 0.051494107
119 101 535 0.18063952 0.62639427 -0.75828731 0.044590954
121.65 100.45 535.375 0.19626142 0.63376266 -0.74821544 0.039732907
124 100 536 0.20054743 0.63695073 -0.74436176 0.033232111
126 99.666656 536.33331 0.20301656 0.65594089 -0.72699779 0.027618859
129 99.333344 536.33331 0.21923418 0.64538372 -0.7317214 0.025409834
-132.5 102 536.5 -0.59483248 -0.59422797 -0.54135704 0.025525456
-131.6667 102 534 -0.62704611 -0.57532167 -0.5251838 0.013081408
98.800003 104.6 534.20001 0.19003965 0.60510796 -0.77312946 0.081834115
102 104 534 0.12845294 0.67621332 -0.72542089 0.05977555
108 104 535 0.17460661 0.71953243 -0.67215002 0.042600051
114.5 103 536 0.20037352 0.70067823 -0.68476307 0.037234351
-142 106 535 -0.51241428 -0.67692232 -0.52840114 0.037125215
-134.125 106.625 534.5 -0.61121118 -0.59199584 -0.52532077 0.031605765
91 107.25 534.5 0.27617207 0.72664994 -0.62905389 0.050077841
95.800003 105.4 534 0.21050881 0.62622112 -0.75068843 0.074541315
100 106 536 0.20731629 0.74049389 -0.63928771 0.038605478
103.16665 105.5 535.83337 0.1453077 0.75102562 -0.64408565 0.030324118
-141.2 108 534.20001 -0.46420702 -0.70892656 -0.5309754 0.039914846
-140.5 109.07145 536.42859 -0.51689887 -0.6634748 -0.54094052 0.039238453
-137 110.45 535 -0.48943746 -0.68115062 -0.54450423 0.037546944
82.25 110 534.5 0.21003345 0.84919763 -0.48450935 0.0056488253
84.5 110 536 0.21048903 0.86923659 -0.44735008 0.00097315974
87.5 109 536.5 0.22723736 0.84202605 -0.48923954 0.011201656
91 108 536 0.24295203 0.78171116 -0.57437086 0.031182226
66 113 534.33331 0.23863956 0.84308219 -0.48193735 0.0026772725
69 112 534.33331 0.21453458 0.86182344 -0.45960334 0.0013906655
72 113 536.33331 0.21376881 0.85623276 -0.4702853 0.0025016132
75.5 112 536.5 0.19904047 0.87403518 -0.44322163 0.0011567089
78 111 534.66669 0.19608401 0.87424374 -0.4441272 0.0010871858
56.75 116.25 534.25 0.28355101 0.79487264 -0.5364477 0.0034299605
61.75 114.5 535.25 0.27763325 0.80815655 -0.51942533 0.004387666
64 114 536 0.26930887 0.81859863 -0.50731546 0.0044693938
47.25 119.25 534.5 0.23284344 0.82730371 -0.51122642 0.0019656925
50 119 535 0.24706821 0.81078982 -0.53063852 0.0027899665
53.666672 117 534.16669 0.27770561 0.7965197 -0.53706241 0.0028164934
55 118 536 0.28008276 0.78337163 -0.55487174 0.0034015225
35.75 122.5 534 0.19603498 0.87445271 -0.44373727 0.0016229277
40 122 534.5 0.19777696 0.85736215 -0.47519928 0.0016168193
43.375 120.875 535 0.21186091 0.84314507 -0.49418747 0.0020566678
48.5 120.75 536 0.21501736 0.82636935 -0.52046245 0.0032938912
51.125 120.125 536.5 0.24845284 0.79970086 -0.54657996 0.0033992284
21.66667 125 534 0.22944413 0.88407069 -0.40715393 0.0013207869
27.5 125 535.5 0.19280325 0.8951202 -0.40197864 0.0012932793
30 124 534.66669 0.19085689 0.88747078 -0.41948673 0.0012762259
33 124 536.66669 0.17815325 0.88799828 -0.42393443 0.0010157457
36.5 123 536.5 0.18588391 0.87244076 -0.4519892 0.0016931259
14 128 535 0.37068334 0.82011741 -0.43589154 0.0083377482
15.33333 127 534 0.3382026 0.82713425 -0.4488517 0.0062162224
19.25 126.5 535.25 0.26895395 0.8692472 -0.41481695 0.0020901083
8.5 131 535 0.59982979 0.60579598 -0.52270013 0.02495045
10 130 536 0.54136485 0.68141454 -0.49254271 0.023765739
5.4285712 134.8571 534 0.7730757 0.36578739 -0.51822162 0.015333714
5 137 535 0.80761337 0.30490202 -0.50477266 0.0066905865
7 135 536.66669 0.75985676 0.39585122 -0.51567388 0.011403793
4.3888888 138.94446 534.9444 0.83387375 0.2826243 -0.47410756 0.0052749529
4 142 536 0.84567297 0.25234172 -0.47027743 0.0027449585
2.666667 144 534 0.85605633 0.22658895 -0.46456963 0.001595473
3.6666665 145.16666 536.33331 0.85370731 0.23726672 -0.46356055 0.0015366114
5.75 -81.5 539.75 -0.27228025 -0.81986278 -0.5036751 0.010967981
13.375 -81.625 539.625 0.06609454 -0.83138692 -0.55174941 0.023797365
18 -81.5 539.5 0.30828029 -0.75936782 -0.57299548 0.029476341
7.6500001 -80.099998 537.25 -0.17923883 -0.81418216 -0.55225068 0.015916387
9.666667 -81 539 -0.11149255 -0.83463389 -0.53940308 0.020573383
12 -80 537.33331 0.025934596 -0.80293947 -0.595496 0.023768596
16.614285 -80.414291 537.37146 0.26585209 -0.73353618 -0.62549764 0.023601582
21.5 -79 539.5 0.51301557 -0.62796772 -0.5852108 0.035039805
-0.5 -76 539.5 -0.36833659 -0.81058884 -0.45527351 0.0037295099
0 -75.5 537 -0.3474327 -0.80544937 -0.48014775 0.0058462038
20.85714 -78 537.42859 0.49596882 -0.57813448 -0.64790082 0.031998482
23 -77 538 0.58214569 -0.49872908 -0.64216483 0.032097898
-12.5 -73 539 -0.21759549 -0.85779977 -0.46565217 0.0030163329
-9.5 -74 539.5 -0.23007719 -0.86441493 -0.44704729 0.0015171955
-9 -72.333344 537 -0.23404571 -0.85676563 -0.45953819 0.0025132513
-4.125 -74.125 537.625 -0.30267936 -0.83752817 -0.45489758 0.0043167197
23.16667 -74.666656 537.33331 0.61754847 -0.4202657 -0.66483885 0.028120799
24.5 -75 539.33331 0.68906134 -0.39763206 -0.60587406 0.030822011
-32 -71.333344 537.33331 -0.30737436 -0.47803795 -0.82280052 0.10434839
-24.4 -69.400002 539.20001 -0.16696677 -0.62583637 -0.7618733 0.066062294
-21 -69.5 537.33331 -0.24892201 -0.67464274 -0.69490653 0.037731495
-17.799999 -71.199997 537.40002 -0.24276492 -0.7618655 -0.6005215 0.019882644
-15 -71.666656 537 -0.25122243 -0.82304895 -0.50938946 0.0061070966
26 -71 538 0.75937551 -0.18665893 -0.62330359 0.015939943
-34 -66.5 537.5 -0.65964621 -0.23574452 -0.71364659 0.10888357
-31.476196 -67.571426 538.45239 -0.53785282 -0.33020183 -0.77568102 0.12257245
-28 -67 539 -0.40411726 -0.40611598 -0.81960917 0.10289192
-23.799999 -68.400002 537.20001 -0.23660338 -0.57572955 -0.78265846 0.07408227
26 -69 538 0.79933304 -0.12790206 -0.58711827 0.012968696
-35.333328 -65.333344 539.66669 -0.72941935 -0.19378065 -0.65604609 0.098987326
-29 -65.5 538 -0.46424374 -0.31949612 -0.82607508 0.097449154
-27 -65.800003 537.5 -0.38269538 -0.37956867 -0.84230155 0.098348014
26 -66 538 0.8195104 -0.0068805013 -0.57302296 0.0095916269
-30.75 -61.625 539.5 -0.74141103 -0.071024545 -0.66728199 0.076744974
-29 -63 538 -0.56524134 -0.18594073 -0.80369663 0.089020558
26.200001 -60.200001 539.79999 0.86867535 0.13298942 -0.47719702 0.0045831399
-30.25 -57.25 537 -0.7349804 -0.029382471 -0.67745143 0.028971653
-29.5 -60 537.33331 -0.66489422 -0.077065453 -0.74295133 0.057774641
25 -57 539 0.85406333 0.19346668 -0.48285237 0.0045550005
-30.416664 -52.611111 537 -0.7747032 0.048221901 -0.63048369 0.0088887699
23.200001 -51.400002 537.40002 0.83019489 0.24462163 -0.50093573 0.0050377846
24.25 -51.25 539.75 0.86039281 0.26980725 -0.4323521 0.0028004616
-32 -51 539.66669 -0.82504529 0.11829101 -0.55254638 0.0094778584
-30.666664 -46.333328 539.5 -0.78459752 0.2754699 -0.55544841 0.0099004814
-29.83333 -48 537 -0.76677465 0.2072521 -0.60753858 0.0090925545
-29 -44 537.875 -0.74506807 0.34836963 -0.56878132 0.0088786306
20.25 -44 537.5 0.76653093 0.37382117 -0.5221954 0.0054137474
21.799999 -45 539.79999 0.82713872 0.35208419 -0.43803912 0.0034404385
-28.362499 -41.837502 538.40002 -0.72694069 0.41220814 -0.54921919 0.0082774311
-26.66667 -39.5 537.66669 -0.67056149 0.46316743 -0.57950258 0.005191661
17.4 -39.400002 537.40002 0.68960363 0.45723775 -0.56158751 0.0087205479
20.5 -42 539.25 0.79362607 0.39846954 -0.45976043 0.0034839418
-27 -38.5 539.66669 -0.70501536 0.48056158 -0.52154958 0.0068969382
-23.33333 -36.666672 537.66669 -0.59987968 0.52280092 -0.60565966 0.0023540002
17 -37 538 0.66898757 0.48839718 -0.56028914 0.0068528079
18.33333 -39 539.5 0.74448234 0.44440129 -0.49825054 0.0054380945
-24.33333 -35.666672 539.66669 -0.65138829 0.53270078 -0.54029912 0.0045732115
14.33333 -33.666672 538 0.57662386 0.54729521 -0.60660774 0.0077609261
16 -35 539 0.66174644 0.51657444 -0.5433622 0.0080554839
-21.799999 -32.599998 539.20001 -0.59464008 0.58449966 -0.55205363 0.0043385001
-20.42857 -32.85714 537.71429 -0.56099623 0.56884086 -0.60141778 0.003049209
-17.57143 -30.85714 537.28571 -0.50126243 0.61183429 -0.61187822 0.0038462779
6 -30.25 537 0.32311928 0.64732373 -0.69033754 0.0036421684
10.055555 -30.944445 537.22229 0.41898939 0.62202364 -0.66146398 0.0048990329
12.555555 -32.388889 538.05554 0.51454347 0.5868035 -0.62522542 0.0080190105
-18.5 -29.625 539.875 -0.52890867 0.63422245 -0.56393051 0.005233556
-15.22222 -30 537 -0.44302064 0.65110087 -0.61627936 0.0066321339
-14.33333 -27.66667 538 -0.35229763 0.7097773 -0.61000216 0.0078233955
-11.63636 -27.09091 537.36359 -0.28135094 0.72865206 -0.62442601 0.006093963
2.7777779 -27.222219 537.44452 0.22241794 0.71142054 -0.66664165 0.0044641509
5 -28 538 0.28718552 0.69186205 -0.66245854 0.0036803903
9.4285717 -29.42857 539.28571 0.42449221 0.64372939 -0.63672513 0.005147377
-9 -27 537 -0.16840321 0.75230521 -0.63692808 0.0068930895
-4.625 -25.9375 538.375 0.019457594 0.76244903 -0.64675558 0.0054249684
-1.0714285 -24.92857 538.85718 0.11914212 0.77897495 -0.61563241 0.006633475
6 -26.777781 539.77777 0.29225174 0.71932626 -0.63020539 0.0063939057
114 -3.5 539.875 0.025228394 -0.85454851 -0.51875848 0.02177554
88.462502 -0.55000001 539.41248 -0.086100705 -0.87876052 -0.4694322 0.00072763534
93 -1 539 -0.078919969 -0.87686181 -0.47422037 0.0010218855
96 -1 539.66669 -0.062504672 -0.87735051 -0.47576171 0.00107139
99.25 -1 539 -0.068898737 -0.87847292 -0.47279847 0.0010279065
102 -1 539 -0.079886876 -0.8788656 -0.47033331 0.0012787363
105.94444 -1.2333333 538.67773 -0.10350806 -0.88106966 -0.46152174 0.0010465812
109 -2 538 -0.092603453 -0.88200259 -0.46205634 0.00098713837
111 -2 537.5 -0.055884853 -0.87602794 -0.47901148 0.0043636262
114 -2 537 0.074090078 -0.84906632 -0.52306503 0.028777605
117 -2.5 537.5 0.19190674 -0.7906121 -0.58146733 0.053005449
121.16665 -2.4166665 537.58337 0.43805847 -0.669469 -0.59993005 0.075006358
124 -1 539 0.65541077 -0.47275862 -0.5890128 0.082986511
63 2 539.66669 -0.092325211 -0.88746321 -0.45153654 0.0015388862
67 2 539 -0.08967109 -0.88733232 -0.45232776 0.0018668543
72 2.428571 537.14288 -0.053072579 -0.88702792 -0.45865542 0.0011682836
75 2.5 537.16669 -0.04954027 -0.88618177 -0.46068162 0.0010519197
81 0.5 539.875 -0.070098348 -0.8837136 -0.46274883 0.0010316995
84.25 1 538 -0.08158005 -0.88359278 -0.46109489 0.0012692894
87 1 537 -0.08563219 -0.878829 -0.46938959 0.0011737717
91.628571 0.61428571 537.38574 -0.081928544 -0.87730128 -0.4728955 0.00077653525
96.125 0.5 537.125 -0.063860901 -0.87804937 -0.47429004 0.00085262058
99 0 537 -0.074544497 -0.87763095 -0.47350499 0.0013191501
102 0 537 -0.089847162 -0.8812753 -0.46398425 0.0011594245
123 0 537.25 0.58312768 -0.53199989 -0.61395293 0.080222137
-128.89999 5.9000001 539.59998 -0.25871396 -0.35183221 -0.89960051 0.0990749
-119.75 5.25 539.75 -0.10268132 -0.69616807 -0.71049732 0.06969773
-114 5.5714288 539.85712 0.00074050418 -0.77593011 -0.63081843 0.043325763
-108 5.5714288 539.85712 -0.0087299384 -0.85457969 -0.51924694 0.016026352
30.33333 5.666667 539.83331 -0.14896666 -0.88734567 -0.43637878 0.0010874068
35.5 5 539.5 -0.13713576 -0.89534259 -0.42373979 0.0019066895
38.599998 5.1999998 537.40002 -0.13181236 -0.90302777 -0.40885985 0.0017781806
39 4 539.75 -0.12456128 -0.89879423 -0.42030168 0.0020907947
45.25 4 539.75 -0.10636276 -0.89702177 -0.42899752 0.0024891365
48.5 4 538 -0.095923118 -0.90310848 -0.41856155 0.0020609079
51.333328 3.666667 537 -0.090238519 -0.90466899 -0.41645038 0.0014038382
54 3.5 537 -0.095781229 -0.9019345 -0.42111769 0.0016293885
57.125 3.5 537 -0.099308424 -0.89921933 -0.42607796 0.0015262715
60.25 3 537.25 -0.095556863 -0.89376998 -0.43822846 0.0011413826
63.125 3 537.125 -0.089184739 -0.89269143 -0.44175559 0.0014901357
122 5 537 0.83657527 -0.13255632 -0.53157383 0.06444484
123.66665 3.25 538.41663 0.81908685 -0.15419115 -0.55255932 0.065760285
-127.15 7.25 538.65002 -0.30477181 -0.18155852 -0.93496025 0.091734655
-125 7 538 -0.26603511 -0.28040686 -0.92227834 0.085037433
-122.8333 6.5 537.33331 -0.22654571 -0.42817083 -0.87484103 0.091092668
-120 6.5 537 -0.20701683 -0.4445723 -0.87149262 0.09129902
-117 7 537 -0.17950891 -0.47783804 -0.85991126 0.095305078
-114 7 537 -0.11036211 -0.57704777 -0.80921948 0.084440917
-111 7 537 -0.075140849 -0.68094528 -0.72846919 0.063536555
-106.625 7 537.375 -0.034652051 -0.76666749 -0.64110857 0.037335802
-102.5 7 538 0.027515654 -0.78980809 -0.61273664 0.027719567
-100.9 6.5999999 538.90002 0.03445477 -0.84765971 -0.52942026 0.013943045
-99 6.5 539.5 0.040987708 -0.87289172 -0.48618916 0.0058392221
-92 6.75 538.91663 0.035613418 -0.89372569 -0.44719806 0.0012133496
-87.25 7 539.5 0.036743574 -0.89560109 -0.44333804 0.0010378938
-85.571426 8.5 537.35718 0.02944261 -0.87815136 -0.47747594 0.0015794305
-79.5 8.5 537.5 0.033253949 -0.88576543 -0.46294042 0.00089062192
-75 8 539 0.024564622 -0.88029075 -0.47379816 0.00074180646
-72 8 539 0.031925894 -0.88025165 -0.47343194 0.00082360307
-68.75 8 539 0.035054591 -0.88241506 -0.46916386 0.00068738556
-66 8 539 0.030488798 -0.8843081 -0.46590725 0.0010653404
-62.75 8 539.25 0.028951153 -0.88400394 -0.46658215 0.0013338712
-60 8.5 539.5 0.032792449 -0.88580424 -0.46289894 0.0013758891
-55.5625 8.5 539.6875 0.031099232 -0.88988101 -0.45513123 0.0012369135
-48.166672 8.333333 539.83331 0.012311929 -0.88528717 -0.46488178 0.0012640199
-39.14286 8.5714283 539.85712 0.018211676 -0.88594306 -0.46343642 0.0011073436
17.6 8.1999998 539.20001 -0.13856009 -0.89804286 -0.41751647 0.0014902493
21 8 539 -0.13485509 -0.89475119 -0.4257164 0.0013982567
27 6.5 539.66669 -0.14723809 -0.8828032 -0.44607115 0.00094607234
30.25 7 538 -0.15138155 -0.89003414 -0.43002662 0.001014902
33 6.5 537 -0.15502778 -0.89437073 -0.41960391 0.0012932309
123 6.5 539.5 0.88821524 0.03219375 -0.45829812 0.025129013
-129.10001 9.3999996 539.79999 -0.36782396 0.064941145 -0.927625 0.076020844
-127 10 539 -0.35096371 0.019562181 -0.9361847 0.082824953
-125.6364 9.181818 538 -0.33510068 -0.0029924423 -0.94217753 0.081032887
-122.4 11.8 537.79999 -0.32920745 0.20232454 -0.9223271 0.059380785
-74.800003 9 537 0.020825129 -0.88089401 -0.47285527 0.00050884538
-72 9.5 537 0.029566586 -0.88174623 -0.47079656 0.00073414558
-69 9.5 537.16669 0.027716067 -0.88210064 -0.47024485 0.00084769656
-66 9.5 537 0.034065597 -0.88286781 -0.46838441 0.0011047967
-63 9.5 537 0.030493347 -0.88270098 -0.46894485 0.0012671102
-59.833328 9.833333 537 0.032089077 -0.8824923 -0.46923095 0.0011970253
-53.666672 10 537.16669 0.023188263 -0.88014436 -0.47413948 0.0010557063
-46.424999 9.6750002 537.22498 0.016650567 -0.88190949 -0.47112453 0.00099161349
-38.875 10 537.125 0.016287526 -0.88225788 -0.47048455 0.0011862706
-36 10 537.33331 0.026172359 -0.88599151 -0.46296221 0.00083879853
-32.85714 10 537.14288 0.023098987 -0.88935709 -0.45662937 0.00095780066
-24.25 10 537.5 0.051718682 -0.90171671 -0.42922264 0.00086069823
-21 10 537.5 0.069190413 -0.90295655 -0.42412508 0.0011200344
-18 10 537.75 0.082954384 -0.90877646 -0.40895477 0.0009405762
-15 10 538 0.082724214 -0.90915871 -0.40815097 0.00076745887
-11.875 11 538 0.0626643 -0.91312045 -0.40284535 0.00086490845
-8.8999996 11.2 538 0.029450083 -0.91983974 -0.39118731 0.0014273112
-4.6875 11.208332 538 -0.0095800646 -0.92527097 -0.37918589 0.0013581427
0.83333331 11 538.33331 -0.070494249 -0.91923982 -0.38733545 0.001295206
3.5 10 538 -0.089894272 -0.91755563 -0.38731197 0.0010214914
6 10 538.16663 -0.10544886 -0.91373795 -0.39238185 0.0012207732
12 10 537 -0.13032769 -0.90541029 -0.40403828 0.0014740558
15.25 10 537.5 -0.12707213 -0.90069735 -0.4154478 0.0015765171
20.85714 9 537 -0.12879379 -0.89397115 -0.42921755 0.0013023599
122.16665 9.166666 538.83337 0.89177698 0.096392587 -0.44208843 0.007769024
-124.875 12.125 539.56946 -0.34296346 0.24380539 -0.90715772 0.059356362
-119.5 13.4 537.5 -0.32768038 0.21790096 -0.91931754 0.053572141
121 14 538 0.89296228 0.029716186 -0.44914955 0.016272223
-120.3333 15 539 -0.34463629 0.33779258 -0.87585503 0.030109523
-117.0909 17.81818 539.72729 -0.3643595 0.43126747 -0.82537901 0.010143629
-116.44445 16 537.77771 -0.35935068 0.30225706 -0.88289738 0.033605974
-113.8 17.200001 537.59998 -0.35029659 0.37515318 -0.8582263 0.017764378
121 15.5 539 0.87031156 -0.0837624 -0.48532623 0.030890832
-114.5 18.33333 539 -0.36785346 0.42985478 -0.82456577 0.0073288344
-110.8333 20.5 538 -0.35611179 0.45500067 -0.81618559 0.0021562546
120 18 537.66669 0.85965568 -0.14873888 -0.4887422 0.038884886
-114.1111 21 539.55548 -0.37315151 0.47309023 -0.79808748 0.00075197686
-111.5 21.5 539 -0.36271891 0.46793678 -0.80589712 0.0010253398
-107.83335 22.25 537.66663 -0.34923548 0.44285363 -0.82578164 0.0028286153
-105 23.799999 537.26672 -0.34533453 0.42435479 -0.8370586 0.0027445375
120.5 22 538.5 0.7367022 -0.37752742 -0.5610196 0.046158493
-108.5 24.5 539.5 -0.37811494 0.40284061 -0.83351582 0.011505323
-101.5 26 538 -0.34891018 0.35368463 -0.86785305 0.011492184
123 24.6 537.59998 0.61948967 -0.54077375 -0.569031 0.033675358
127.5 25.583334 537.75 0.57209718 -0.61137462 -0.54674119 0.0186496
130 26.5 539.5 0.58607024 -0.62368274 -0.51724404 0.012965918
-105 27 539.55548 -0.36233136 0.20284522 -0.90970868 0.035610307
-102 27.375 539 -0.33278534 0.23273779 -0.91383094 0.0283767
-98.51667 28.166664 537.33337 -0.32855099 0.24391592 -0.91244686 0.024502093
-101.01347 31.137566 539.6496 -0.31840599 0.027852954 -0.94754523 0.047271356
-98 32 538 -0.28005725 -0.027424349 -0.95959145 0.053324945
-96 30.16667 537.33331 -0.29230982 0.14670888 -0.94500345 0.04128772
131.25 30.5 538.25 0.5604319 -0.65785772 -0.50312948 0.014815196
-108 35.75 539.625 -0.46776387 -0.44276676 -0.76495397 0.071661524
-105 35.5 539.5 -0.34451178 -0.44238633 -0.8280133 0.068309948
-100.14166 34.441666 539 -0.2749086 -0.296942 -0.91446745 0.062900066
-96 33 538 -0.28999782 -0.074818581 -0.95409828 0.054795112
-92.818176 33.090912 537.09088 -0.26307324 -0.046911895 -0.96363461 0.048501477
132 33 538 0.56773436 -0.6677193 -0.48148578 0.014767899
-111.5 38 539 -0.58885372 -0.40887776 -0.69718736 0.066839755
-110 37 538 -0.54461759 -0.37459147 -0.75038183 0.06534376
-107.8 37 537.40002 -0.40843585 -0.45215434 -0.79292917 0.052327093
-105 37 537.5 -0.33985728 -0.47426552 -0.81213874 0.05061112
-102 36.75 537.625 -0.19326133 -0.46990341 -0.86130184 0.041836295
-98.916656 36.5 537.41669 -0.24761072 -0.36409697 -0.89784318 0.04326646
-110.8 50.900002 537.09998 -0.36697763 0.25881207 -0.89350086 0.039422207
-113.6 51.200001 539.59998 -0.5418126 0.10385867 -0.83405781 0.060379434
-110.5714 53.85714 537.57141 -0.34487355 0.1871575 -0.91980129 0.046874631
-112 54.5 539 -0.46416622 0.082788698 -0.88187057 0.064317778
-110.3333 56.333328 538 -0.28767061 0.18314923 -0.94005424 0.042029265
-106.48295 56.63068 538 -0.18202096 0.20341109 -0.96202511 0.02429028
-102 56.666672 538 -0.10155228 0.2184393 -0.97055209 0.010792111
-98.875748 55.512123 537.5 -0.063338622 0.27112615 -0.96045756 0.0080122119
-111.1736 58.638889 539.22229 -0.34687418 0.062857993 -0.935803 0.056774262
-107.875 58.75 539 -0.16196451 0.13493408 -0.97752762 0.023495691
-104.875 58.75 539 -0.17195293 0.1685726 -0.9705748 0.020217739
-101 58.75 539 -0.059387211 0.19972785 -0.97805005 0.00547839
-96 58 538.63641 -0.070640385 0.23964344 -0.96828765 0.0045407489
-92.022728 57.997471 537.4444 -0.090729177 0.24759193 -0.96460694 0.0046310234
-86.909088 58.454544 537.36365 -0.098558806 0.24244775 -0.96514523 0.0038520587
-110 61 538 -0.1964238 0.10929408 -0.97440881 0.027387902
-108 61 538 -0.17213468 0.11707111 -0.97809201 0.022186283
-105 61 538 -0.094716176 0.16411647 -0.98188323 0.010811674
-102 61 538 -0.06866432 0.1908741 -0.97921008 0.0057162368
-98.800003 60.099998 538 -0.049226101 0.20882057 -0.97671425 0.0054908493
-96 60.125 538 -0.071365371 0.21125741 -0.97482169 0.0038323335
-90.149994 61.516663 537.33337 -0.090124547 0.21746896 -0.97189748 0.0026422115
-84.099998 60.099998 537.09998 -0.099681973 0.24412696 -0.9646064 0.0028238981
-128.89999 63.099998 539.5 -0.38969707 -0.24371281 -0.88811046 0.070332639
-125.875 64.579544 539.45459 -0.23555879 -0.15591164 -0.95927244 0.068522416
-123 63.25 539 -0.16479777 -0.23962159 -0.95677751 0.068411559
-119.7841 64.579544 539.22729 -0.12118483 -0.079972222 -0.98940319 0.056795865
-117 63.25 539 -0.19519341 -0.10526778 -0.97509915 0.061896611
-112.775 63.125 539 -0.20076235 0.035239525 -0.97900593 0.036297012
-110.16665 64.166664 538 -0.1480912 0.11194032 -0.98261803 0.022465166
-107.875 64.25 538 -0.11665558 0.16845569 -0.97878194 0.018550659
-104.06667 64.66111 538 -0.079380728 0.20939413 -0.97460395 0.0093293637
-102 63.25 538 -0.047802642 0.20673376 -0.97722882 0.0044454923
-99 64.125 538 -0.037063047 0.2223191 -0.97426921 0.0048545301
-95.875 64.25 538 -0.066972792 0.22232471 -0.97266972 0.0040340098
-92.92308 63.30769 538 -0.075922668 0.22281073 -0.97190076 0.0043462766
-85.528206 63.215385 537.07178 -0.0865485 0.24206679 -0.9663918 0.0023189259
-84 65.909088 537.18182 -0.090589926 0.2510851 -0.96371669 0.0022909292
-81 63.25 537 -0.10658412 0.24398859 -0.96390319 0.0033145326
-122.9 66.099998 539.90002 -0.14698347 0.01420852 -0.98903686 0.048474282
-117 66 539.44452 -0.12620452 0.069342963 -0.98957771 0.044587936
-112.4722 66 539.375 -0.11819293 0.14847644 -0.98182744 0.025558911
-108.2 66.599998 539.40002 -0.085097134 0.2118011 -0.97360092 0.014575307
-105.3333 66.666656 539 -0.063410379 0.24336776 -0.96785909 0.008608493
-100.5 66.625 539 -0.029575035 0.24895072 -0.96806449 0.0054324684
-96.199997 66.599998 539 -0.068246394 0.26449376 -0.96196961 0.0059905527
-92.824997 67.449997 538.65002 -0.074008733 0.27663833 -0.95812005 0.0050767246
-90 66 538 -0.074096464 0.25515166 -0.96405774 0.0034012927
-86.449997 67.216675 537.90002 -0.083356723 0.2701056 -0.95921558 0.0031260788
-84 68.5 538 -0.089364566 0.27811605 -0.95638138 0.0038796968
-80.063499 67.830688 537.62964 -0.1154174 0.27064937 -0.95573413 0.0044003492
-78 66 537.08331 -0.11632608 0.25769982 -0.9591971 0.0042465962
-88.611115 69.111115 539.11108 -0.088001713 0.28593069 -0.95420086 0.0031522736
-84 70 539 -0.094761066 0.28930497 -0.95253503 0.0028122787
-81 70 539 -0.095713414 0.29078051 -0.95199037 0.0036695839
-77.5 69.5 539 -0.10337819 0.2933895 -0.95038706 0.0037011448
-74.5 70 537.77771 -0.11354581 0.28450915 -0.9519254 0.0042811902
-71.833344 71.166656 538 -0.11134329 0.29254338 -0.94974786 0.0037153247
-69 71.666656 538 -0.10639477 0.28987414 -0.95113254 0.0047854451
-65.769234 71.769234 537.61542 -0.11306475 0.30479532 -0.94568294 0.004264628
-84 72 539.88892 -0.089878246 0.27739793 -0.95654184 0.004634751
-80.875 72.1875 539.5625 -0.10811713 0.26144865 -0.95914304 0.0059539033
-76.599998 72 539.22498 -0.10644393 0.28658274 -0.952124 0.0042079184
-72.300003 72.699997 539 -0.11915724 0.27502 -0.95402592 0.0069158128
-68 73 539 -0.096170366 0.24690704 -0.96425521 0.0097626299
-65 74 538 -0.10913285 0.24521758 -0.96330589 0.0092432387
-63 73 537.83337 -0.12111508 0.26379904 -0.95694363 0.0088959308
-59.909088 73.045456 537.86365 -0.13454674 0.26656839 -0.95437855 0.0091839852
-56.875 74.875 537.875 -0.17723164 0.19008367 -0.96563822 0.012709315
-67.127281 76.003029 539.63641 -0.10282375 0.14083266 -0.98467934 0.021256419
-63 75.5 539 -0.12282179 0.18246326 -0.97551113 0.016778277
-59 75.666672 539 -0.16210207 0.14160281 -0.97656107 0.016475759
-56 77 538 -0.16755788 0.14329009 -0.97539335 0.019224521
-54 75 537.11108 -0.18748401 0.21513884 -0.95841795 0.010590633
-60.25 78 539.91669 -0.15981688 0.018478269 -0.98697364 0.026658414
-57.125 78.125 539.125 -0.18754713 0.040645495 -0.98141432 0.023701709
-55.666668 79.75 539 -0.15526201 -0.050958756 -0.98655814 0.031093044
-53.666672 78.111107 537.77777 -0.17845112 0.032363988 -0.98341638 0.033046268
-66.222221 83.666656 539.22223 -0.095516071 -0.37989885 -0.92008346 0.03979598
-61.5625 82.25 539.46875 -0.09991847 -0.30049944 -0.94853383 0.036724661
-60 83.5 539 -0.093797065 -0.36257628 -0.92722201 0.034030132
-57 83 539 -0.13984935 -0.26587978 -0.95380825 0.038278397
-52.625 81 537.83337 -0.20227858 -0.097685099 -0.97444397 0.037741978
-48 81 537.55548 -0.12060059 -0.12592483 -0.9846819 0.04151864
-44.916672 81 537.25 -0.1446733 -0.055683386 -0.98791146 0.03657186
136 81.75 538.5 0.79240704 -0.25527644 -0.55400819 0.036604758
-123.2222 86.777779 539.66669 -0.42921048 -0.54597771 -0.71950454 0.026405422
-118.5159 86.674606 539.42059 -0.18902305 -0.65098524 -0.73517925 0.020733193
-114 86.5 539 -0.057433542 -0.6997841 -0.71204185 0.012689327
-111 86 539.20001 -0.011116005 -0.70554066 -0.70858222 0.013368345
-107.8571 86 539.57141 -0.01260342 -0.70942986 -0.7046634 0.019773375
-105 86.300003 539.70001 -0.0045436719 -0.71856624 -0.69544357 0.019279948
-99 86 539.57141 -0.037304517 -0.71146643 -0.70172912 0.02115529
-94.555557 86.055557 539.47229 -0.058399081 -0.67793328 -0.73280013 0.027246136
-90 86 539.5 -0.064540096 -0.6417532 -0.76419073 0.02798536
-86.875 86 539.5 -0.086266175 -0.59370124 -0.80004805 0.032025289
-84 86 539.5 -0.091348395 -0.58852696 -0.80330038 0.028498363
-80.333344 86 539 -0.080487967 -0.59431982 -0.80019104 0.027330345
-76.75 86 539 -0.082062371 -0.5900023 -0.80322045 0.025987484
-72.866669 84.700005 538.63336 -0.066081248 -0.51631868 -0.85384333 0.032912664
-71.6875 86.25 538 -0.058009401 -0.58201706 -0.81110477 0.026303627
-68.333336 85.333336 539.25928 -0.08122167 -0.49753869 -0.86363089 0.037277814
-65.333344 85 538 -0.057929859 -0.53591424 -0.84228265 0.02706353
-63 85 538 -0.08838699 -0.45701051 -0.88505882 0.041573025
-58.478569 84.800003 537.75 -0.12194391 -0.4234423 -0.89767826 0.038695514
-54 84 537.33331 -0.19058762 -0.35956708 -0.91344839 0.048390958
-51 84 537.0625 -0.16377874 -0.30996126 -0.93653649 0.04874694
-48 84 537.08331 -0.11511695 -0.29566082 -0.94833153 0.054674245
-44.9375 84 537.1875 -0.13384068 -0.25200763 -0.95842516 0.051222242
65.85714 86.714287 537.28571 0.11516869 0.40541565 -0.90684855 0.08822827
70.5 86.5 537.28577 -0.00057465385 0.50673646 -0.8621009 0.092649102
74.833344 86.5 537 -0.070050158 0.54138613 -0.83785081 0.097776614
136 84 537 0.73310035 -0.19588581 -0.65130079 0.044611957
-121.88889 88.55555 537.85181 -0.3900665 -0.59473646 -0.70294863 0.026245441
-115.5 88 537.5 -0.12571657 -0.7376458 -0.66338068 0.012709502
-110.9 87.599998 537.09998 -0.033012927 -0.77484071 -0.63129395 0.0042539909
-108 87.727272 537.09088 -0.019225417 -0.78783685 -0.61558384 0.0037509
-105 87.800003 538 0.0012791194 -0.77612603 -0.63057655 0.0073471819
-101.75 87.75 537.5 -0.014053468 -0.78829801 -0.61513311 0.0074730208
-98.5 88.277779 537.11108 -0.026159035 -0.80460685 -0.59323144 0.0036557072
-93.125 87.75 537 -0.03842508 -0.77657598 -0.62885076 0.012728836
-90 87.666656 537.08331 -0.024497908 -0.76563507 -0.64280856 0.012274534
-85.5625 87.583328 537.25 -0.047183201 -0.72729164 -0.68470472 0.014362955
-80.909088 87.181824 537.18182 -0.074255809 -0.68156135 -0.72798371 0.021123856
-77.928574 87.14286 537.07141 -0.086717494 -0.6648671 -0.74191099 0.018946314
66.5 88 539 0.09929958 0.21475491 -0.97160691 0.094548717
69 88 539.66669 0.10087793 0.19871143 -0.9748525 0.11185032
77.75 87 537.25 -0.07274463 0.53840792 -0.83953863 0.10120127
79.416672 87.75 538.08337 -0.15343344 0.3771883 -0.91333848 0.10137956
83.75 88 537.25 -0.15926307 0.45329249 -0.87701839 0.10006712
84 89 538 -0.15624826 0.2683323 -0.95057046 0.11343148
87.214287 88.928574 537.28571 -0.14640488 0.32814905 -0.93321162 0.10321748
137 88 538 0.66982949 -0.20518474 -0.71360189 0.045925919
138.6667 89.333344 539.33331 0.62038535 -0.21567044 -0.75406116 0.053347673
141.3 89.800003 539.70001 0.50446612 -0.30426386 -0.80804545 0.070941888
-124 90 539 -0.49882045 -0.52881742 -0.68668061 0.0195201
59.909088 90.090912 537.27271 0.27563062 -0.021388017 -0.96102566 0.067742407
64.048103 90.916664 538.02271 0.22679164 -0.17822707 -0.95749712 0.088598445
66.666656 92.333344 539 0.158645 -0.25139675 -0.95479393 0.08938016
70.4375 92.5 539.41663 0.04542017 -0.30008391 -0.95283085 0.089208551
76.300003 92.099998 539.09998 -0.097209059 -0.28255349 -0.95431334 0.078203343
79.291664 90.375 538.8056 -0.12940606 0.14942075 -0.98026913 0.11341736
81.25 91 538.5 -0.14750123 -0.0065608053 -0.9890402 0.10985006
85.066666 91.613327 538.66003 -0.067487292 -0.091233641 -0.99354011 0.098150179
89.9375 90.25 537.75 -0.17198645 0.19744861 -0.96510869 0.10831783
92.900002 90.400002 537.79999 -0.22123356 -0.10545414 -0.96950245 0.10736547
95.916656 90 537.33331 -0.20356181 0.011553315 -0.97899401 0.10931011
137.8571 90 537.42859 0.60446751 -0.13841477 -0.78451282 0.059008267
140.25 90.75 538 0.52186888 -0.19703873 -0.82995695 0.074882388
145.46155 91.46154 538.53845 0.25226784 -0.28985357 -0.92322582 0.08225663
152.67584 91.467026 538.96155 0.26776975 -0.3154099 -0.91039336 0.08417137
-127.5952 95.678574 539.69049 -0.59969568 -0.54683346 -0.58424163 0.0093300249
-123.5714 93 537.14288 -0.50606096 -0.57310957 -0.64455235 0.016188668
65.777779 93 537.11108 0.20868146 -0.3480477 -0.91395557 0.090881988
