ply
format ascii 1.0
comment PCL generated
element vertex 701
property float x
property float y
property float z
property float nx
property float ny
property float nz
property float curvature
element camera 0
property float view_px
property float view_py
property float view_pz
property float x_axisx
property float x_axisy
property float x_axisz
property float y_axisx
property float y_axisy
property float y_axisz
property float z_axisx
property float z_axisy
property float z_axisz
property float focal
property float scalex
property float scaley
property float centerx
property float centery
property int viewportx
property int viewporty
property float k1
property float k2
end_header
106.5 27 576 0.3151122 0.91892231 -0.23724686 0.0019963121
95.5 31.5 577 0.37181801 0.84263057 -0.38951913 0.007582915
97.5 30 576 0.35312754 0.87269247 -0.33720735 0.0055348347
89 34.5 576 0.39599055 0.77743632 -0.4886556 0.0081141861
91.166664 34 577.76666 0.40424305 0.77573562 -0.48458418 0.0082873581
83.25 37.416664 577 0.42214614 0.70191246 -0.57368249 0.0038646576
86 36.5 576.75 0.41087842 0.72594744 -0.55152452 0.0054909745
80.166672 40.333336 577.25 0.44861066 0.65985811 -0.60277337 0.0018087125
82.875 39.875 578.875 0.44531739 0.66823536 -0.59594786 0.0016845826
76.942856 43.371429 577.75714 0.48746309 0.62920755 -0.60537392 0.0020766798
79 42 577 0.47434476 0.64182818 -0.6025393 0.0022499564
71 47 576.14288 0.52595431 0.60897332 -0.59373701 0.0022508632
73 46 577 0.51395577 0.6208427 -0.59194922 0.0021518981
75 45 578 0.50705957 0.62546819 -0.59302628 0.0019297843
70 49.5 577 0.54588407 0.60873884 -0.57571483 0.0026819296
72 48 578 0.53216529 0.62720913 -0.56869042 0.0033278598
65.125 52.875 577 0.61218131 0.48847991 -0.6217888 0.012286937
67 52 577 0.5971148 0.55663383 -0.57759207 0.0051312251
63 56.5 578.5 0.66860539 0.24451873 -0.70226592 0.039053321
61 58 577 0.69024926 0.11311983 -0.71467465 0.037631709
-179 62.5 578.5 -0.054628547 -0.84850103 -0.52636647 0.0027226752
-176 62.285709 578.85712 -0.040970426 -0.84475076 -0.53358942 0.0025535026
-172.8571 62.14286 578.85712 -0.051582117 -0.83168042 -0.55285347 0.0039620828
-170.0909 62.36364 578.81818 -0.068828493 -0.81664777 -0.57301748 0.0054448158
-163.5 62.75 576.5 -0.092217498 -0.80217898 -0.58991933 0.0066312393
-160.91666 61.583336 577.41669 -0.19660884 -0.74785435 -0.63408113 0.02284774
62.125 61.875 578.625 0.64199209 -0.179915 -0.74530309 0.048069961
-194 65 577.25 -0.084222995 -0.87350786 -0.47946897 0.0044258661
-191.3333 64 578 -0.081185669 -0.87249827 -0.48182538 0.0044405619
-188 64.714287 577.07141 -0.085970834 -0.87092882 -0.48383066 0.0042639296
-185 64.75 577.25 -0.08932101 -0.86411226 -0.49530977 0.0034809597
-182.5 64 578 -0.07501708 -0.8624891 -0.50048465 0.0025922637
-175 63 577 -0.041785125 -0.84243608 -0.53717357 0.003062089
-173.5 63 577 -0.030540012 -0.83832985 -0.54430729 0.0028360726
-166.83334 63.950001 576.54999 -0.066231512 -0.81560004 -0.57481289 0.0055626789
61.5 64.045456 576.5 0.60037309 -0.34233543 -0.72274381 0.050109148
63 64 578 0.57596803 -0.36458009 -0.7316708 0.056775961
-196 66 577 -0.078457631 -0.87500095 -0.47772136 0.003715466
64.5 66 577 0.46609095 -0.55822742 -0.68639731 0.03763542
67.375 67.458336 577.58331 0.31710011 -0.66939014 -0.67183656 0.029413585
71 68 577.5 0.16908009 -0.77374423 -0.61051774 0.0088306461
74 68.5 576.5 0.15241624 -0.77453977 -0.61388719 0.0097771185
76.800003 68.800003 576.20001 0.26585409 -0.70258003 -0.66007799 0.042670503
80 67.714287 577.71423 0.32425764 -0.64124972 -0.69545364 0.053346056
82.800003 68.599998 576.59998 0.39790851 -0.56657231 -0.72157097 0.050214902
86.074997 70.974998 577.67499 0.64967823 -0.27520397 -0.70864731 0.07609655
85 73.5 576.5 0.72897774 -0.097711511 -0.67752779 0.061945941
84 77 578 0.81271327 0.03951779 -0.58132225 0.052223191
82.5 79.5 577.33337 0.84400958 0.015123677 -0.53611481 0.040169455
81 83 576 0.84704638 -0.059379425 -0.5281918 0.036108702
83 84 577 0.87656623 0.13337716 -0.46243069 0.020073757
4 -40 581 0.93396878 0.31172031 -0.17473637 0.0034735638
3 -37.5 580 0.93191653 0.30198571 -0.20083894 0.010474553
2 -34.5 579.5 0.91560036 0.31231481 -0.25324982 0.019498827
97 -35 579.83331 -0.37536168 -0.77339309 -0.51084912 0.010197404
1 -31.5 579 0.89878136 0.33374494 -0.28426477 0.032432858
95.666656 -31.33333 579.66669 -0.36336908 -0.77310014 -0.51988369 0.01085262
97 -33 581 -0.37517306 -0.77351987 -0.51079571 0.010261486
-56 -30 579 -0.87744266 0.3487713 -0.32932183 0.075804017
-0.33333331 -29 579.33331 0.84467161 0.3376278 -0.41537607 0.078477532
73.833344 -28.33333 581.66669 -0.10865049 -0.87661517 -0.46876529 0.00069197343
80.125 -28.375 580.875 -0.1157283 -0.88442677 -0.45210195 0.0014100063
83.25 -28 579 -0.13542064 -0.88821918 -0.43900785 0.0015174521
86 -28 579 -0.17923909 -0.87173587 -0.45601532 0.0037077111
88.821426 -29.23214 580.44641 -0.27145976 -0.82831687 -0.4901028 0.012009611
-52.5 -25.5 579.5 -0.81686181 0.34661239 -0.46108189 0.1070523
-3.5 -25.25 579 0.72166467 0.38346717 -0.57632726 0.12220887
50.5 -25 580 -0.09765543 -0.87296641 -0.47790483 0.00052702246
53.125 -25.625 580.875 -0.098854028 -0.86824095 -0.486195 0.00067901361
56 -25 580 -0.091901533 -0.86809945 -0.48780891 0.00079334888
59 -25 579.33331 -0.08907637 -0.86706066 -0.49017471 0.00062776974
62 -25 579.66669 -0.091576576 -0.86847764 -0.4871963 0.00041257846
65.099998 -25.700001 580.40002 -0.10254902 -0.86891294 -0.48422509 0.00060245511
67.800003 -25.6 579.40002 -0.10945552 -0.8726806 -0.47586551 0.00066657847
70.5 -27 581 -0.10475109 -0.87542826 -0.47186071 0.0006852079
74 -27 579 -0.11815541 -0.88258404 -0.4550657 0.00087444455
77 -27 579 -0.11346691 -0.89010614 -0.4414027 0.00091762631
-50 -22.75 581.75 -0.75296503 0.37488243 -0.54083902 0.11343783
-5.5 -23 580 0.65731394 0.30480564 -0.68922555 0.13816048
23.15 -22.299999 580.90002 -0.10319683 -0.84886539 -0.51843798 0.00075258088
26 -22 579.66669 -0.096154958 -0.85636449 -0.50734019 0.00041242712
29 -22.75 580.5 -0.090418689 -0.86048687 -0.50138497 0.0004071024
32.025002 -22.924999 580.77502 -0.081552699 -0.86482358 -0.49540827 0.00033014652
34.974998 -23.075001 580.57501 -0.080526471 -0.86637837 -0.4928529 0.00039243154
37.92857 -23.214285 580.33337 -0.091934189 -0.8657288 -0.49199775 0.00071774877
40.799999 -23.4 580.09998 -0.10074293 -0.86682117 -0.48833591 0.00052362442
43.875 -23.375 580 -0.10184079 -0.87075043 -0.48106366 0.00041778473
47 -23.5 579 -0.099271245 -0.8739624 -0.47574675 0.00066201785
56 -24 579 -0.094980873 -0.86927032 -0.48512653 0.00076700328
-46.5 -20.5 579.5 -0.67417932 0.48099676 -0.56046808 0.089829355
-44.5 -19 579 -0.66519159 0.46718457 -0.58245915 0.10112077
-10.492064 -19.444443 579.7619 0.60963106 0.23289078 -0.75770175 0.12475647
-7.4375 -20.4375 580.625 0.64503187 0.219254 -0.73202562 0.12216506
2 -19.5 581.66669 0.20377561 -0.64029217 -0.74060875 0.093428053
4.875 -19.875 581.875 0.14454344 -0.67922723 -0.71955371 0.077612504
7 -19 580 0.011190654 -0.77192819 -0.63561136 0.038889688
11.2 -19.4 579.40002 -0.12855248 -0.81668741 -0.56257963 0.0014095947
14 -21 581 -0.11966217 -0.82513672 -0.55211443 0.001121695
17 -20.5 580 -0.1305418 -0.83756548 -0.53051186 0.00037717892
20 -20.5 579.16669 -0.12000462 -0.84323448 -0.52397954 0.00028432262
22.6 -20.799999 579 -0.11357092 -0.84780616 -0.51800233 0.00074117532
-43.958336 -16.791664 580.125 -0.59718877 0.12812576 -0.79180127 0.12839329
-10.055555 -17.333336 580.27771 0.3801308 -0.32998493 -0.8640663 0.10498577
-7 -17 579 0.35447362 -0.43499368 -0.82772517 0.11085131
-4.125 -17.125 579 0.28678727 -0.53035051 -0.79779786 0.1237299
2 -17.5 579.16669 0.080781192 -0.65261143 -0.75337428 0.088600889
5.1428571 -17.57143 579 -0.007534977 -0.75419611 -0.65660596 0.032427896
-164 -13 581.75 -0.028023429 -0.85685915 -0.51478839 0.00089996995
-139 -13 580 -0.042029835 -0.8579793 -0.511962 0.00049662479
-137.375 -13.375 580.875 -0.032855976 -0.85768658 -0.51312196 0.00066045561
-134.07144 -13.714285 580.92859 -0.017906921 -0.85948664 -0.51084447 0.00052717858
-131 -13 580 -0.0081104692 -0.85809565 -0.51342577 0.00083471515
-128 -13.375 580.875 -0.0078164749 -0.85329914 -0.52136302 0.00064158806
-125 -13 580 -0.0082869316 -0.85221922 -0.52311915 0.00052761345
-122.35715 -13.357145 580.85718 -0.013604537 -0.84977943 -0.52696288 0.00018145196
-118.6 -13.3 580.90002 -0.019400673 -0.85101604 -0.52478111 0.00016532006
-116 -13 579.66669 -0.019183503 -0.85601908 -0.51658809 0.000199916
-113 -13 580 -0.024533009 -0.85634619 -0.51581901 0.00054241531
-110 -13 580 -0.024055587 -0.85349762 -0.52054119 0.00043492709
-107 -13 580 -0.029586121 -0.84637952 -0.53175777 0.00063028635
-104.3333 -13 580 -0.032099478 -0.84201336 -0.53850079 0.00034825821
-101.125 -13.75 580.25 -0.044214454 -0.84117937 -0.53894544 0.00058258383
-98 -13.75 580.16663 -0.050026231 -0.84025282 -0.53988206 0.0005489359
-94.974998 -13.925 580.22498 -0.045904119 -0.83903724 -0.54213411 0.00083806185
-92.4375 -14.4375 580 -0.036701966 -0.83574682 -0.54788715 0.00052720029
-88.5 -15 581 -0.02431442 -0.83926946 -0.54317176 0.00053026789
-86 -14.214285 580 -0.022111319 -0.84169918 -0.53949386 0.00085202872
-83 -14.25 580.25 -0.015877362 -0.84592426 -0.53306663 0.00066277082
-80.125 -14.375 580 -0.011761915 -0.84738183 -0.53085381 0.00063842279
-76.833328 -14.5 580.43335 -0.0079894625 -0.84548926 -0.53393263 0.00066021446
-74.25 -14.375 580.3125 -0.0077254022 -0.84811503 -0.52975583 0.00058119558
-67.5 -15 581 -0.00098827283 -0.84389001 -0.5365153 0.00054879952
-65 -14.25 580 -0.006758159 -0.83713996 -0.54694694 0.00029915466
-61.875 -14.3 580.09998 -0.0031587898 -0.82840133 -0.56012607 0.001108776
-59.07143 -14.285715 580 -0.059981726 -0.78961533 -0.61066341 0.013899447
-56 -13.9 579.09998 -0.1419075 -0.72700524 -0.67180777 0.048660208
-52.5625 -14.4375 580.1875 -0.15453637 -0.64878124 -0.74511838 0.074148171
-50 -14.25 580.25 -0.24322763 -0.57890481 -0.7782734 0.10680914
-47 -14.25 580.25 -0.34061077 -0.51365584 -0.7874909 0.11354243
-44.4375 -14.270835 580.3125 -0.39565 -0.36450949 -0.84296739 0.14129773
-167.1667 -11.16667 579.16669 -0.058947865 -0.86592346 -0.49669066 0.0029958978
-164 -11.8 579.20001 -0.028649954 -0.86370015 -0.50319111 0.0013502779
-160.95 -11.6 580 -0.017936094 -0.8609252 -0.50841534 0.00095296971
-158 -11.5 579.5 -0.014128138 -0.86263049 -0.50563723 0.00087278622
-155.1429 -11.57143 579.57141 -0.0079015447 -0.86308676 -0.5049938 0.00067649892
-151.95 -11.6 580.09998 -0.017677942 -0.85843086 -0.51262456 0.00073888479
-149.125 -11.625 580.125 -0.033252861 -0.85587686 -0.51610959 0.00058774999
-146 -11.5 579 -0.043426111 -0.85812879 -0.51159465 0.00042048038
-143.1429 -11.57143 579.14288 -0.047803503 -0.85788798 -0.51160824 0.00053705933
-140 -12 579.33331 -0.04587632 -0.85675693 -0.51367587 0.00047789715
-137 -12 579 -0.031824082 -0.8594951 -0.51015222 0.00065022684
-131 -12 579 -0.0052767242 -0.85623115 -0.51656604 0.00051289727
-128 -12 579 -0.0019806151 -0.85425669 -0.51984769 0.00029021644
-125 -12 579 -0.0099293804 -0.85303837 -0.52175379 0.00018432357
-122 -12 579 -0.016494161 -0.85395157 -0.520091 0.00042298922
-119 -12 579 -0.022554934 -0.85553426 -0.51725471 0.00038357329
112.5 26 579.5 0.31240883 0.91156727 -0.26729372 0.0029707644
116 25 580 0.31651217 0.90442002 -0.2860848 0.0043958188
119 24 581 0.32140926 0.89915228 -0.2970207 0.0049955519
103.5 29 579.5 0.3551555 0.87240022 -0.33583102 0.0058132536
106.25 28.25 580.25 0.35479295 0.87538326 -0.3283689 0.0054361671
109 27 579 0.32557532 0.90051883 -0.2882126 0.0038495229
98.25 31.5 580.25 0.41122422 0.81410366 -0.4100365 0.0077958666
100.5 30 579.5 0.37581342 0.85242546 -0.36350408 0.0065308209
103.5 30 581.5 0.38469478 0.8362242 -0.39081839 0.0064584147
92.5 35 581 0.43234169 0.73915344 -0.51646191 0.0060153413
94.333344 33.333328 579.33331 0.42283279 0.77283305 -0.47322455 0.007474896
86.25 37.75 579 0.43570393 0.69394487 -0.57323867 0.003821488
89.23333 37.033337 580.3667 0.4401603 0.70232773 -0.55945915 0.0042781937
-164 40 580 -0.79928416 -0.044119161 -0.59933144 0.018149916
85.25 40.416668 580.66669 0.4521302 0.66765153 -0.59145558 0.0016448298
-164.25 43.25 580.75 -0.78030241 -0.10076124 -0.61723202 0.028696364
80 43.333328 579.33331 0.47175235 0.64664119 -0.59942043 0.0023494426
82.738098 42.952377 580.85718 0.45966658 0.6643877 -0.58931792 0.0017180856
74 47 579 0.50869536 0.64015973 -0.57569486 0.0033461631
76.5 46.416664 580.91663 0.49514571 0.66260916 -0.56194293 0.0041344645
80.5 45 581.5 0.47196907 0.66677058 -0.57676888 0.003428451
71.400002 49.799999 579.20001 0.53963906 0.62455034 -0.56455886 0.0030629269
73 49 580 0.52242541 0.64839 -0.55377084 0.0026496849
75 48 581 0.50524914 0.66050446 -0.55538911 0.0035928781
68.333328 53.333336 580.16663 0.61721116 0.47729152 -0.62549436 0.024886152
69.5 51.5 579.5 0.58092058 0.57718366 -0.57392526 0.0057810312
72 51 581 0.54838526 0.61070579 -0.57123727 0.0049124034
64.666656 55.666672 579.16669 0.65617836 0.36179575 -0.66221881 0.030531604
66 56.5 581.5 0.66910493 0.28795594 -0.68511307 0.038379263
-161.5 59 580.33331 -0.29645488 -0.63640785 -0.71210927 0.038436517
62.125 59.125 579 0.71095872 0.065607719 -0.7001667 0.039990906
65 59.099998 581.79999 0.68154788 0.070467323 -0.72837263 0.055857159
-188 62.125 581.5 -0.091081232 -0.86987364 -0.4847928 0.003208555
-185.25 61.625 581.5 -0.094981149 -0.86770803 -0.48791537 0.002975055
-181.9881 62.17857 580.61902 -0.094431922 -0.8627187 -0.49678868 0.0029111423
-176.25 61.25 581.5 -0.05933458 -0.84914821 -0.52481109 0.0024609172
-173 61 581 -0.086865164 -0.83097428 -0.54948723 0.0049453834
-170 61 581 -0.10232133 -0.80317891 -0.58688498 0.0084118713
-166.92856 61.714287 580.28571 -0.10093072 -0.79703379 -0.59544104 0.0076937382
-164.42856 61.357147 580.07141 -0.18685961 -0.74100542 -0.64497632 0.024277367
64.6875 62.1875 580.875 0.59168363 -0.27430084 -0.75806963 0.057612453
-193 64 581 -0.084531695 -0.87179917 -0.48251501 0.0039894474
-191 63 579.33331 -0.079361722 -0.87132829 -0.48424032 0.0043517244
-187.75 63 579.25 -0.087221876 -0.86703485 -0.49055374 0.0037242239
-184.8 63 579.59998 -0.087883905 -0.8706156 -0.48405045 0.0035126405
65 65 579 0.49294671 -0.47030109 -0.73199755 0.048803214
67.316666 64.716667 580.71667 0.44047728 -0.55827111 -0.70307404 0.042896189
80 65 581.66669 0.18625385 -0.7325722 -0.65471178 0.016866118
83 65 581.88892 0.2343125 -0.69641054 -0.67831403 0.027346209
70.333344 66 580 0.2841787 -0.67845178 -0.67745525 0.028759046
74 67.5 579.33331 0.12867872 -0.77006227 -0.62485665 0.0054922942
77.125 67.625 579.125 0.20873386 -0.72630477 -0.65491343 0.028650533
83.14286 67.285713 579 0.37190852 -0.58430564 -0.7212981 0.055620439
85.833344 68.25 579.16669 0.55348486 -0.34394109 -0.7585243 0.079398304
88.5 68 580.66663 0.58884037 -0.28726622 -0.75547665 0.079947412
88 70.5 580 0.69457138 -0.14538524 -0.70458049 0.087177239
86 74 579 0.77662343 0.018385945 -0.62969673 0.065239035
85 77 579.5 0.80922574 0.095906518 -0.57961684 0.057995815
82.5 83.25 579.25 0.87020129 0.15893283 -0.4663583 0.021015555
4 -38.5 584.5 0.94722319 0.20995238 -0.24225672 0.023149768
94.5 -37.5 582 -0.37503946 -0.77527142 -0.50823182 0.010274265
3 -36 583 0.93905264 0.2214134 -0.26297584 0.026542382
95.107147 -34.875 583.67859 -0.36577246 -0.77831042 -0.51033652 0.010952183
-57 -31 582 -0.86416936 0.19381963 -0.46437615 0.10199315
2 -32.5 582.5 0.89826876 0.26746929 -0.34867382 0.046691757
91.30555 -31.694443 583.25 -0.33069709 -0.79259783 -0.51227731 0.012890943
94.5 -32.375 582 -0.35123062 -0.7819612 -0.5149501 0.011333905
-55.5 -28.5 583.5 -0.8706643 0.103289 -0.48091078 0.12230854
0.5 -28.75 582 0.84825802 0.15629685 -0.50599366 0.10245
59 -28.5 584.83331 -0.085633323 -0.86605382 -0.49256253 0.00063369196
62.14286 -28.42857 584.42859 -0.093665071 -0.8653847 -0.49227655 0.00098871184
64.800003 -28.799999 584.79999 -0.095962107 -0.86671597 -0.48948422 0.00087327044
70 -28 582.5 -0.09798117 -0.87205905 -0.47949213 0.00041992011
77.14286 -28.57143 582 -0.10920565 -0.88113379 -0.46008411 0.00092176301
80 -30 584.25 -0.11757836 -0.87337387 -0.47264522 0.001266963
83 -29.5 583 -0.14092346 -0.87445277 -0.46419072 0.0019965847
85.599998 -29.700001 583 -0.23609619 -0.84252083 -0.48416656 0.01205329
-53 -26 582.5 -0.82383633 0.30780166 -0.47597462 0.095733099
-2.25 -25.75 582.125 0.72680163 0.21998447 -0.65066594 0.11657225
32 -25.5 584.83331 -0.072947122 -0.86783409 -0.49147001 0.00039777157
37 -25 583 -0.081430249 -0.866997 -0.49161518 0.0002478656
40.5 -25 583 -0.094974265 -0.87233543 -0.47959447 0.00034104221
44 -25 583 -0.0967151 -0.87350315 -0.47711474 0.00037140597
47.25 -25.25 582 -0.10001934 -0.87323618 -0.47692218 0.00047543336
49.875 -26.375 583.41663 -0.10579997 -0.87094307 -0.47985885 0.00066431437
52.5 -27 584 -0.10760986 -0.86889184 -0.48316365 0.00061933947
56 -26.5 582 -0.090094522 -0.86603296 -0.49180266 0.00062474754
59 -27 582 -0.08629448 -0.86705464 -0.49068281 0.00049690338
62 -26.66667 582 -0.092036888 -0.86585033 -0.49176458 0.00070032798
68 -27 582 -0.099446028 -0.87125379 -0.48065299 0.00067164615
-51 -23 584 -0.8142283 0.29272401 -0.50134307 0.09511739
-4 -22.85714 582.71429 0.58254498 0.044267125 -0.81159216 0.13665886
-3 -23 584 0.62914187 -0.10120472 -0.77067375 0.12838821
14 -22.75 583.91663 -0.098646291 -0.82130522 -0.56189549 0.001362824
17 -22.75 583.58337 -0.10905895 -0.83226264 -0.54354864 0.00047989722
20 -22.5 582.5 -0.11077259 -0.84210503 -0.52781487 0.00030057388
23 -24 584.66669 -0.085405484 -0.85021746 -0.51945764 0.00071936357
25.75 -23.666664 583 -0.087007932 -0.85581082 -0.50991917 0.00029574145
-49.57143 -20.285715 583.78571 -0.73304266 0.24909909 -0.63292819 0.12921186
-47.400002 -19.799999 582.20001 -0.7191149 0.28317866 -0.63457364 0.11658171
-4 -20 582 0.40456033 -0.37336263 -0.83482409 0.12775733
-1 -20.4375 583 0.29274395 -0.50753683 -0.8103748 0.11518412
2 -21 584 0.32136634 -0.57758129 -0.75041556 0.10608915
6.875 -20.75 583.0625 0.072655588 -0.74516559 -0.66290987 0.044619665
10.75 -20.75 582 -0.10113162 -0.81177908 -0.57514083 0.0022601602
-116 -16.42857 584.85712 -0.02208388 -0.85520387 -0.51782095 0.0001599141
-101 -16.42857 584.42859 -0.048910346 -0.84565914 -0.53147757 0.00082088937
-97.5 -16 583 -0.050643731 -0.83859944 -0.54238933 0.00078456977
-95 -16 583 -0.045552094 -0.837147 -0.54507798 0.00072655786
-92 -16 582.66669 -0.034049504 -0.83962524 -0.54209781 0.00066863326
-89 -16 583 -0.022489214 -0.84178561 -0.53934348 0.00075411983
-86 -16 583 -0.014141172 -0.84440094 -0.53552508 0.00078200101
-82.75 -16 583 -0.011692125 -0.84651434 -0.53223753 0.00032828195
-80 -16 582.66669 -0.010264931 -0.84743983 -0.53079224 0.00075326045
-77 -16 583 -0.010983311 -0.84567624 -0.5335831 0.00031022803
-74 -16 583 -0.0067978217 -0.84673911 -0.53196484 0.00032453527
-71 -16 582 -0.0012131119 -0.84612548 -0.53298235 0.00044103657
-67.928574 -16.714285 583.42859 -0.011233717 -0.84126365 -0.54050827 0.00047227781
-64.75 -16 582.5 -0.020178368 -0.83648765 -0.5476141 0.00063231174
-62 -16 583 -0.088776007 -0.8034389 -0.58873147 0.013320777
-59 -16.75 583.91663 -0.19451652 -0.73196822 -0.65298235 0.052590109
-56 -16.5 582.33331 -0.21889298 -0.67461979 -0.7049638 0.0708685
-53 -17.25 583.25 -0.35147536 -0.60769904 -0.71215665 0.099673733
-49.875 -17.25 583.25 -0.40807185 -0.41405228 -0.81365722 0.12335077
-47 -16.90909 582.45453 -0.52570313 -0.24753025 -0.81385809 0.13809276
-169.5 -13.583335 583.91663 -0.088016771 -0.85145146 -0.51699471 0.0033611536
-166.97501 -14.075 583.375 -0.078390792 -0.85667717 -0.50986183 0.0034773173
-164 -14.5 584.5 -0.061322872 -0.85500544 -0.51498067 0.0032683699
-161 -13 582.66669 -0.016241478 -0.85636669 -0.51611274 0.00069498498
-158.16666 -13.75 583.33337 -0.0099661434 -0.85427779 -0.51972127 0.00064837688
-155 -14 583.5 -0.0094702579 -0.8525871 -0.52249926 0.0005201879
-152.04166 -13.75 583.41663 -0.020560192 -0.85121083 -0.52442104 0.00052541617
-149 -14.1 583.5 -0.035442106 -0.85107297 -0.52384984 0.0004461963
-146 -13.5 582 -0.042955056 -0.85330838 -0.51963419 0.00055874611
-143 -13.5 582 -0.046101324 -0.85505867 -0.51647782 0.00036108433
-140.2 -14.3 583.33337 -0.038657963 -0.85381937 -0.51913196 0.00014175533
-137 -15 584 -0.030661693 -0.85494483 -0.51781189 0.00029039694
-130.5 -14.75 583.16663 -0.0091545582 -0.85504258 -0.51847696 0.00013289765
-128 -15 584 -0.010678973 -0.85478538 -0.51887172 0.00017288217
-124.5 -14.666665 583 -0.013313865 -0.8533383 -0.5211876 0.00036889905
-122 -15 584 -0.012072555 -0.85510772 -0.51830971 0.00035630006
-119 -15 584 -0.015436033 -0.85535157 -0.51781785 0.00032397694
-116 -14.5 582 -0.019712303 -0.85299659 -0.5215441 0.00016218891
-113 -14.57143 582.42859 -0.027118312 -0.85121983 -0.52410829 0.00041765222
-110 -14.42857 582.42859 -0.0314226 -0.84857035 -0.52814871 8.4125255e-05
-107 -14.5 582.5 -0.036506411 -0.84717935 -0.53005141 0.00058830506
-104 -14.5 582 -0.040484823 -0.84285671 -0.53661299 0.00062828907
114.5 26 583 0.32840553 0.89140815 -0.31231579 0.0053162202
117 25 582 0.32634541 0.89529425 -0.30322748 0.0050191167
107.5 29 584 0.37475052 0.82625312 -0.42055655 0.0056477292
110 27.33333 582 0.33858651 0.87480259 -0.3465251 0.0054447241
101.125 31.625 583.375 0.41721937 0.77902925 -0.46801865 0.0054504913
95.199997 34.200001 582 0.44648102 0.73816735 -0.50573081 0.0059861774
97.75 34 583.375 0.44492131 0.74401832 -0.49847952 0.0058853817
91.666656 37 582.16669 0.45000017 0.70547795 -0.54754055 0.0041061901
94.041664 37.041668 583.95831 0.459521 0.69781661 -0.54944742 0.0025570486
-166.60001 39.599998 583.90002 -0.81614214 -0.0090619791 -0.57778007 0.017487256
-165 40.5 582 -0.7937749 -0.035224169 -0.60719079 0.018459506
88.714287 39.85714 582 0.45769501 0.67456716 -0.57920152 0.0017297994
91 39.777775 583.9444 0.47356805 0.67605007 -0.56452602 0.0018919253
-166 43 583 -0.80286592 -0.043297399 -0.59458518 0.022818821
86 43.400002 583.59998 0.46478668 0.68455338 -0.56156921 0.0025342593
-164.5 46.5 582.5 -0.77178186 -0.1183882 -0.62476963 0.038642388
80 46 582.66669 0.46875387 0.68215722 -0.56118739 0.0035993322
83 45 584 0.46392748 0.69061893 -0.55481237 0.0026499084
-163 49.5 582 -0.77322578 -0.19058974 -0.60481185 0.051190842
74 50 582 0.53380561 0.62732035 -0.56702793 0.0056694541
77 49 583 0.49557325 0.6743564 -0.54740351 0.0036604062
78 48 584 0.49112746 0.67746156 -0.54757613 0.00333244
71 52.916664 583.54163 0.59498715 0.47567868 -0.64785808 0.033964191
-163.5 55.0625 583.9375 -0.6356734 -0.38346693 -0.66997945 0.070827559
68.074997 56.025002 583.34998 0.64710802 0.29156208 -0.704445 0.05182229
-187.3333 59.666672 584.66669 -0.10181778 -0.86753213 -0.48684815 0.0028618998
-181.89999 59 584.79999 -0.11023641 -0.8595193 -0.49907371 0.0026724658
-172.8 59.599998 582.40002 -0.12065478 -0.82278228 -0.55540228 0.0071652061
-169.91666 58.75 583.66663 -0.24737562 -0.72992092 -0.63719755 0.033511452
-166.8571 59.42857 582.57141 -0.23315457 -0.73288059 -0.63915968 0.026919257
-164 58.111111 583.16669 -0.35859212 -0.63611895 -0.68320149 0.046148349
68 59 584.88892 0.60490274 -0.059075564 -0.79410499 0.069999456
-193 62 584 -0.094585024 -0.87319994 -0.47809571 0.0032403397
-190.8 62.599998 582.20001 -0.090235583 -0.8683874 -0.4876073 0.0033504465
-184.5 60 583 -0.10058527 -0.86325997 -0.49463597 0.002531054
-183 60 583 -0.10141847 -0.85941839 -0.501113 0.0021655557
-179 61.5 582 -0.077993125 -0.8526938 -0.51655626 0.0024989664
-176 60 583 -0.066019714 -0.84442043 -0.5315972 0.0022441631
68 62.166664 583.5 0.51872104 -0.32000864 -0.79279435 0.067933135
-193 63 583 -0.094881363 -0.87258524 -0.47915813 0.0032125458
71.071426 63.857143 582.64282 0.32546392 -0.59904879 -0.73158306 0.041520666
74 65 582 0.17879334 -0.7157073 -0.67512667 0.01836702
77.099998 64.900002 582.29999 0.12601049 -0.75333256 -0.64545447 0.0071785459
80 63 583 0.13100149 -0.73510528 -0.6651758 0.0093570687
86 65 582.33331 0.39027226 -0.55766225 -0.73259836 0.063580304
89.050003 64.050003 583.6333 0.38861921 -0.55365926 -0.73650289 0.057841703
91.861115 64.972221 583.94446 0.52462047 -0.40832996 -0.74702072 0.082482167
91.916672 68 583.875 0.71872777 -0.12489306 -0.68398261 0.083553769
89.333344 71 582 0.79024404 0.049102344 -0.61082172 0.077402294
91 70 583 0.78524202 0.098692864 -0.61127293 0.07021831
89 73.75 583.25 0.83185768 0.23150939 -0.50439686 0.042983096
90 72 584 0.81283271 0.15830311 -0.56057394 0.06384559
86.5 77 582 0.86622506 0.1821557 -0.46526712 0.034472119
85.25 79.25 583 0.85706776 0.23539111 -0.4582859 0.026154142
84 82.333336 582.83331 0.85932481 0.29100403 -0.42056808 0.011795564
85.5 84 582.5 0.85866952 0.33378991 -0.38893557 0.0065021929
6 -45 586 0.96326971 0.18337163 -0.19617924 0.015447451
5 -41.5 585 0.9664225 0.14213556 -0.21406797 0.021686206
4 -37 587 0.94771194 0.054602016 -0.31442103 0.059264049
94.5 -38 585 -0.37017009 -0.77945018 -0.50540227 0.012240338
3 -34.5 585.5 0.92763269 0.10883542 -0.3572849 0.053614121
92.190475 -34.809517 586.69049 -0.3568393 -0.78874397 -0.50054824 0.013119914
-58 -32 586 -0.88675964 -0.059709676 -0.45835802 0.10335124
2 -31 585 0.86203122 0.089599788 -0.49887276 0.081649631
77.199997 -31.799999 587.79999 -0.10218409 -0.87547189 -0.4723424 0.00077127101
80 -31 586 -0.12552907 -0.86879981 -0.47898793 0.0013871498
83 -31 586 -0.17270578 -0.85553265 -0.48809493 0.0041321581
86.166656 -31.33333 585.66669 -0.26588607 -0.81748235 -0.51090825 0.01478184
88.666672 -32.416664 586.16663 -0.31123281 -0.80880475 -0.49896792 0.015109425
0.5 -28.25 585.25 0.76776463 0.12977658 -0.62745172 0.10375058
50.150002 -28.299999 586.90002 -0.11260045 -0.87302148 -0.47450471 0.00066630781
52.875 -28.5 586.70837 -0.10909964 -0.86839253 -0.48372692 0.00053424964
56 -28.75 586.33337 -0.09878888 -0.86772746 -0.48712397 0.00063131726
59 -30 587.33331 -0.093273878 -0.86637962 -0.49059802 0.00056013733
62 -30 587 -0.089691952 -0.86441904 -0.49470714 0.00075913902
65 -30 587 -0.09385208 -0.86765605 -0.48822612 0.00052588922
67.666656 -29.16667 585.16669 -0.09244746 -0.86999595 -0.4843145 0.00052630651
71.25 -29.25 585 -0.098933987 -0.8705824 -0.48197329 0.00052874675
74.25 -29.75 585.25 -0.095398933 -0.87409008 -0.47630399 0.0007031206
77 -30 585 -0.10047333 -0.87666053 -0.47050133 0.00057026517
-53.75 -25.75 586 -0.83893728 0.075288489 -0.53899521 0.12755497
-0.66666669 -25.66667 585.5 0.72019076 -0.14538747 -0.67837143 0.11646362
2 -26 587.55548 0.70692033 -0.28076589 -0.64917952 0.11530456
4.8571429 -25.714279 587.85712 0.45124856 -0.52622867 -0.72073448 0.11570334
14 -25.5 587.83331 -0.025571859 -0.81903994 -0.57316637 0.0053603966
17.5 -25 586 -0.093126379 -0.83395445 -0.54391861 0.001006086
20 -25 586 -0.091622576 -0.84255087 -0.53076679 0.00078397774
23 -25 586 -0.077825859 -0.84986269 -0.52122593 0.00083061412
26.25 -25 585.5 -0.076635808 -0.85541838 -0.5122366 0.00056085584
29.200001 -25.4 585 -0.073696226 -0.8625688 -0.50054359 0.00030123611
32 -27 587.66669 -0.063551515 -0.86968052 -0.4895069 0.00012580525
34.900002 -26.299999 586.33337 -0.073655799 -0.87101364 -0.48570579 0.00021633795
38 -26.5 586 -0.078159526 -0.87397116 -0.47965145 0.00019301519
41.125 -26.375 586 -0.090873025 -0.87628579 -0.47314408 0.00040196406
43.950001 -26.6 586 -0.096578255 -0.8764295 -0.4717457 0.00040186278
46.833328 -26.66667 585 -0.10623524 -0.87396878 -0.47422844 0.00054656848
-52 -23 585.5 -0.76713455 0.083210446 -0.6360665 0.12429622
-1 -23 585.22223 0.40472746 -0.40591618 -0.81940693 0.11815502
2 -23 585.66669 0.44171181 -0.52599156 -0.72678995 0.10827411
5 -23 585.44452 0.34763673 -0.63131994 -0.6932416 0.098655492
8.0555553 -23.333336 586.11108 0.12378381 -0.75086808 -0.64874864 0.053796567
10.82143 -23.35714 586.07141 0.01349027 -0.7956394 -0.60562038 0.020450817
20 -24 585 -0.096912831 -0.83997703 -0.5338974 0.00051029393
-95 -19.5 587.83331 -0.041858066 -0.85422057 -0.51822299 0.0004898886
-55.555557 -19.555555 586.94446 -0.44067678 -0.5300734 -0.7244488 0.097562328
-53.166672 -20.16667 586.58331 -0.47252259 -0.4237943 -0.77273595 0.12079938
-163.8571 -16.57143 587.85712 -0.057622429 -0.85442638 -0.51636726 0.0033152958
-160.8333 -16.5 587.83331 -0.028814077 -0.85156858 -0.52345073 0.00087063829
-157.875 -16.375 586.875 -0.015976204 -0.84989429 -0.52671105 0.00053578912
-155.5 -16.25 586.75 -0.013739254 -0.84965885 -0.52715373 0.00076090271
-152 -16.299999 586.79999 -0.022310926 -0.84575599 -0.53310317 0.00011145572
-148.5 -16 586 -0.033731479 -0.84687436 -0.53072202 0.00017510008
-146 -16 586 -0.036614954 -0.85043997 -0.52479637 0.00028980579
-142.92856 -16.714285 586.92859 -0.041277055 -0.85475224 -0.51739216 0.00045660755
-140 -16.75 586.91663 -0.036152933 -0.85616368 -0.51543838 0.00055385398
-137.33334 -16.75 586.91663 -0.027195062 -0.8583464 -0.51234943 0.0003440172
-134 -16.900002 586.30005 -0.022336716 -0.85788536 -0.51335555 0.00041442204
-130.95834 -16.958336 586.45837 -0.012055956 -0.85677987 -0.51554137 0.00030808584
-128 -16.75 586.58337 -0.0098407995 -0.85544455 -0.51780099 0.00017499033
-125.07145 -16.714285 586.35718 -0.012471722 -0.85636055 -0.51622766 0.00063969765
-122 -16.75 586.41663 -0.012160664 -0.85680485 -0.51549733 0.00072097883
-119 -16.4 585.40002 -0.018322285 -0.85666496 -0.51554769 0.0004662945
-113.2 -16.4 585 -0.026677405 -0.85416782 -0.51931274 0.00057828723
-110.08335 -16.75 586.33337 -0.037123907 -0.85064667 -0.52442545 0.00045669192
-107 -17.285715 586.61902 -0.04229439 -0.84916323 -0.52643412 0.00056678744
-103.91665 -17.25 586 -0.049785886 -0.84533387 -0.53191358 0.00087053911
-101 -18 587 -0.054269105 -0.84896106 -0.52566147 0.0010580382
-98.14286 -17.285721 585.28571 -0.052962739 -0.84294772 -0.53538227 0.00049894414
-95 -17.5 585.5 -0.044502385 -0.84571958 -0.53176862 0.00075265416
-91.5 -17.75 586.25 -0.031120006 -0.84687841 -0.53087521 0.00090372405
-89.125 -17.625 586.125 -0.024542578 -0.84980255 -0.52652937 0.00071650452
-86.14286 -17.42857 585.28571 -0.011774446 -0.84672475 -0.53190076 0.00013421691
-83 -17.5 585.5 -0.0090079997 -0.84631497 -0.53260672 0.00046205259
-80 -17.5 585.16669 -0.013752461 -0.84625655 -0.53259802 0.00026891145
-77 -17.5 585 -0.012115433 -0.84552532 -0.53379786 0.00029363777
-74 -17.5 585 -0.0045680664 -0.84397018 -0.53637058 9.7845361e-05
-71.14286 -17.57143 585.14288 -0.0058866846 -0.84333014 -0.53736359 0.0004768621
-65 -17.5 585.16669 -0.057217125 -0.822698 -0.56559193 0.0046286937
-62 -17.5 585.33331 -0.1603274 -0.77198815 -0.61508483 0.029224709
-56 -18 585 -0.29370588 -0.66559315 -0.6860922 0.072825253
-171 -15 587 -0.085957333 -0.84950691 -0.5205279 0.0032717919
-161.28571 -14.57143 585.14288 -0.026780896 -0.85382611 -0.51986891 0.0012507804
-146 -15 585 -0.040770847 -0.85001343 -0.52518082 0.0003805375
-143 -15 585 -0.04260204 -0.85271776 -0.52063179 0.00038643033
119 26 585 0.3657214 0.86378509 -0.34658802 0.0066999281
110 28.666664 586.16663 0.37629753 0.8172586 -0.43644997 0.0049122996
113.5 27.5 585 0.35894915 0.85227782 -0.38049698 0.0074117933
117 27 586 0.37698117 0.84878922 -0.37073183 0.0070661972
104 31 585 0.40807021 0.78127408 -0.47232348 0.0049644052
106.16666 31.066666 586.70001 0.41073892 0.77354032 -0.48262689 0.004112598
101.13335 34.233337 586.46667 0.44504631 0.72858739 -0.52066714 0.0032512015
103 33 586 0.42798021 0.75477898 -0.49713331 0.0041854591
-167.125 36.875 586.375 -0.82197857 -0.0075413277 -0.56946844 0.019027874
98.025002 37.075001 586.54999 0.46512625 0.69943136 -0.54263544 0.0014994312
92.5 41 587 0.47868058 0.69039947 -0.54241455 0.0023207904
94.5 39.416664 586.91663 0.47610396 0.68814605 -0.54752165 0.001484739
-167 43.285709 585 -0.80968565 -0.042219475 -0.58534324 0.023259245
88.833328 43.458336 586.125 0.46672818 0.69934702 -0.54136735 0.0024886176
91 42 586 0.47367418 0.68882841 -0.54876959 0.0020847456
-167 45.5 586 -0.8017773 -0.055762071 -0.59501565 0.026114149
80 47.5 585 0.47982231 0.68460381 -0.54871511 0.0035530096
83 47 585.5 0.46021241 0.70779824 -0.53593481 0.0022136143
85 46 586 0.45952806 0.70684028 -0.53778321 0.0027798417
-164.83334 49 585 -0.76297343 -0.15631677 -0.62724531 0.049411099
76.75 50 585 0.51684481 0.59704483 -0.61352187 0.021726551
78.875 50 587.375 0.51388031 0.56894451 -0.6420508 0.040592454
-164.6667 53 585.66669 -0.75144058 -0.27089509 -0.60162526 0.064727627
73.5 52 585.5 0.57366025 0.49844059 -0.64997756 0.036963679
75 51 585 0.5412963 0.5357008 -0.64809179 0.03537342
-169.7778 56.222221 587.77777 -0.41450581 -0.61788738 -0.66813189 0.05877842
-167.125 55.875 587.25 -0.56579292 -0.46277961 -0.68243194 0.064384572
70.625 55.875 586.875 0.61950868 0.23483272 -0.74904114 0.069494598
72 54 587 0.60274941 0.35787964 -0.71317273 0.061981257
-185 58.666672 585 -0.1048985 -0.86601961 -0.48888272 0.0023889677
-181.6667 58 587.33331 -0.11990221 -0.86140567 -0.4935624 0.0027555372
-179.07144 58.892853 586.4881 -0.10590053 -0.8630845 -0.49383229 0.0030149277
-176.02499 58.625 586.45001 -0.10517015 -0.83900833 -0.53385794 0.0054618991
-173.16667 57.75 585.66669 -0.18204528 -0.79838085 -0.57397527 0.022099124
-171 57 585 -0.31251448 -0.71163458 -0.62921453 0.044418022
-167 58 585.5 -0.36297879 -0.6412167 -0.67608249 0.051071454
70.642853 59.17857 586.71429 0.52192152 -0.064572506 -0.85054594 0.08716093
-190.25 60.5 585.5 -0.094747379 -0.8733772 -0.47773966 0.0031229681
71 62 585 0.42643085 -0.42257702 -0.79974079 0.06634181
74 61.833336 586 0.348887 -0.50829208 -0.78734809 0.068998709
77 61.833336 586 0.26504698 -0.57827395 -0.77158886 0.059078515
79.928574 61.785713 586.14282 0.22793324 -0.65128624 -0.72379053 0.0478689
83 61.81818 586.2121 0.17966829 -0.70477474 -0.68630308 0.017958567
86.128571 62.128571 586.29999 0.25408885 -0.67639184 -0.69132692 0.034912061
89.14286 61.42857 587.57141 0.31302726 -0.65102029 -0.69151026 0.040124543
92 61.5 587.5 0.35576928 -0.60382324 -0.7133202 0.045336511
92 63 586 0.41478014 -0.53909129 -0.73303348 0.053083111
94.714287 64.85714 587.85712 0.61593395 -0.26106715 -0.74328279 0.082627967
91.5 70.5 585.5 0.79925561 0.12378353 -0.58810556 0.068589434
89.5 74.5 587.5 0.84653312 0.26661664 -0.46075734 0.039300974
88 76 585 0.8532818 0.26839361 -0.44707391 0.029018061
87 78 586 0.85956341 0.30383185 -0.41089785 0.018495431
86.166672 83.333328 586.66663 0.85333288 0.38497356 -0.35159394 0.0038103145
6 -43.5 589 0.96137601 0.014533018 -0.27485451 0.050705347
5 -40 588 0.95834303 0.0238951 -0.28461841 0.041488387
92 -41 588.5 -0.40207204 -0.75721389 -0.51474762 0.014624259
93.666664 -38.111111 588.77777 -0.38532311 -0.77045536 -0.50786269 0.014714119
4 -35.75 589.75 0.92214519 -0.10779259 -0.37152258 0.086031578
80 -34.200001 590.59998 -0.14826147 -0.86556727 -0.47834289 0.0028211735
89.125 -34.666664 589.29163 -0.32178506 -0.81106031 -0.48850346 0.015097382
91 -36 590 -0.35546347 -0.78176385 -0.51233882 0.016011644
-59 -32 590 -0.83273017 -0.25924811 -0.48923507 0.095683746
-57 -31 588 -0.89041358 -0.006528873 -0.45510542 0.099059559
3 -32.25 588 0.91132414 0.02263839 -0.41106671 0.072511226
62.5 -31 589 -0.084759951 -0.8727563 -0.4807412 0.00061872811
65 -31 589 -0.088316061 -0.87161237 -0.48217437 0.00070925115
68 -31 588.33331 -0.091364615 -0.87201375 -0.4808788 0.00073283253
70.666656 -31.5 588 -0.090662509 -0.87322932 -0.47880143 0.0006551441
74 -32.375 589.29163 -0.091375433 -0.8765645 -0.4725306 0.00067560282
76.5 -33 590 -0.09390761 -0.87659532 -0.47197682 0.00071997481
80 -32.333328 588.33331 -0.12740968 -0.87048078 -0.47542602 0.0015444426
83 -32 588 -0.21309333 -0.84497178 -0.49052408 0.011116434
85.800003 -32.599998 588.20001 -0.288809 -0.82999617 -0.47717473 0.015464521
-56 -28.5 588 -0.87402219 0.047358323 -0.48357257 0.1059714
2.25 -28.75 588 0.81201214 -0.083193958 -0.57768077 0.093540005
3 -29.5 590 0.73741251 -0.24674235 -0.62876141 0.11971595
34.266666 -28.266668 589.53333 -0.058247708 -0.87014425 -0.48934257 0.0001852103
38 -28.5 589.5 -0.072666496 -0.87201226 -0.48406023 0.00045903548
41 -28 588.66669 -0.084684402 -0.8742094 -0.47810721 0
44.025002 -28.924999 589.40002 -0.093651675 -0.8754279 -0.47418928 0.000651157
47 -28.5 588 -0.10826812 -0.87647736 -0.46911129 0.00029366525
50 -30 590.33331 -0.12071817 -0.87532902 -0.468216 9.9074896e-05
53 -30 590 -0.1142437 -0.87306589 -0.47402996 0.00054199557
55 -30 590 -0.1090158 -0.8741188 -0.47332013 0.00044373528
-55 -26 589 -0.87441677 0.047800813 -0.48281509 0.10616747
5.5 -27 590 0.41324598 -0.53256142 -0.73865157 0.10429771
8.0625 -26.25 589.58337 0.2529659 -0.71335715 -0.65355164 0.085147478
11 -25.5 588.5 0.055238698 -0.79696697 -0.60149175 0.025396639
14 -27 590 -0.0049482365 -0.8219927 -0.56947654 0.0063539334
16.85714 -26.285721 588.28571 -0.071295291 -0.83216298 -0.5499289 0.00099617243
20 -26.285721 588.28571 -0.080532998 -0.84332347 -0.53133792 0.0012298562
23 -26.5 588.5 -0.065795742 -0.85313159 -0.51753014 0.0010397165
26 -26.5 588 -0.065140307 -0.85783631 -0.50977802 0.00097786624
29 -26.66667 588 -0.060670003 -0.86396569 -0.4998824 0.00035500686
-55.5 -22.5 589.92859 -0.53704703 -0.44978863 -0.71363205 0.099830203
-53.599998 -22.799999 588.40002 -0.69560474 -0.19541021 -0.69133848 0.12070348
-121.8571 -19.42857 590.85712 -0.013060395 -0.86208862 -0.50658929 0.00031582633
-119.2 -19.6 590.79999 -0.018079471 -0.86065382 -0.50886947 0.00024483274
-116.4 -19.299999 589.79999 -0.030290218 -0.85916996 -0.51079297 0.00053788454
-113 -19.5 590.83331 -0.041347321 -0.85901022 -0.51028603 0.00046878384
-106.5 -19 589 -0.044627409 -0.853836 -0.51862562 0.00036406273
-103.92855 -19.714285 589.42859 -0.047562156 -0.85492378 -0.51656866 0.00083387009
-101 -19 588.33331 -0.055235729 -0.85124564 -0.52185237 0.00081442198
-97.75 -19.25 588.25 -0.050603375 -0.85018098 -0.52405304 0.00041206164
-92 -20.214285 589.40479 -0.03696816 -0.85625958 -0.51522124 0.00094216876
-89 -20.25 589.25 -0.030192604 -0.85379797 -0.51972818 0.00061266928
-86 -20.25 589.25 -0.020479586 -0.84948426 -0.52721626 0.0004692091
-83 -20.25 589.375 -0.015235505 -0.84307832 -0.53757489 0.00038146364
-79.928574 -20.285715 589.28571 -0.017726496 -0.84039038 -0.5416916 0.00045816021
-77 -20.214285 589.21429 -0.014967756 -0.84069633 -0.54129994 0.00053197704
-74 -20.25 589.41663 -0.011840852 -0.83792138 -0.54566252 0.00034729394
-71 -20.25 589.25 -0.015168352 -0.83441085 -0.55093426 0.0001841194
-68 -20.25 589.41663 -0.028926237 -0.82978988 -0.55732584 0.00080735568
-65 -20.25 589 -0.13947858 -0.78011531 -0.60989004 0.021532509
-61.875 -20.25 589.08337 -0.28013384 -0.72621751 -0.62780029 0.05834667
-59.17857 -20.35714 589.07141 -0.36355722 -0.62963825 -0.68657255 0.078973226
-172 -16 589 -0.089238584 -0.84984553 -0.5194217 0.0030967717
-170.02499 -17.075001 589.375 -0.077966109 -0.85459667 -0.5134061 0.0036590556
-167 -17.25 589.16663 -0.074273996 -0.85294509 -0.51668954 0.0037498602
-164 -18 590 -0.067848444 -0.85258788 -0.5181607 0.0040266751
-161 -18 590 -0.039996952 -0.85390657 -0.5188871 0.0015060623
-158 -18 590 -0.019159347 -0.85192323 -0.52331614 0.00025171594
-154.75 -18 590 -0.015996505 -0.85182327 -0.52358514 0.00030784286
-152 -18 590 -0.017870385 -0.8546868 -0.51883638 0.00062046835
-149.1429 -17.285721 588 -0.027414447 -0.84895474 -0.52775395 0.00018965932
-146.41666 -17.583336 589 -0.027022474 -0.86006337 -0.50947118 0.00048708636
-119.25 -17.75 588 -0.016370134 -0.85778707 -0.51374447 0.00038753563
-116 -18 588 -0.032611907 -0.85535353 -0.51701719 0.00019922866
-112.8 -17.799999 588.20001 -0.036054004 -0.8539809 -0.51905376 0.00036777611
113 29 588 0.38852811 0.81508762 -0.4297421 0.0051364382
115.5 28 588 0.39857373 0.82143039 -0.4079107 0.0061055259
118.5 27 588.5 0.42077765 0.81448919 -0.3994416 0.0061056023
110.25 31.333336 589.33337 0.40176681 0.79003471 -0.46306416 0.0039375369
112.5 30.416664 589.91663 0.40288782 0.79901212 -0.44638669 0.0038457531
-169.39999 34.5 589.90002 -0.80734426 -0.055932809 -0.58742386 0.019685477
-167.25 34.25 588.25 -0.81384242 -0.016301095 -0.58085698 0.019259358
104.23335 34.233337 589.3667 0.44490042 0.72723192 -0.52268285 0.001957726
107.1429 33.85714 590.85712 0.44155115 0.74549383 -0.49927101 0.0025526795
-170.03336 37.099998 589.29999 -0.81927156 -0.0052862475 -0.57338136 0.019488437
101.08335 37.083336 589.16663 0.46209419 0.70178932 -0.54218143 0.001338252
-170.3 39.650002 589 -0.82618499 -0.0085948482 -0.56333333 0.017343938
97 40 589.33337 0.47197083 0.69393718 -0.5437783 0.001584937
-169.3333 43.666672 588.33331 -0.79667503 -0.027081812 -0.60380071 0.021323321
91.75 43 588.25 0.47593442 0.70062321 -0.53161418 0.0025996461
94 42 589 0.46888065 0.70306909 -0.53464454 0.002319929
-167.3333 47.333328 588 -0.78863132 -0.071213156 -0.6107285 0.031314492
86 47.166672 589.16663 0.4859449 0.67144674 -0.55947918 0.011605149
88 46 589 0.47591552 0.68840915 -0.54735482 0.0099808229
90 45 590 0.46800101 0.70795596 -0.52893615 0.0034148453
-167.55556 49.333332 589.4444 -0.77006733 -0.15217304 -0.61954796 0.048377339
80.5 50.5 590.5 0.53430063 0.43809009 -0.72291064 0.065652177
82.75 48.5 588 0.48334143 0.59618944 -0.64104545 0.033185586
-167.33334 52.916664 589.25 -0.67167258 -0.3542234 -0.65067786 0.067850411
74 53.333328 588 0.5709787 0.39627233 -0.71899343 0.058433332
77.166672 53 589.5 0.52610236 0.32765517 -0.7847665 0.091542982
-181.60001 55.599998 590.79999 -0.15794662 -0.83656222 -0.52461076 0.011106406
-176 55.5 590.83331 -0.28480592 -0.75556856 -0.58991677 0.040075079
-173 55.75 589.33331 -0.35318348 -0.68985432 -0.63195127 0.046128772
-171 55 590 -0.45478189 -0.57652414 -0.67881763 0.054178234
73.599998 56.200001 589 0.57736671 0.11373692 -0.80852425 0.095887385
75 56.333328 590 0.54356492 0.015398943 -0.83922583 0.093171686
-188.3333 59.333328 588 -0.10798086 -0.86766636 -0.48527846 0.0024367024
-184.5 57.5 588.5 -0.11823247 -0.86455262 -0.48843601 0.0025778448
-182 57 588.66669 -0.12431488 -0.85968572 -0.49546567 0.0026231075
-179 57 589 -0.13362984 -0.84683913 -0.51478797 0.0058980514
-176.5 57 589 -0.15620208 -0.83425969 -0.52878326 0.011070852
74 59.125 588.25 0.50088692 -0.2092085 -0.83984768 0.083624713
76.928574 58.75 589.46429 0.41057315 -0.26969475 -0.87103069 0.10188039
80 58.333328 590.88892 0.36118528 -0.44959855 -0.81694931 0.087760292
86 58.833328 590.83331 0.23177168 -0.60735208 -0.7598719 0.048860606
80 60 588 0.25461742 -0.53661776 -0.80449456 0.072202504
83 60 588.66669 0.19809212 -0.61941218 -0.75966316 0.05068427
86 60 589 0.25232208 -0.63481921 -0.73030007 0.042685598
89 60 589 0.29258189 -0.61460221 -0.73257083 0.036079828
92.25 60 589 0.33708128 -0.60063463 -0.72499263 0.043835975
95 62 588.44452 0.45710149 -0.50294125 -0.73355865 0.052365426
98 62 590.83331 0.55953223 -0.34819269 -0.75212079 0.075030312
96 65 590 0.67175245 -0.17200013 -0.72053075 0.077731557
94 68 588 0.7076335 0.024424177 -0.70615745 0.078648657
92 71.333344 588 0.82428473 0.26989979 -0.49770352 0.045823894
89 76.5 588 0.8417666 0.37138391 -0.3917945 0.013060761
86.5 80.5 588 0.85833508 0.3679696 -0.35757419 0.0059378422
88 79 589 0.84839028 0.38537452 -0.36293313 0.0059076422
6 -41.5 592.25 0.91720295 -0.17913924 -0.35587624 0.081363387
92 -40.5 591.5 -0.38307834 -0.77205491 -0.50713134 0.016063511
5 -39 591 0.93614656 -0.046300393 -0.34854826 0.068836741
89.25 -37.299999 592.90002 -0.35802606 -0.78920138 -0.49897751 0.018368769
92.285713 -37.85714 591 -0.39746124 -0.76716739 -0.50346678 0.015489916
74.14286 -34.714291 593.71429 -0.096738942 -0.87789512 -0.46897945 0.00079833757
77.125 -34.375 592.875 -0.11358777 -0.87360972 -0.47318485 0.0013078254
83.14286 -34.57143 591.14288 -0.23228879 -0.84277439 -0.48556486 0.01173074
86.125 -35.5 592.45837 -0.2984755 -0.825872 -0.47838026 0.013902277
4.25 -31.75 593.5 0.78562677 -0.30244672 -0.5397374 0.094777644
47 -31.5 593.5 -0.10456578 -0.87324846 -0.4759236 0.00017810505
50.25 -31.5 592.65002 -0.11878742 -0.87506533 -0.46920165 0.00010490327
53 -31 591 -0.11621198 -0.87677729 -0.46664375 0.00036109969
56.166672 -31.33333 591 -0.10609405 -0.87599283 -0.47051108 0.00043946339
59.07143 -32.285713 592.33337 -0.094419196 -0.88116777 -0.4632799 0.00052107195
61.75 -32.583336 592.16663 -0.092316054 -0.88143837 -0.4631891 0.00060300127
65 -32.5 591.5 -0.089016855 -0.87803102 -0.4702526 0.0005759637
68 -32.5 591 -0.088260315 -0.87717563 -0.47198841 0.00066280283
71 -33 591.33331 -0.091760844 -0.87779379 -0.47016811 0.00076489762
-58 -30 591 -0.80244124 -0.32088464 -0.50311142 0.099407084
-57 -28 592 -0.69654632 -0.42562389 -0.57763964 0.087837338
4.666667 -28.66667 591.5 0.67334187 -0.3665823 -0.64204997 0.10255172
7 -28 592 0.39721572 -0.6455546 -0.65228748 0.087590352
10.75 -28 592 0.1733076 -0.77879918 -0.60285681 0.051062349
14 -28.75 592.33337 0.019181635 -0.82749939 -0.56113887 0.007989754
17 -28.5 591.33331 -0.044172026 -0.8401143 -0.54060787 0.0010710035
20 -28.5 591.5 -0.057204027 -0.84670109 -0.52898484 0.00079838466
23 -28.5 591.5 -0.047506787 -0.85543895 -0.51572019 0.00010145045
26 -29.25 592.16663 -0.042572118 -0.8609314 -0.50693667 0.00032788052
29 -28.5 591.33331 -0.050700061 -0.8652218 -0.49881938 0.00067839323
32 -29.25 592 -0.053435285 -0.86756873 -0.49443811 0.00055389671
35 -30 593 -0.058699518 -0.87022835 -0.48913899 0.00027865174
38 -30 593 -0.066352285 -0.87120986 -0.48640591 0.00015666391
40.599998 -29.700001 592 -0.077006862 -0.8725881 -0.48234832 0.00044237214
47 -30 591 -0.10948186 -0.87628436 -0.46919009 0.00047051444
-55.75 -25.75 591 -0.69222856 -0.33634794 -0.63850582 0.10281195
10.75 -27 591 0.16264714 -0.78939307 -0.59194976 0.046410099
-92.166656 -22.5 593.66669 -0.039830625 -0.86165822 -0.50592351 0.00020250364
-89 -22 592 -0.035836522 -0.86043465 -0.50829911 0.00079248578
-86 -22 592 -0.030267175 -0.85693121 -0.51454133 0.00082305958
-83 -22 592 -0.027126065 -0.85014397 -0.52585107 0.0006922686
-80 -22 592 -0.024071615 -0.84614116 -0.53241509 0.0011890518
-77 -22 592 -0.020632418 -0.84311551 -0.53733653 0.00057350914
-74 -22.75 592.75 -0.022579549 -0.83873147 -0.54407686 0.00059836911
-71.071426 -22.785715 592.45239 -0.025937494 -0.83398372 -0.55117911 0.00069706904
-68.071426 -22.714285 592.92859 -0.13662431 -0.80194491 -0.58156532 0.01951886
-65.333328 -22.75 592.91663 -0.21350051 -0.75893927 -0.61516559 0.037307624
-62.125 -22.75 592.25 -0.3648605 -0.70169187 -0.6119684 0.074694432
-59 -22.75 592.25 -0.43877742 -0.6282624 -0.64246464 0.076901391
-57 -24 593 -0.58434045 -0.51329947 -0.62854576 0.083085656
-170 -19 592 -0.079148695 -0.84948015 -0.5216502 0.0030729922
-167 -19 592 -0.074802734 -0.85194784 -0.51825619 0.0035904478
-164 -19.75 592.5 -0.066746667 -0.84913647 -0.52393913 0.0037357379
-161.25 -19.25 591.75 -0.038234897 -0.8524251 -0.52144945 0.0012481234
-158.25 -19 591.5 -0.018322054 -0.85570067 -0.51714659 0.00019517363
-155 -19 592 -0.012250841 -0.8581655 -0.51322693 0.00027067555
-151.97501 -19.924999 592.77502 -0.01056423 -0.86538768 -0.50099164 0.00059839117
-149.125 -19.875 592.375 -0.013060377 -0.86620778 -0.49951336 0.00056156062
-146 -19.75 592.41663 -0.019093543 -0.86820096 -0.49584532 0.00055890932
-142.97501 -19.924999 592.42499 -0.032723099 -0.86773562 -0.49594766 0.00015746686
-140.08334 -20.041664 592.45837 -0.036313716 -0.86991584 -0.49186152 0.00040587559
-136.8 -19.4 591.40002 -0.032993976 -0.86969823 -0.49247989 0.00038007647
-134.02499 -20.075001 592.25 -0.02954806 -0.86845177 -0.49489236 0.00042735058
-131 -20.25 592 -0.017010301 -0.86655802 -0.49878633 0.000442177
-128.07144 -20.285715 592.40479 -0.016572868 -0.86514717 -0.50124419 0
-125.1667 -19.5 591.33331 -0.015638044 -0.86394042 -0.50335115 0.00036972432
-119 -21 593.66669 -0.021235622 -0.86480379 -0.50166065 0.00048611488
-116 -21 593 -0.03202454 -0.86372119 -0.50295138 0.00026913494
-113 -21 593.25 -0.040470719 -0.86473769 -0.50059044 0.00044166783
-110 -20.25 592.16663 -0.040978141 -0.86105406 -0.50685978 0.00054572278
-107.5 -20.583336 592 -0.041494329 -0.8596009 -0.50927848 0.00076570502
