ply
format ascii 1.0
comment PCL generated
element vertex 712
property float x
property float y
property float z
property float nx
property float ny
property float nz
property float curvature
element camera 0
property float view_px
property float view_py
property float view_pz
property float x_axisx
property float x_axisy
property float x_axisz
property float y_axisx
property float y_axisy
property float y_axisz
property float z_axisx
property float z_axisy
property float z_axisz
property float focal
property float scalex
property float scaley
property float centerx
property float centery
property int viewportx
property int viewporty
property float k1
property float k2
end_header
-110 -36.5 614.66669 -0.037769798 -0.84772831 -0.52908421 0.00063776819
-107 -36.5 614.5 -0.036642421 -0.84879106 -0.52745724 0.00087750802
-104 -36.5 614.83331 -0.04032186 -0.8537305 -0.51915157 0.00085589912
-74 -37.5 614.5 -0.067079641 -0.86533755 -0.49668014 0.00073829002
-71.199997 -36.599998 612.20001 -0.068782784 -0.85296655 -0.51741374 0.0011956459
-68 -37.5 613.33331 -0.052074041 -0.85320479 -0.51897001 0.0015959076
-64.875 -37.125 612.125 -0.027900843 -0.84681261 -0.53115904 0.0018551587
-62 -38 614 -0.054681201 -0.84125489 -0.53786635 0.0030701337
-59 -38 614 -0.10568104 -0.81004411 -0.57676685 0.011283811
-56 -37.25 613 -0.11823224 -0.7877965 -0.60448146 0.014568141
-53 -38 614 -0.19130915 -0.78519136 -0.58896124 0.024088657
-50 -37.5 612.16669 -0.24641624 -0.74782526 -0.61647087 0.027959427
-175.91666 -33.916664 613.54163 -0.3592459 -0.59587061 -0.71824831 0.071531884
-173 -34.25 613.25 -0.25139374 -0.60624987 -0.75449479 0.068117455
-170 -34.150002 613.09998 -0.16721277 -0.67373043 -0.71981055 0.044136509
-167 -34.5 614.66669 -0.027951997 -0.6857484 -0.72730172 0.024742788
-160.875 -34.125 613.625 0.056740999 -0.73985451 -0.67036986 0.017799228
-158 -34.5 614.83331 0.066179246 -0.73870319 -0.67077416 0.017500089
-152 -33.5 612.16669 0.023715699 -0.79465163 -0.60660231 0.009969933
-148.92856 -34.214287 613.21429 -0.0048448811 -0.80395621 -0.59466875 0.005223983
-146 -34.25 613.58337 -0.019206692 -0.81981194 -0.57231063 0.003688328
-143 -33.5 612.5 -0.030184675 -0.84078485 -0.54052728 0.00082006381
-140.23335 -33.966663 613.46667 -0.025943384 -0.84404027 -0.53565186 0.00097459427
-137 -35 614.66669 -0.023526216 -0.84635788 -0.53209478 0.00070938154
-134 -34.5 613 -0.025425749 -0.84630978 -0.53208399 0.00088009983
-131 -34.25 613 -0.023476405 -0.84634852 -0.53211188 0.00085926976
-128.125 -34.25 613.375 -0.025227454 -0.8454231 -0.53350097 0.0013759077
-124.5 -35 614 -0.019839743 -0.84978116 -0.52676219 0.0009213009
-122 -35 614 -0.027616359 -0.84747225 -0.53012091 0.00088358315
-119 -34.5 612.16669 -0.047653757 -0.84026492 -0.54007775 0.0011440751
-115.85 -34.700001 613.09998 -0.049409688 -0.83637244 -0.54593033 0.00064044446
-113.25 -34.5 613 -0.046746142 -0.83833581 -0.54314625 0.0012145675
-107 -35 612 -0.042513777 -0.84208685 -0.53766376 0.0015075118
-104 -35 612 -0.048354764 -0.84372473 -0.53459364 0.00057146547
-101.25 -35 612.75 -0.038394507 -0.85561073 -0.51619375 0.00080619421
-98 -35 612.5 -0.034125514 -0.86065608 -0.50804198 0.00097636977
-95 -36 613 -0.035887461 -0.86563557 -0.49938676 0.00099629071
-92 -36 613 -0.029317629 -0.86674875 -0.49788257 0.0011322781
-89 -36 613 -0.018221799 -0.86734617 -0.49737155 0.0013998183
-86 -36 612 -0.0098895757 -0.86166626 -0.507379 0.0018325927
-83 -36 612 -0.022315383 -0.85583633 -0.51676524 0.0015233423
-80 -36 612.66669 -0.039096922 -0.85403073 -0.51875138 0.0019130036
-77 -36 612 -0.059421539 -0.85272485 -0.5189696 0.0017096265
-178 -31 613 -0.47040534 -0.52626866 -0.7083503 0.071502753
-176.3333 -31.33333 612 -0.43436474 -0.5534265 -0.71066618 0.070210963
-167 -33 612 -0.090667516 -0.71370256 -0.69455606 0.026486261
-164 -33 612 -0.02002609 -0.74171472 -0.67041647 0.01721438
-158 -33 612 0.042800959 -0.77497864 -0.6305365 0.016721735
-155 -33 612 0.015982237 -0.78408694 -0.62044519 0.011216091
-177 -26 613 -0.60052806 -0.4412266 -0.66684717 0.073336631
-176 -22.5 613 -0.66723686 -0.30829057 -0.67805004 0.069846421
-175 -20 612 -0.72641456 -0.21554464 -0.65258133 0.062519848
121 11.33333 612.33331 0.49653921 0.80575794 -0.32280487 0.004142229
124 10.25 613.25 0.51053369 0.79884654 -0.31811869 0.0035379555
127 9 614 0.51105851 0.79710901 -0.3216154 0.0028541347
117.3333 13.33333 612.33331 0.50173575 0.78411043 -0.36528358 0.0042754328
-162 17.5 613 -0.25908276 -0.83599341 -0.48372623 0.026656134
112.125 17.25 613 0.54135185 0.72595137 -0.42418477 0.0021821924
115 15.5 613.5 0.51146787 0.76126844 -0.3985863 0.0036622763
-165 19 614 -0.21295194 -0.8774308 -0.42984495 0.018923201
109.15 20.15 613 0.56165111 0.69557971 -0.44801447 0.0012571001
111.75 19.75 614.75 0.55457395 0.70971948 -0.43444905 0.0016109111
-178.6667 23.66667 612.33331 -0.5612815 -0.68072414 -0.47072038 0.0769495
-176 22.25 613 -0.36526027 -0.81270957 -0.45396939 0.033143528
-173 22 612.33331 -0.29924628 -0.83199114 -0.46716422 0.025434228
-170 21 612.33331 -0.20811041 -0.86322188 -0.45993274 0.016526524
105.8 22.799999 612.40002 0.57743222 0.67248589 -0.46296296 0.0007461647
102.875 25.875 613.25 0.58343536 0.66849214 -0.46121731 0.00093072158
97.5 29.5 612 0.62725157 0.57939923 -0.52043438 0.016563054
99.916672 27.666664 612.16663 0.59375131 0.65472692 -0.46775201 0.0013403648
96.5 31.625 613.375 0.60370445 0.51061541 -0.61221963 0.038722344
91.199997 35.200001 612.20001 0.63042873 0.33042774 -0.70240802 0.072360404
93 34 612 0.65778297 0.34847289 -0.66774857 0.073011585
-181 38 614 -0.80071837 -0.052768357 -0.59671229 0.055597376
-179.3333 38.333328 612 -0.78483397 0.030348258 -0.61896253 0.035326283
88.199997 38.200001 612.20001 0.6548906 0.13684013 -0.74323153 0.091008373
87.714287 41.14286 612.57141 0.55300832 -0.18194664 -0.8130666 0.09990494
91 40.5 614.5 0.47626778 -0.29267478 -0.82916254 0.09544608
97 41.5 614.66669 0.31250188 -0.6115855 -0.7268464 0.069185317
91 42.5 612.5 0.37381575 -0.51171196 -0.77357131 0.087195463
93.5 42 613 0.37796316 -0.50443679 -0.7763294 0.092599817
97.14286 43.714291 612.14288 0.18610311 -0.72263509 -0.6657058 0.025678955
100 44 612 0.16985434 -0.75973535 -0.62765568 0.0053378921
103 43 614 0.19694604 -0.74174231 -0.64111674 0.011871926
105.9 43.966663 613.09998 0.16272594 -0.78650475 -0.59576052 0.008059008
109.1429 43.85714 614.57141 0.15313976 -0.78593421 -0.59904563 0.0089426273
108.5625 45.9375 612.5 0.16579998 -0.78437257 -0.5977208 0.0083186701
112.17855 46.642853 613.14282 0.15614739 -0.77870268 -0.60765141 0.0090615526
114 46.5 612 0.160191 -0.77789491 -0.60763335 0.0092585143
96.277779 -55.555557 615.72223 -0.35571629 -0.75855511 -0.5459488 0.014082545
93.833344 -52.166672 616.16663 -0.34436196 -0.77253032 -0.53349006 0.01503696
99 -54 615 -0.3756175 -0.74511671 -0.55110115 0.013040909
67.25 -48.25 617.75 -0.1157957 -0.86495537 -0.48830682 0.0013011916
76.25 -48.25 615 -0.12027581 -0.86869049 -0.48053151 0.0012555236
78.875 -49.375 616.16663 -0.11058246 -0.86561662 -0.48834348 0.00072040339
81 -50 617 -0.11581439 -0.86249727 -0.49263123 0.000765984
85 -50 616 -0.18836655 -0.84294385 -0.50394809 0.0052652787
88.5 -50.5 615.66663 -0.26154155 -0.80943727 -0.52574444 0.01249811
91 -51 616 -0.28796449 -0.78561866 -0.54761279 0.014024904
-51 -45.5 615 -0.23318598 -0.79189545 -0.56438112 0.016832167
20 -47 617 0.36595294 -0.78612041 -0.49808958 0.049362559
25.200001 -45.599998 617.59998 0.17354344 -0.83714622 -0.51871842 0.022684326
28 -45.5 617.66669 0.10111707 -0.83842599 -0.53555316 0.012409138
51.799999 -45.599998 615 -0.092011146 -0.85331398 -0.51321465 0.00063287688
55 -47 617 -0.091022201 -0.85982859 -0.50240391 0.00055277662
58 -46.5 616 -0.10006206 -0.8621909 -0.4966028 0.001367053
61 -46.5 616 -0.094073266 -0.86535788 -0.49224585 0.0013430261
64 -46.5 615 -0.10180493 -0.86383402 -0.49338278 0.0013698395
70 -48 615.66669 -0.12687387 -0.86606824 -0.48355842 0.0009710642
73 -48 615.66669 -0.12649223 -0.86799234 -0.48019683 0.0012246765
-51 -43 617.33331 -0.22079311 -0.7919414 -0.56927943 0.016770313
22 -45 616 0.28078708 -0.79896611 -0.53180051 0.034930047
24.5 -44.5 615.5 0.21579687 -0.81681693 -0.53501582 0.035919216
28 -43.5 615 0.071085393 -0.83828437 -0.54057962 0.0096193366
32 -45 616 -0.015179726 -0.84546524 -0.53381467 0.0009858188
34 -45 616 -0.014990465 -0.84509164 -0.53441131 0.0011007449
37 -45 616 -0.029839765 -0.84830171 -0.52867186 0.0014268478
40 -45 616 -0.040362984 -0.84954929 -0.52596271 0.0010415944
43 -45 616 -0.050293654 -0.84944665 -0.52527207 0.0016536068
46 -45 616 -0.067039154 -0.85345578 -0.51683557 0.001665079
49 -45 615.66669 -0.08188498 -0.8522467 -0.51669168 0.0011147377
-170 -39.625 616.625 -0.042545248 -0.66911882 -0.7419365 0.033829179
-166.5 -41 615 0.029913211 -0.70410812 -0.70946246 0.019054564
-165 -41 616 0.044604156 -0.70312488 -0.70966607 0.017516753
-160.75 -42 616.75 0.085454695 -0.70491028 -0.70412999 0.017873388
-56 -39.924999 616.42499 -0.15349297 -0.80383068 -0.57471389 0.012456228
-53 -40.25 616.41663 -0.19756125 -0.8019672 -0.5637536 0.018991182
-50.700001 -40.400002 616 -0.2126774 -0.79275781 -0.57122982 0.019924814
-175.875 -36.875 615.125 -0.22160918 -0.60872597 -0.76180184 0.070613295
-172.8889 -38.333332 615.83331 -0.1085968 -0.66519445 -0.73873073 0.041728523
-169.82144 -37.357147 616.35718 -0.052515529 -0.65289229 -0.75562799 0.034326252
-167.05356 -36.910713 616.78571 -0.00042439319 -0.70223159 -0.71194851 0.018661242
-160.8571 -37.285709 617.85712 0.077722169 -0.7191233 -0.69052225 0.017639227
-158.1429 -36.714291 617.85712 0.077701211 -0.71768761 -0.69201666 0.018846327
-152 -36.5 617.66669 0.054656371 -0.75139987 -0.65757966 0.013657365
-146.1429 -36.714291 617.85712 0.0039543952 -0.768462 -0.63988328 0.010320927
-137 -37.166672 617.83331 -0.0065272688 -0.8140167 -0.58080482 0.0084740026
-121.975 -36.924999 616.52502 -0.038237274 -0.83797747 -0.5443635 0.00096575596
-118.8 -36.599998 615.20001 -0.048904158 -0.83956343 -0.5410561 0.00082557561
-116 -37.5 617.66669 -0.046536166 -0.84062254 -0.53961849 0.00059183838
-113.025 -37.075001 616.67499 -0.041509338 -0.84150863 -0.5386467 0.00024167394
-110 -38 617.33331 -0.035587829 -0.84045106 -0.5407176 0.00102367
-107 -38 617 -0.035603534 -0.84523475 -0.53320783 0.0016323383
-104 -38 617 -0.030869158 -0.84730488 -0.530209 0.0012046421
-101 -37.25 616.25 -0.021307983 -0.85485321 -0.5184322 0.00069786655
-98.4375 -37.4375 616.0625 -0.020637356 -0.86236644 -0.5058639 0.00086837861
-95 -37.5 615.5 -0.025314264 -0.86714143 -0.49741837 0.0011064191
-92 -37.5 616 -0.02544836 -0.86699563 -0.49766549 0.0011775808
-89 -37.5 615.33331 -0.022799369 -0.86944175 -0.49350914 0.0010518951
-86 -37.5 615 -0.019659864 -0.86749017 -0.49706566 0.001189698
-83 -37.5 615.33331 -0.029732082 -0.86665565 -0.49802011 0.0010550498
-79.599998 -37.700001 616.09998 -0.040456269 -0.86456025 -0.50089812 0.00091899559
-77 -37.5 615 -0.058535732 -0.86294919 -0.50188881 0.001396367
-73 -39 616 -0.072628669 -0.86573297 -0.49520865 0.00066594692
-71 -38 615 -0.072335102 -0.86345732 -0.49920848 0.00086188194
-67.5 -39 616 -0.060672909 -0.85577309 -0.51378143 0.0010294548
-65 -39 615 -0.053383004 -0.85291916 -0.51930642 0.0012989847
-62 -39 615 -0.057718489 -0.84383005 -0.53349745 0.0026068843
-59 -39 615 -0.10948785 -0.81963891 -0.56232065 0.010999647
-179 -34.125 615 -0.34544405 -0.59091318 -0.72903371 0.070156842
-164.10001 -35.299999 615.5 0.057545744 -0.71990258 -0.69168544 0.017717637
-161 -36 616 0.072089575 -0.73038083 -0.67922527 0.018014669
-155 -34.5 615 0.053229582 -0.76401377 -0.64300054 0.015278249
-152 -35 615 0.040651534 -0.7730974 -0.63298333 0.012897162
-148.5 -36 616 0.025777968 -0.77472526 -0.6317724 0.009812776
-142.5 -35.5 615.5 -0.013454023 -0.82341427 -0.56728113 0.0044006677
-140 -36 616 -0.018998776 -0.83925098 -0.54341227 0.0014569807
-136.5 -36 616 -0.020761468 -0.84778476 -0.52993393 0.00061015919
-134 -36 616 -0.028556593 -0.844495 -0.5348016 0.001081447
-131 -36 616 -0.029052328 -0.84867728 -0.52811241 0.00077626779
-128 -36 616 -0.021949664 -0.84580165 -0.53304577 0.00088405714
-125 -36 615.33331 -0.021748394 -0.84519941 -0.53400844 0.001194022
-116.25 -36 615.25 -0.049755521 -0.84173185 -0.53759819 0.00053844409
-178 -25 615 -0.59963793 -0.44116694 -0.66768712 0.072994418
-176.5 -20 616 -0.64328337 -0.30163339 -0.70370722 0.066719808
127 10 617 0.5297215 0.77795714 -0.33790228 0.002159657
129 9 617 0.53052652 0.77954358 -0.33294663 0.0018954782
118.5 14.5 615.5 0.52480191 0.76467037 -0.37398168 0.0032768718
121.25 12.5 615.25 0.51461715 0.78010446 -0.35581765 0.0030913185
-164.25 17.25 616 -0.24552533 -0.87114596 -0.42523172 0.022208259
114.8 17.200001 615 0.53822196 0.73374116 -0.41465783 0.0027148463
118 15.5 616.5 0.52439541 0.76188201 -0.38019112 0.0028807421
-172 20 617 -0.30106384 -0.85837817 -0.41538829 0.020990275
-170 20 615 -0.23508729 -0.87682748 -0.41941336 0.015012102
-167.5 19.166664 616 -0.2216523 -0.88443553 -0.41066292 0.01623789
112.6667 20.66667 617.66669 0.572303 0.69939888 -0.42814767 0.00097302982
114.3333 19.33333 617.66669 0.56594658 0.7104913 -0.4182184 0.00076434563
-179 22.5 616.5 -0.53581393 -0.7399863 -0.40660024 0.074814349
-173.5 21 615.5 -0.31963429 -0.84835494 -0.42205203 0.023498472
108.6 22.799999 615.40002 0.5745424 0.68222308 -0.45218667 0.00054829387
-182.5 24.5 616 -0.76490682 -0.57993805 -0.28033808 0.091971427
106.25 25.166666 616.08331 0.58442557 0.67753953 -0.44652778 0.00090582337
-184 27.5 616 -0.81203985 -0.48565644 -0.32361892 0.10011211
100 29.66667 615 0.62306553 0.52473307 -0.58003837 0.036680862
102.5 28 615.5 0.6176278 0.57782227 -0.53353286 0.022276405
98 32.5 617.5 0.66144037 0.33963853 -0.66868693 0.082149684
101 30 617 0.62908328 0.46761677 -0.62095791 0.056886423
94.5 35.375 616.375 0.65235728 0.1056748 -0.75050837 0.098403357
91.285713 38.14286 615 0.56742203 -0.041700631 -0.82237053 0.10000575
93.5625 37.5625 616.6875 0.60483503 0.00941063 -0.79629523 0.11243039
-181 40 617 -0.78565544 -0.04090168 -0.61731076 0.054932676
-180 41 615 -0.80477273 0.049182683 -0.59154201 0.037609901
94.400002 40.299999 616.09998 0.38076946 -0.47758213 -0.79178911 0.10042391
97 40 617 0.39698786 -0.47779053 -0.783656 0.099635094
99.974998 41.075001 616.29999 0.30979019 -0.6237132 -0.71764326 0.067053534
103 40.5 617.5 0.30595329 -0.59578657 -0.74258405 0.067048676
103 42 615 0.2089223 -0.72818297 -0.65276414 0.015856106
106 42 615 0.18651739 -0.77037668 -0.60969752 0.0059608519
109 42 616 0.16133337 -0.7735374 -0.61287147 0.0059173084
112.13335 43.766663 616.26666 0.15289608 -0.78173119 -0.60458171 0.0080034491
114.6667 45 615.33331 0.13941346 -0.78032058 -0.60964233 0.008120086
95 -57.5 618 -0.35573417 -0.76202965 -0.54107672 0.013819716
93.916672 -55.208336 619.54163 -0.33781803 -0.76455426 -0.5489406 0.011978033
82 -52 620.79999 -0.14710379 -0.85707688 -0.49374053 0.0020040849
84.875 -51.625 619.125 -0.22048952 -0.82979989 -0.51265633 0.0093924282
87.800003 -51.599998 618.20001 -0.27080068 -0.80496871 -0.52791315 0.015260142
90.791672 -52.625 619.16663 -0.31206927 -0.78325194 -0.53770739 0.014009122
20 -49 618.66669 0.27428305 -0.81748873 -0.50643951 0.031269725
58 -49 620.33331 -0.087446377 -0.85885435 -0.50470024 0.00066734734
61 -49 620 -0.096015476 -0.86182958 -0.49802688 0.00081987918
64 -49 620 -0.10303533 -0.85874754 -0.50193268 0.00077062257
67 -49.5 620.5 -0.10960322 -0.85785431 -0.50206894 0.00072164618
70 -49.5 619.16663 -0.11797847 -0.86491257 -0.48785982 0.0011687857
73 -49.5 618.33331 -0.12131677 -0.86692488 -0.48344964 0.00096477394
75.800003 -49.599998 618 -0.12215681 -0.86799109 -0.48132026 0.0010559304
82.5 -51 618.5 -0.13423438 -0.85696626 -0.49758413 0.0017050656
22.125 -46.625 619 0.26979235 -0.82697636 -0.49327701 0.031201184
25 -47 620 0.1358647 -0.8382501 -0.52808845 0.012800883
28 -47 620 0.095124334 -0.8336367 -0.54405987 0.011577368
30.799999 -45.599998 618.20001 0.022133036 -0.84790766 -0.52968174 0.0035198627
34 -46.5 619.5 -0.019117838 -0.84432077 -0.53549683 0.00099707453
37 -46.5 619 -0.029430816 -0.84537458 -0.53336269 0.0017475879
39.599998 -46.700001 619.20001 -0.036517184 -0.84653527 -0.5310787 0.00067991763
43 -46.5 618.5 -0.045552772 -0.84813201 -0.52782279 0.0013355663
46 -46.5 618.16669 -0.066118449 -0.84684563 -0.52771294 0.00067785755
49 -46.5 618 -0.07585454 -0.85352021 -0.51550889 0.0010250369
52 -47 618 -0.082154222 -0.85671329 -0.5092082 0.00056952459
55 -48 619 -0.0930297 -0.86000568 -0.50173283 0.0010875541
58 -48 618.33331 -0.090143643 -0.8607626 -0.50096083 0.00088040292
61 -48 618 -0.094928265 -0.86434442 -0.49385959 0.001096772
64 -48 618 -0.1023656 -0.86616099 -0.489169 0.0011515346
-158 -43 619 0.091006383 -0.708161 -0.70016134 0.016873879
-155.2 -42.799999 620.79999 0.083691232 -0.69156599 -0.71744847 0.018752482
-56 -42.833328 620.83331 -0.16000904 -0.8104611 -0.56351578 0.0091852322
-53.5 -43.5 620.75 -0.17082396 -0.80411792 -0.56939751 0.0085309083
-167.1429 -39.57143 618.71429 0.040141173 -0.67874897 -0.73327249 0.018351205
-163.8889 -40 618.66669 0.073491126 -0.69579965 -0.71446604 0.017484721
-160.64285 -40.07143 619.75 0.085558437 -0.70486534 -0.7041623 0.01785996
-104 -40.5 620.66669 -0.016913392 -0.84137547 -0.54018629 0.0008286956
-76.800003 -39.400002 618.20001 -0.050862245 -0.85855216 -0.51019716 0.0011890816
-74.5 -39.5 618 -0.064292416 -0.86083508 -0.5048064 0.0013465716
-71 -39.5 618 -0.075963296 -0.86086464 -0.50313187 0.0013518444
-68.375 -40.375 619.375 -0.073260471 -0.8559016 -0.51192319 0.0010749465
-65 -40.5 618 -0.075939849 -0.85434788 -0.51412326 0.001642495
-62 -40.5 618 -0.11352741 -0.83444268 -0.53927445 0.0085903173
-59 -40.5 618 -0.1453988 -0.81243235 -0.5646351 0.01028366
-53 -42 618.33331 -0.17799443 -0.79886526 -0.57457143 0.010405139
-164 -37.285709 618 0.05546074 -0.70851874 -0.70350921 0.017468015
-157.3333 -38 620.33331 0.085980013 -0.71821898 -0.69048452 0.017857715
-154.75 -37.25 619.25 0.088332392 -0.72691834 -0.68101913 0.018096646
-152 -38 620 0.061236173 -0.74336112 -0.66608125 0.013529724
-148.89999 -37.5 619 0.055911426 -0.75476509 -0.65360808 0.013640311
-145.5 -38 620 0.020695662 -0.75696748 -0.65312475 0.011179954
-142.82144 -37.5 619 0.0090157678 -0.78180653 -0.62345588 0.010574788
-140 -37.5 619 0.0040912358 -0.79442257 -0.60735172 0.010499963
-133.85001 -37.700001 619 -0.022078054 -0.83330953 -0.55236554 0.0015258854
-131 -37.5 619 -0.029870009 -0.83295554 -0.55253303 0.0013306764
-127.8 -37.400002 618.40002 -0.028191004 -0.83618504 -0.54772252 0.0023444456
-125 -37.5 618.16669 -0.025024544 -0.83400458 -0.55118978 0.0017117775
-119 -38 618 -0.045728158 -0.83624601 -0.54644436 0.00080130866
-110 -39 619 -0.036537092 -0.83754569 -0.54514426 0.0010378453
-107 -39 619 -0.033285532 -0.83958644 -0.54220539 0.0011574106
-104 -39 619 -0.020736899 -0.84529126 -0.5339033 0.001060767
-101.3333 -39 618.66669 -0.014263415 -0.84920746 -0.5278666 0.001158545
-98 -39 618.5 -0.012563185 -0.85244864 -0.5226599 0.00099203561
-94.666656 -39 618.66669 -0.021222979 -0.85835487 -0.51261729 0.0013592907
-92 -39 619 -0.022731313 -0.85982633 -0.5100804 0.0010920913
-89 -39 618.5 -0.021599097 -0.86122465 -0.50776529 0.0012246657
-86 -39 618 -0.020517197 -0.86380893 -0.50340152 0.0010911793
-83 -39 618 -0.027849728 -0.86007315 -0.50940996 0.00094819162
-80.666656 -39 618.66669 -0.037740745 -0.8556754 -0.51613492 0.0010062889
124 11.66667 618 0.53435558 0.77177495 -0.34471387 0.0025593585
130 9 620 0.54022992 0.76882219 -0.34214619 0.0016593502
121.375 14.25 619.25 0.54101896 0.75805503 -0.36421284 0.0023318164
118.125 17.125 619.5 0.55380899 0.73142993 -0.39787671 0.0013376274
-173 19.5 620.5 -0.32309562 -0.84935653 -0.41737586 0.024970917
-170.5 19 618.5 -0.27582672 -0.86649901 -0.41605189 0.018997313
-167 18 618 -0.2112608 -0.88096678 -0.42339861 0.017374575
115.83335 19 619.16663 0.56915355 0.71131194 -0.4124313 0.00082739478
-176 21 618 -0.37094295 -0.824691 -0.4269498 0.031879336
109.5 23.5 618.5 0.58597326 0.67414397 -0.44962788 0.0013525082
111.5 22.625 619.25 0.58193052 0.68722808 -0.43482709 0.00081372808
108 25 619 0.59769219 0.6248771 -0.50228757 0.016351055
102.75 29 618 0.64871627 0.47770217 -0.59242535 0.051446076
106 27 620 0.6181336 0.54087752 -0.57040542 0.036145274
99.791672 31.791664 619.41663 0.66175938 0.33757946 -0.66941357 0.0676587
103 30 620 0.62190199 0.33875871 -0.70603156 0.082825996
96.791672 34.875 619.125 0.66161925 0.10228784 -0.74283046 0.085377373
96.966675 38.033337 619.20001 0.44465151 -0.31261519 -0.83937883 0.10159988
100 37.5 620.66669 0.44195229 -0.31581685 -0.83960575 0.092375584
100 39 619 0.33673999 -0.46282572 -0.8199991 0.087375462
102.5 39 619 0.34989971 -0.50939167 -0.78618723 0.082351618
106 40.5 618 0.25870484 -0.67406809 -0.69188434 0.033079777
109 40.5 618 0.19218244 -0.72816795 -0.65790379 0.015986361
111.9 40.966663 619.09998 0.16941275 -0.74799389 -0.64171994 0.0080158152
118.6667 41 618.66669 0.14571191 -0.77342993 -0.61690688 0.005105644
120 39 620.5 0.19405551 -0.70945281 -0.67750955 0.018734381
114.875 43.375 619.25 0.14720882 -0.77016616 -0.62062353 0.0052749016
117 43 620.5 0.14068663 -0.77267754 -0.61901265 0.0049340427
92 -62 623 -0.38506004 -0.74275404 -0.54776382 0.011359117
93 -61 622 -0.39319095 -0.73341137 -0.55453467 0.010167757
93.400002 -58.733334 622.62225 -0.37967643 -0.73889232 -0.55667216 0.011337313
21 -54.5 623 0.2394211 -0.82547981 -0.51113659 0.014465087
88 -55.5 623.83331 -0.30761975 -0.78079599 -0.54380852 0.01520491
91.125 -55.25 622.45837 -0.34803188 -0.76886666 -0.53639328 0.011585417
21.33333 -52 623.66669 0.23463047 -0.82217389 -0.51863152 0.015504322
55.200001 -51.400002 623.79999 -0.082647175 -0.85057908 -0.51931185 0.00058671669
61 -51.714291 623.71429 -0.096170865 -0.84736663 -0.52222693 0.00078698143
70.125 -52.375 622.875 -0.10542148 -0.85153323 -0.5135926 0.0010053517
72.833328 -52.166664 622.33331 -0.11071535 -0.85940671 -0.49916154 0.0010860984
75.875 -52.25 622.125 -0.11749409 -0.86401761 -0.48955965 0.001296162
79 -52.92857 622.40479 -0.12862448 -0.86285621 -0.48880982 0.0014645543
85 -54 622 -0.24655828 -0.81589323 -0.52299833 0.014116889
88 -53 621 -0.28540969 -0.79927349 -0.52886975 0.014453396
21.75 -49.916668 622.25 0.2237597 -0.8260653 -0.51725018 0.017252477
25 -49 622 0.1422009 -0.8376404 -0.52738732 0.012660549
28 -49.5 622.66663 0.084317081 -0.84079474 -0.53474736 0.009397733
31 -49.5 623.5 0.055379469 -0.84275979 -0.53543359 0.0093320692
34.125 -49.375 622.875 -0.024960853 -0.85197908 -0.52298045 0.0014820538
37 -49.5 622.83337 -0.030422891 -0.85344976 -0.52028638 0.0013584277
40 -50 623 -0.040146932 -0.85325497 -0.51994628 0.0017118026
43 -50 623 -0.035876848 -0.8521992 -0.52198613 0.0008499223
46 -50 623 -0.048814073 -0.85190982 -0.52140856 0.00093865825
48.5 -50 623 -0.056975704 -0.85268378 -0.51931119 0.0012064319
51.666668 -49.944443 622.5556 -0.071861722 -0.85336506 -0.51633704 0.00073036068
55 -49 621 -0.084611177 -0.85385519 -0.51358771 0.0004844511
64.5 -51 622 -0.10371394 -0.85519338 -0.50782633 0.00052826933
66.5 -51 622 -0.10677594 -0.8553704 -0.50689292 0.00048277332
-53 -46 621 -0.17725693 -0.81007367 -0.55889237 0.0079253437
31 -47 621 0.0238916 -0.84384143 -0.53606057 0.0036634055
40 -48 621 -0.031637091 -0.84890133 -0.52760369 0.0010727496
43 -48 621 -0.044928893 -0.85113353 -0.52302319 0.00082483934
46 -48 621 -0.057470143 -0.85286838 -0.51895344 0.0010396381
49 -48 621 -0.068171278 -0.85488445 -0.51432019 0.001249934
-158 -42.200001 621 0.10414424 -0.70655292 -0.69995505 0.016582392
-151.875 -42.875 622.375 0.083273619 -0.68889344 -0.72006345 0.015937597
-148.95238 -43.904766 622.04761 0.063675463 -0.69470453 -0.71647131 0.017120434
-83 -43 623.83331 -0.04044855 -0.84335673 -0.53582954 0.00058280339
-65 -44 623.33331 -0.11635295 -0.84224033 -0.52639639 0.0038716451
-62 -42.5 621.5 -0.12847993 -0.82689053 -0.54748964 0.0039448296
-158 -39.900002 621 0.095687926 -0.7119863 -0.69564313 0.017562758
-154.75 -41 622.27771 0.093411669 -0.69335949 -0.71451163 0.017758591
-152 -40.25 622.25 0.079730555 -0.70332432 -0.70638371 0.016462088
-149 -40.25 622.41663 0.058392815 -0.71628326 -0.69536215 0.015650431
-146 -40.25 622.25 0.039348125 -0.71498251 -0.69803417 0.016487611
-142.8571 -40.57143 623.71429 0.029450174 -0.72381169 -0.68936878 0.01391224
-139.875 -39.875 622.375 0.021274077 -0.74381912 -0.6680423 0.014627881
-136.97501 -40.075001 622.47498 0.029282138 -0.73133385 -0.6813907 0.016003445
-134 -39.5 621.5 0.019549116 -0.76058102 -0.64894855 0.013114626
-131 -40.25 622.41663 0.02227132 -0.76380217 -0.64506608 0.013159052
-128 -40.25 622.41663 -0.011904879 -0.77147377 -0.63614982 0.0098186545
-125 -39.5 621.16669 -0.02680842 -0.81297672 -0.58167875 0.0016749265
-122 -40.25 622.33337 -0.020808833 -0.80899179 -0.5874514 0.0011342736
-119 -40.25 622.16663 -0.025890164 -0.81724602 -0.57570714 0.00090832071
-116 -40.25 622 -0.032805283 -0.82697284 -0.56128401 0.001289987
-113.25 -40.416664 622 -0.033184245 -0.82885265 -0.55848205 0.00066545123
-110 -40.5 621.33331 -0.031193025 -0.83440185 -0.55027318 0.0007375917
-107 -40.5 621 -0.026035761 -0.83685207 -0.54680955 0.00098429504
-101 -40.5 621 -0.0043676067 -0.84404725 -0.53625095 0.00051245576
-97.599998 -40.700001 622.09998 -0.0082558366 -0.8458674 -0.53332937 0.00052534044
-94.875 -40.625 622.125 -0.015404895 -0.84791988 -0.52990049 0.00051926787
-92.400002 -40.700001 622.09998 -0.014812256 -0.85121095 -0.52461457 0.00078906002
-89.125 -40.625 622 -0.020134989 -0.85404658 -0.51980674 0.0010475754
-86 -40.5 621 -0.029906249 -0.8544026 -0.51875025 0.0010703648
-83 -40.5 621 -0.037731443 -0.85179102 -0.52252108 0.0010161432
-80 -40.5 621 -0.036907595 -0.84915161 -0.52685797 0.00050360314
-77.25 -40.75 621 -0.044646461 -0.85025924 -0.52446723 0.00087546255
-74 -41 621 -0.061363846 -0.84812659 -0.52622795 0.0011021787
-71 -41 621 -0.07178726 -0.85122734 -0.5198639 0.0011386096
-67 -42 622 -0.079572573 -0.84766531 -0.52453011 0.00088238722
-65 -42 621.33331 -0.10160257 -0.84505278 -0.52494061 0.0022084496
-143 -39 621 0.015080838 -0.73741549 -0.67527109 0.015673304
127 11.2 621 0.54338545 0.76362985 -0.34871423 0.0016726148
129.5 10.5 623.5 0.55917877 0.74921668 -0.35495564 0.0012090257
132 9 623 0.55406058 0.75795513 -0.34426865 0.0015061803
123.75 13.75 621.5 0.54657477 0.75358701 -0.36518854 0.0015001646
120.75 16.75 622.41663 0.55258936 0.73808575 -0.38713613 0.0013829861
-170 18 622 -0.27592105 -0.866979 -0.41498786 0.019173944
118 19 622 0.57437593 0.71014905 -0.40716171 0.00070013769
113 23 623 0.60685855 0.62509477 -0.49089628 0.013805532
115 21.5 622.5 0.58491397 0.69268405 -0.42197689 0.00084479625
109.25 26.25 622.41663 0.62541527 0.49102622 -0.60642314 0.051797498
105.6 28.799999 621.40002 0.63739681 0.39235088 -0.66316372 0.064582221
102.91665 31.916664 622.91663 0.62168646 0.1665289 -0.76535881 0.083176427
100.3 35.099998 622.20001 0.54664576 -0.03350088 -0.83669358 0.10351206
103 35 623.88892 0.46627456 -0.27239239 -0.84165943 0.08721026
103.3333 37.666672 621.33331 0.35725713 -0.46468645 -0.81020612 0.08029598
106 38 621 0.3856957 -0.49018335 -0.7816388 0.075896554
108.9 37.700001 622.09998 0.32054761 -0.56923205 -0.75711566 0.057945043
112.025 37.924999 622.20001 0.25908023 -0.61646241 -0.74353981 0.043423466
115.025 37.924999 622.625 0.30003935 -0.62003487 -0.7249366 0.044185162
123 37 623 0.20412724 -0.65598869 -0.7266435 0.039328318
115 40.85714 621 0.20011124 -0.71496797 -0.66990763 0.014140122
117.875 40.875 622.5 0.16207246 -0.7284053 -0.66570121 0.013462682
91.25 -57.25 624.5 -0.35126129 -0.75757003 -0.55018461 0.013566623
73 -55 626.33331 -0.090718254 -0.852359 -0.51502854 0.0021436505
76 -55 626 -0.1080187 -0.85536182 -0.50664389 0.0023981596
81.974998 -55.075001 625.375 -0.20883761 -0.83195138 -0.51404637 0.011284089
84.875 -55.625 625.125 -0.26622912 -0.81057936 -0.52161592 0.014449043
22.5 -52 626.75 0.16822298 -0.82901722 -0.53332108 0.0089979023
31.25 -51.5 626.75 0.079155885 -0.84994507 -0.52089125 0.0096248854
42.75 -52.25 626.75 -0.051618066 -0.85099554 -0.52263016 0.001510025
46.200001 -52.400002 626.79999 -0.057258315 -0.84333897 -0.5343228 0.0015921543
58 -51.5 624 -0.07897827 -0.84970051 -0.52131695 0.00043448177
61 -53 626 -0.098452121 -0.84068 -0.53250766 0.00087397191
63.5 -52.583336 625.16663 -0.10122287 -0.84292907 -0.52841687 0.00078879931
67 -52.5 624.33331 -0.1018504 -0.84513128 -0.52476627 0.0010249215
73 -54 625 -0.094293542 -0.85768139 -0.50546139 0.0017439516
76 -54 624.33331 -0.11134419 -0.85682982 -0.50343323 0.0018993586
-137 -49 625.75 0.065769784 -0.64553845 -0.76089054 0.014586872
-54 -49 624.66669 -0.21741709 -0.80612397 -0.550358 0.0067075356
25 -50 624 0.13021375 -0.83587188 -0.53325653 0.01130464
28.5 -51 625 0.08231017 -0.84022731 -0.53595066 0.0099831205
30 -51 625 0.075688928 -0.84372532 -0.53141201 0.010056528
37.5 -51 625 -0.03344674 -0.85620421 -0.51555383 0.001872985
40.5 -51 625 -0.042680502 -0.8537913 -0.51886296 0.0017264331
43 -51 625 -0.047274306 -0.84885019 -0.52651542 0.0017276515
46 -51 625 -0.056981191 -0.84527403 -0.53128612 0.0013025971
49 -51 624.66669 -0.060425565 -0.84552741 -0.53050184 0.0006388959
-142.95834 -45.708336 625.16663 0.050120443 -0.68245262 -0.72920942 0.012711872
-141 -47 624 0.046616822 -0.67015469 -0.74075615 0.014097942
-59 -46.5 626.83331 -0.19093767 -0.81960803 -0.54017174 0.0064929584
-56.099998 -45.966663 625.20001 -0.20236097 -0.81062418 -0.54948932 0.0073339385
-54 -46.5 624.5 -0.1946892 -0.80514288 -0.56021512 0.0082018049
-145.66667 -44.303028 624.78027 0.052895486 -0.67803156 -0.73312712 0.01434294
-142.875 -43.125 625.5 0.029931037 -0.69546568 -0.71793562 0.013566731
-140 -44 626.33331 0.025339818 -0.69272339 -0.72075802 0.015874507
-137 -43.5 626.5 0.041661344 -0.69546616 -0.71735013 0.016888382
-134 -43.166664 625.66663 0.041685645 -0.6966424 -0.71620643 0.015956005
-131 -43.5 625.5 0.042206798 -0.69663256 -0.71618557 0.017439235
-128 -43.375 625.75 0.033688225 -0.70996374 -0.70343202 0.015318656
-125 -43 625 0.022852622 -0.7338202 -0.67895925 0.012831558
-122 -43 625 0.01621167 -0.75717086 -0.65301573 0.011219432
-119 -43 625 0.025027892 -0.77113616 -0.63617814 0.011487711
-116 -43 625 -0.0032826732 -0.81071931 -0.58542585 0.0018828224
-113 -44 626.66669 0.0024950197 -0.79514104 -0.60641938 0.0057761087
-110 -44 626 -0.0082461275 -0.83250386 -0.55395782 0.00087845651
-107 -43.5 625 -0.013329386 -0.84011453 -0.54224521 0.00036427632
-103.875 -43.5 625 -0.0057298024 -0.84368867 -0.53680223 0.00053832686
-101 -43.5 625 -0.002490869 -0.8450644 -0.53465867 0.00026662188
-98 -43.5 625 -0.002186069 -0.8473652 -0.53100598 0.0003483051
-95 -43.5 625 -0.0090999231 -0.84852886 -0.52907073 0.00059775059
-92 -43.5 625 -0.018563652 -0.85037911 -0.52584279 0.00097848871
-89 -43.5 625 -0.02476266 -0.84700167 -0.53101319 0.00054583559
-86.400002 -43.5 625 -0.037644755 -0.84448701 -0.53425151 0.0008134183
-71 -43.5 624.33331 -0.06517756 -0.84617209 -0.52890891 0.0010100579
-68.199997 -43.599998 624 -0.075570352 -0.84766674 -0.52511936 0.0012276247
-64.5 -45 625 -0.12978323 -0.83437532 -0.53569961 0.0037646363
-62 -45 624 -0.14262193 -0.8316471 -0.53667688 0.003735814
-59 -45 624 -0.17967948 -0.82759964 -0.53178394 0.0075739492
-140 -42 625 0.036552709 -0.7100668 -0.70318496 0.014606033
-134 -41 624 0.036463622 -0.72248584 -0.69042343 0.014178166
-125 -41 624 -0.0077022007 -0.76464993 -0.64439982 0.0098030902
-112.5 -42 624 -0.026695989 -0.82986212 -0.55732954 0.0015398252
-110 -42 624 -0.023874158 -0.83386344 -0.55145425 0.00044351156
132 10 626 0.55379868 0.74844801 -0.36487344 0.0023104025
124.5 14.5 624 0.56229502 0.7390815 -0.37092155 0.00093846075
127.16666 13.166667 624.91669 0.55976903 0.74308103 -0.36672765 0.0010041617
-170 17 626 -0.27597994 -0.86693585 -0.41503888 0.019152001
123 16 625 0.56056637 0.73648608 -0.37862074 0.00082062342
-171 18 624 -0.27588969 -0.86681938 -0.41534215 0.019115241
118 19.66667 624 0.58540297 0.6972146 -0.41375747 0.0011065303
114.5 22.5 624.5 0.60905552 0.61296064 -0.50331968 0.016791938
118 21 626 0.61019242 0.61059463 -0.50481617 0.020966377
111.3333 25.33333 624.33331 0.62229133 0.50492245 -0.59816957 0.045466777
106.6667 29.66667 624.33331 0.62745613 0.28839782 -0.72327411 0.074121647
108.75 28.5 625.25 0.59504998 0.29162532 -0.74891263 0.080300286
105.8333 32 625.33337 0.59743369 0.037139025 -0.80105788 0.086556092
105.875 35.125 624 0.48865229 -0.2761457 -0.82762456 0.088173881
109 35 625.66663 0.43243963 -0.39379042 -0.81112576 0.069993317
111.75 35.75 624.25 0.32601216 -0.53878427 -0.776806 0.061699871
115.1 35.383335 625.6167 0.34702772 -0.55803353 -0.75377077 0.060528353
118 37 625.03705 0.26987088 -0.63232833 -0.72617531 0.040673789
121 37.25 625.25 0.22270891 -0.65524799 -0.72183847 0.039475564
124 37 626.66669 0.17535816 -0.69450879 -0.69778728 0.033812854
90.633331 -61.622223 628.46667 -0.37622753 -0.74802941 -0.54672188 0.013394352
82.199997 -57.400002 629.79999 -0.21249303 -0.82363653 -0.52580386 0.011209075
85 -58.5 629.83331 -0.30174273 -0.80420375 -0.51206225 0.016421828
88.071426 -58.285713 628.40479 -0.34814325 -0.77278048 -0.53066611 0.013895984
90.833344 -58.666672 627 -0.34538546 -0.7650553 -0.54350644 0.012668488
22 -55 627 0.17110114 -0.83124167 -0.528925 0.0082390094
61 -55 629.66669 -0.097775482 -0.83892751 -0.53538829 0.001017875
67.125 -54.924999 628.52502 -0.097108282 -0.84132278 -0.5317387 0.0011635496
70 -55.25 628 -0.081516862 -0.84880066 -0.52239102 0.0019296719
73 -56 629 -0.087876946 -0.85234576 -0.51554269 0.0028552243
76 -56 629 -0.10167797 -0.85730267 -0.50467193 0.0030122565
79 -55.5 627 -0.13995972 -0.85278267 -0.50316298 0.0038364006
83 -57 628 -0.27216738 -0.80331713 -0.52972299 0.017672969
85 -57 627 -0.2844938 -0.79767102 -0.53177458 0.016421586
-124.8 -51.200001 629.79999 0.07032942 -0.67591918 -0.73361242 0.014511736
23 -53 629 0.13220441 -0.83643925 -0.53187525 0.0079270778
25 -51.5 627 0.1199678 -0.83140421 -0.54256314 0.008218281
27.75 -51.75 627 0.099089667 -0.84150696 -0.53108132 0.009966013
31 -53 629.66669 0.084999889 -0.86172909 -0.50019795 0.0095054768
33.799999 -51.599998 627.20001 -0.0051862444 -0.85973614 -0.51071221 0.0021442953
36.799999 -51.599998 627.20001 -0.0256561 -0.85968995 -0.51017147 0.0012631038
40 -52.5 628.16663 -0.04776933 -0.856673 -0.51364332 0.0022060056
43.5 -53 629 -0.06078415 -0.85225773 -0.51957875 0.001675926
45 -53 629 -0.065899469 -0.84784019 -0.52614099 0.0014768617
48.599998 -52.700001 628.20001 -0.058468241 -0.84419984 -0.5328303 0.0016378514
52 -52.700001 628.09998 -0.068064675 -0.8430326 -0.53353834 0.0013394086
54.75 -52.75 627 -0.07514599 -0.84542149 -0.5287869 0.00083789782
58 -53.5 627.5 -0.083971813 -0.8409124 -0.53461677 0.00059848226
61 -54 627.33331 -0.10002726 -0.84107262 -0.53159326 0.00093068485
64 -54 627 -0.10527752 -0.83835447 -0.53486305 0.00060937245
-139.75 -48.25 627 0.056697652 -0.65076476 -0.75715953 0.013826242
-133 -50 628 0.068435937 -0.65214807 -0.75499642 0.015610068
-127 -51 628 0.07830283 -0.66334462 -0.74420601 0.015663726
-55.5 -50 629.25 -0.22159545 -0.81010646 -0.54279178 0.0059061684
-140.0625 -46.4375 628.1875 0.056528263 -0.6508882 -0.75706607 0.013763937
-137.08333 -46.716663 628.91669 0.069193758 -0.63563782 -0.76888019 0.014798759
-134.33334 -46.25 628.83337 0.052605323 -0.65865904 -0.7506004 0.015002959
-130.875 -46.25 628.375 0.059365213 -0.66301107 -0.746252 0.016452717
-122 -46.5 629.66669 0.063518301 -0.70454341 -0.70681262 0.012912847
-79.5 -45.5 627 -0.039246686 -0.83457541 -0.54949391 0.0010646447
-77 -45.5 627 -0.043933745 -0.83675188 -0.54581708 0.0010135063
-74 -45.5 627 -0.049224757 -0.83844656 -0.5427562 0.0010993674
-71.125 -46 628.5 -0.053663962 -0.83971786 -0.54036474 0.00077131903
-68.125 -46.075001 628.375 -0.085455284 -0.83559787 -0.54265428 0.0016569177
-65.125 -46.375 628.125 -0.11700673 -0.83232552 -0.54179668 0.0034491064
-62.400002 -46.700001 628 -0.15715003 -0.82688612 -0.53996593 0.004209891
-58 -48 628 -0.19393975 -0.8222909 -0.53499997 0.0064232708
-55 -48 628 -0.220791 -0.81026953 -0.54287624 0.0066216267
-128 -45 627.66669 0.047856722 -0.68590355 -0.72611707 0.014286687
-125 -44.5 627.5 0.062946796 -0.7020781 -0.70931238 0.014898014
-122 -44.5 627.5 0.054637734 -0.72923112 -0.68208259 0.013046776
-119 -44.5 627.5 0.034594256 -0.73507571 -0.67710185 0.013425132
-116 -44.5 627.5 0.033923615 -0.76748121 -0.64017326 0.010038611
-113 -45 628 0.030876521 -0.77982211 -0.62523931 0.0073218397
-110 -45 628 0.013699202 -0.8050797 -0.59300834 0.0060317675
-107 -45 628 0.0077309641 -0.82370168 -0.56697071 0.0026304487
-104 -45 628 0.001932139 -0.83547413 -0.54952639 0.0016558598
-101 -45 628 0.0015434951 -0.84382915 -0.53660971 0.0011611913
-98 -45 628 0.0039100577 -0.84459549 -0.53539079 0.0010811888
-92 -45 628 -0.018760135 -0.84173274 -0.53956836 0.00085252663
-89 -45 628 -0.03430175 -0.8386718 -0.54355592 0.0010910266
-86 -45 627.33331 -0.042246107 -0.83608311 -0.54697371 0.00094969448
-83 -45 627 -0.045081221 -0.83437181 -0.54935551 0.00076031714
130.5 11.5 627 0.56622088 0.73751038 -0.36806571 0.0013274899
132.6667 11 629.66669 0.57073265 0.7067886 -0.41798806 0.014915614
135 9 629 0.54854757 0.73087448 -0.40610093 0.0075547351
129.33334 13.5 628.33337 0.57100654 0.72940904 -0.37671465 0.0013560568
124 16.66667 627 0.56531131 0.72766161 -0.3884992 0.00059019262
121.25 18.75 627.25 0.58967394 0.67980111 -0.43606779 0.0048009511
115 23.66667 627 0.63478047 0.4948546 -0.59344137 0.043340359
117.83334 21.833334 628.33331 0.65242398 0.54296571 -0.52870715 0.034059197
112 26.66667 627 0.62843573 0.41063911 -0.66063917 0.064207874
114 25 628 0.65873575 0.44787768 -0.60454351 0.047996204
111.66665 29.166664 628.91663 0.64109647 0.17010522 -0.74837124 0.082584016
109.1429 32.285709 627.71429 0.57324618 -0.1328291 -0.80854511 0.08802712
111.875 32.125 629.875 0.50856912 -0.20988804 -0.8350476 0.085544914
127.5 32.5 629.5 0.3406961 -0.52916968 -0.77711374 0.095089875
129 32 628 0.34080523 -0.52949351 -0.77684516 0.095318995
112.1429 34.714291 627.28571 0.37949061 -0.5028404 -0.77661991 0.081648126
114.5 34 629 0.40538841 -0.46595585 -0.78647655 0.084100746
118.5 34.5 628.14282 0.3282935 -0.54871613 -0.76885241 0.074436344
120.875 35.125 628.375 0.26195881 -0.6360935 -0.72578412 0.052482553
124.2 35.099998 628.40002 0.17271434 -0.68023801 -0.71235245 0.042005565
87.5 -66.5 632.5 -0.40631226 -0.72603464 -0.55478293 0.011141452
88.25 -61.75 631.41669 -0.35944796 -0.75230104 -0.55212349 0.014004614
24.25 -57.75 632.5 0.18496656 -0.82396013 -0.53560913 0.0077517228
67 -58.333328 632.83331 -0.081113487 -0.84533554 -0.52804214 0.0018627947
70 -59 632.66669 -0.065603018 -0.8498795 -0.52287763 0.002255741
73 -59 632.66669 -0.06461022 -0.85328925 -0.51741958 0.0025051958
79 -58 632.33331 -0.17824949 -0.83406091 -0.52208185 0.012861025
81 -58 632 -0.21359776 -0.82544386 -0.52251166 0.013078669
23 -54.5 630.5 0.1646101 -0.82390684 -0.54229248 0.0086669438
25.5 -56 632.5 0.16795999 -0.83421302 -0.52524102 0.008589685
33.799999 -54.799999 632.79999 0.022240695 -0.86403489 -0.50294042 0.0042246627
37.25 -54.5 632.5 -0.030069575 -0.86982739 -0.49243903 0.001867254
49 -55 632 -0.06460283 -0.85098803 -0.52119666 0.00056047097
52 -54.5 630.5 -0.068022512 -0.84352809 -0.53276002 0.00052555412
55 -54.5 630.33331 -0.073274769 -0.84417105 -0.53104246 0.00050842791
58 -55.5 631 -0.09124326 -0.84523422 -0.52654892 0.0010621527
60.5 -56 632 -0.09550219 -0.84100235 -0.53253579 0.00086678524
63.5 -55.75 631 -0.099683382 -0.84048051 -0.53259337 0.00093362416
70 -57 631 -0.069978729 -0.85079664 -0.52081472 0.0022365036
73 -57 631 -0.078743324 -0.85410517 -0.51410484 0.0027986176
75.5 -57 631 -0.092802852 -0.85392737 -0.51205057 0.0033838619
79.5 -57 631 -0.18914463 -0.83239836 -0.52090043 0.012714826
-122.4 -51.700001 631.70001 0.075485572 -0.68715698 -0.72257686 0.012881386
25 -53.5 630.5 0.13137609 -0.84256333 -0.52232873 0.0078451196
28.5 -53.5 630.5 0.10317151 -0.85248023 -0.51247734 0.008803539
30.5 -54 631 0.077121079 -0.85878712 -0.50649488 0.0056657926
34 -53 631 0.013994257 -0.86946446 -0.4937973 0.003578431
37 -53 630 -0.031864066 -0.86874324 -0.49423656 0.0014291607
40 -54 631 -0.059791684 -0.86344391 -0.50088882 0.0018061842
43 -54 631 -0.074119247 -0.85720581 -0.50961208 0.0020432961
46 -54 630.33331 -0.070171684 -0.8499102 -0.5222342 0.0018271646
49 -54 630.33331 -0.065953039 -0.84594083 -0.52918273 0.0016548841
-134 -48.75 630 0.072313033 -0.64357579 -0.76195872 0.014663472
-131 -49 630.88892 0.080088526 -0.64472926 -0.76020402 0.014117943
-128 -49 631 0.087922357 -0.66263515 -0.74376357 0.014251539
-124.64285 -49.17857 631.5 0.076730274 -0.67896456 -0.73015034 0.014478881
-121.875 -49.125 632.25 0.074589357 -0.69615197 -0.71400899 0.013632005
-119 -49 632.66669 0.072325699 -0.70273679 -0.70776403 0.012213502
-61.666672 -48.333328 630 -0.15892127 -0.82275057 -0.54573405 0.0047066393
-59.099998 -49.299999 631.43335 -0.18253158 -0.82026726 -0.54207361 0.0042106421
-128 -46.42857 630 0.071548797 -0.66641068 -0.74214393 0.01584819
-125.2 -46.599998 630.40002 0.062801562 -0.68238884 -0.72828668 0.015533305
-123 -48 631 0.079469159 -0.69543475 -0.71418142 0.012870485
-119 -46.5 630 0.061044417 -0.72382456 -0.68727845 0.013060261
-116 -46.5 630 0.060345598 -0.72841448 -0.68247396 0.014009154
-113 -46.625 631 0.044681255 -0.74808192 -0.66210055 0.0099490862
-110.4 -46.700001 631.09998 0.037629258 -0.76437539 -0.64367259 0.0089469803
-107.2 -46.400002 630.40002 0.047180295 -0.78042722 -0.62346393 0.010178079
-104 -46.5 630.5 0.029663241 -0.80019879 -0.59900075 0.0069242455
-101.125 -46.625 631.125 0.030365942 -0.79552871 -0.60515451 0.0091845617
-97.800003 -46.400002 630.40002 0.012156318 -0.82682574 -0.56232673 0.0024693178
-95 -46 630 -0.0094869025 -0.83322948 -0.55284601 0.0016834929
-91.875 -46.625 631.125 -0.024002589 -0.82621408 -0.56284469 0.0013729992
-89.400002 -46.700001 631.09998 -0.034319378 -0.82659918 -0.56174368 0.0015235598
-86 -46.5 630 -0.046379481 -0.83038872 -0.55525094 0.00090477802
-83 -46.5 630 -0.049787313 -0.82673883 -0.56037855 0.0009744463
-80.25 -46.75 630 -0.038387291 -0.83061999 -0.55551487 0.0005257022
-77 -47.5 630.5 -0.031405725 -0.83279765 -0.55268592 0.00074080535
-74 -47.5 630.5 -0.036175631 -0.83818859 -0.54417932 0.00099903368
-72 -48 631 -0.046522442 -0.84330934 -0.53541094 0.00093383004
-64.5 -48 631 -0.12252089 -0.8322649 -0.5406698 0.0044502984
133.5 11.5 632.5 0.55578452 0.68346155 -0.47326943 0.023401707
136 9.5 632 0.58046854 0.6569283 -0.4811461 0.029693628
138 9 632 0.57761073 0.65631628 -0.48540166 0.029870147
130.5 14.5 632.5 0.55847698 0.69253033 -0.45662373 0.019527229
132 13 632 0.55720574 0.69457346 -0.45507094 0.019761626
126.6667 16.33333 630.33331 0.58149362 0.70297426 -0.40950263 0.0019659845
121.3333 20 630 0.6287654 0.5833509 -0.51415545 0.025163116
123.75 19 631.25 0.59449172 0.60012472 -0.53519142 0.030689534
120 22 631 0.62547475 0.44722557 -0.63935179 0.051534459
115.25 26.25 630 0.66840154 0.24355552 -0.70279455 0.075199232
119 24 632 0.64895511 0.33777899 -0.68173504 0.06383007
114.8 28.6 631.79999 0.58921939 0.014926676 -0.80783522 0.10488731
114.9 31.799999 631.20001 0.48803592 -0.28843176 -0.82378882 0.095780045
118 32.5 630.5 0.36148131 -0.54012489 -0.75999761 0.078883789
120.91665 32.083336 631.91663 0.35672355 -0.51509333 -0.77937609 0.089890592
126.75 32.5 632.75 0.26077899 -0.56483173 -0.7829172 0.076411679
130 30.666666 631 0.39866665 -0.45177066 -0.79810286 0.0979416
124.5 34 632 0.19885436 -0.66293687 -0.72178358 0.051787734
126 34 630 0.2443988 -0.61969435 -0.74582046 0.065018691
88.166656 -63.833328 633 -0.38325912 -0.74505663 -0.54589659 0.012031421
70 -60.5 635.5 -0.062865995 -0.83951497 -0.5396874 0.0020363748
73 -60.5 635.83331 -0.063514285 -0.84125251 -0.53689867 0.0022995642
82.25 -60.25 633.25 -0.24686977 -0.79716772 -0.55098003 0.015215654
84.875 -61.625 634.125 -0.31607711 -0.77391809 -0.54876769 0.015315809
-97 -59 635 0.11216439 -0.54948431 -0.82794082 0.047764737
25.5 -58 635.5 0.19248675 -0.82489854 -0.53149903 0.0074087707
43 -57.5 635.66669 -0.087322608 -0.84679103 -0.52470905 0.0016193526
46 -58.166672 635.83331 -0.083930463 -0.84272027 -0.53176904 0.001562917
49.200001 -58.400002 635.79999 -0.070907824 -0.83798707 -0.54106367 0.0011337046
58.400002 -58.299999 634.90002 -0.094967909 -0.83924323 -0.53539884 0.0012709489
61 -58.5 634.83337 -0.099423543 -0.84122306 -0.53146845 0.00098368281
64 -58.5 634 -0.091358148 -0.83916491 -0.5361492 0.001060024
76.5 -58.666664 634 -0.10592981 -0.84288877 -0.52755803 0.0046503027
78 -59 635 -0.13878988 -0.83605796 -0.53079605 0.0070449947
-57 -55 635 -0.29121774 -0.73544097 -0.61181599 0.022052297
27.799999 -55.200001 633 0.13943125 -0.8408885 -0.52293932 0.010268408
31.25 -55.5 633.5 0.056821857 -0.85693973 -0.51227498 0.005219975
35 -56 635 0.01167369 -0.85098761 -0.525056 0.0047531328
36.5 -56 635 -0.015713947 -0.85552174 -0.51752836 0.0029893387
40 -56.5 634.5 -0.071060605 -0.85320657 -0.51670974 0.0015527813
43 -56 633 -0.082702085 -0.85280812 -0.51563424 0.0015665066
46.25 -56.5 633.5 -0.078777365 -0.84753412 -0.52486199 0.0013551392
49 -57 633 -0.065630764 -0.84353572 -0.5330478 0.00083847455
52 -57 633 -0.068247914 -0.84114969 -0.5364787 0.0008588566
55 -57 633 -0.078742422 -0.84361237 -0.53114772 0.00099727337
-119 -51.5 633.83331 0.089758798 -0.68901026 -0.71917188 0.012775112
-115.58335 -51.75 634.25 0.081024572 -0.69117653 -0.71812952 0.013343496
-113.75 -53.5 633.75 0.076107949 -0.66489404 -0.74305016 0.013915341
-76.800003 -51.400002 635.79999 -0.016490467 -0.83997446 -0.54237533 0.0011118529
-73.75 -51.25 635.5 -0.024153126 -0.84460294 -0.53484797 0.001079777
-58.599998 -52.299999 634.79999 -0.20870221 -0.78959787 -0.577043 0.013448888
-57 -51.5 633 -0.20955209 -0.80507153 -0.55493033 0.005129959
-116 -49 633 0.072375111 -0.71635985 -0.69396716 0.012731201
-113.25 -49.25 634.25 0.073133565 -0.71084774 -0.69953334 0.011826808
-110 -49 635 0.065435812 -0.70989937 -0.70125675 0.015520493
-107 -48.5 633.5 0.05523777 -0.72786325 -0.68349397 0.017183449
-103.875 -48.625 634.125 0.078026973 -0.72193724 -0.68754518 0.017444648
-101 -49 635 0.05740869 -0.68823016 -0.72321749 0.037345301
-98 -49 635 0.078917883 -0.67319822 -0.73523885 0.038394384
-95 -49 635 0.053661976 -0.69135684 -0.72051799 0.04045476
-92 -49 635 0.0043689962 -0.72173887 -0.69215167 0.036676902
-89 -49 635 -0.0053809583 -0.76992291 -0.63811421 0.024338691
-86.199997 -48.400002 633.20001 -0.045889992 -0.82045466 -0.5698669 0.0014573452
-83 -48.5 633 -0.047496051 -0.83272237 -0.55164975 0.00073420943
-80 -48.5 633 -0.035211578 -0.83354312 -0.55133116 0.0011283772
-77 -49 633 -0.023462698 -0.84209019 -0.53882611 0.0012383336
-74 -49 633 -0.026492616 -0.8487125 -0.52819049 0.00072153145
-70.900002 -49.799999 634 -0.044884611 -0.84791535 -0.52822804 0.0012414507
-68 -48.5 633 -0.094565831 -0.84204298 -0.5310564 0.0036714652
-65 -49 633 -0.12584522 -0.83256358 -0.5394451 0.0050044227
-62.200001 -49.599998 633 -0.15757108 -0.82911593 -0.53641224 0.0054441835
-110 -48 633 0.048922058 -0.74043971 -0.67033994 0.011421463
-101 -48 633.33331 0.061250366 -0.74998277 -0.65861535 0.017793411
-98 -48 633 0.059687611 -0.75436497 -0.65373605 0.026798209
-95 -48 633 0.014464102 -0.77455628 -0.63233966 0.030521754
-92.5 -48 633 -0.02335188 -0.81261289 -0.58233583 0.0027923624
-89 -48 633 -0.03273711 -0.81748456 -0.57501936 0.0015857454
136 11 635.33331 0.56916183 0.6191954 -0.54097301 0.035445016
133.2 14.2 635.79999 0.56924438 0.59561288 -0.56675059 0.044039462
126.5 17.5 633.5 0.57493758 0.56283414 -0.59385562 0.06385421
129 16 634 0.57531118 0.62638664 -0.52598178 0.039140586
124.5 20.5 635 0.5668751 0.39719027 -0.72172892 0.089566953
121 23 634 0.6027512 0.28029656 -0.74707747 0.087337241
