ply
format ascii 1.0
element vertex 897
property float x
property float y
property float z
property float nx
property float ny
property float nz
end_header
-25.6037 68.7574 494.05 -0.235433 0.268172 -0.93416
-22.6875 68.4504 494.331 0.234563 0.247225 -0.940138
-20.0682 67.3016 496.938 0.499671 0.240662 -0.832112
-25.6116 71.253 495.399 -0.138197 0.210442 -0.967789
-22.1623 70.9623 496.08 0.167682 0.150143 -0.974341
-20.2341 71.2927 497.764 0.450792 0.120254 -0.884492
-22.0024 74.612 495.801 0.259651 -0.084507 -0.961998
-19.7291 73.9705 497.804 0.456109 -0.0353829 -0.88922
-24.849 77.8079 496.424 0.0400669 -0.229214 -0.972551
-21.8565 77.224 495.779 0.350901 -0.11594 -0.929208
-24.1542 80.6854 495.106 0.217571 -0.362441 -0.906255
-21.3297 80.698 495.817 0.453864 -0.232963 -0.860079
-18.7553 80.0939 497.868 0.524437 -0.120878 -0.842825
-38.0071 85.9041 491.045 -0.525569 -0.573507 -0.628384
-35.1569 84.8304 491.658 -0.316856 -0.700438 -0.639522
-32.0021 84.1017 491.894 -0.10901 -0.780864 -0.615117
-29.1363 83.7962 492.234 0.0973334 -0.745913 -0.658893
-20.3959 83.241 494.694 0.512945 -0.210328 -0.832256
-18.4635 82.462 496.396 0.590866 -0.122834 -0.797364
-39.3929 88.1207 490.017 -0.588659 -0.331076 -0.737475
-19.9539 86.5902 495.7 0.665346 -0.0691794 -0.743323
-39.5095 92.3142 491.581 -0.652542 0.0797166 -0.753547
-37.667 92.0308 489.646 -0.626067 0.0685544 -0.77675
-22.357 89.729 493.685 0.699697 -0.0785343 -0.710111
-20.1976 89.3457 495.98 0.712376 -0.0157308 -0.701622
-35.9406 94.805 489.964 -0.496452 0.286411 -0.819453
-22.3344 92.7338 494.841 0.716857 0.0342109 -0.69638
-19.9163 92.3397 496.896 0.734969 -0.0117276 -0.677999
-35.4924 97.5216 491.17 -0.392873 0.383612 -0.835759
-22.3139 95.5831 494.921 0.666242 0.0375346 -0.74479
-33.1694 100.459 491.631 -0.235882 0.271027 -0.933223
-24.2335 99.2967 494.268 0.527005 -0.0245705 -0.849507
-32.509 103.596 491.718 -0.147405 0.180769 -0.972417
-26.6017 102.436 492.467 0.278261 0.0473102 -0.95934
-24.1924 102.178 494.316 0.342228 -0.109746 -0.933186
31.3793 94.2402 509.641 -0.126931 -0.867926 -0.480201
40.469 92.168 510.784 -0.118765 -0.887836 -0.444569
43.1346 91.6401 511.193 -0.109677 -0.890305 -0.44196
46.1423 91.0612 511.875 -0.0867054 -0.899096 -0.429079
49.3182 90.5836 512.686 -0.0678471 -0.904162 -0.421768
51.9548 90.1871 513.359 -0.0504479 -0.903441 -0.425733
54.1843 89.35 515.367 -0.0496181 -0.902805 -0.427177
57.6296 89.1316 514.817 -0.0351277 -0.907686 -0.418177
60.5674 88.3885 516.353 0.0201035 -0.907395 -0.419798
63.204 87.992 517.027 0.120465 -0.894799 -0.42991
66.3053 87.9782 516.821 0.36477 -0.840277 -0.401096
68.8421 88.3228 517.947 0.44823 -0.792197 -0.414142
-32.2239 106.477 491.874 -0.15952 0.0421719 -0.986294
-28.7154 105.853 491.321 0.018211 0.0112997 -0.99977
-25.6626 103.377 494.245 0.241112 -0.0672281 -0.968166
-23.1943 105.088 493.244 0.214561 -0.243847 -0.945781
-20.6389 104.281 494.651 0.242145 -0.374023 -0.89525
-17.5694 104.013 495.771 0.190806 -0.588373 -0.785755
-14.6019 103.482 496.38 0.133564 -0.669766 -0.730462
-11.9718 102.331 498.217 0.19097 -0.766217 -0.613549
-8.67192 103.177 496.685 0.0444212 -0.806403 -0.589696
-6.12798 102.187 498.563 0.0612041 -0.856364 -0.512733
-3.74718 101.831 500.71 0.0660274 -0.866911 -0.494071
4.95829 100.494 502.926 -0.0406405 -0.870611 -0.49029
16.3977 98.74 505.609 -0.0614865 -0.877204 -0.476165
20.441 99.136 503.85 -0.0931137 -0.877228 -0.470957
22.9375 98.0958 505.916 -0.096325 -0.874727 -0.474947
26.3519 97.6602 506.519 -0.110161 -0.871706 -0.477486
28.9611 96.4482 507.209 -0.117912 -0.87298 -0.473289
31.7078 94.7451 506.837 -0.135883 -0.873338 -0.467779
35.5428 94.1685 507.817 -0.135576 -0.873083 -0.468343
38.3392 93.748 508.531 -0.135683 -0.877313 -0.460339
71.8004 90.6761 518.73 0.742154 -0.5446 -0.390665
-31.4917 109.018 492.236 -0.129137 0.00120538 -0.991626
-28.3734 108.938 491.798 -0.0519655 -0.0801286 -0.995429
-2.50015 102.923 498.235 0.0446083 -0.869407 -0.492078
0.0760094 102.537 499.15 0.0252247 -0.87093 -0.490759
2.77307 102.13 499.582 -0.00768459 -0.869603 -0.493692
5.82861 101.672 500.62 -0.0360171 -0.862914 -0.504066
8.85498 101.216 501.264 -0.0469917 -0.858734 -0.510262
73.7202 93.6354 520.011 0.884759 -0.308722 -0.34913
-31.5363 112.478 492.993 -0.143755 -0.0889316 -0.985609
-28.8522 111.305 492.752 -0.100101 -0.0988985 -0.99005
73.399 96.566 517.161 0.94133 -0.182042 -0.284182
-33.7442 115.795 492.046 -0.204178 -0.062496 -0.976937
-30.858 115.049 492.558 -0.18273 -0.105721 -0.977462
-27.6615 114.614 491.981 -0.14764 -0.140165 -0.979059
73.569 99.2371 517.096 0.974516 -0.0285947 -0.222487
-32.9151 118.796 491.299 -0.223324 -0.144574 -0.963963
-30.2403 117.209 491.564 -0.192395 -0.114782 -0.974581
73.3225 101.978 519.674 0.976681 0.114822 -0.181413
-54.82 122.928 485.154 0.14398 -0.963891 -0.224017
-53.0159 123.921 485.822 0.156607 -0.964197 -0.214006
-49.8904 124.712 485.28 0.171698 -0.958079 -0.229358
-32.7067 121.825 491.229 -0.223106 -0.33958 -0.913734
71.6501 106.19 519.173 0.959315 0.247295 -0.136232
72.4542 103.792 518.697 0.967082 0.197742 -0.160156
-48.47 126.018 486.613 0.133764 -0.951248 -0.27791
-46.8363 126.276 486.495 0.112841 -0.951367 -0.286649
-32.2306 124.589 491.34 -0.190751 -0.427821 -0.883506
71.3759 107.997 517.227 0.960281 0.251069 -0.121753
-43.2877 128.047 487.709 0.12291 -0.965253 -0.230608
-34.9006 128.027 491.567 -0.107827 -0.649718 -0.752489
-31.5487 127.722 491.263 -0.16883 -0.578783 -0.797814
69.4782 111.651 515.919 0.959911 0.252798 -0.121093
-37.2963 129.393 489.092 0.0852078 -0.896834 -0.434084
-34.6201 128.991 489.947 -0.0371424 -0.80303 -0.59478
68.7071 115.475 515.745 0.961715 0.229707 -0.149464
68.6313 118.526 517.838 0.94066 0.20851 -0.267735
66.578 122.198 514.427 0.918686 0.336689 -0.206536
67.6082 121.206 516.615 0.93275 0.24427 -0.265158
66.1245 124.967 515.62 0.875437 0.371783 -0.308847
63.8857 128.587 513.756 0.816971 0.496971 -0.292537
60.7875 131.771 514.557 0.795005 0.505172 -0.33581
64.5333 129.253 515.696 0.797731 0.469304 -0.378654
58.38 134.896 513.504 0.822753 0.490275 -0.28759
59.4706 133.045 513.249 0.80743 0.512744 -0.291807
56.6046 138.492 512.873 0.860444 0.452528 -0.23421
54.4845 142.22 510.948 0.873231 0.451066 -0.184407
55.0526 141.55 513.094 0.872486 0.44108 -0.210279
7.46328 152.2 499.636 0.285968 0.724858 -0.626741
9.84037 151.381 500.906 0.267573 0.725965 -0.633545
13.0533 151.06 501.629 0.211671 0.735614 -0.643481
53.976 144.389 511.834 0.862311 0.463716 -0.203441
15.0001 151.87 502.431 0.205651 0.724533 -0.657845
18.2676 152.387 502.194 0.188563 0.747672 -0.636735
24.9789 151.378 503.908 0.157486 0.82007 -0.550166
28.3808 150.359 504.282 0.154282 0.825692 -0.542614
30.4939 150.546 504.286 0.126341 0.833989 -0.537123
51.7971 148.527 511.571 0.802025 0.540108 -0.255027
32.706 152.241 506.832 0.1102 0.809522 -0.576655
47.3441 152.564 508.922 0.484353 0.761328 -0.431025
49.1425 151.794 511.637 0.656207 0.672233 -0.342778
40.8242 154.054 508.783 0.185013 0.797163 -0.574719
47.5355 153.045 510.498 0.542463 0.743924 -0.390271
-86.8731 35.7327 483.769 -0.167557 -0.889681 -0.424726
-84.1692 35.1223 483.849 -0.149911 -0.895286 -0.419511
-81.4884 34.5842 484.47 -0.116094 -0.905658 -0.407806
-78.9358 34.0344 486.111 -0.0904824 -0.908834 -0.407228
-75.801 33.5609 486.102 -0.0666584 -0.915794 -0.396077
-73.0193 33.3107 486.634 -0.0609233 -0.918459 -0.390796
-70.0205 32.7637 487.502 -0.060278 -0.917087 -0.394104
-67.0964 32.1788 487.96 -0.065499 -0.91372 -0.401031
-64.5897 31.408 489.942 -0.0692802 -0.908498 -0.412106
-58.9854 30.125 491.491 -0.0655563 -0.904626 -0.421135
-56.0909 29.4442 492.264 -0.0568009 -0.906118 -0.419195
-53.1062 29.1389 492.649 -0.0514138 -0.907733 -0.416386
-49.8515 29.2642 492.231 -0.0443715 -0.911216 -0.409533
-47.4455 27.785 495.211 -0.0408986 -0.90707 -0.418989
-44.1155 28.2894 493.7 -0.0488445 -0.91129 -0.408858
-41.7532 27.4321 495.687 -0.0468492 -0.908602 -0.415026
-39.1167 26.5333 497.596 -0.0369319 -0.909946 -0.413078
-36.1195 26.0812 497.846 -0.0265991 -0.908967 -0.416018
-33.4829 25.6847 498.52 -0.00703669 -0.896433 -0.443123
-30.4878 25.2357 499.8 0.0400852 -0.869081 -0.493042
-27.2663 25.3552 499.509 0.12126 -0.808412 -0.575991
-24.4181 24.8252 500.005 0.166995 -0.793735 -0.584891
-21.8091 24.2678 502.004 0.197803 -0.782031 -0.591017
-18.9976 24.0132 502.586 0.237194 -0.735059 -0.635159
-15.942 23.5545 503.625 0.275977 -0.71411 -0.643337
-12.8867 23.6823 503.393 0.339219 -0.673142 -0.657123
-10.0617 23.2726 504.136 0.361883 -0.556503 -0.747893
-7.59078 23.3418 505.003 0.419404 -0.389668 -0.819914
-88.4036 36.9768 484.368 -0.185321 -0.881577 -0.434141
-12.3061 26.7936 502.016 0.484381 -0.241825 -0.840771
-9.26304 26.4909 504.012 0.523305 -0.154855 -0.837957
-7.11206 25.5614 504.843 0.523852 -0.216563 -0.82382
-14.3325 30.1062 502.258 0.574932 -0.028818 -0.817693
-12.4106 29.1898 503.427 0.55904 -0.0539122 -0.827386
-9.5504 28.8055 505.099 0.540882 -0.0402692 -0.840134
-16.8447 33.5822 501.614 0.592842 0.114757 -0.797101
-14.8519 32.5255 502.669 0.569807 0.0928292 -0.816519
-19.3291 37.476 500.887 0.597008 0.252994 -0.761298
-17.1587 36.2915 501.991 0.610545 0.232625 -0.757047
-24.6836 41.4709 498.571 0.589319 0.257678 -0.765706
-22.0818 41.3524 500.101 0.58222 0.225733 -0.781066
-19.8256 40.4605 501.146 0.593323 0.226414 -0.772466
-26.6555 45.1756 498.577 0.560899 0.124553 -0.818461
-24.7777 44.1398 499.525 0.552742 0.119841 -0.824691
-21.569 44.1201 501.522 0.560715 0.0791607 -0.824216
-29.506 48.3418 497.309 0.45823 -0.00250199 -0.88883
-27.3157 47.4702 498.743 0.492728 -0.00946786 -0.870132
-34.9063 51.9327 495.044 0.307536 0.335318 -0.890496
-31.9862 51.4952 496.37 0.20635 0.0869927 -0.974603
-29.3179 51.2229 498.014 0.317721 -0.129699 -0.939272
-26.5444 50.9343 499.49 0.396016 -0.255608 -0.88195
-45.7646 56.6503 492.352 0.433413 0.690841 -0.578699
-40.0533 55.1842 493.63 0.286436 0.620409 -0.7301
-37.3646 55.3043 495.934 0.152797 0.539025 -0.828314
-34.7165 55.448 496.626 -0.00114488 0.326204 -0.945299
-31.6957 54.7382 496.376 0.00996663 -0.0127227 -0.999869
-28.7188 53.903 497.658 0.121618 -0.196777 -0.972876
-25.8162 53.488 498.514 0.285751 -0.404426 -0.868784
-22.9762 53.6057 499.376 0.359787 -0.480107 -0.800032
-20.2984 52.9382 501.46 0.436229 -0.426957 -0.792093
-17.7055 52.7418 502.292 0.471378 -0.418247 -0.776448
-11.5663 51.8619 503.815 0.54202 -0.287717 -0.789578
-62.2565 62.3656 487.803 0.441091 0.803374 -0.400036
-59.6945 61.4747 488.478 0.455238 0.796721 -0.397484
-57.081 61.3352 489.393 0.428056 0.820177 -0.379576
-54.4167 60.1764 490.19 0.432771 0.805256 -0.405304
-52.0449 59.8263 493.288 0.405773 0.808585 -0.426074
-48.658 58.3047 493.765 0.437101 0.757172 -0.485421
-43.086 57.4679 495.618 0.258753 0.785983 -0.561496
-33.7296 57.997 497.07 -0.22944 0.389134 -0.89215
-19.6503 53.9365 498.768 0.439197 -0.469374 -0.766025
-16.8949 53.5235 499.988 0.513851 -0.383353 -0.767462
-13.8998 53.0745 501.268 0.552457 -0.3173 -0.770787
-11.1521 54.0946 502.17 0.564074 -0.256367 -0.784918
-68.2203 64.275 486.755 0.374019 0.818726 -0.435658
-66.3049 63.9897 488.275 0.367919 0.848684 -0.379963
-59.7957 63.0141 491.141 0.413196 0.852613 -0.319875
-30.6858 60.3993 495.756 -0.307616 0.0728437 -0.948718
-13.1441 57.9241 500.886 0.664172 -0.107361 -0.739831
-11.1555 57.215 502.778 0.660368 -0.117708 -0.74166
-31.3533 64.1287 497.502 -0.542908 0.314994 -0.778479
-15.3437 61.5569 500.685 0.692844 -0.0104561 -0.721011
-13.2887 60.0894 501.984 0.694293 -0.0169991 -0.719492
-15.5459 64.6002 500.789 0.720944 0.0647808 -0.689959
-28.129 69.6222 496.279 -0.382328 0.256555 -0.887696
-17.9604 67.8415 499.317 0.634637 0.123308 -0.762909
-15.6395 67.2429 501.107 0.712788 0.0957432 -0.694814
-28.049 71.3819 497.002 -0.376271 0.148931 -0.914461
-17.4009 69.9871 500.358 0.600127 0.0808841 -0.795805
-25.4757 74.9369 496.778 -0.171048 -0.0930342 -0.980861
-17.3694 73.6618 500.089 0.569321 -0.0303098 -0.821556
-19.3203 77.0193 498.049 0.516939 -0.113463 -0.848469
-16.7089 76.9012 500.123 0.586582 -0.0551084 -0.808013
-14.0267 76.416 501.995 0.687165 -0.035442 -0.725636
-36.5511 83.2824 495.949 -0.359372 -0.772656 -0.523312
-33.7799 82.6977 496.836 -0.290707 -0.78814 -0.542517
-27.5331 80.5539 496.876 -0.193271 -0.465762 -0.863546
-15.9415 79.8014 500.155 0.639857 -0.0446414 -0.767196
-13.5349 79.2384 501.971 0.705139 -0.0128418 -0.708953
-41.5146 86.104 493.28 -0.550957 -0.483114 -0.680476
-38.8702 84.1327 493.789 -0.445276 -0.653547 -0.61205
-35.8327 83.6742 493.878 -0.332796 -0.762289 -0.555123
-32.9241 83.2364 494.483 -0.228921 -0.788541 -0.570788
-30.3601 82.8517 495.448 -0.153391 -0.727928 -0.668276
-15.8578 82.6235 499.933 0.685128 -0.0178559 -0.728204
-43.6921 89.1603 494.189 -0.646421 -0.160991 -0.745803
-41.1581 89.5311 492.314 -0.683201 -0.183527 -0.706792
-18.0074 86.0493 497.97 0.674972 0.00198857 -0.737841
-15.882 85.3455 500.307 0.703548 0.0277854 -0.710104
-41.5132 92.6237 494.163 -0.709306 0.068254 -0.701589
-17.6384 89.0958 499.164 0.745823 0.0382703 -0.665044
-37.8697 95.6088 492.545 -0.591491 0.248441 -0.767082
-17.5564 92.0992 499.487 0.742558 -0.0296228 -0.669127
-38.1292 97.1701 494.48 -0.545442 0.190363 -0.816244
-19.2426 95.3396 498.576 0.672355 -0.0892924 -0.734824
-36.5745 101.208 494.241 -0.41381 0.144706 -0.898789
-21.6323 98.5946 496.612 0.596609 -0.183641 -0.781238
-19.7341 98.0439 498.792 0.61803 -0.221084 -0.754427
39.3682 90.2719 514.91 -0.114712 -0.8957 -0.429607
53.4242 87.9562 518.543 -0.0494427 -0.90028 -0.432494
57.1254 87.6964 516.967 -0.0322318 -0.90151 -0.431556
59.9807 86.9639 517.812 0.00238117 -0.904551 -0.426359
62.3612 86.1024 519.214 0.0639195 -0.896879 -0.437634
64.8921 85.723 520.311 0.185576 -0.870086 -0.456631
-39.2638 104.655 494.848 -0.397723 -0.0618754 -0.915417
-36.0937 103.914 494.164 -0.281413 0.0577353 -0.957848
-21.2259 101.854 496.599 0.445061 -0.345627 -0.826113
-18.7379 101.535 498.603 0.407378 -0.478299 -0.777993
1.16811 99.1286 505.118 0.0292603 -0.855683 -0.516672
9.55594 97.4486 507.299 -0.0504157 -0.865858 -0.497743
18.2709 96.1749 509.514 -0.0690975 -0.854849 -0.514256
25.0303 94.9635 510.017 -0.0909871 -0.857553 -0.506285
28.3301 93.8862 510.653 -0.0979308 -0.86403 -0.493824
33.8061 93.2178 511.999 -0.11827 -0.881131 -0.457842
36.8288 92.3689 512.68 -0.124785 -0.887079 -0.444431
41.4782 90.2531 513.581 -0.119419 -0.891818 -0.436348
45.0735 89.7125 514.499 -0.0969296 -0.895975 -0.433398
48.1895 89.2439 515.295 -0.0719167 -0.901253 -0.427284
51.0658 88.8114 516.03 -0.0586424 -0.901658 -0.428456
53.7024 88.415 516.703 -0.0508723 -0.901248 -0.430308
68.0041 86.2644 520.356 0.384801 -0.805164 -0.451263
71.3438 88.6269 520.922 0.656013 -0.647081 -0.388501
-41.6291 107.966 493.807 -0.273038 -0.15507 -0.949423
-38.3951 107.574 493.479 -0.329196 -0.0584204 -0.942453
-35.3392 106.69 493.245 -0.243367 -0.0186888 -0.969754
-15.8395 101.906 498.817 0.332665 -0.627153 -0.704282
-13.0431 101.485 499.531 0.282675 -0.727346 -0.62535
-9.17994 101.493 500.064 0.153039 -0.798074 -0.582802
-7.45028 100.644 500.96 0.14205 -0.810687 -0.567986
-4.12868 101.161 503.572 0.0918243 -0.845096 -0.52667
-1.41731 101.154 502.753 0.0439111 -0.865768 -0.498515
2.29653 100.831 502.445 -0.00604073 -0.869751 -0.493453
4.68086 99.8349 505.393 -0.0399025 -0.872651 -0.486711
7.64989 99.2724 504.781 -0.0576804 -0.874383 -0.481796
10.5722 98.7755 505.014 -0.0658826 -0.875629 -0.47847
13.6023 98.3046 505.835 -0.0606396 -0.873503 -0.483028
16.0395 97.112 506.96 -0.0597401 -0.867783 -0.493339
18.909 97.4376 507.147 -0.0648375 -0.870591 -0.487716
21.913 96.2275 507.945 -0.0805206 -0.858015 -0.507274
72.5143 89.6339 522.377 0.742196 -0.545629 -0.389146
-41.0621 110.758 493.545 -0.23944 -0.115464 -0.964021
-38.3375 110.316 493.383 -0.240962 -0.0915776 -0.966204
-34.8538 109.904 493.237 -0.202594 -0.0502725 -0.977971
74.3086 93.411 523.409 0.906934 -0.246585 -0.341564
-40.735 113.744 494.022 -0.224615 -0.0719499 -0.971788
-37.701 113.284 493.358 -0.22144 -0.0697707 -0.972675
-34.3856 112.867 493.148 -0.205572 -0.0556657 -0.977058
73.9651 96.2873 520.614 0.949208 -0.132666 -0.285314
-39.5633 116.8 492.867 -0.214904 -0.0557844 -0.975041
-37.437 115.805 493.077 -0.229203 -0.0529446 -0.971938
74.2517 99.4796 520.35 0.979265 0.04073 -0.198449
73.7778 98.546 522.677 0.974182 0.0302342 -0.223731
-59.9209 121.683 488.058 0.0188064 -0.892551 -0.450554
-39.238 119.141 493.125 -0.2094 -0.153713 -0.965673
-36.5093 119.069 492.455 -0.213578 -0.146864 -0.965824
73.9087 102.775 523.02 0.966764 0.187257 -0.174075
-55.396 124.034 488.06 0.158032 -0.963726 -0.215076
-39.4429 122.566 493.817 -0.205579 -0.337633 -0.918554
-36.4327 122.32 493.116 -0.207909 -0.293107 -0.9332
72.4091 105.577 521.966 0.960139 0.236874 -0.148401
-49.7935 126.223 488.853 0.146557 -0.953583 -0.263061
-46.5723 127.255 489.099 0.125477 -0.951137 -0.282123
-38.2639 124.866 492.839 -0.12992 -0.509438 -0.850643
-35.3334 125.277 492.498 -0.158482 -0.479415 -0.86316
71.2806 109.028 519.569 0.957597 0.251317 -0.140886
-43.9563 128.384 492.113 0.0450032 -0.8868 -0.459957
-41.1531 128.466 491.82 0.0390082 -0.853604 -0.51946
-38.5427 128.073 492.241 -0.0395002 -0.755867 -0.653532
70.0809 111.905 519.153 0.960373 0.207722 -0.185834
69.2886 114.387 519.973 0.959925 0.194284 -0.201986
69.193 117.94 519.376 0.948276 0.149107 -0.280251
68.2666 122.381 520.514 0.884273 0.156932 -0.439811
67.1381 123.81 518.627 0.867225 0.27394 -0.415786
66.0026 128.095 518.722 0.796246 0.386128 -0.465723
66.2362 125.971 519.347 0.83775 0.279722 -0.468968
63.4093 131.662 518.112 0.755801 0.471727 -0.454135
60.3109 134.508 516.945 0.767084 0.488557 -0.415805
57.4251 137.406 515.657 0.81377 0.477882 -0.330768
58.9515 136.168 517.119 0.773453 0.49088 -0.401009
55.8463 141.862 516.975 0.831331 0.445347 -0.332499
4.98321 155.177 500.946 0.368101 0.637484 -0.676843
7.27943 155.057 501.867 0.332857 0.637013 -0.695284
9.61052 154.708 503.036 0.280036 0.638169 -0.717161
12.658 154.25 503.814 0.259684 0.647524 -0.716434
16.2299 153.542 504.046 0.228826 0.683222 -0.69343
19.0108 153.871 504.824 0.221566 0.696078 -0.682923
24.4458 153.082 506.182 0.21741 0.758617 -0.614193
27.2994 151.843 506.531 0.176687 0.791985 -0.584415
53.1659 148.159 514.162 0.837973 0.487967 -0.244314
4.12597 157.487 502.956 0.373875 0.598529 -0.708506
7.70708 157.062 503.755 0.328055 0.592672 -0.735609
10.1687 155.638 504.169 0.279309 0.601765 -0.748242
12.4218 155.299 504.744 0.279111 0.602891 -0.747409
15.2981 154.867 505.479 0.258402 0.622868 -0.73842
18.6251 156.279 507.169 0.289838 0.625477 -0.724412
21.8372 153.879 505.431 0.235043 0.729259 -0.642602
30.9798 153.01 507.918 0.143587 0.802264 -0.579444
34.55 153.653 508.61 0.0964032 0.812747 -0.574586
50.5883 150.569 513.422 0.750888 0.594452 -0.287739
38.1854 154.454 509.141 0.134229 0.800629 -0.583932
41.598 155.966 510.962 0.229881 0.802148 -0.551102
45.8957 155.49 512.913 0.391744 0.789716 -0.472107
49.6864 152.73 514.141 0.670237 0.669813 -0.319582
-56.6469 28.1621 494.706 -0.0562456 -0.901771 -0.428539
-54.2409 27.2972 496.299 -0.0465264 -0.905513 -0.42176
-51.3736 27.3691 496.053 -0.0367491 -0.906142 -0.421375
-48.6589 26.5141 497.739 -0.0357372 -0.907185 -0.419211
-45.1956 26.0884 498.47 -0.0441473 -0.908489 -0.415571
-42.505 26.0356 498.318 -0.0461247 -0.90918 -0.413842
-39.4474 25.5738 498.326 -0.0376104 -0.910426 -0.41196
-36.935 24.5927 500.299 -0.034112 -0.909348 -0.414635
-33.9718 24.4976 499.735 -0.0290473 -0.904598 -0.425275
-31.1791 24.3318 500.954 -0.0159587 -0.907374 -0.42002
-28.3632 23.9091 501.931 0.00927445 -0.895876 -0.444208
-25.4044 22.9601 503.278 0.0514719 -0.884467 -0.463755
-22.3709 23.008 503.462 0.116472 -0.849939 -0.513847
-19.8362 22.1982 505.895 0.150621 -0.844343 -0.514196
-17.5771 22.2872 504.686 0.190518 -0.805188 -0.561583
-14.2025 21.5317 507.363 0.235626 -0.781907 -0.577149
-88.3389 34.6306 486.817 -0.166705 -0.886951 -0.430728
-85.5853 34.0304 487.253 -0.160729 -0.890186 -0.426304
-82.6093 33.5831 488.099 -0.12798 -0.898995 -0.418843
-79.9894 32.686 489.734 -0.0778141 -0.904139 -0.420093
-77.0512 32.646 489.437 -0.0655267 -0.911022 -0.407119
-73.5919 32.3256 489.384 -0.0564744 -0.910878 -0.408793
-70.8475 31.7397 490.136 -0.0591357 -0.911418 -0.407209
-67.9259 31.3722 490.732 -0.0674035 -0.907824 -0.413898
-62.1733 30.5072 492.202 -0.066714 -0.903278 -0.423837
-50.7428 28.2828 495.142 -0.0385914 -0.904747 -0.424197
-44.9902 27.4178 496.612 -0.0453314 -0.906574 -0.419605
-4.40089 22.579 507.122 0.392251 -0.408228 -0.824311
-1.51105 21.9208 509.104 0.322139 -0.448994 -0.833445
0.436777 21.9113 509.709 0.368505 -0.431917 -0.823196
3.29267 21.1747 511.139 0.40525 -0.33951 -0.848826
-3.86309 25.7414 508.155 0.444924 -0.145993 -0.883589
-1.69745 24.7322 509.063 0.438839 -0.157446 -0.884664
-8.80464 30.072 507.592 0.558294 0.0292468 -0.829127
-7.02637 28.6908 507.575 0.556757 0.0118172 -0.830591
-4.44623 28.4072 509.455 0.53124 0.0584571 -0.845202
-11.7947 33.0094 506.212 0.591491 0.170786 -0.788017
-9.75153 31.9106 506.839 0.575699 0.165989 -0.800636
-14.2871 36.7575 504.408 0.600795 0.246819 -0.760345
-12.0384 35.9564 506.143 0.587813 0.241036 -0.772255
-8.9738 35.6616 508.227 0.571589 0.218347 -0.790956
-16.9464 40.5733 504.764 0.578757 0.16385 -0.79887
-14.3121 39.6212 505.511 0.593361 0.162173 -0.78843
-18.7863 43.9085 503.977 0.556023 0.0556377 -0.829302
-17.0359 42.866 504.765 0.567443 0.0636441 -0.82095
-24.4703 47.3388 501.248 0.517193 -0.107564 -0.849083
-21.3628 47.1255 502.483 0.521705 -0.0981371 -0.847463
-18.7468 46.8709 504.034 0.521679 -0.151009 -0.839671
-16.3364 46.6284 505.992 0.498937 -0.181731 -0.84737
-24.0115 50.6832 501.421 0.450622 -0.320182 -0.833321
-20.9372 50.3825 503.232 0.43606 -0.362447 -0.823702
-18.8999 49.8375 503.996 0.469837 -0.322354 -0.821791
-40.4714 56.6425 496.708 0.200682 0.731749 -0.65136
-17.6425 51.6257 504.519 0.466992 -0.356695 -0.809127
-15.1688 51.7566 504.099 0.512573 -0.355464 -0.78161
-12.7688 50.8928 505.764 0.537975 -0.28219 -0.794324
-9.27398 50.9176 506.147 0.520868 -0.261707 -0.812531
-6.74282 50.9128 506.956 0.570511 -0.170138 -0.803474
-57.0996 61.9354 492.201 0.413078 0.848567 -0.330608
-54.723 60.9048 493.179 0.405448 0.850043 -0.336211
-51.3905 59.734 495.776 0.388882 0.845472 -0.365989
-46.5644 58.6685 495.991 0.354412 0.7997 -0.484636
-8.2929 54.3708 505.893 0.629897 -0.118379 -0.767604
-6.54018 53.6115 506.93 0.622629 -0.0999342 -0.77611
-64.8404 64.7848 490.155 0.394017 0.854328 -0.33893
-63.6857 64.6161 492.341 0.39164 0.868871 -0.30279
-33.5311 61.0881 498.112 -0.463892 0.36216 -0.808483
-8.76004 57.1435 506.34 0.687787 -0.0119569 -0.725814
-32.9201 63.527 499.198 -0.559917 0.359815 -0.746342
-10.682 60.0356 505.592 0.71818 0.0518421 -0.693924
-30.7536 67.1423 498.561 -0.592758 0.293567 -0.749971
-13.2913 64.0483 504.416 0.740825 0.0834366 -0.666496
-11.2145 63.4006 505.613 0.745941 0.0839391 -0.660701
-30.6248 69.7971 499.518 -0.568454 0.200111 -0.798007
-13.2923 67.3021 504.611 0.736106 0.0586921 -0.674317
-29.5193 72.7914 499.845 -0.53082 0.0465981 -0.846203
-14.883 70.2004 503.459 0.724908 0.0159347 -0.688662
-12.6484 70.0891 505.364 0.732358 -0.00217852 -0.680916
-28.8378 75.6805 499.898 -0.445979 -0.229702 -0.865066
-14.896 73.5273 502.479 0.685934 -0.0264875 -0.727181
-12.7849 72.0968 504.63 0.719378 -0.0283135 -0.694041
-28.904 78.4632 499.89 -0.417447 -0.416988 -0.807378
-11.7569 75.8186 504.702 0.730429 -0.0253878 -0.682517
-42.727 83.988 496.505 -0.456546 -0.637601 -0.620508
-39.4284 83.7165 495.73 -0.38597 -0.741965 -0.548192
-37.3664 82.4026 499.133 -0.340404 -0.755873 -0.559268
-34.4296 81.9603 499.626 -0.331296 -0.75771 -0.562245
-31.2541 80.8469 498.958 -0.404523 -0.596513 -0.693205
-10.9654 79.1875 504.472 0.733504 0.010291 -0.679608
-44.3833 85.9167 494.986 -0.554737 -0.470241 -0.686397
-13.659 82.2982 502.508 0.734366 0.0214517 -0.678415
-11.3207 81.8211 504.827 0.748243 0.0436123 -0.66199
-13.0886 84.4569 503.976 0.752607 0.0569094 -0.656006
-43.632 92.4452 496.908 -0.653422 0.0129121 -0.756883
-15.0584 88.0027 503.072 0.742679 0.0448809 -0.668142
-12.8155 88.3902 505.125 0.744348 -0.000631458 -0.667792
-41.3383 94.6248 496.017 -0.664392 0.117597 -0.738074
-14.8729 91.6811 502.932 0.710757 -0.0980814 -0.696566
-39.3475 98.8756 496.171 -0.568831 0.1063 -0.815556
-16.8413 95.1999 502.011 0.641371 -0.203353 -0.739791
-14.7569 94.6761 503.934 0.625365 -0.255154 -0.737438
-40.0156 101.669 496.785 -0.527294 -0.038569 -0.848807
-16.7875 97.9282 502.277 0.590613 -0.318902 -0.741268
-14.3735 97.5894 504.062 0.530922 -0.440831 -0.723733
38.2166 89.2956 517.619 -0.115189 -0.890479 -0.440203
41.4388 89.0978 517.021 -0.117065 -0.892914 -0.434742
44.0939 88.3514 517.533 -0.0947325 -0.898498 -0.428635
47.1797 87.8877 518.45 -0.0727793 -0.89766 -0.434637
50.3561 87.4094 519.003 -0.0530297 -0.899455 -0.433785
52.6704 87.065 520.97 -0.0419774 -0.894709 -0.444672
55.7518 86.6996 520.532 -0.0446535 -0.900747 -0.432042
58.9477 85.8647 521.208 -0.0164931 -0.902738 -0.429875
61.3052 85.2601 522.852 0.0231672 -0.898498 -0.438366
63.9418 84.8637 523.525 0.148212 -0.886045 -0.439269
67.4763 84.8746 523.633 0.38405 -0.816762 -0.430588
70.0823 85.1402 524.659 0.468419 -0.752503 -0.46295
-42.4443 104.881 495.885 -0.363654 -0.194501 -0.911002
-40.8348 103.653 496.639 -0.436041 -0.120394 -0.891837
-16.0907 100.601 500.87 0.412513 -0.560027 -0.718472
-13.3971 100.072 502.637 0.372734 -0.599649 -0.70816
-10.8456 99.7471 503.243 0.293243 -0.703886 -0.646957
-7.80166 99.4063 504.119 0.214085 -0.766912 -0.60499
-5.03148 99.1925 505.423 0.174021 -0.799661 -0.574682
-1.77851 99.46 504.599 0.0761266 -0.844998 -0.529323
0.0305782 98.3188 507.87 0.0729577 -0.832696 -0.548903
4.0103 98.4778 506.312 -0.00954408 -0.858658 -0.512459
6.47961 97.4483 508.126 -0.0316153 -0.851289 -0.523743
9.21114 96.1293 510.248 -0.0467451 -0.853369 -0.519207
12.0594 96.5794 509.547 -0.0562448 -0.856584 -0.512934
15.1691 96.1408 510.015 -0.0521523 -0.856952 -0.51275
17.8897 94.8222 511.639 -0.0647667 -0.851059 -0.521061
20.7877 95.0578 511.321 -0.0797373 -0.853943 -0.514221
23.9282 93.4072 512.687 -0.0813676 -0.858665 -0.506037
27.3301 92.3887 513.06 -0.0786459 -0.868369 -0.489642
30.6056 92.4641 513.552 -0.088731 -0.875356 -0.475266
33.0827 91.5237 514.53 -0.0984954 -0.882922 -0.459073
35.959 91.0912 515.265 -0.10879 -0.891379 -0.44001
71.3648 87.45 523.21 0.659572 -0.63086 -0.408632
72.9172 87.6853 525.607 0.751261 -0.525277 -0.399614
-47.7803 108.743 494.976 -0.226934 -0.256426 -0.939546
-44.6917 107.185 494.265 -0.291716 -0.266552 -0.918614
1.32378 100.341 505.223 0.0136556 -0.862305 -0.506204
73.86 90.4455 523.711 0.855342 -0.369444 -0.363181
74.5959 90.0895 526.745 0.844229 -0.399828 -0.356952
-47.4454 111.827 495.073 -0.224263 -0.115521 -0.967657
-44.5047 111.145 494.184 -0.240507 -0.130347 -0.961855
-47.2348 114.527 495.429 -0.23922 -0.0277406 -0.970569
-44.2056 114.326 494.795 -0.243866 -0.027289 -0.969425
74.8967 96.1591 525.364 0.957028 -0.039043 -0.287355
-65.497 120.504 488.778 -0.669824 -0.00829792 -0.742473
-63.263 120.671 488.297 -0.141466 -0.712791 -0.686962
-46.549 117.66 495.405 -0.199794 -0.111052 -0.973524
-43.3574 117.174 494.058 -0.224882 -0.0710305 -0.971793
74.4083 98.9613 524.536 0.97202 0.068283 -0.224753
-60.5716 122.295 490.965 0.104672 -0.931313 -0.348856
-43.4028 120.145 494.818 -0.21371 -0.23195 -0.948961
-56.7942 123.745 490.302 0.149596 -0.956428 -0.250732
-53.5588 125.28 490.789 0.0937466 -0.972118 -0.214939
-42.5608 123.24 494.977 -0.156823 -0.446536 -0.880915
73.218 105.718 525.823 0.956653 0.212523 -0.19912
-50.6377 126.357 491.216 0.085757 -0.965192 -0.247084
-47.9271 126.88 493.332 0.0416125 -0.916567 -0.397709
-45.0259 126.723 494.199 -0.0320642 -0.737547 -0.674534
-42.3222 126.172 494.69 -0.0992026 -0.646895 -0.756099
71.3565 108.773 522.864 0.959324 0.192417 -0.206576
70.8231 111.466 522.794 0.955205 0.167663 -0.243868
69.2578 115.813 521.954 0.941417 0.115687 -0.316783
69.2559 118.643 522.753 0.907204 0.0343492 -0.419287
69.5041 121.273 522.745 0.857453 0.0622512 -0.510782
67.7494 124.88 520.947 0.83451 0.193852 -0.515766
69.5557 124.03 523.175 0.783584 0.0711103 -0.617203
67.9121 127.848 521.649 0.750769 0.298351 -0.58935
69.6164 126.758 523.034 0.740612 0.203552 -0.64036
65.6731 130.989 520.422 0.723352 0.426027 -0.543381
67.1927 131.005 522.649 0.661901 0.375995 -0.648472
62.8832 134.445 520.619 0.703085 0.467676 -0.535678
58.1691 138.311 518.041 0.783349 0.479426 -0.395619
59.8915 137.652 520.233 0.711977 0.489743 -0.503231
57.0787 140.501 518.835 0.786756 0.464631 -0.406366
58.6741 139.251 520.02 0.731591 0.484953 -0.479162
55.0707 144.228 517.775 0.81093 0.45979 -0.36192
53.2971 148.275 517.8 0.805835 0.491337 -0.330481
10.2595 157.884 505.371 0.289397 0.564534 -0.773014
12.8802 157.533 506.269 0.291692 0.559605 -0.77573
15.468 157.204 506.803 0.274709 0.596522 -0.75412
21.6148 156.087 508.184 0.28576 0.674309 -0.680918
24.3256 155.662 508.988 0.273483 0.694969 -0.665
27.0492 154.619 509.451 0.240343 0.729668 -0.640172
30.3597 154.627 510.276 0.175249 0.744492 -0.644221
33.071 154.725 510.949 0.137616 0.764763 -0.629443
50.9429 151.33 515.749 0.744037 0.589765 -0.313985
4.0416 160.781 505.39 0.315474 0.541722 -0.77911
7.3016 160.625 505.058 0.302994 0.537392 -0.787022
9.76042 160.383 506.519 0.28734 0.531514 -0.796824
13.0663 160.267 507.799 0.300991 0.529719 -0.79297
15.6567 160.384 508.956 0.348417 0.539696 -0.766377
18.5799 159.032 508.966 0.337435 0.579523 -0.741816
21.3339 159.026 510.771 0.347911 0.587155 -0.730894
26.6698 156.199 511.356 0.26589 0.704115 -0.658426
29.4662 155.778 512.07 0.187825 0.733609 -0.653099
34.0119 156.103 512.159 0.140242 0.752508 -0.643479
37.0838 156.146 512.408 0.153726 0.770289 -0.618889
39.6763 156.26 512.534 0.200115 0.800626 -0.564759
48.4846 154.687 516.255 0.572819 0.709152 -0.411075
7.082 163.144 506.519 0.291302 0.521421 -0.802037
38.8627 157.399 514.348 0.183873 0.775979 -0.603364
42.4261 157.876 515.991 0.348892 0.76596 -0.539981
-91.1687 33.3612 488.981 -0.178547 -0.8724 -0.455016
-89.2512 33.0729 489.471 -0.180334 -0.876673 -0.446009
-86.254 32.6209 489.721 -0.157124 -0.884383 -0.439521
-83.4986 32.2079 490.941 -0.148898 -0.888346 -0.434362
-80.7581 31.2918 492.263 -0.0802505 -0.901684 -0.424883
-78.0708 30.7494 492.822 -0.0638061 -0.907115 -0.416019
-74.7956 30.4643 492.592 -0.0571036 -0.905776 -0.419892
-72.2119 29.6358 494.444 -0.0624868 -0.903079 -0.424903
-69.3235 29.1302 495.309 -0.0667086 -0.900016 -0.430723
-66.3037 29.1874 494.761 -0.0685119 -0.901614 -0.42708
-63.4079 28.6796 495.449 -0.0682365 -0.899974 -0.43057
-60.7858 27.5548 497.179 -0.0644664 -0.899178 -0.432809
-57.8452 26.8344 497.886 -0.0510119 -0.900594 -0.431659
-51.8014 26.428 498.194 -0.0340982 -0.906659 -0.420484
-43.138 25.1249 500.26 -0.0439126 -0.907633 -0.41746
-40.5499 24.2333 502.145 -0.0367158 -0.909654 -0.41374
-38.1996 23.3786 504.398 -0.0340885 -0.911313 -0.4103
-34.5091 23.8274 502.464 -0.0298246 -0.911401 -0.410438
-31.5129 23.3769 503.23 -0.0173564 -0.91078 -0.412527
-29.2668 22.5378 505.463 -0.0153518 -0.910522 -0.413175
-26.5131 21.6193 506.61 -0.00613062 -0.911271 -0.411761
-23.4195 21.822 506.613 0.0158919 -0.906826 -0.421206
-20.9266 21.2862 508.533 0.0327968 -0.905477 -0.423127
-17.3963 21.5104 508.115 0.13033 -0.860703 -0.492142
-15.0141 20.3259 510.414 0.122117 -0.861897 -0.492159
-11.2295 21.3381 508.37 0.170133 -0.746055 -0.643784
-5.71656 20.5092 509.778 0.180021 -0.676775 -0.713841
-2.63079 20.0455 510.696 0.195719 -0.627329 -0.753759
0.154692 19.6279 511.868 0.257044 -0.543132 -0.799335
2.79159 19.231 512.394 0.305062 -0.409149 -0.859962
5.33001 18.2208 514.403 0.289429 -0.431636 -0.854354
8.40648 17.8851 515.383 0.313543 -0.457444 -0.832128
11.641 17.4575 515.959 0.290854 -0.368898 -0.88279
14.7192 16.6853 517.865 0.216077 -0.389573 -0.89529
-90.678 34.9701 488.008 -0.182169 -0.876226 -0.446142
6.14673 20.7485 512.985 0.399134 -0.28219 -0.872388
9.16197 20.2962 514.185 0.410539 -0.163493 -0.897066
11.9727 19.8258 515.971 0.424388 -0.160481 -0.891146
1.08186 24.5438 511.569 0.496817 -0.0835903 -0.86382
3.37104 24.0564 513.277 0.429613 -0.139975 -0.892098
6.07153 23.494 514.351 0.454902 -0.0623415 -0.888357
8.96756 22.9284 515.037 0.460137 0.0208227 -0.887604
-1.52487 28.5169 511.89 0.539741 0.103 -0.835506
0.613825 27.5543 512.739 0.508115 0.0782579 -0.857727
-6.95026 31.8186 509.118 0.565398 0.203275 -0.799378
-4.35479 31.4298 510.366 0.552662 0.198568 -0.809404
-1.87785 30.8577 511.969 0.554758 0.18505 -0.811172
-6.16992 35.6176 510.604 0.544051 0.172968 -0.82103
-4.27411 34.244 511.251 0.543643 0.208889 -0.812907
-11.6105 39.4538 507.766 0.555191 0.116867 -0.823471
-9.00578 39.1428 509.772 0.532302 0.0867707 -0.842096
-6.3404 38.3766 510.708 0.509069 0.0811118 -0.856895
-14.1026 43.0062 506.781 0.521855 -0.0131706 -0.852933
-11.3442 42.9997 508.922 0.505046 -0.0447397 -0.861932
-8.89859 42.3745 510.535 0.496654 -0.0451878 -0.866772
-13.9499 46.0964 507.329 0.497489 -0.144154 -0.855409
-11.591 45.2618 508.863 0.477851 -0.151611 -0.865259
-8.40807 45.0461 510.771 0.503278 -0.101806 -0.858106
-15.9133 49.2453 506.284 0.477565 -0.292664 -0.82842
-13.3315 48.8144 507.181 0.500207 -0.277138 -0.820358
-10.7191 48.0241 508.85 0.497279 -0.244327 -0.832477
-7.63447 47.5995 509.756 0.520188 -0.146177 -0.841449
-4.67886 47.8264 510.577 0.550363 -0.0968945 -0.829284
-2.18898 47.2892 512.243 0.543659 -0.0367372 -0.838502
-4.2166 50.6211 509.077 0.586535 -0.102124 -0.80346
-2.02249 50.2253 511.279 0.580203 -0.0310557 -0.813879
-54.6788 61.2424 495.927 0.376913 0.871647 -0.313317
-49.5279 60.4711 498.445 0.293974 0.870406 -0.394934
-43.9621 58.6197 498.705 0.209691 0.814559 -0.540854
-41.247 58.2133 500.086 0.0789165 0.781097 -0.619403
-38.4299 58.8868 501.363 -0.188953 0.689361 -0.699342
-3.729 52.8185 510.571 0.624446 -0.0207626 -0.780792
-61.6543 64.3183 495.782 0.371454 0.895445 -0.245358
-57.9671 62.7509 496.077 0.385497 0.884234 -0.263672
-35.375 61.3735 500.735 -0.520858 0.421485 -0.742332
-5.97945 57.1114 509.613 0.693383 0.0795343 -0.716167
-35.2287 63.631 502.285 -0.596548 0.409047 -0.690515
-8.93756 60.2893 508.109 0.721964 0.0897325 -0.686087
-6.42804 59.9622 509.915 0.707746 0.121353 -0.695967
-32.9414 67.0756 501.37 -0.672755 0.29512 -0.678458
-8.46988 62.7684 509.366 0.716897 0.107467 -0.688846
-33.5901 69.7056 502.736 -0.717864 0.141721 -0.681606
-10.8136 66.8608 507.274 0.728723 0.0396235 -0.683662
-8.35151 66.3509 510.024 0.709226 0.0397233 -0.703861
-32.8803 73.3911 502.807 -0.696667 -0.112503 -0.708519
-10.3 69.5372 507.279 0.727734 0.000975826 -0.685858
-7.9487 69.5815 510.145 0.700111 -0.000631326 -0.714034
-31.7787 76.004 502.074 -0.598864 -0.320133 -0.734082
-9.84227 72.8306 507.221 0.723748 -0.0328827 -0.689281
-7.41387 72.422 509.802 0.707437 -0.0200425 -0.706492
-32.623 79.1181 502.352 -0.533469 -0.535761 -0.654501
-9.44462 75.8221 506.988 0.729421 -0.0106294 -0.683983
-7.22729 74.6393 508.733 0.720857 -0.0134004 -0.692954
-45.8623 84.7655 497.619 -0.554864 -0.483134 -0.677279
-44.1498 82.9247 500.331 -0.376928 -0.710968 -0.593675
-40.4571 82.6541 499.642 -0.3441 -0.755361 -0.557696
-38.1786 81.5183 500.771 -0.309439 -0.774534 -0.551675
-35.0163 80.5358 501.084 -0.440588 -0.678836 -0.587422
-8.68293 78.5484 507.886 0.737071 0.0172337 -0.675595
-47.8417 86.5093 497.645 -0.60729 -0.382596 -0.69629
-46.65 87.0872 497.403 -0.623139 -0.31875 -0.714211
-8.82614 81.6344 508.426 0.743752 0.0645459 -0.665332
-46.0458 90.2842 497.941 -0.664691 -0.0557363 -0.745036
-10.5075 84.9411 507.296 0.74459 0.0361058 -0.666545
-10.5992 87.8636 507.703 0.735429 -0.030994 -0.676892
-43.6213 94.9758 498.356 -0.651879 0.0536963 -0.75642
-12.3667 91.1417 505.863 0.697057 -0.125153 -0.706009
-10.2201 91.1585 508.516 0.652273 -0.22383 -0.724182
-41.9595 98.0399 498.418 -0.582477 0.0216339 -0.812559
-12.163 94.6042 506.685 0.566692 -0.387903 -0.726905
-9.67143 94.0643 508.407 0.492921 -0.471332 -0.731352
42.9469 86.5136 521.962 -0.0942624 -0.883125 -0.459569
45.7479 85.9244 522.899 -0.0655939 -0.888421 -0.454319
48.5795 84.6562 523.725 -0.0547469 -0.888407 -0.455779
54.1905 84.2057 525.131 -0.0369726 -0.893467 -0.447605
57.4386 83.1861 526.003 -0.0220307 -0.898352 -0.438723
63.0506 83.0869 527.397 0.078866 -0.884801 -0.459247
68.7408 82.1296 528.649 0.340701 -0.802977 -0.48903
-43.4635 102.201 498.929 -0.469746 -0.229986 -0.852317
-11.6943 96.8208 506.428 0.48316 -0.474329 -0.735913
-8.88511 96.8324 507.395 0.402614 -0.579103 -0.708902
-6.5378 95.8074 508.831 0.378786 -0.611723 -0.694489
-3.7814 95.8517 510.024 0.243154 -0.709004 -0.661958
7.90539 94.167 513.154 -0.000806629 -0.823687 -0.567045
13.3913 93.1833 514.606 -0.0392993 -0.843972 -0.534946
16.2621 92.6337 515.361 -0.0550027 -0.849564 -0.524609
19.6609 92.3717 514.783 -0.0613721 -0.849989 -0.523213
22.5838 91.6895 515.407 -0.068958 -0.86073 -0.50437
26.196 90.882 515.932 -0.062626 -0.871101 -0.487094
29.3169 90.5313 516.983 -0.0620928 -0.885789 -0.459916
32.0574 90.3388 517.846 -0.0734631 -0.89063 -0.448755
34.6094 89.6947 518.538 -0.0890302 -0.888822 -0.449521
37.509 88.8472 520.125 -0.100901 -0.882939 -0.458516
39.9663 88.477 520.495 -0.116435 -0.883288 -0.454142
42.3358 87.1067 520.11 -0.100604 -0.888061 -0.448583
46.2908 86.512 521.12 -0.0642404 -0.893443 -0.44456
49.5276 86.0239 521.431 -0.0591036 -0.893318 -0.445522
52.124 85.634 522.266 -0.0452707 -0.894992 -0.443779
55.1603 85.1772 522.944 -0.0375413 -0.895344 -0.443791
58.1566 84.7264 523.635 -0.0255 -0.897739 -0.439789
60.7932 84.3299 524.309 0.0133301 -0.896815 -0.442206
63.1901 83.9695 524.921 0.0991088 -0.887404 -0.450213
66.6646 83.4484 526.324 0.261613 -0.855963 -0.445967
68.8218 83.124 526.875 0.353628 -0.812942 -0.46268
71.2804 84.5912 528.322 0.51512 -0.724681 -0.4577
-55.0555 106.596 496.878 -0.194227 -0.499055 -0.844523
-52.2713 105.75 497.359 -0.18967 -0.504171 -0.842518
-48.8693 105.575 496.966 -0.276059 -0.394767 -0.876328
-45.8584 105.169 496.442 -0.332371 -0.318337 -0.887801
-6.23236 97.4427 507.237 0.307278 -0.701318 -0.64322
-3.10824 97.6161 507.884 0.16226 -0.788938 -0.592662
0.305973 97.4744 510.242 0.0806885 -0.807573 -0.584222
2.67215 97.369 509.934 0.0384506 -0.81946 -0.571845
5.52606 96.1818 510.822 0.0132431 -0.826888 -0.56221
8.26934 95.2616 510.77 -0.0136017 -0.832214 -0.554288
11.2644 94.8126 512.05 -0.0436658 -0.838832 -0.542637
14.1418 94.3786 512.27 -0.0469855 -0.846232 -0.530739
17.3776 93.892 513.096 -0.0617925 -0.847706 -0.526855
73.4918 86.4695 528.937 0.706646 -0.568932 -0.420676
-57.4556 110.123 496.101 -0.148753 -0.225464 -0.962828
-54.0752 108.888 495.532 -0.206922 -0.250411 -0.945768
-51.2504 108.257 495.501 -0.1695 -0.337981 -0.925764
75.1404 89.2526 528.204 0.825377 -0.411419 -0.386636
-53.5812 112.301 495.69 -0.199943 -0.071507 -0.977195
-50.6986 111.851 495.536 -0.222808 -0.130705 -0.966061
75.3233 92.8895 527.587 0.929579 -0.206818 -0.305137
-50.8465 114.648 496.438 -0.190947 -0.0796455 -0.978364
76.2291 95.6645 529.175 0.961782 0.00477347 -0.273775
-66.6555 120.18 491.08 -0.515487 -0.196238 -0.834125
-49.805 118.155 496.653 -0.199992 -0.140798 -0.969628
74.9258 99.3976 527.871 0.967745 0.128488 -0.216702
-63.9599 121.797 491.687 -0.0710203 -0.742066 -0.666553
-61.2916 123.677 494.598 0.0811303 -0.915704 -0.393578
-49.3282 120.662 496.62 -0.274796 -0.374148 -0.88572
-46.3596 120.868 495.736 -0.252474 -0.300691 -0.919696
74.4175 102.302 526.467 0.963798 0.193481 -0.18346
-57.5868 124.63 492.905 0.138362 -0.960153 -0.242823
-54.6074 125.7 494.12 0.091066 -0.931823 -0.351302
-49.3449 124.324 497.207 -0.155943 -0.632114 -0.759022
-46.2182 123.679 495.962 -0.152768 -0.500733 -0.852014
-53.2806 126.763 493.635 0.0975583 -0.958709 -0.267131
-50.9999 126.565 494.506 0.00411598 -0.92943 -0.368974
71.7691 108.72 526.321 0.952696 0.12571 -0.276709
70.9792 112.326 525.411 0.928839 0.0586883 -0.365806
71.3289 112.331 528.129 0.897973 -0.0539991 -0.436725
69.924 115.569 525.327 0.911513 0.012028 -0.411095
71.3908 118.133 526.879 0.792622 -0.12994 -0.595707
73.9432 117.55 528.725 0.62943 -0.326089 -0.705325
76.7418 117.331 529.277 0.495898 -0.380744 -0.780461
79.9776 116.845 530.104 0.347459 -0.453945 -0.820491
82.7744 116.424 530.646 0.268155 -0.4573 -0.847921
72.2942 120.826 526.084 0.677462 -0.120075 -0.725691
74.1219 119.698 527.239 0.61314 -0.223296 -0.757758
77.5691 120.001 528.086 0.465122 -0.274745 -0.841532
80.4104 119.304 528.823 0.345126 -0.287846 -0.893327
83.3634 119.367 530.073 0.311941 -0.228459 -0.922225
85.7774 119.006 531.403 0.278426 -0.237781 -0.930559
100.634 116.612 535.196 0.346829 -0.137089 -0.927856
72.7878 123.988 526.218 0.618239 -0.0166721 -0.785813
75.4244 123.592 526.891 0.52662 -0.0850007 -0.845841
78.2398 122.911 528.136 0.418197 -0.11885 -0.900548
80.9725 123.013 529.329 0.334985 -0.134667 -0.93255
83.8488 122.581 530.064 0.354646 -0.06343 -0.932847
86.4429 121.992 530.952 0.337383 -0.0878465 -0.93726
89.2927 121.399 532.329 0.307036 -0.0380078 -0.950939
101.087 119.738 535.423 0.395449 0.0488197 -0.91719
103.731 119.341 536.07 0.423205 0.0549178 -0.904368
73.2303 126.7 525.316 0.593884 0.0892996 -0.799579
76.0164 126.282 526.157 0.523287 0.0728326 -0.849038
78.4652 126.246 527.542 0.429221 0.0547446 -0.901539
81.0004 125.329 528.727 0.36469 0.0340737 -0.930505
84.0778 125.554 530.918 0.388278 0.110482 -0.914895
86.7195 125.101 531.538 0.403546 0.127276 -0.906064
70.3815 130.324 524.612 0.59285 0.276404 -0.756393
73.2801 129.794 526.687 0.525073 0.247974 -0.81413
75.9981 129.577 528.168 0.458432 0.271671 -0.846188
78.6689 128.973 528.79 0.43571 0.250646 -0.864484
81.6033 128.59 529.851 0.415856 0.225819 -0.880948
65.7608 134.377 523.015 0.645981 0.426048 -0.633396
68.1585 133.805 525.11 0.567459 0.384368 -0.728183
70.1549 132.982 526.136 0.539947 0.339064 -0.770385
71.4342 131.273 526.618 0.53509 0.309969 -0.785874
62.6757 137.643 522.916 0.633398 0.471448 -0.613631
65.846 137.277 524.54 0.575661 0.446094 -0.685284
68.1578 136.824 526.379 0.536564 0.42558 -0.728685
60.0337 140.992 522.867 0.650067 0.482625 -0.586929
63.3818 138.552 524.316 0.601269 0.451558 -0.65922
55.6636 144.763 520.078 0.796238 0.448083 -0.406482
57.4441 143.893 522.259 0.719993 0.460483 -0.519196
54.8921 147.24 520.474 0.781836 0.469442 -0.410312
55.9685 145.734 522.178 0.742847 0.452416 -0.493456
52.5697 151.215 520.336 0.77203 0.516959 -0.36976
24.2508 158.496 511.691 0.314438 0.634286 -0.706265
26.7708 157.704 512.867 0.294154 0.662759 -0.688639
29.2913 157.021 513.214 0.223823 0.708399 -0.669383
33.2455 157.091 513.991 0.1639 0.742578 -0.649396
50.2606 154.172 518.868 0.6734 0.624573 -0.395527
51.5956 152.453 518.754 0.741587 0.568729 -0.355805
4.97757 164.522 507.467 0.308816 0.519899 -0.796453
9.96647 163.433 508.188 0.31686 0.516335 -0.795612
13.0125 162.638 509.065 0.324548 0.512029 -0.795295
15.5927 162.42 510.405 0.363471 0.517046 -0.774953
18.2293 162.024 511.079 0.374991 0.538049 -0.754908
21.0553 161.98 512.494 0.374925 0.562194 -0.737136
24.2868 160.358 513.946 0.351679 0.59901 -0.719381
26.6321 159.246 514.318 0.305285 0.641531 -0.703733
29.2687 158.85 514.991 0.259131 0.66986 -0.6958
31.426 158.525 515.542 0.203301 0.71006 -0.674154
36.5967 158.25 515.554 0.18846 0.755892 -0.626985
39.364 159.692 517.819 0.278464 0.753473 -0.595598
40.5953 159.166 516.772 0.270033 0.7873 -0.554293
45.4629 158.267 518.623 0.424629 0.756431 -0.497496
47.1574 157.168 518.489 0.523054 0.713548 -0.466115
48.6838 155.93 519.951 0.594075 0.676713 -0.434895
5.41966 166.478 507.705 0.311993 0.518613 -0.796053
7.36759 166.982 508.833 0.321504 0.513938 -0.7953
9.63751 166.351 509.492 0.321626 0.514087 -0.795155
12.7224 166.162 510.967 0.336438 0.516462 -0.78745
15.8146 163.907 511.432 0.376494 0.515483 -0.76976
18.4513 163.51 512.106 0.383278 0.530923 -0.75579
-61.841 25.4226 500.667 -0.0606364 -0.902754 -0.425862
-58.7853 25.4662 500.47 -0.053659 -0.902847 -0.4266
-56.1487 25.0697 501.143 -0.044338 -0.902009 -0.429434
-53.8303 24.4075 502.651 -0.0343391 -0.907942 -0.417687
-50.1564 24.1687 502.674 -0.0322601 -0.906339 -0.421319
-47.5198 23.7722 503.348 -0.0383056 -0.906358 -0.420771
-44.4038 23.3037 504.143 -0.042946 -0.908834 -0.414941
-41.4469 22.8581 504.555 -0.0350537 -0.909634 -0.413929
-38.8909 22.4747 505.552 -0.0298784 -0.912033 -0.409028
-35.7749 22.0061 506.348 -0.0331244 -0.91157 -0.409809
-32.8986 21.5736 507.082 -0.0291443 -0.912397 -0.408268
-30.262 21.1772 507.756 -0.0181517 -0.913203 -0.4071
-26.7854 20.6531 508.128 -0.00617322 -0.914731 -0.404015
-24.03 20.2401 509.348 0.0064143 -0.915771 -0.401649
-21.3079 19.749 510.992 0.0201745 -0.917988 -0.396095
-19.2102 19.5204 512.513 0.0167705 -0.917721 -0.396871
11.4443 14.9058 518.41 0.184044 -0.624262 -0.759226
14.081 14.5094 519.083 0.200231 -0.5414 -0.816575
16.4989 13.895 520.484 0.15176 -0.568913 -0.808274
19.697 13.1618 521.483 0.161612 -0.534004 -0.829892
22.4471 12.7479 522.043 0.206367 -0.458062 -0.864634
24.9962 11.5214 522.57 0.239724 -0.505753 -0.828702
27.9887 11.6547 523.262 0.327089 -0.297854 -0.896825
30.8842 11.2281 524.867 0.361526 -0.273653 -0.891299
33.3949 10.852 526.045 0.356553 -0.269119 -0.894676
-92.9055 32.6882 492.254 -0.174917 -0.869126 -0.462627
-90.111 31.6938 492.536 -0.173523 -0.870989 -0.459639
-87.2184 31.7624 492.481 -0.160111 -0.88067 -0.445852
-84.5291 30.8557 494.434 -0.143006 -0.882994 -0.447069
-81.8882 29.9541 495.559 -0.076248 -0.899437 -0.430348
-75.7595 29.4609 495.192 -0.0605539 -0.904215 -0.422763
-67.1287 28.2356 497.504 -0.0673457 -0.898334 -0.43412
-64.1173 27.7103 498.166 -0.0663994 -0.89863 -0.433653
-55.2782 25.9474 500.294 -0.0377861 -0.901922 -0.430242
-52.6416 25.5509 500.967 -0.0356455 -0.906107 -0.421544
-50.005 25.1544 501.641 -0.0303958 -0.908009 -0.417846
-46.889 24.6859 502.437 -0.0399291 -0.906637 -0.420018
-43.773 24.2173 503.233 -0.0420816 -0.907636 -0.417643
-35.1441 22.9198 505.437 -0.0341921 -0.913616 -0.405138
-32.5075 22.5234 506.11 -0.02693 -0.909708 -0.414374
-12.4941 20.0926 511.494 0.127064 -0.846281 -0.517361
-9.5433 19.5772 512.472 0.102592 -0.817611 -0.566558
-7.20527 18.9749 513.853 0.094978 -0.819939 -0.564517
-3.86519 18.7951 513.698 0.134066 -0.769823 -0.624018
-0.673658 18.2422 514.222 0.126309 -0.717476 -0.685036
2.17454 17.742 515.1 0.18319 -0.701159 -0.68907
17.2803 16.301 518.842 0.290731 -0.340592 -0.894132
20.6137 15.5468 519.639 0.361081 -0.191292 -0.912703
23.1697 15.1634 520.636 0.348805 -0.212654 -0.912751
25.6872 14.9774 522.41 0.408225 -0.124778 -0.904313
28.6986 14.3372 524.025 0.402188 -0.113971 -0.908436
-93.5592 36.2583 491.879 -0.179115 -0.867996 -0.463142
15.0158 19.4229 518.316 0.388993 -0.11209 -0.914396
17.6255 19.0308 519.097 0.432519 0.00287164 -0.90162
20.9318 18.6204 520.884 0.41129 0.0597772 -0.909542
23.1939 17.6918 522.03 0.417075 0.0434049 -0.907835
-92.4931 37.6108 490.543 -0.177943 -0.870649 -0.458592
12.3174 22.8092 517.549 0.437097 0.0590693 -0.897473
14.4943 22.9145 519.535 0.468989 0.0823387 -0.879357
17.4754 22.2954 521.266 0.491 0.117951 -0.863138
3.47472 27.2254 515.009 0.495649 0.0962408 -0.863174
5.93671 26.8572 516.383 0.488075 0.129769 -0.863101
9.04781 26.7283 517.851 0.472765 0.161572 -0.866249
12.206 25.9178 519.256 0.487391 0.165234 -0.857407
1.02401 30.5508 514.625 0.508373 0.167026 -0.844783
4.01426 30.1243 516.459 0.508214 0.191946 -0.839568
6.23874 29.4091 517.043 0.497091 0.1948 -0.845549
9.06094 29.1721 518.53 0.490921 0.219122 -0.843198
-1.5186 34.3976 513.463 0.52277 0.153432 -0.838553
1.53901 34.3808 515.67 0.508289 0.121385 -0.852589
4.24339 33.7892 516.884 0.498484 0.121027 -0.858409
6.79941 33.4057 517.881 0.500766 0.144115 -0.853501
-3.68185 38.4986 512.913 0.505628 0.0601309 -0.860654
-1.18658 38.2938 514.253 0.488851 0.0361382 -0.871618
1.68011 37.7463 515.57 0.490852 0.0557124 -0.86946
4.67058 37.164 517.199 0.510659 0.0692486 -0.85699
-5.82241 41.7692 511.99 0.511409 -0.0164066 -0.859181
