ply
format ascii 1.0
element vertex 880
property float x
property float y
property float z
property float nx
property float ny
property float nz
end_header
-34.2798 -47.7658 625.241 -0.272519 -0.830718 -0.485428
-30.6535 -46.8057 623.22 -0.353856 -0.806446 -0.473741
-30.0975 -45.3516 620.91 -0.412993 -0.771231 -0.484396
-91.8885 -62.52 654.171 -0.0612143 -0.829036 -0.555834
-88.9206 -61.4131 650.608 -0.053092 -0.820523 -0.569143
-86.1269 -61.9616 651.6 -0.0392411 -0.814236 -0.579206
-83.5695 -61.0939 650.425 -0.0339629 -0.80817 -0.587969
-80.8101 -60.1145 649.15 -0.0221262 -0.801236 -0.59794
-63.2976 -54.2612 639.862 -0.080993 -0.83181 -0.549119
-61.1746 -53.2352 637.575 -0.0788703 -0.832735 -0.548026
-58.255 -53.0581 636.759 -0.0776583 -0.829636 -0.552877
-55.6915 -52.2064 635.454 -0.0735306 -0.826043 -0.55879
-53.128 -51.3546 634.15 -0.0740011 -0.821752 -0.565021
-49.7099 -50.219 632.41 -0.0748828 -0.821652 -0.565049
-48.7892 -49.0966 629.893 -0.0801887 -0.825881 -0.558114
-46.4577 -48.406 628.487 -0.0866064 -0.827772 -0.55434
-39.4135 -47.7252 625.911 -0.164045 -0.824793 -0.541116
-35.6763 -46.4748 623.915 -0.285167 -0.809482 -0.513244
-32.7887 -45.5414 622.725 -0.307212 -0.791981 -0.527624
99.5234 -1.0558 555.347 0.404669 0.403824 -0.820469
-95.9837 -61.7154 653.548 -0.0680541 -0.836888 -0.543128
-91.7142 -61.9738 652.571 -0.0589209 -0.827106 -0.558949
-85.3201 -59.7453 648.195 -0.0256108 -0.815637 -0.577997
-82.7565 -58.8936 646.89 -0.0128564 -0.801974 -0.59722
-80.0457 -58.0276 645.883 -0.00414108 -0.798364 -0.602161
-77.1876 -57.1473 645.176 -0.00905024 -0.808758 -0.588073
-74.9815 -55.838 643.467 -0.0180012 -0.820931 -0.570744
-72.0605 -55.4438 642.566 -0.0361356 -0.827163 -0.5608
-69.2834 -54.5211 641.152 -0.0564336 -0.8338 -0.549174
-67.1544 -53.7617 639.508 -0.0670962 -0.839691 -0.538904
-64.8119 -52.9314 637.755 -0.0693195 -0.837119 -0.54261
95.8694 2.76302 556.409 0.392902 0.354433 -0.848532
97.9927 3.0243 557.302 0.386745 0.323343 -0.863642
95.7668 5.56058 556.884 0.392157 0.309126 -0.866403
95.7433 8.61188 557.68 0.394532 0.275519 -0.876604
93.9078 11.2865 556.969 0.39948 0.248653 -0.882376
93.3444 13.5288 557.326 0.394016 0.241537 -0.886798
56.5141 36.6641 573.641 0.665602 0.360712 -0.653345
54.7041 39.7328 574.387 0.660396 0.33112 -0.673971
55.2904 42.1049 575.938 0.682001 0.271718 -0.679002
52.348 44.7173 575.311 0.674537 0.247398 -0.695553
52.2439 46.6759 576.385 0.659251 0.196123 -0.725895
53.1308 48.4395 576.979 0.66733 0.0621608 -0.742164
53.0277 50.9574 577.654 0.624519 -0.0988678 -0.774726
50.8788 51.4654 576.829 0.634502 -0.120415 -0.763484
52.6233 55.1908 575.791 0.48275 -0.505062 -0.715447
53.0188 56.711 574.686 0.454553 -0.55855 -0.693832
55.8173 57.9983 574.472 0.391308 -0.664201 -0.636958
61.0831 60.5407 573.372 0.375117 -0.735212 -0.56458
57.6385 60.0376 572.714 0.36066 -0.724046 -0.587947
62.486 63.5186 570.715 0.371874 -0.738123 -0.562924
77.6928 68.0829 564.485 -0.130981 -0.899624 -0.416559
63.8029 65.1969 569.799 0.346761 -0.750279 -0.562884
65.6808 66.7654 569.914 0.297386 -0.779603 -0.551162
66.8915 68.3513 568.73 0.228596 -0.813597 -0.534606
70.1571 69.4854 568.414 0.0794005 -0.862007 -0.50064
75.0194 70.0783 565.709 -0.113731 -0.891116 -0.439292
73.8689 70.9523 563.444 -0.0664038 -0.884568 -0.46166
68.5381 69.916 567.239 0.123781 -0.854805 -0.503971
71.6056 70.9976 565.005 0.00531571 -0.882779 -0.469758
105.337 -20.5818 558.621 0.00968551 -0.733456 -0.679668
107.827 -19.7372 557.166 0.107987 -0.604993 -0.788874
109.913 -18.3657 555.263 0.112528 -0.413109 -0.903703
83.8103 -23.557 569.565 -0.131023 -0.8651 -0.484184
85.2972 -22.6455 566.184 -0.121731 -0.867975 -0.481458
90.2272 -22.9285 565.626 -0.127327 -0.862747 -0.489342
93.2326 -21.2149 562.016 -0.110484 -0.856281 -0.504556
96.9276 -21.6296 560.958 -0.0933949 -0.847222 -0.522965
98.9165 -20.934 559.572 -0.0706526 -0.830916 -0.551894
101.627 -20.068 558.565 -0.0127264 -0.767578 -0.64083
104.044 -19.2306 556.962 0.06857 -0.658682 -0.749291
106.607 -18.3788 555.657 0.14699 -0.550442 -0.821832
110.481 -15.0292 553.958 0.184367 -0.1159 -0.976
73.4576 -24.2803 573.124 -0.122354 -0.871335 -0.47519
76.5574 -24.3419 572.622 -0.12996 -0.867298 -0.480526
109.798 -12.6345 554.181 0.33005 0.126358 -0.935468
-27.0238 -54.4241 623.654 -0.338982 -0.847315 -0.408838
35.8367 -33.4951 593.439 0.180203 -0.755317 -0.630098
51.3255 -28.5309 585.265 -0.0778567 -0.881925 -0.464916
53.7418 -27.6934 583.662 -0.0809263 -0.878311 -0.47119
56.3053 -26.8417 582.357 -0.0817696 -0.874308 -0.478435
57.8485 -25.5966 579.304 -0.090204 -0.876174 -0.473478
62.7735 -25.7412 579.114 -0.115874 -0.871715 -0.476115
66.0959 -24.4639 575.555 -0.127684 -0.873474 -0.46983
68.9324 -24.5701 574.161 -0.127873 -0.874305 -0.46823
71.3486 -23.7326 572.557 -0.125892 -0.87369 -0.469911
34.2277 -33.0244 592.424 0.18037 -0.75225 -0.633708
36.1056 -31.4559 592.539 0.133504 -0.766015 -0.628806
39.1352 -28.8778 589.062 0.0704666 -0.803543 -0.591061
42.5042 -28.8327 588.142 -0.0109027 -0.836177 -0.548352
48.3271 -28.3399 585.247 -0.0747662 -0.879397 -0.470183
50.0214 -27.6729 583.264 -0.0777492 -0.878432 -0.471501
55.1485 -25.9694 580.654 -0.0814774 -0.873441 -0.480065
105.411 -7.46048 555.26 0.393406 0.339344 -0.854446
108.157 -8.56505 555.912 0.369505 0.291083 -0.882461
-31.0257 -49.7579 627.172 -0.28267 -0.855076 -0.434676
-27.7033 -50.3514 622.679 -0.411399 -0.793856 -0.44782
104.914 -5.3441 556.241 0.400748 0.403373 -0.822613
-84.454 -64.0456 654.446 -0.0465034 -0.804816 -0.5917
-81.5417 -63.0204 652.905 -0.0474282 -0.78988 -0.611425
-61.0045 -56.433 642.183 -0.0857742 -0.822939 -0.561618
-58.5893 -56.1548 640.978 -0.0825883 -0.824295 -0.560104
-54.3894 -54.183 638.255 -0.0795812 -0.824558 -0.560152
-52.3375 -52.5588 635.491 -0.0715859 -0.82328 -0.563104
-51.0179 -53.4471 636.929 -0.0676873 -0.823513 -0.563245
-47.2779 -52.8862 634.872 -0.06514 -0.82557 -0.560527
-45.3068 -51.2053 632.657 -0.081313 -0.827303 -0.55584
-44.586 -50.1934 630.997 -0.0876541 -0.829397 -0.551741
-40.7291 -50.693 631.351 -0.0843639 -0.835544 -0.542908
-38.9301 -49.1267 628.436 -0.131546 -0.834347 -0.535313
-36.5487 -48.589 627.143 -0.204337 -0.834681 -0.511424
-30.2167 -48.1447 624.929 -0.334459 -0.813985 -0.474938
102.67 -1.73792 557.176 0.395881 0.400647 -0.826293
-90.5281 -63.0445 656.501 -0.0620955 -0.827131 -0.558568
-87.2897 -63.4027 653.433 -0.0482846 -0.819865 -0.570517
-82.7334 -62.4478 651.512 -0.0430818 -0.8016 -0.596307
-77.3068 -58.8297 647.752 -0.00573224 -0.792645 -0.609657
-74.4467 -58.75 648.365 -0.0207081 -0.793753 -0.607887
-72.8888 -57.604 646.426 -0.0332985 -0.805111 -0.592188
-70.9037 -56.3161 644.269 -0.0512472 -0.814917 -0.577307
-68.3402 -55.4644 642.964 -0.0675996 -0.822789 -0.564312
-65.5665 -55.0845 641.764 -0.0768346 -0.829142 -0.553732
-57.0982 -53.9304 638.463 -0.0800203 -0.828619 -0.554064
-54.6819 -53.0929 636.859 -0.0766716 -0.824214 -0.561064
-49.8397 -51.4841 634.394 -0.0724927 -0.821985 -0.564877
100.499 0.615719 557.204 0.390783 0.365357 -0.844869
-92.952 -62.6972 656.564 -0.065896 -0.831187 -0.552075
99.6206 3.38311 558.435 0.394934 0.31812 -0.861874
98.1533 6.09344 558.471 0.388182 0.295918 -0.872781
100.746 6.74685 559.393 0.380305 0.285882 -0.879568
97.6879 9.10194 558.371 0.393285 0.286492 -0.873641
100.001 9.62767 559.81 0.378984 0.259057 -0.888403
96.7216 11.9614 558.339 0.403735 0.248872 -0.880376
95.8327 14.2355 559.227 0.401351 0.246841 -0.882036
58.3172 39.9929 577.057 0.689955 0.263118 -0.674338
58.4861 40.9936 578.042 0.701829 0.22129 -0.677102
56.2243 45.249 578.675 0.673236 0.125771 -0.728653
54.986 50.7889 579.858 0.589443 -0.123893 -0.798253
53.703 53.7686 577.558 0.536796 -0.361178 -0.762496
56.0707 56.1281 576.278 0.456825 -0.561719 -0.68977
59.2265 58.7149 574.97 0.399591 -0.690447 -0.603001
62.9576 59.1875 575.711 0.379993 -0.725565 -0.573725
79.6274 65.8094 566.802 -0.133203 -0.89203 -0.431903
63.3841 61.5998 573.526 0.376378 -0.738062 -0.560004
66.5805 64.6417 572.595 0.300703 -0.775438 -0.555225
76.939 68.1987 567.391 -0.0797267 -0.889284 -0.450352
69.57 67.7455 571.298 0.163745 -0.834589 -0.525973
71.279 68.3133 570.428 0.049262 -0.860903 -0.506379
72.9695 69.5727 567.674 -0.0297104 -0.874621 -0.483896
109.772 -21.5175 559.826 -0.0867599 -0.689662 -0.718915
112.4 -20.5892 558.698 -0.06338 -0.554959 -0.82946
114.899 -19.814 557.216 -0.00601056 -0.41041 -0.911881
93.7085 -24.2332 567.878 -0.122591 -0.863354 -0.489481
96.8968 -23.2661 564.838 -0.102773 -0.85675 -0.505388
97.7308 -22.6367 563.028 -0.0935952 -0.851299 -0.516265
101.515 -22.0237 561.858 -0.0878213 -0.844419 -0.528435
105.009 -21.4578 561.428 -0.0616084 -0.784304 -0.61731
112.881 -17.4654 555.442 0.145905 -0.151261 -0.977666
115.702 -17.136 556.134 0.169877 -0.202202 -0.964498
76.1301 -27.2994 576.461 -0.127599 -0.868131 -0.479653
79.7773 -25.6467 574.072 -0.130175 -0.866736 -0.481481
81.3205 -24.4016 571.019 -0.130912 -0.866447 -0.481801
86.1349 -24.2796 569.867 -0.126202 -0.866032 -0.483798
90.5627 -24.0564 567.561 -0.133875 -0.862244 -0.48848
92.699 -23.3466 566.473 -0.128156 -0.860864 -0.492432
112.794 -14.5035 555.397 0.228871 0.0510875 -0.972115
36.5892 -37.0612 594.429 0.220118 -0.721977 -0.655971
53.7941 -30.5216 588.049 -0.0847475 -0.886754 -0.454407
60.1014 -29.4702 584.842 -0.0972966 -0.876998 -0.470541
64.9919 -28.4794 581.685 -0.128299 -0.87022 -0.475663
65.3761 -26.3173 579.253 -0.12675 -0.869111 -0.478102
67.6838 -25.7867 577.811 -0.132323 -0.869725 -0.475468
70.6639 -25.7402 576.339 -0.131149 -0.87042 -0.47452
76.9261 -25.4414 574.352 -0.130638 -0.865389 -0.483772
78.6204 -24.7744 572.369 -0.133803 -0.867272 -0.479517
112.245 -11.3575 556.373 0.287025 0.233732 -0.92897
38.2504 -34.2012 594.961 0.147459 -0.786221 -0.600094
39.5705 -32.9328 593.784 0.117477 -0.805311 -0.581096
45.04 -29.9762 589.504 -0.0174727 -0.860093 -0.509837
48.6518 -30.78 590.04 -0.0488807 -0.878107 -0.47596
49.2354 -29.5829 587.37 -0.0708603 -0.883113 -0.463779
55.5989 -29.3817 585.059 -0.0879522 -0.879687 -0.467348
57.7351 -28.6719 583.971 -0.0873924 -0.873444 -0.479018
59.9412 -27.3626 582.263 -0.0930184 -0.874276 -0.476434
62.5676 -26.9969 580.764 -0.114591 -0.87061 -0.478443
110.009 -9.36473 556.153 0.355431 0.273628 -0.893754
111.439 -8.33709 557.909 0.303866 0.398431 -0.8654
-26.8769 -52.3398 626.644 -0.336967 -0.847748 -0.409605
41.0931 -30.9514 591.172 0.053314 -0.826131 -0.56095
107.657 -6.52846 557.177 0.375149 0.414011 -0.829372
-82.4559 -66.5199 656.871 -0.0617951 -0.792571 -0.60664
-43.4797 -54.6271 637.174 -0.0533626 -0.833901 -0.549328
-42.2203 -52.9174 633.867 -0.0672894 -0.83631 -0.544113
-38.3343 -51.9512 632.016 -0.113547 -0.843021 -0.52576
-33.8846 -51.8767 631.38 -0.192633 -0.858689 -0.474916
-34.4005 -50.7915 629.351 -0.207441 -0.855966 -0.473593
-28.2929 -50.9114 626.902 -0.329696 -0.845511 -0.420014
105.907 -3.99901 557.92 0.391453 0.41996 -0.818779
-86.7719 -64.7841 655.847 -0.0525021 -0.811073 -0.582584
-81.6568 -65.548 654.477 -0.057802 -0.79305 -0.606409
-79.013 -62.4684 651.91 -0.0351246 -0.780868 -0.623708
-75.1102 -61.4022 650.158 -0.0228898 -0.773226 -0.633718
-71.8747 -61.3533 650.569 -0.0418319 -0.764132 -0.643702
-70.5231 -60.3279 649.295 -0.040804 -0.77648 -0.628819
-68.6863 -58.9062 646.647 -0.0543687 -0.80065 -0.596661
-56.0956 -55.9026 640.294 -0.0829756 -0.826081 -0.55741
-54.5262 -56.5338 640.667 -0.0773693 -0.825987 -0.558355
-52.3899 -55.824 639.579 -0.0712086 -0.825509 -0.559879
-49.9737 -54.9865 637.976 -0.0627185 -0.828748 -0.556097
-47.4101 -54.1348 636.671 -0.0597866 -0.826864 -0.559215
-45.1412 -53.3115 634.768 -0.0640874 -0.830268 -0.553668
105.001 -1.3984 558.986 0.377504 0.371589 -0.848182
107.845 -2.6893 559.133 0.362417 0.376163 -0.852734
102.751 1.33133 559.222 0.377785 0.334568 -0.863332
101.786 3.89456 559.575 0.380821 0.302016 -0.873935
105.528 4.86042 560.659 0.351026 0.299269 -0.887254
104.635 7.72697 560.777 0.359293 0.280063 -0.89021
103.671 10.2902 561.13 0.370366 0.248773 -0.894953
58.7395 42.4946 579.519 0.692168 0.18948 -0.69642
58.9928 43.9956 580.996 0.68614 0.110922 -0.718963
55.8894 48.4156 580.084 0.632453 -0.00981091 -0.774536
56.3223 52.335 580.427 0.555147 -0.306256 -0.773317
57.3419 54.2119 580.207 0.512082 -0.477866 -0.713734
60.3424 56.3557 579.071 0.440846 -0.630964 -0.638388
81.7093 63.5502 569.417 -0.161179 -0.8799 -0.446987
61.9635 57.7046 577.388 0.399735 -0.687713 -0.606022
65.1818 60.9405 574.903 0.369129 -0.731839 -0.572848
68.5 62.3072 575.991 0.295142 -0.765022 -0.572393
80.9315 64.9514 568.804 -0.149455 -0.88193 -0.447061
67.2733 62.58 574.909 0.321047 -0.760938 -0.563829
69.3533 65.9966 572.604 0.191248 -0.818025 -0.542457
71.1592 64.9421 574.889 0.175733 -0.823735 -0.539054
76.0252 66.5205 572.451 -0.0449022 -0.883384 -0.466494
76.3376 67.4267 570.207 -0.0737162 -0.882242 -0.46499
71.7803 67.3273 571.344 0.0341411 -0.865446 -0.499838
118.77 -25.8557 557.572 -0.101813 -0.584788 -0.804771
120.239 -24.8904 555.197 -0.061248 -0.528187 -0.846916
111.991 -24.2556 562.397 -0.249601 -0.745255 -0.618299
119.532 -22.5171 557.984 6.52098e-05 -0.507616 -0.861583
121.621 -23.504 555.751 6.14385e-05 -0.507613 -0.861585
122.247 -21.3211 555.245 0.110683 -0.334289 -0.935949
100.629 -25.6371 566.764 -0.108417 -0.85216 -0.511928
103.312 -24.9379 565.593 -0.153061 -0.830234 -0.535989
106.796 -23.7455 563.446 -0.174463 -0.808463 -0.562095
107.501 -22.0445 561.343 -0.122196 -0.781243 -0.61215
117.932 -19.3802 556.231 0.0893887 -0.308993 -0.946854
121.771 -18.1823 555.113 0.266826 -0.118618 -0.956417
77.101 -29.2382 579.804 -0.127749 -0.872256 -0.47207
84.8897 -26.7861 573.084 -0.129321 -0.869796 -0.476162
88.1766 -27.3625 573.36 -0.127551 -0.868869 -0.478328
90.0606 -25.5951 570.226 -0.130271 -0.868413 -0.478422
93.1347 -26.6597 569.765 -0.12382 -0.871526 -0.474458
95.6982 -25.808 568.46 -0.107809 -0.868381 -0.484037
97.1196 -24.1831 566.565 -0.0986414 -0.860238 -0.50026
119.449 -16.1342 555.912 0.263733 -0.0145454 -0.964486
121.934 -15.4242 555.893 0.25387 0.0145015 -0.96713
65.7953 -30.2682 585.429 -0.124767 -0.874748 -0.46824
70.0606 -28.3708 580.333 -0.135477 -0.866061 -0.481232
73.2248 -28.5839 579.973 -0.131342 -0.870472 -0.474372
79.0708 -28.1867 576.774 -0.127216 -0.868426 -0.479221
81.2071 -27.4769 575.686 -0.125176 -0.869796 -0.47727
116.455 -13.7292 556.69 0.283009 0.187921 -0.940527
39.5044 -36.2469 596.951 0.157208 -0.782196 -0.602873
56.157 -30.2167 587.334 -0.0882864 -0.883288 -0.460442
60.1961 -30.4022 587.676 -0.102417 -0.880107 -0.463597
65.8614 -29.4298 583.348 -0.128871 -0.872892 -0.470587
67.4232 -28.8762 582.179 -0.13046 -0.86881 -0.477651
115.295 -10.8455 557.411 0.256969 0.301391 -0.918221
117.322 -10.4079 558.92 0.273482 0.320067 -0.907064
40.2617 -34.7896 596.229 0.152255 -0.788126 -0.596386
44.0382 -31.9103 593.113 0.0370533 -0.838794 -0.543187
49.234 -31.8085 591.662 -0.0326105 -0.874653 -0.483651
51.223 -31.113 590.275 -0.0619152 -0.883504 -0.464314
114.194 -8.65227 558.519 0.284646 0.387897 -0.876648
-28.2171 -52.5871 631.13 -0.250166 -0.875739 -0.412913
-26.3544 -53.7773 629.989 -0.267667 -0.871861 -0.410138
112.043 -5.47106 559.818 0.281276 0.385119 -0.878958
-79.1295 -67.2216 657.775 -0.0816357 -0.757776 -0.647388
-77.9869 -65.4217 655.146 -0.0676505 -0.757163 -0.649714
-75.2882 -64.8976 654.653 -0.0509812 -0.743978 -0.666257
-72.8211 -64.7686 655.216 -0.042711 -0.743099 -0.667817
-70.5 -63.8822 653.918 -0.0322805 -0.744579 -0.666754
-66.6721 -62.7544 652.115 -0.0283818 -0.759951 -0.64936
-64.6696 -61.3167 649.804 -0.0380443 -0.771724 -0.634819
-63.9313 -60.1549 647.989 -0.0633892 -0.808459 -0.585129
-61.4764 -59.61 646.845 -0.064965 -0.81879 -0.570406
-59.0601 -58.7726 645.242 -0.0716459 -0.82205 -0.56489
-55.2104 -58.186 644.183 -0.0603523 -0.834582 -0.547568
-51.7853 -58.1364 643.855 -0.0537346 -0.841235 -0.537992
-50.7762 -57.0055 641.518 -0.05881 -0.836397 -0.544961
-48.3857 -56.3092 640.232 -0.0544564 -0.834443 -0.548397
-45.8959 -55.4646 638.777 -0.0509319 -0.833718 -0.549837
-40.6443 -53.8073 635.922 -0.052297 -0.843298 -0.534896
-37.7005 -53.3527 635.565 -0.0845301 -0.851164 -0.518049
-35.2843 -52.5152 633.961 -0.124581 -0.852824 -0.50712
-31.8732 -52.4651 632.648 -0.18342 -0.874281 -0.449433
109.414 -3.32049 559.505 0.334331 0.366765 -0.868163
-72.0143 -62.5523 651.811 -0.0457373 -0.751084 -0.658621
-69.4507 -61.7006 650.506 -0.0525421 -0.759026 -0.648937
109.114 -0.685897 560.941 0.333267 0.337952 -0.880183
106.494 2.001 560.691 0.348712 0.315245 -0.882621
107.263 5.8223 561.246 0.346738 0.287661 -0.892762
107.441 7.89204 561.989 0.343218 0.268762 -0.899982
61.7387 40.0332 581.505 0.678668 0.181476 -0.711671
59.036 45.9685 582.369 0.669025 0.019683 -0.742979
58.5116 48.8707 583.233 0.644728 -0.140904 -0.751313
58.0564 52.1374 582.632 0.552153 -0.309983 -0.773975
59.5527 51.7341 583.699 0.604456 -0.276072 -0.747273
60.0771 54.9127 581.056 0.483261 -0.529311 -0.697344
63.479 56.0097 581.558 0.427163 -0.63594 -0.642738
82.9506 63.1783 571.613 -0.206105 -0.884538 -0.418465
64.2764 58.2303 578.827 0.390125 -0.700843 -0.597178
65.2851 59.6141 578.263 0.374227 -0.723771 -0.57975
68.4597 61.3764 578.523 0.313648 -0.756961 -0.573267
80.769 64.8868 573.5 -0.153615 -0.879349 -0.45072
79.5048 65.9865 570.946 -0.135785 -0.883128 -0.449051
70.0351 64.2341 576.816 0.229687 -0.790314 -0.568021
72.6132 64.9866 576.625 0.114805 -0.835218 -0.537801
74.1711 66.1326 574.686 0.00542742 -0.871839 -0.489763
77.5567 65.7886 571.916 -0.0713864 -0.880575 -0.4685
113.748 -30.1555 561.998 -0.297313 -0.718602 -0.628662
117.023 -28.6457 563.287 -0.279142 -0.706935 -0.649864
117.65 -27.6486 560.093 -0.240984 -0.6762 -0.69619
119.234 -25.4642 562.044 -0.205424 -0.631855 -0.747369
113.22 -25.4564 564.489 -0.272689 -0.743564 -0.610535
115.49 -24.0179 562.147 -0.234313 -0.672421 -0.702102
117.838 -23.2207 560.766 -0.137202 -0.534819 -0.833753
89.4256 -28.9193 577.096 -0.127545 -0.868142 -0.479647
93.3345 -28.5219 574.977 -0.124118 -0.870377 -0.476486
93.3278 -27.4328 571.939 -0.126374 -0.869968 -0.47664
97.3414 -27.3565 571.443 -0.131181 -0.862656 -0.488484
98.7006 -26.5914 569.249 -0.118077 -0.860749 -0.495146
102.116 -27.1337 568.706 -0.173762 -0.819808 -0.545638
107.099 -24.9017 565.584 -0.196821 -0.800049 -0.56673
109.659 -24.5928 564.493 -0.222538 -0.769611 -0.598478
78.4671 -30.5644 582.542 -0.131225 -0.872074 -0.471452
79.629 -29.0218 579.049 -0.12736 -0.86958 -0.477085
81.2518 -30.0448 580.995 -0.128431 -0.87153 -0.473225
83.8521 -28.5138 576.823 -0.13028 -0.870262 -0.475048
91.676 -27.4045 573.31 -0.129099 -0.870674 -0.474615
40.8949 -38.7716 598.897 0.137402 -0.786695 -0.601857
63.5374 -30.9517 586.985 -0.121823 -0.876689 -0.465376
68.1751 -31.1744 586.754 -0.124613 -0.872989 -0.471553
70.1455 -29.7873 583.484 -0.130493 -0.873211 -0.469546
73.1332 -30.4716 583.159 -0.135132 -0.869733 -0.474663
74.695 -29.918 581.991 -0.12894 -0.870789 -0.474449
119.98 -12.8493 558.237 0.277042 0.184228 -0.943031
122.64 -11.8736 557.297 0.321077 0.222162 -0.920627
-24.515 -57.0443 631.47 -0.271166 -0.873796 -0.403671
43.6319 -35.1017 597.818 0.0869691 -0.805816 -0.585745
48.5095 -32.9214 594.397 0.0142279 -0.858948 -0.511864
52.0485 -33.404 595 -0.0191459 -0.865622 -0.500333
54.055 -32.0924 591.809 -0.0793391 -0.88326 -0.462123
58.2218 -31.1969 590.176 -0.099787 -0.884095 -0.456529
61.6329 -31.1468 588.863 -0.113421 -0.876529 -0.467795
119.482 -10.3108 560.008 0.265812 0.304165 -0.914783
121.89 -11.2301 559.31 0.255358 0.234049 -0.93809
-70.1169 -69.0739 657.604 0.00989776 -0.772124 -0.635395
-25.5144 -54.7808 632.134 -0.268912 -0.874275 -0.40414
116.012 -7.74936 559.997 0.254981 0.377491 -0.890216
-72.7772 -68.7177 657.783 -0.0130616 -0.758038 -0.65208
-70.9187 -67.4792 657.644 -0.000295986 -0.755503 -0.655145
-68.3552 -66.6275 656.339 0.00973645 -0.770941 -0.636832
-65.7917 -65.7757 655.034 0.0140234 -0.781213 -0.624107
-51.422 -59.4825 645.415 -0.0457872 -0.846962 -0.529679
-49.0039 -58.9412 644.196 -0.0440442 -0.846414 -0.530701
-46.4403 -58.0895 642.891 -0.0423237 -0.847594 -0.528955
-43.8768 -57.2378 641.586 -0.0361495 -0.848032 -0.528711
-40.6298 -57.0581 641.185 -0.0315699 -0.848027 -0.529011
-38.1399 -56.2135 639.731 -0.0337484 -0.855044 -0.517456
-34.7592 -55.361 638.116 -0.111432 -0.8663 -0.486937
-32.3623 -53.8991 635.35 -0.159955 -0.874039 -0.45877
-28.4785 -53.4063 633.53 -0.220384 -0.872567 -0.435957
-26.7377 -54.2167 633.547 -0.234718 -0.871123 -0.431338
114.48 -5.6716 561.025 0.265303 0.385949 -0.883548
116.582 -5.5354 561.796 0.244929 0.382351 -0.890965
-76.2636 -67.5261 658.608 -0.0510018 -0.748679 -0.660967
-74.5546 -66.9583 657.738 -0.0338805 -0.752766 -0.657415
-71.9911 -66.1066 656.433 -0.0286328 -0.747571 -0.663564
-69.5749 -65.2691 654.83 -0.0102327 -0.758808 -0.651233
-67.306 -64.4459 652.927 -0.0156036 -0.766216 -0.642394
-63.3465 -63.1824 651.472 -0.010797 -0.77953 -0.626272
-59.531 -61.3903 649.505 -0.0324795 -0.830819 -0.555594
-56.9674 -60.5386 648.2 -0.0406587 -0.839675 -0.541565
-54.0465 -60.1444 647.299 -0.036284 -0.850091 -0.525385
111.991 -2.98621 561.567 0.285077 0.360967 -0.887938
112.787 -0.622905 563.293 0.277988 0.342827 -0.897325
109.815 2.92342 562.357 0.309625 0.318395 -0.895967
111.968 2.25078 563.56 0.292605 0.32787 -0.898267
111.017 6.03257 563.011 0.307524 0.303954 -0.901688
113.27 5.93341 561.626 0.296956 0.303966 -0.905219
110.33 7.99814 564.094 0.315006 0.274053 -0.908662
106.918 10.2184 563.438 0.346683 0.258075 -0.901781
108.947 11.2088 564.622 0.323822 0.249605 -0.912599
63.3047 42.6008 583.959 0.671139 0.0236979 -0.740952
63.0803 45.7781 585.592 0.634911 -0.125782 -0.762278
61.8355 49.3488 585.477 0.617546 -0.249662 -0.745859
63.3628 53.3105 584.038 0.530502 -0.494208 -0.688713
66.3362 57.7429 581.406 0.387306 -0.699142 -0.600995
82.538 62.9371 572.944 -0.194431 -0.88413 -0.424866
69.0348 59.3952 580.889 0.330442 -0.733441 -0.59403
72.1945 61.3896 580.351 0.202053 -0.802597 -0.561261
73.4315 63.4472 578.048 0.126732 -0.83182 -0.540383
79.5312 64.1635 577.493 -0.112598 -0.886243 -0.449328
79.7816 64.843 575.44 -0.1494 -0.884552 -0.441868
75.4644 64.7813 576.344 -0.0162383 -0.876667 -0.480824
108.049 -35.0158 570.621 -0.306668 -0.765948 -0.565048
112.461 -32.3972 567.203 -0.298616 -0.736744 -0.60666
113.9 -30.6384 568.419 -0.307565 -0.729543 -0.610877
115.13 -29.6936 565.014 -0.288346 -0.740106 -0.607536
114.827 -28.8578 567.263 -0.316807 -0.729415 -0.60629
114.866 -27.2242 565.452 -0.308511 -0.721342 -0.62007
117.105 -26.602 564.016 -0.262703 -0.708725 -0.654749
100.53 -29.3938 574.693 -0.251839 -0.828572 -0.500045
103.136 -27.5271 570.454 -0.19392 -0.79384 -0.576379
106.954 -26.3215 568.625 -0.233075 -0.794716 -0.560448
111.265 -26.607 568.633 -0.275745 -0.757488 -0.591757
111.42 -25.7601 566.731 -0.259018 -0.755233 -0.602108
88.2786 -30.9145 581.012 -0.126233 -0.873745 -0.469719
87.0793 -29.6113 578.472 -0.133487 -0.868299 -0.477742
91.647 -29.9795 578.469 -0.120224 -0.871711 -0.475043
98.3142 -28.7088 574.004 -0.197097 -0.846334 -0.494845
100.583 -27.8856 572.102 -0.190768 -0.825801 -0.530717
72.1057 -31.5662 586.174 -0.133784 -0.87604 -0.46331
75.8078 -32.131 586.756 -0.125125 -0.881358 -0.455579
76.281 -30.9446 583.861 -0.129895 -0.87505 -0.466278
82.1141 -30.9456 582.101 -0.126847 -0.874788 -0.467606
84.2357 -30.1367 579.9 -0.125307 -0.86867 -0.479281
43.2872 -39.1273 601.64 0.101215 -0.807687 -0.580859
56.1893 -34.9229 597.085 -0.0784245 -0.864562 -0.49637
58.5503 -34.2294 595.739 -0.104293 -0.875444 -0.471934
61.077 -32.9553 592.448 -0.114841 -0.879362 -0.462098
65.199 -32.2673 589.39 -0.124358 -0.876254 -0.465526
68.4774 -32.3306 588.892 -0.130807 -0.875117 -0.465896
-64.4818 -71.2639 656.324 0.0430435 -0.795395 -0.604562
-22.6032 -58.5368 636.551 -0.217028 -0.872715 -0.437342
45.3675 -36.8458 600.319 0.0860978 -0.811284 -0.578277
46.6911 -35.0346 598.929 0.0431868 -0.819792 -0.57103
49.1461 -34.4898 597.785 0.0336767 -0.835942 -0.547783
52.2772 -34.5674 596.989 -0.0119949 -0.853803 -0.520457
54.5461 -33.7442 595.086 -0.077826 -0.873466 -0.480625
56.9624 -32.9067 593.483 -0.101567 -0.877948 -0.467859
122.804 -9.09805 560.034 0.206711 0.309307 -0.928224
-67.3717 -68.8952 657.078 0.029463 -0.779575 -0.625615
-65.7147 -69.681 657.043 0.0304888 -0.794944 -0.605916
-63.4254 -68.164 657.664 0.0466028 -0.799136 -0.599342
-40.8482 -59.8975 645.8 -0.0304497 -0.850613 -0.52491
-27.1555 -55.8138 637.661 -0.172222 -0.87546 -0.451564
-24.8659 -56.0041 636.058 -0.19011 -0.875812 -0.443635
121.185 -6.63957 561.113 0.236576 0.351428 -0.905831
-63.0072 -64.9026 654.177 0.0246228 -0.791238 -0.611012
-59.2393 -63.9642 653.762 0.0541862 -0.816366 -0.574988
-57.7366 -63.0465 651.489 0.0385547 -0.825047 -0.563747
-55.3166 -62.3474 650.262 -0.0101655 -0.851645 -0.52402
-51.5432 -61.146 648.344 -0.0363879 -0.856897 -0.514202
-47.4896 -60.2711 646.303 -0.035234 -0.852774 -0.521091
-44.9261 -59.4193 644.998 -0.0363168 -0.854322 -0.518473
-41.5778 -58.8832 643.879 -0.0297396 -0.851944 -0.522788
-39.0841 -58.631 643.195 -0.0272686 -0.851619 -0.523452
-36.5206 -57.7792 641.89 -0.0381078 -0.855593 -0.516245
-33.957 -56.9275 640.585 -0.0892336 -0.860278 -0.501956
-31.6881 -56.1043 638.683 -0.124406 -0.867248 -0.482083
-29.2719 -55.2668 637.079 -0.162058 -0.876082 -0.454112
118.899 -4.42106 562.246 0.249088 0.380898 -0.890433
121.515 -3.81692 562.645 0.221483 0.370775 -0.901926
116.875 -2.05083 563.113 0.254822 0.359319 -0.89775
122.18 -0.855776 560.904 0.222377 0.364899 -0.9041
115.313 1.10896 563.639 0.268144 0.331829 -0.904427
119.293 1.95235 563.961 0.250234 0.348256 -0.903383
115.904 4.12515 563.575 0.272391 0.327959 -0.90457
118.664 3.32307 561.322 0.2497 0.337226 -0.907705
112.222 9.4675 565.322 0.310304 0.270387 -0.911374
66.5833 41.1508 587.154 0.66311 -0.0663085 -0.745579
63.3875 50.6696 586.322 0.600051 -0.306776 -0.738801
65.5136 50.1968 588.198 0.577518 -0.323471 -0.74956
67.7531 53.9072 586.092 0.448088 -0.600888 -0.66193
67.9678 55.6348 584.384 0.407339 -0.666491 -0.624391
68.3284 56.8552 583.59 0.362727 -0.717319 -0.59488
70.9629 58.4177 583.751 0.320653 -0.739826 -0.591471
78.8504 61.6641 580.961 -0.0702824 -0.878001 -0.473471
82.6805 62.0529 579.16 -0.184142 -0.883996 -0.429701
83.2031 63.1956 575.952 -0.202608 -0.888593 -0.411523
73.6312 60.645 581.538 0.179017 -0.816981 -0.548175
74.7726 62.1422 580.16 0.0947096 -0.836819 -0.539225
77.3979 63.4339 578.803 -0.0760761 -0.874603 -0.478834
81.4691 63.2145 577.922 -0.139592 -0.884488 -0.44519
107.637 -35.2569 571.952 -0.312588 -0.768833 -0.55784
110.369 -33.4045 571.632 -0.312915 -0.754911 -0.576363
111.784 -32.8652 570.164 -0.313496 -0.752849 -0.578739
113.084 -29.3573 571.773 -0.322156 -0.739359 -0.591239
113.628 -27.9476 569.445 -0.307697 -0.729497 -0.610865
92.8116 -32.0365 581.713 -0.128983 -0.872459 -0.471358
95.6202 -31.3568 580.203 -0.197671 -0.851101 -0.486367
97.6337 -30.5751 577.963 -0.204517 -0.839982 -0.502596
100.628 -30.4534 577.411 -0.275263 -0.829702 -0.485618
104.373 -28.9871 574.517 -0.252857 -0.791238 -0.556782
108.219 -28.2994 571.89 -0.296356 -0.758466 -0.580433
110.293 -27.1035 570.996 -0.282322 -0.748281 -0.600309
46.4199 -43.7456 604.78 0.0894754 -0.79812 -0.595818
74.3092 -34.5573 591.424 -0.119157 -0.882227 -0.455497
79.3223 -33.4073 588.803 -0.132289 -0.880915 -0.454409
81.3911 -32.6161 586.257 -0.128169 -0.880794 -0.455824
84.6118 -32.2102 584.649 -0.126809 -0.87688 -0.463681
86.2029 -31.284 582.556 -0.130845 -0.874408 -0.467215
89.8131 -31.8455 581.695 -0.125866 -0.874886 -0.467688
91.9494 -31.1357 580.607 -0.122979 -0.875112 -0.468034
94.071 -30.3267 578.406 -0.125368 -0.871493 -0.474114
44.8535 -41.4364 603.21 0.100249 -0.806939 -0.582066
65.1463 -34.6143 594.364 -0.121858 -0.87778 -0.463306
68.5085 -34.24 592.688 -0.126264 -0.87868 -0.460411
71.0525 -33.256 589.898 -0.127338 -0.87962 -0.458317
76.1765 -33.2305 588.486 -0.128681 -0.880715 -0.455832
78.3127 -32.5207 587.399 -0.130238 -0.881689 -0.453501
45.8235 -39.2891 603.299 0.072079 -0.819987 -0.567825
47.7548 -38.5833 603.875 0.0637451 -0.822062 -0.565818
48.9163 -37.3594 602.128 0.0394351 -0.826563 -0.56146
50.734 -35.8125 600.041 0.0210995 -0.832891 -0.553034
54.8731 -35.8225 599.736 -0.0170003 -0.842573 -0.538313
62.9671 -34.4736 595.06 -0.117667 -0.877159 -0.465561
-23.306 -58.4181 640.612 -0.171553 -0.869983 -0.462276
-63.4437 -70.0784 657.988 0.0498646 -0.801299 -0.596182
-61.0954 -68.6425 659.477 0.067369 -0.821586 -0.56609
-61.129 -66.3941 656.893 0.06054 -0.80322 -0.592599
-54.4833 -65.8232 656.527 0.0650369 -0.838054 -0.541698
-51.9198 -64.9714 655.222 -0.00420698 -0.849306 -0.527885
-48.1706 -62.417 650.461 -0.0400064 -0.8568 -0.514094
-45.034 -62.248 649.836 -0.0395029 -0.854265 -0.518335
-42.3968 -61.3892 648.681 -0.0352773 -0.852124 -0.52215
-39.1867 -61.2131 648.205 -0.0316769 -0.850543 -0.52495
-37.3489 -59.9394 645.75 -0.033821 -0.849892 -0.525871
-35.0063 -59.1091 643.997 -0.0501698 -0.849996 -0.524395
-31.4593 -58.1921 643.134 -0.0962879 -0.859897 -0.501303
-29.8443 -57.1058 641.077 -0.12643 -0.867933 -0.480321
-24.1217 -57.1176 639.092 -0.178496 -0.868375 -0.462671
-58.2665 -65.3165 656.323 0.067164 -0.819264 -0.569469
-55.7177 -64.3656 653.904 0.049125 -0.827686 -0.559038
-53.5814 -63.6558 652.817 -0.0145787 -0.847646 -0.530363
-51.0179 -62.8041 651.512 -0.0310737 -0.857483 -0.513574
120.533 -0.510095 564.072 0.236991 0.362338 -0.901414
69.1829 38.8968 588.491 0.667678 -0.134444 -0.732209
66.8268 43.8813 589.414 0.659227 -0.148018 -0.737231
66.1865 46.5262 589.883 0.620686 -0.233536 -0.748472
69.4572 51.3891 589.712 0.519465 -0.47608 -0.70958
87.1329 57.9683 578.727 -0.226501 -0.888493 -0.399095
67.3281 52.0164 587.663 0.516621 -0.473151 -0.713604
71.8686 54.8378 588.079 0.366005 -0.693764 -0.620268
85.7801 59.6347 580.989 -0.190112 -0.887542 -0.419675
85.7889 60.4154 578.604 -0.238464 -0.885635 -0.398479
71.6508 56.4944 586.433 0.333256 -0.716633 -0.612681
73.9355 59.1926 584.061 0.228727 -0.782957 -0.5785
75.6649 58.7727 585.461 0.133975 -0.808632 -0.572857
77.2536 60.1386 583.496 0.045345 -0.825698 -0.562286
81.2192 60.6181 582.633 -0.100657 -0.861358 -0.497927
105.624 -37.636 576.406 -0.329278 -0.764757 -0.553826
108.66 -35.8211 577.426 -0.357255 -0.742861 -0.56615
109.564 -34.093 575.875 -0.32179 -0.754542 -0.571942
110.539 -32.7167 574.385 -0.319721 -0.762943 -0.561868
112.838 -31.5075 572.834 -0.326112 -0.744469 -0.582595
95.0408 -34.2815 584.627 -0.22869 -0.83237 -0.504838
97.3726 -33.9443 582.531 -0.247013 -0.814677 -0.524677
100.441 -33.5359 581.928 -0.287979 -0.80422 -0.519903
102.058 -32.2836 579.025 -0.280436 -0.81597 -0.505518
105.558 -31.6446 577.888 -0.302916 -0.785714 -0.539348
108.245 -30.1724 575.278 -0.293662 -0.767778 -0.569456
81.4041 -35.6665 591.419 -0.134619 -0.879131 -0.457172
86.622 -35.2349 588.732 -0.137247 -0.875329 -0.463641
87.4968 -34.5521 586.873 -0.135426 -0.875147 -0.464518
89.2365 -33.2096 584.5 -0.132193 -0.874978 -0.465767
96.6577 -33.0292 581.724 -0.236568 -0.827874 -0.508586
68.1491 -37.7025 597.96 -0.116788 -0.872438 -0.474565
73.5325 -36.0038 594.126 -0.118371 -0.881078 -0.457919
76.6924 -34.3157 590.516 -0.125468 -0.880849 -0.456468
81.7392 -34.8401 589.168 -0.1302 -0.882495 -0.451941
49.2944 -40.6216 605.569 0.0520661 -0.811283 -0.582331
53.0219 -39.9972 605.195 0.0253225 -0.814825 -0.579154
54.3117 -38.71 602.879 0.00712365 -0.832421 -0.554098
57.0505 -38.3123 602.005 -0.0417479 -0.844166 -0.534454
58.2195 -36.7833 599.744 -0.0879681 -0.858109 -0.505876
61.9022 -36.084 597.894 -0.110765 -0.869449 -0.481445
66.3936 -36.793 596.829 -0.12093 -0.875622 -0.467612
-21.8405 -60.3418 641.469 -0.171987 -0.869857 -0.462352
52.4693 -37.1209 602.596 0.0268807 -0.829525 -0.557823
-59.6794 -70.3965 661.726 0.0734558 -0.827263 -0.556991
-38.457 -63.7825 651.697 -0.0315233 -0.854183 -0.519017
-28.7035 -60.1046 645.958 -0.107981 -0.862971 -0.493581
-26.9016 -58.7053 642.882 -0.149744 -0.866757 -0.47572
-59.5398 -69.1975 660.484 0.0766978 -0.827793 -0.555766
-57.2346 -67.487 660.382 0.0806878 -0.830759 -0.550752
-56.7412 -66.5066 658.083 0.0763469 -0.827549 -0.556179
-49.2826 -64.1125 654.067 -0.0390474 -0.854607 -0.517806
-46.5826 -63.7397 652.717 -0.0410229 -0.855095 -0.516845
-42.8769 -63.6612 652.002 -0.0411843 -0.856262 -0.514897
-40.7407 -62.9514 650.915 -0.0402471 -0.85544 -0.516336
-37.7499 -61.9577 649.392 -0.0317523 -0.852188 -0.522271
-35.9082 -61.2764 647.707 -0.0327713 -0.852724 -0.521333
-33.492 -60.4389 646.104 -0.0604528 -0.855906 -0.513585
-30.9285 -59.5872 644.799 -0.0964546 -0.859077 -0.502676
70.3054 40.5825 590.647 0.655229 -0.174093 -0.735096
68.6153 47.3092 591.717 0.614666 -0.281169 -0.736974
68.7028 49.4875 591.012 0.578378 -0.393491 -0.714594
88.2931 57.1892 583.454 -0.152505 -0.88367 -0.442571
88.8697 57.4988 580.683 -0.215913 -0.891897 -0.397368
72.0865 53.1813 589.724 0.443837 -0.606107 -0.660032
73.7784 56.1544 587.632 0.279532 -0.754333 -0.594006
77.0406 56.988 587.918 0.153244 -0.805571 -0.572339
83.9759 59.713 582.572 -0.137452 -0.867253 -0.478518
78.958 58.6102 586.076 0.00528304 -0.846511 -0.532345
81.5216 59.4619 584.771 -0.072708 -0.858846 -0.507047
105.237 -38.1278 581.456 -0.371987 -0.757288 -0.536788
107.293 -36.6452 579.107 -0.355128 -0.746235 -0.563042
104.682 -35.1307 582.61 -0.353704 -0.761225 -0.543535
106.763 -35.8552 581.339 -0.341717 -0.761044 -0.5514
106.562 -34.0487 579.538 -0.336594 -0.772781 -0.538065
91.3023 -36.3427 589.731 -0.222201 -0.848214 -0.480791
92.7829 -34.965 586.182 -0.215724 -0.832016 -0.51109
96.4078 -35.6256 586.435 -0.26434 -0.803686 -0.533116
98.9713 -34.7739 585.13 -0.287577 -0.801031 -0.525023
103.965 -33.3518 580.925 -0.299953 -0.792806 -0.530554
77.7848 -37.8802 596.657 -0.123153 -0.878376 -0.461833
79.0579 -36.3585 592.795 -0.127639 -0.880043 -0.45742
83.773 -36.7124 593.09 -0.138527 -0.879835 -0.454643
84.5463 -35.6044 590.275 -0.138041 -0.876326 -0.461516
88.5838 -36.0239 589.197 -0.14333 -0.875109 -0.462212
90.1455 -35.4703 588.028 -0.196683 -0.847706 -0.492657
49.6704 -43.2074 607.838 0.0602389 -0.799148 -0.598108
66.9502 -38.5509 600.607 -0.104444 -0.868765 -0.484086
70.6777 -37.1505 596.965 -0.118455 -0.874671 -0.47002
76.8625 -36.7205 594.453 -0.126503 -0.878375 -0.460928
52.7654 -41.6331 607.13 0.0263905 -0.814124 -0.580092
55.329 -40.7813 605.825 0.0121945 -0.818618 -0.574209
57.8925 -39.9296 604.52 -0.0394549 -0.838845 -0.542938
60.456 -39.0779 603.215 -0.0845715 -0.848154 -0.522955
62.5776 -38.2689 601.014 -0.100717 -0.85757 -0.504411
-30.1716 -63.5044 651.086 -0.0800132 -0.85585 -0.510997
-22.5247 -60.9083 644.065 -0.166598 -0.870927 -0.462311
-57.8104 -69.6174 661.883 0.0833147 -0.83428 -0.545009
-55.9444 -70.5162 663.238 0.0791721 -0.8426 -0.532688
-53.8081 -69.8064 662.151 0.0735813 -0.847159 -0.52622
-51.2446 -68.9547 660.846 0.0146794 -0.857982 -0.51347
-47.613 -67.7481 658.997 -0.0252193 -0.862249 -0.505856
-47.2744 -66.3789 656.533 -0.0348271 -0.859815 -0.509417
-43.3572 -65.3656 654.831 -0.0377848 -0.858031 -0.512207
-34.1838 -63.0781 649.919 -0.0322397 -0.853693 -0.519778
-31.6203 -62.2263 648.614 -0.0668451 -0.861726 -0.502952
-28.3418 -62.2897 648.116 -0.103361 -0.861944 -0.496356
-25.9256 -61.4522 646.513 -0.117873 -0.864058 -0.489397
-55.238 -67.9762 660.536 0.0782197 -0.842851 -0.532433
-52.6744 -67.1245 659.232 0.0469813 -0.855332 -0.515945
-50.1109 -66.2727 657.927 -0.0136014 -0.861716 -0.507208
73.3745 38.7207 592.012 0.650417 -0.127495 -0.7488
71.2914 42.7473 592.847 0.648547 -0.22403 -0.727459
70.9035 45.1705 593.667 0.627257 -0.290604 -0.722563
71.1561 48.9419 593.176 0.604075 -0.393634 -0.692926
90.3825 55.33 583.389 -0.20819 -0.888116 -0.409765
72.2492 50.826 593.105 0.550612 -0.44537 -0.706026
73.1341 52.6921 591.463 0.430568 -0.625588 -0.650578
74.6793 53.8347 590.647 0.36592 -0.693816 -0.62026
76.2724 55.3086 590.907 0.266779 -0.765734 -0.585218
78.8555 56.0281 591.086 0.154199 -0.824902 -0.543837
81.7614 57.6566 588.087 -0.0340196 -0.862937 -0.504164
83.9119 58.3253 585.879 -0.0893925 -0.863321 -0.496674
86.3576 57.7148 584.702 -0.152572 -0.883766 -0.442356
99.0631 -43.4443 588.847 -0.34755 -0.771864 -0.532387
103.25 -40.1838 585.79 -0.36057 -0.7735 -0.521236
104.272 -38.6739 584.376 -0.366834 -0.758205 -0.539034
95.8427 -37.5142 590.989 -0.285513 -0.828823 -0.48118
101.552 -36.6072 587.126 -0.334174 -0.785158 -0.521397
102.706 -35.6292 584.724 -0.328459 -0.766917 -0.55132
82.44 -38.984 597.725 -0.126617 -0.885211 -0.447626
87.5373 -37.4965 593.038 -0.145237 -0.877094 -0.457835
93.379 -36.7262 590.399 -0.270932 -0.831164 -0.485554
76.6878 -38.4708 598.715 -0.115955 -0.877151 -0.466004
80.3676 -37.6511 595.559 -0.132469 -0.880607 -0.454954
84.7825 -37.599 594.495 -0.138566 -0.880534 -0.453275
51.9225 -43.6941 609.876 0.065607 -0.771896 -0.632354
54.648 -42.9273 609.983 0.0420394 -0.805022 -0.591753
58.0673 -41.9891 608.5 -0.0102309 -0.82141 -0.570247
60.6958 -40.8832 606.531 -0.056792 -0.837753 -0.543088
62.0052 -40.108 605.011 -0.0794422 -0.845832 -0.527501
64.3129 -39.5774 603.568 -0.0889484 -0.8537 -0.513113
68.5823 -39.8358 602.591 -0.100979 -0.865693 -0.490284
69.9967 -39.2965 601.124 -0.111581 -0.870928 -0.478574
72.4129 -38.459 599.52 -0.121932 -0.87407 -0.470248
-18.9093 -63.9504 647.171 -0.18976 -0.857498 -0.478214
-38.7962 -68.0924 658.85 -0.0415977 -0.856451 -0.514549
-39.9181 -66.9204 656.837 -0.0417934 -0.855337 -0.516383
-37.5756 -66.09 655.084 -0.0430091 -0.854284 -0.518024
-35.0121 -65.2383 653.779 -0.0354884 -0.852782 -0.52106
-32.4485 -64.3865 652.474 -0.0353574 -0.854723 -0.51788
-26.4554 -64.1763 651.74 -0.110821 -0.859054 -0.499745
-27.185 -63.162 649.82 -0.0983417 -0.858603 -0.50312
-23.1645 -62.4289 648.081 -0.142891 -0.860694 -0.48866
-53.9184 -71.2038 665.62 0.0665052 -0.843627 -0.532794
-52.6513 -70.6787 663.854 0.0500372 -0.850885 -0.522963
-50.0878 -69.827 662.549 0.00592807 -0.859661 -0.510831
-47.5243 -68.9753 661.244 -0.0197711 -0.861321 -0.507676
-45.108 -68.1378 659.64 -0.0380263 -0.86235 -0.504882
-42.8391 -67.3146 657.738 -0.0415493 -0.856731 -0.514088
72.7636 48.9018 595.733 0.561051 -0.412018 -0.717958
91.8789 54.748 588.631 -0.188113 -0.889279 -0.416889
91.8447 54.9794 586.032 -0.196397 -0.886247 -0.419518
75.643 51.9037 594.728 0.444601 -0.602907 -0.662445
78.4578 53.6838 593.564 0.228298 -0.770685 -0.594916
86.0479 56.8062 588.385 -0.0941023 -0.883489 -0.458902
89.2458 56.1264 588.189 -0.162 -0.88268 -0.441172
82.0711 56.4508 590.782 -0.0319755 -0.865005 -0.500744
98.3597 -44.3063 590.351 -0.36196 -0.770726 -0.524372
102.615 -41.6077 588.403 -0.379282 -0.771877 -0.510247
103.086 -40.5688 590.465 -0.390345 -0.764444 -0.513085
92.5483 -40.132 596.143 -0.314158 -0.818156 -0.481587
97.1084 -39.2148 593.515 -0.330079 -0.800239 -0.500665
98.7265 -36.9191 589.818 -0.286826 -0.812044 -0.508247
102.7 -38.2495 589.037 -0.369181 -0.771215 -0.518587
81.9344 -40.3942 600.869 -0.118667 -0.885963 -0.448316
84.8047 -38.4289 596.756 -0.133427 -0.886567 -0.44294
87.9506 -39.0597 597.466 -0.156352 -0.88271 -0.443144
90.4848 -38.0096 593.934 -0.248152 -0.86582 -0.434485
93.616 -38.0873 593.138 -0.279994 -0.842236 -0.460697
53.8791 -45.7887 612.582 0.109366 -0.740533 -0.663061
57.0981 -45.1508 613.345 0.0771076 -0.755206 -0.650937
59.991 -44.9234 612.279 0.013921 -0.799892 -0.599982
62.0779 -43.4616 610.436 -0.0239857 -0.835627 -0.548773
65.7095 -42.255 608.588 -0.0702434 -0.858104 -0.508648
67.5225 -40.8546 605.534 -0.0810902 -0.862572 -0.499393
71.3232 -41.4384 605.78 -0.0888736 -0.871446 -0.482373
71.905 -40.4495 603.66 -0.106761 -0.871528 -0.478582
74.2955 -39.7532 602.374 -0.110754 -0.875446 -0.470454
77.1428 -39.3661 601.323 -0.10854 -0.881196 -0.460122
79.832 -39.4866 599.63 -0.112916 -0.88483 -0.452025
-18.2396 -66.7936 648.929 -0.200009 -0.859399 -0.470564
55.5877 -44.4134 612.009 0.0518353 -0.793168 -0.606793
58.937 -43.3179 610.49 -0.016504 -0.829551 -0.558186
61.3483 -42.4474 608.516 -0.0444274 -0.839951 -0.540841
63.4846 -41.7376 607.428 -0.0609869 -0.855765 -0.513757
-34.2208 -68.6197 660.023 -0.0342106 -0.855568 -0.51656
-20.2932 -64.916 651.638 -0.182416 -0.854138 -0.487004
-50.1981 -71.2243 666.018 0.00849744 -0.857106 -0.51507
-48.2052 -71.1212 665.402 -0.0269685 -0.863641 -0.503385
-45.6481 -70.368 663.733 -0.0313137 -0.863727 -0.502987
-43.6674 -69.4748 661.598 -0.0444267 -0.865867 -0.498297
-41.1039 -68.623 660.293 -0.0458769 -0.85969 -0.508752
-34.6284 -67.5721 657.607 -0.0332802 -0.854156 -0.518951
-33.2768 -66.5467 656.334 -0.0346125 -0.853007 -0.52075
-30.7133 -65.695 655.029 -0.0394663 -0.85366 -0.519333
-28.1498 -64.8433 653.724 -0.0827124 -0.858776 -0.505631
-25.0186 -64.9209 652.927 -0.135115 -0.857797 -0.495912
-22.7497 -64.0977 651.025 -0.144628 -0.857517 -0.493709
77.9038 40.5459 597.503 0.606953 -0.153106 -0.77985
93.6581 51.9247 588.521 -0.251482 -0.885269 -0.391225
75.5389 49.3016 597.135 0.506339 -0.46602 -0.725566
78.3475 49.1623 598.826 0.411717 -0.548961 -0.727414
93.5248 52.9723 590.322 -0.234926 -0.885974 -0.399825
78.5917 51.2605 596.652 0.302648 -0.692223 -0.655158
82.0933 53.0446 595.212 0.0933629 -0.81315 -0.574517
84.9318 54.9916 592.231 -0.0541137 -0.875713 -0.479791
89.9066 55.072 590.332 -0.175476 -0.888079 -0.424881
99.8476 -43.2203 595.592 -0.395423 -0.749431 -0.531031
99.451 -44.4653 593.541 -0.400878 -0.74979 -0.526413
101.696 -42.496 592.339 -0.364829 -0.76172 -0.535428
99.1167 -41.4812 595.981 -0.395474 -0.749399 -0.531037
98.8004 -40.4448 593.967 -0.370312 -0.775466 -0.511392
100.915 -40.1108 592.362 -0.338867 -0.775766 -0.532312
90.9994 -41.3205 600.256 -0.293177 -0.806914 -0.512773
91.3684 -40.7537 598.094 -0.298618 -0.813857 -0.498462
95.1931 -39.9032 595.051 -0.317866 -0.799945 -0.508969
56.2965 -48.6844 615.211 0.105105 -0.749303 -0.653833
69.855 -43.5817 608.336 -0.0802815 -0.863636 -0.497682
73.8875 -42.857 606.443 -0.0978423 -0.872598 -0.478539
77.6937 -42.4071 605.785 -0.103429 -0.877153 -0.468941
79.1768 -41.4913 603.472 -0.108066 -0.880842 -0.460911
82.6987 -42.0614 602.432 -0.119848 -0.881628 -0.456475
84.393 -41.3944 600.448 -0.160823 -0.873159 -0.46014
86.9565 -40.5426 599.143 -0.202017 -0.860115 -0.468393
58.3807 -46.9953 614.66 0.0656125 -0.765371 -0.640236
61.7987 -45.8597 612.921 0.0361872 -0.768528 -0.638792
63.5077 -45.2918 612.051 -0.029902 -0.835747 -0.548299
66.0712 -44.4401 610.746 -0.0448214 -0.845782 -0.531643
-17.9407 -66.3766 652.854 -0.199655 -0.858138 -0.473009
-38.4095 -70.6253 663.896 -0.0484024 -0.869475 -0.491599
-35.9483 -70.2272 662.477 -0.0369124 -0.864204 -0.501785
-31.9573 -69.7743 661.417 -0.0342708 -0.862063 -0.505641
-31.3434 -67.8942 658.792 -0.0347669 -0.856699 -0.514644
-28.9781 -67.0035 657.583 -0.0517402 -0.857521 -0.511841
-24.6997 -66.4725 656.564 -0.117479 -0.866851 -0.484529
-22.0854 -66.0101 655.392 -0.150543 -0.864357 -0.479816
-51.0233 -71.7066 668.68 0.0231488 -0.85707 -0.514679
-45.7628 -72.16 667.224 -0.033842 -0.867545 -0.496207
-44.0538 -71.5922 666.354 -0.0438034 -0.867946 -0.494723
-41.7849 -70.769 664.451 -0.0448979 -0.868717 -0.49327
82.1995 38.4113 599.951 0.474922 -0.366327 -0.800158
78.4626 42.5687 599.921 0.558645 -0.249196 -0.791086
77.2969 46.3932 600.127 0.510621 -0.372386 -0.774981
78.173 47.6635 600.379 0.448634 -0.454282 -0.769646
81.2859 50.4631 598.896 0.258769 -0.678202 -0.687809
85.5684 51.5952 598.162 0.0400878 -0.811444 -0.583054
89.3473 52.2948 596.041 -0.107478 -0.874192 -0.473537
89.4851 53.7356 593.394 -0.148355 -0.884615 -0.442093
92.8392 53.6891 591.742 -0.201725 -0.888662 -0.411809
85.4571 53.3335 595.399 -0.0252801 -0.856266 -0.515917
94.0032 -48.9995 599.42 -0.422828 -0.734529 -0.530738
95.8957 -47.5301 600.648 -0.466439 -0.698693 -0.54246
97.4459 -45.8044 599.188 -0.454823 -0.692951 -0.559424
98.7035 -44.5801 597.17 -0.442785 -0.71477 -0.541337
58.3198 -55.9266 617.907 0.148744 -0.709674 -0.688649
97.7944 -42.7049 599.482 -0.414422 -0.738673 -0.531617
97.1089 -41.3764 597.524 -0.371948 -0.766636 -0.523378
59.0545 -51.5661 618.174 0.10923 -0.743315 -0.659964
74.4186 -45.7313 612.047 -0.0688685 -0.867427 -0.492776
82.0533 -43.0972 605.143 -0.154173 -0.859955 -0.486527
86.7838 -42.5891 603.79 -0.286427 -0.810327 -0.511204
89.1883 -41.9999 602.576 -0.306651 -0.7869 -0.535494
94.5229 -41.5559 599.552 -0.369427 -0.783321 -0.499932
-14.2636 -72.1241 656.709 -0.240914 -0.826517 -0.508754
60.9601 -47.8148 616.664 0.0642054 -0.765096 -0.640707
66.2018 -46.5374 614.997 -0.00485357 -0.825768 -0.56399
68.7789 -45.3526 612.021 -0.0549772 -0.849172 -0.525247
72.6281 -44.5668 609.75 -0.0795381 -0.864219 -0.496788
75.1916 -43.7151 608.445 -0.0944289 -0.86859 -0.486451
78.4701 -43.7784 607.947 -0.101851 -0.874636 -0.47396
-15.1671 -69.7508 656.483 -0.215601 -0.849135 -0.482167
-15.7602 -69.2155 654.518 -0.216066 -0.864002 -0.45477
-35.4189 -73.3857 667.203 -0.0630839 -0.841698 -0.536251
-33.1868 -72.1039 663.995 -0.052085 -0.84754 -0.52817
-25.4665 -70.7394 662.503 -0.0864948 -0.842689 -0.531408
-26.5774 -69.4276 660.142 -0.0728631 -0.862666 -0.500498
-23.9773 -68.9671 659.229 -0.13175 -0.865572 -0.483143
-20.1552 -68.9094 658.345 -0.187852 -0.861515 -0.471703
-17.8532 -67.8267 655.624 -0.199813 -0.862314 -0.465285
-38.7258 -72.354 666.552 -0.0431042 -0.872403 -0.486884
-29.5333 -70.1216 661.354 -0.0312759 -0.86056 -0.508387
85.6114 36.191 600.606 0.417848 -0.297191 -0.858534
81.1152 41.0581 601.847 0.496165 -0.351976 -0.793683
83.2522 39.4975 602.728 0.41558 -0.413032 -0.810369
81.8969 44.2209 603.915 0.371245 -0.467555 -0.802228
97.2254 49.5097 596.251 -0.241796 -0.859526 -0.450278
80.3177 44.9182 602.8 0.46423 -0.373259 -0.803224
80.7768 46.7224 602.58 0.362614 -0.51574 -0.776224
94.1438 50.8136 597.485 -0.202344 -0.848328 -0.489282
94.1297 52.0888 594.669 -0.226742 -0.870251 -0.437323
82.7694 48.9133 601.028 0.224555 -0.614659 -0.756154
85.4802 49.7793 600.022 0.158344 -0.695674 -0.700689
91.0345 51.6247 597.194 -0.11695 -0.856292 -0.503077
90.9981 -52.6673 607.215 -0.423243 -0.73792 -0.52568
91.617 -52.3056 605.219 -0.416786 -0.739666 -0.528379
93.9075 -50.496 604.003 -0.40545 -0.736846 -0.540988
95.1226 -48.9917 602.774 -0.419989 -0.726069 -0.544457
60.7568 -57.212 619.557 0.167296 -0.692645 -0.701609
97.3582 -46.4518 603.363 -0.460034 -0.710722 -0.532205
97.4308 -45.6032 601.473 -0.466355 -0.698744 -0.542466
61.9491 -54.9267 621.092 0.15937 -0.722705 -0.672532
90.3268 -44.8337 606.986 -0.349587 -0.778784 -0.52085
90.9298 -43.3067 604.57 -0.330502 -0.778121 -0.534131
93.7773 -43.1466 603.716 -0.361397 -0.748098 -0.556545
96.0372 -42.8858 601.659 -0.446414 -0.722096 -0.52848
61.002 -51.5203 619.443 0.119701 -0.745983 -0.655118
71.3248 -47.6172 616.119 -0.00743909 -0.848126 -0.529742
71.9452 -46.4166 613.523 -0.057766 -0.862713 -0.502383
75.7411 -46.7262 614.456 -0.0634126 -0.874588 -0.480703
76.9269 -45.0235 611 -0.0811999 -0.872805 -0.481267
81.0169 -45.0382 610.595 -0.102633 -0.876019 -0.47123
82.5197 -44.4233 608.585 -0.177142 -0.856938 -0.484022
85.8117 -44.2207 607.138 -0.285532 -0.822358 -0.492137
88.3054 -43.9685 606.454 -0.322112 -0.806166 -0.496327
-13.1766 -73.596 659.034 -0.266996 -0.773335 -0.575036
63.6997 -47.8454 617.658 0.0685533 -0.770451 -0.633802
66.9782 -47.9087 617.16 0.0549006 -0.780894 -0.622246
69.0998 -47.0998 614.959 -0.0112764 -0.833933 -0.55175
-23.3279 -72.0659 664.804 -0.148105 -0.763631 -0.628437
-20.915 -71.4267 663.639 -0.20745 -0.764237 -0.610661
-15.6551 -71.0895 660.973 -0.245389 -0.785414 -0.568251
-16.777 -69.9174 658.959 -0.199099 -0.835819 -0.511631
-36.2378 -74.0147 669.59 -0.088087 -0.828669 -0.552765
-32.3467 -73.5697 667.37 -0.071275 -0.819888 -0.56807
-30.075 -72.3122 665.297 -0.0745049 -0.816686 -0.572253
-27.7981 -71.43 663.909 -0.0809216 -0.819134 -0.567866
-22.5345 -70.2055 661.255 -0.156654 -0.85604 -0.492601
-19.2561 -70.2688 660.757 -0.210883 -0.822648 -0.527995
85.9492 38.1924 602.576 0.363996 -0.3519 -0.862365
84.7337 41.5648 604.688 0.363043 -0.448478 -0.816742
98.6137 47.0669 596.464 -0.23989 -0.853611 -0.462386
