ply
format ascii 1.0
element vertex 873
property float x
property float y
property float z
property float nx
property float ny
property float nz
end_header
-120.562 -48.8451 746.939 0.0430157 -0.79023 -0.611299
-123.762 -48.4181 746.563 0.0609804 -0.772375 -0.632233
-126.582 -48.6507 746.526 0.0513211 -0.765263 -0.641668
-129.756 -48.5316 746.3 -0.0388197 -0.775967 -0.629578
-138.109 -45.6601 746.025 -0.328696 -0.788106 -0.520431
8.92672 -64.0872 766.456 0.133301 -0.0148468 0.990964
6.09497 -64.2111 766.644 -0.0436865 -0.0247163 0.998739
3.56546 -63.3795 764.625 -0.212066 0.0375633 0.976533
-11.9594 -61.6217 763.322 -0.0801123 -0.542736 0.836074
-14.386 -60.0571 763.781 -0.00513958 -0.572105 0.820164
-17.3919 -61.3375 763.908 0.0242874 -0.728923 0.684165
-29.3099 -60.6485 760.82 -0.0554475 -0.989766 -0.131485
-32.0951 -59.3636 760.051 -0.00330822 -0.981811 -0.189833
-35.0488 -58.9695 759.704 -0.00491958 -0.953873 -0.30017
-38.0025 -58.5754 759.357 -0.029648 -0.922157 -0.385678
-47.3074 -57.3758 759.951 -0.0436494 -0.836175 -0.546722
-50.0571 -57.2373 759.739 -0.0426182 -0.825798 -0.562353
-52.462 -54.9717 756.847 -0.0322443 -0.814388 -0.579425
-55.7241 -55.9899 758.756 -0.00823837 -0.820645 -0.571379
-59.026 -55.8728 758.742 -0.00878865 -0.820217 -0.571984
-62.6164 -55.2911 756.464 -0.00874833 -0.814227 -0.580481
-64.5855 -55.0283 756.232 -0.0132153 -0.811746 -0.583861
-67.8673 -54.5904 755.846 -0.00732452 -0.812398 -0.583057
-70.6009 -54.468 756.198 0.00446628 -0.808673 -0.588242
-73.4465 -53.846 755.191 0.0211456 -0.814 -0.58048
-76.4002 -53.4519 754.844 0.039233 -0.812222 -0.582028
-18.5019 -59.4629 765.268 0.118636 -0.583829 0.803162
-20.6586 -58.2852 765.51 0.158334 -0.649457 0.743731
-23.3515 -57.0453 766.065 0.238141 -0.639769 0.730742
-26.6986 -56.3668 767.228 0.248031 -0.710456 0.658584
-29.4509 -57.1472 768.155 0.263197 -0.717274 0.645171
-30.0761 -54.3535 769.3 0.304509 -0.747964 0.589766
-32.8425 -55.1935 769.91 0.260189 -0.809182 0.526808
-32.1796 -52.4132 771.253 0.326596 -0.849356 0.414643
-35.4891 -52.6818 772.208 0.28874 -0.860945 0.418811
-136.309 -40.3708 760.911 -0.700873 -0.0464709 0.711771
-140.031 -39.3895 759.127 -0.808003 -0.0964952 0.581223
-23.6677 -51.6787 776.083 0.293487 -0.952822 -0.0774379
-26.8714 -52.0892 775.715 0.284317 -0.953335 -0.101572
-29.7043 -52.2739 775.411 0.215671 -0.968399 -0.125256
-32.365 -52.2017 774.799 0.266654 -0.962866 -0.0422342
-35.8193 -52.5701 774.485 0.217126 -0.975251 0.0417265
-101.008 -43.7953 767.774 -0.39939 0.0459617 0.915628
-103.985 -43.1837 767.877 -0.194421 0.0398985 0.980106
-133.991 -39.3943 763.898 -0.52542 -0.00749763 0.85081
-135.251 -38.7414 762.403 -0.552461 -0.0124322 0.833446
-15.2279 -51.6383 779.241 0.376175 -0.921099 0.100341
-18.1644 -52.4335 779.234 0.351428 -0.9362 0.00519162
-21.3859 -53.2764 779.545 0.328677 -0.935526 -0.129466
-24.0013 -52.5423 778.866 0.314979 -0.934951 -0.163265
-98.2208 -41.8469 770.038 -0.552782 0.00267474 0.833322
-99.7341 -41.7101 767.945 -0.442931 0.0291891 0.89608
-103.672 -41.1846 767.483 -0.202098 0.016877 0.97922
-105.978 -42.7034 768.095 -0.0971603 0.0177415 0.995111
-110.42 -40.7969 769.162 -0.0420015 0.0220054 0.998875
-116.106 -41.0307 767.583 -0.175316 0.0324115 0.983979
-130.832 -38.0173 764.511 -0.307991 -0.10126 0.945985
-132.632 -36.8637 763.858 -0.52546 -0.0824884 0.84681
-15.9277 -50.2323 781.93 0.439277 -0.875156 0.202824
-18.4589 -52.0556 782.817 0.457593 -0.863108 0.213665
-97.1395 -41.2551 772.311 -0.709077 -0.03355 0.704333
-112.46 -39.3349 769.458 -0.0664303 -0.109162 0.991802
-18.2492 -49.6867 785.019 0.442982 -0.804156 0.396358
-94.9591 -40.0179 774.609 -0.792956 -0.156349 0.588877
-18.4172 -48.5574 787.73 0.471283 -0.671251 0.572115
-93.3059 -37.1821 778.885 -0.724022 -0.500583 0.474562
-18.6808 -47.1154 790.313 0.443045 -0.596941 0.668859
-81.2762 -39.3087 782.621 -0.547567 -0.570316 0.612299
-83.793 -39.9115 781.265 -0.520875 -0.493788 0.696321
-86.9325 -38.1693 782.11 -0.56346 -0.571232 0.596831
-89.6714 -37.7682 781.863 -0.542197 -0.661349 0.518304
-21.8919 -45.4192 792.77 0.396624 -0.413879 0.819386
-81.385 -37.701 785.556 -0.492525 -0.813792 0.308484
-83.914 -37.328 785.475 -0.415781 -0.890982 0.182418
-87.0699 -37.1316 784.937 -0.403195 -0.898738 0.172349
-90.035 -36.6655 784.48 -0.441181 -0.896517 0.0402067
-92.9285 -35.7221 784.276 -0.479165 -0.877385 -0.0244332
-101.452 -33.3183 782.786 -0.219312 -0.907808 -0.357474
-104.34 -32.8647 782.607 -0.112344 -0.903142 -0.414383
-107.404 -32.7223 782.375 -0.0805383 -0.902036 -0.424081
-24.9848 -44.1587 794.592 0.401922 -0.36246 0.840881
-95.7015 -34.8552 786.066 -0.315368 -0.916903 -0.244607
-98.9052 -34.1038 786.195 -0.249177 -0.899802 -0.358143
-101.522 -33.6072 785.877 -0.158222 -0.899497 -0.407273
-105.021 -33.086 785.699 -0.0732669 -0.879997 -0.469295
-107.555 -32.3085 784.669 -0.0728969 -0.888571 -0.452909
-110.622 -31.7994 784.181 -0.0758941 -0.893605 -0.442391
-113.542 -31.053 783.745 -0.0812251 -0.895195 -0.43821
-116.312 -30.4598 783.497 -0.0664541 -0.898825 -0.43324
-119.466 -31.117 784.142 -0.0300443 -0.881656 -0.470936
-122.203 -29.8166 782.502 -0.0198269 -0.884872 -0.465412
-125.265 -29.4832 782.142 -0.0233561 -0.880575 -0.47333
-127.97 -29.277 781.565 -0.049838 -0.882091 -0.468436
-131.151 -29.7495 782.014 -0.112845 -0.855462 -0.505422
-134.308 -29.3239 781.87 -0.192007 -0.82042 -0.538558
-137.238 -28.827 781.799 -0.317489 -0.788718 -0.526426
-27.3852 -42.3629 795.449 0.442231 -0.381725 0.811614
-31.6237 -42.7386 796.519 0.555438 -0.429338 0.71215
-34.217 -42.4206 797.339 0.627595 -0.490495 0.604599
-107.727 -32.9475 786.638 -0.0731078 -0.878248 -0.472584
-110.986 -32.643 786.318 -0.0734915 -0.875174 -0.478194
-113.634 -32.1592 785.943 -0.0636948 -0.873578 -0.482499
-140.417 -27.6753 782.911 -0.370008 -0.741635 -0.559528
-142.998 -27.6106 784.782 -0.476161 -0.714177 -0.513052
-30.7921 -38.9738 799.19 0.677692 -0.506994 0.532626
-33.7447 -40.1375 798.793 0.7146 -0.521222 0.466557
-144.438 -25.7288 786.205 -0.555052 -0.702369 -0.44564
-31.0639 -38.9717 802.238 0.765287 -0.504186 0.400165
-31.8351 -37.5951 808.477 0.79463 -0.526926 0.301516
-31.4252 -34.8729 810.24 0.789545 -0.494314 0.363692
-31.8427 -31.4534 815.514 0.671908 -0.484676 0.560026
-33.2595 -32.2337 818.041 0.530976 -0.506329 0.679482
-33.1021 -30.0275 819.206 0.582141 -0.508904 0.634136
-35.1227 -29.4381 821.224 0.398516 -0.519863 0.755598
-130.16 -17.9169 810.133 -0.175694 -0.581024 0.794696
-132.812 -17.1676 810.012 -0.1749 -0.586822 0.790601
-136.051 -16.9519 809.502 -0.169184 -0.584133 0.79383
-35.8559 -27.7348 823.095 0.348402 -0.555112 0.755292
-38.8006 -28.1593 823.46 0.176057 -0.498797 0.848649
-41.4414 -27.9894 823.339 0.115537 -0.529285 0.84054
-91.7524 -22.0076 817.462 -0.178339 -0.576031 0.797736
-94.6538 -21.484 816.817 -0.185153 -0.577189 0.795343
-115.179 -18.2746 813.621 -0.190327 -0.53534 0.822913
-124.209 -17.9831 813.001 -0.20406 -0.539346 0.816986
-135.855 -15.5158 811.191 -0.170744 -0.583958 0.793624
-138.562 -15.1545 810.872 -0.166369 -0.588823 0.790954
-143.9 -15.3556 810.687 -0.160945 -0.596024 0.786671
-37.6544 -26.8484 824.1 0.252761 -0.518667 0.81676
57.4678 -100.504 700.269 0.108943 -0.860137 -0.498293
54.8506 -100.696 699.892 0.0841107 -0.855433 -0.511038
51.7717 -100.25 699.434 0.0610377 -0.850582 -0.522288
48.8489 -100.025 699.25 -0.00358832 -0.845366 -0.534176
46.0117 -98.98 698.795 -0.0555432 -0.823866 -0.564056
43.252 -97.792 697.555 -0.0633709 -0.818858 -0.570487
39.8576 -99.0415 699.092 -0.0638653 -0.821884 -0.566064
36.9039 -98.6473 698.745 -0.0541582 -0.821175 -0.5681
33.9502 -98.2532 698.398 -0.0422818 -0.824317 -0.564547
31.1141 -97.0245 697.134 -0.0362869 -0.823009 -0.566869
25.2167 -96.2063 696.389 -0.044737 -0.824833 -0.563603
22.2608 -96.7281 697.12 -0.0458222 -0.829444 -0.556708
19.0567 -96.2313 696.551 -0.0526561 -0.830232 -0.554925
16.4705 -95.2017 695.393 -0.0539658 -0.827058 -0.55952
13.3026 -95.3459 695.897 -0.0629589 -0.841387 -0.536754
10.5867 -95.1704 695.748 -0.0859439 -0.85113 -0.517872
4.25287 -93.8881 695.046 -0.106373 -0.886906 -0.449536
-1.93118 -93.5001 694.277 -0.180468 -0.914459 -0.362211
-4.50361 -93.4266 694.025 -0.156862 -0.937408 -0.310904
-7.27488 -91.9808 692.456 -0.147865 -0.924836 -0.350447
-10.0445 -91.7398 692.313 -0.161217 -0.943336 -0.290044
-13.3927 -92.3928 693.054 -0.273329 -0.955206 -0.113454
-15.9559 -91.1165 691.467 -0.278065 -0.942954 -0.183076
-19.0818 -90.9657 691.228 -0.345448 -0.933463 -0.0965021
-22.0114 -89.9852 690.972 -0.378468 -0.92447 -0.0460122
58.0679 -100.222 702.685 0.137941 -0.860666 -0.490129
43.1178 -98.8055 699.707 -0.0604512 -0.822892 -0.564973
28.1033 -96.8021 697.942 -0.0473154 -0.825028 -0.563108
7.42762 -94.0433 695.512 -0.0856214 -0.860607 -0.50202
1.35182 -94.1459 695.24 -0.167971 -0.922114 -0.348556
-22.0942 -88.7274 693.406 -0.442109 -0.835628 0.325984
58.6024 -98.2439 704.704 0.135081 -0.861355 -0.489715
-13.6547 -90.0005 698 -0.440773 -0.766661 0.466851
-16.438 -89.2529 697.39 -0.469794 -0.727725 0.49971
-19.0684 -87.8003 696.251 -0.475242 -0.715618 0.511895
-10.2915 -88.7375 700.732 -0.449615 -0.665364 0.595934
-13.5134 -87.1923 699.985 -0.499305 -0.620708 0.604497
-16.4948 -86.8982 698.732 -0.477803 -0.609777 0.632358
-8.2874 -87.0014 703.807 -0.504502 -0.581131 0.638564
-10.5055 -86.5186 702.043 -0.489083 -0.573009 0.657615
-2.46407 -87.4895 707.61 -0.460431 -0.578554 0.673259
-4.94587 -85.9901 706.447 -0.492896 -0.54316 0.679728
-7.863 -84.3281 705.572 -0.499867 -0.546629 0.671811
0.579302 -86.5534 710.432 -0.448246 -0.63226 0.63192
-2.24324 -85.1191 709.394 -0.477643 -0.635269 0.606869
6.56164 -85.6374 713.503 -0.459066 -0.680496 0.571125
3.79585 -84.5834 712.847 -0.431941 -0.705333 0.562079
0.810738 -83.2689 712.192 -0.41793 -0.766211 0.488115
12.0612 -85.303 716.997 -0.467183 -0.753056 0.463299
9.2306 -84.0274 716.388 -0.435793 -0.798757 0.414816
6.43983 -83.6136 714.934 -0.40231 -0.819699 0.407725
12.0962 -83.5223 719.585 -0.393532 -0.889027 0.234017
9.4729 -82.7156 719.056 -0.346201 -0.920592 0.180707
6.22401 -81.5148 718.056 -0.338536 -0.931976 0.129667
3.68555 -80.8666 717.956 -0.365657 -0.918474 0.150668
7.12577 -82.4305 719.906 -0.346793 -0.933949 0.0864508
2.77964 -81.8954 721.196 -0.359064 -0.931786 0.0533699
-2.22751 -81.1824 718.806 -0.425837 -0.893089 0.145103
-5.80622 -79.8018 719.745 -0.513002 -0.840882 0.172473
-8.63239 -78.7856 719.694 -0.531929 -0.806239 0.258903
-5.77785 -79.1745 723.208 -0.580313 -0.759367 0.294277
-8.36961 -77.5428 721.775 -0.583093 -0.7498 0.312735
46.7144 -85.1412 729.987 0.444475 -0.0864486 0.89161
44.0911 -84.3345 729.458 0.330064 -0.131155 0.934803
41.5876 -84.2288 729.274 0.273767 -0.174372 0.945857
38.9716 -81.6666 730.677 0.538167 -0.275135 0.796666
-5.52932 -77.1009 725.067 -0.628293 -0.699247 0.34103
37.1706 -82.1533 732.485 0.55927 -0.404047 0.723853
-3.58284 -76.1581 727.743 -0.645569 -0.638539 0.418937
35.6752 -80.3108 735.777 0.671888 -0.382579 0.634192
-0.35701 -76.0517 731.892 -0.650425 -0.609896 0.45274
-2.78746 -74.5963 730.655 -0.646403 -0.607563 0.461553
35.1082 -78.4142 738.074 0.725114 -0.324886 0.607173
1.93628 -75.3259 735.201 -0.635486 -0.641949 0.429021
-0.67645 -73.6464 734.149 -0.63052 -0.660325 0.407941
-3.20633 -71.9691 733.273 -0.600988 -0.709402 0.368187
33.68 -78.0724 740.891 0.717585 -0.305473 0.625905
2.05435 -73.7143 737.663 -0.605123 -0.732638 0.311556
-0.27464 -72.4907 736.749 -0.603544 -0.73247 0.314997
31.31 -76.3631 743.553 0.701947 -0.269175 0.659405
1.97903 -71.5482 740.069 -0.541945 -0.825025 0.160093
-0.655337 -70.3568 739.324 -0.480978 -0.873322 0.077254
29.6848 -73.3834 745.64 0.678482 -0.241321 0.693849
1.6883 -70.32 742.47 -0.444172 -0.895928 0.00497688
-0.784513 -69.3798 741.532 -0.448553 -0.891232 -0.0671286
-3.88883 -68.6344 740.946 -0.343185 -0.92575 -0.158783
-9.7248 -67.7561 740.432 -0.316125 -0.909328 -0.270532
-12.3279 -67.3081 739.969 -0.317043 -0.91343 -0.255203
-15.8251 -68.1621 741.259 -0.369272 -0.906671 -0.203924
-18.3233 -66.3784 739.231 -0.371401 -0.909261 -0.187897
29.1577 -71.7849 747.619 0.662991 -0.237177 0.710063
26.2513 -73.466 748.834 0.586959 -0.301759 0.751279
-1.05252 -69.7667 743.374 -0.327939 -0.925681 -0.188603
-4.25233 -69.3397 742.997 -0.288747 -0.926586 -0.240965
-6.46758 -69.0441 742.737 -0.302051 -0.913578 -0.272286
-12.9233 -68.4871 742.126 -0.321386 -0.916387 -0.238633
-18.88 -66.7284 742.473 -0.462407 -0.885916 -0.03652
-21.5427 -64.6532 742.039 -0.544549 -0.830181 0.119441
25.5686 -70.8403 751.142 0.607086 -0.297608 0.736801
-19.1874 -65.0594 745.627 -0.602538 -0.780979 0.164377
24.2124 -70.1376 752.677 0.57196 -0.339704 0.746634
22.3338 -69.2906 753.418 0.539766 -0.364763 0.758683
-19.0166 -63.5188 748.376 -0.650589 -0.712287 0.263402
21.1158 -68.4385 755.027 0.562148 -0.370839 0.739235
20.0105 -69.6329 754.434 0.53127 -0.424925 0.732933
-16.258 -63.3049 751.536 -0.629283 -0.715324 0.303834
-18.721 -62.0094 750.918 -0.624153 -0.751474 0.213821
18.5654 -67.5114 758.336 0.583705 -0.364823 0.725391
-16.7547 -61.1355 752.824 -0.535697 -0.798097 0.275806
-134.349 -44.039 740.07 -0.0983384 -0.788835 -0.606687
18.0448 -64.5438 759.653 0.606873 -0.226611 0.761808
15.8034 -65.0338 760.883 0.57949 -0.200989 0.789807
-16.5932 -60.0839 756.425 -0.371049 -0.84981 0.37436
-19.3273 -58.806 755.753 -0.318549 -0.937682 0.138849
-28.1507 -57.2662 754.797 -0.25593 -0.902378 -0.346718
-78.3722 -50.2223 749.364 0.0322673 -0.820261 -0.571078
-96.7064 -50.0077 748.32 -0.0205655 -0.797314 -0.603214
-99.5064 -49.7311 748.261 -0.0281208 -0.801518 -0.597309
-102.203 -49.347 747.876 -0.0336643 -0.805572 -0.591541
-105.567 -48.8254 747.279 -0.033536 -0.806337 -0.590505
-108.056 -48.4448 746.852 -0.0267521 -0.801316 -0.597642
-111.256 -48.0179 746.476 -0.00275135 -0.799399 -0.600794
-113.89 -47.595 746.317 0.00853239 -0.801625 -0.597766
-117.164 -47.2296 745.781 0.0175055 -0.801591 -0.597617
-119.89 -46.5209 744.293 0.019478 -0.796188 -0.604735
-122.875 -45.9325 743.898 0.0356195 -0.789417 -0.612824
-128.534 -44.3331 742.11 -0.0114777 -0.787167 -0.616633
-131.608 -44.5753 742.064 -0.0738216 -0.776274 -0.626059
-134.436 -45.5398 741.268 -0.0946205 -0.771202 -0.629519
-137.074 -45.2587 741.994 -0.141632 -0.780918 -0.608365
-4.91714 -61.2706 762.135 -0.133236 -0.218682 0.966657
-19.304 -59.6163 757.515 -0.23079 -0.957451 0.173273
-22.7696 -59.1199 758.759 -0.112483 -0.993629 0.00705053
-25.9634 -58.7713 758.483 -0.127865 -0.977431 -0.168162
-31.6515 -56.7297 757.291 -0.122243 -0.922821 -0.365319
-34.1882 -56.3257 757.08 -0.0847878 -0.906968 -0.412578
-37.3252 -55.8528 756.685 -0.103653 -0.869494 -0.482946
-40.6033 -56.5446 757.866 -0.0708238 -0.849482 -0.522842
-43.2874 -55.1935 756.388 -0.0801145 -0.840653 -0.535615
-46.244 -53.928 754.818 -0.106425 -0.834314 -0.54092
-49.2123 -54.4029 755.692 -0.0734764 -0.824077 -0.561693
-51.9052 -53.1726 754.153 -0.0377817 -0.840542 -0.540427
-57.8126 -52.3844 753.459 -0.012562 -0.830337 -0.557121
-60.8206 -53.2061 754.236 -0.0137634 -0.824705 -0.565396
-64.2009 -53.6817 754.489 -0.0194388 -0.820215 -0.571725
-67.0436 -53.0586 754.123 -0.0103109 -0.827516 -0.561347
-69.836 -52.1406 752.333 -0.00262965 -0.826699 -0.562638
-72.298 -50.9013 750.491 -0.00907317 -0.827402 -0.561537
-75.2868 -51.0478 751.392 0.0210236 -0.818201 -0.574548
-79.6901 -51.5589 750.417 0.0432707 -0.808854 -0.586416
-81.413 -51.329 750.215 0.0395847 -0.806565 -0.589818
-84.6128 -50.902 749.839 0.0345708 -0.804659 -0.59273
-87.6086 -50.7306 749.597 0.0151641 -0.798071 -0.602372
-90.6886 -51.0046 749.566 0.00278184 -0.793902 -0.60804
-93.6423 -50.6105 749.219 -0.00982936 -0.793 -0.609142
-139.796 -43.1102 744.258 -0.191934 -0.782853 -0.591863
12.1754 -62.1022 764.834 0.33424 -0.0415102 0.941573
9.8952 -59.7851 765.26 0.124055 0.0147587 0.992166
6.60461 -61.1726 765.757 -0.0479264 0.048939 0.997651
1.0769 -60.7549 762.852 -0.228682 -0.00396202 0.973493
-1.77228 -59.1476 761.553 -0.164728 -0.0605626 0.984478
-6.03893 -59.6719 762.693 -0.0456082 -0.212697 0.976053
-8.06751 -58.4553 762.97 0.0509702 -0.264345 0.96308
-10.9198 -59.6124 763.24 -0.00960528 -0.43065 0.902468
-46.7727 -55.5786 757.442 -0.0856 -0.821786 -0.56333
-55.3833 -54.0631 756.809 -0.00984936 -0.81669 -0.576992
-58.365 -53.8175 756.532 -0.00690009 -0.81561 -0.578561
6.83348 -59.6189 765.573 -0.0525284 0.0382447 0.997887
-11.8731 -57.1229 763.375 0.069489 -0.395849 0.915683
-14.6348 -57.6957 764.618 0.0996906 -0.401534 0.910402
-17.2043 -57.5952 764.989 0.121627 -0.533339 0.837112
-20.0005 -54.9949 765.807 0.22112 -0.57751 0.785868
-22.9256 -54.058 766.914 0.283088 -0.624156 0.72821
-27.1434 -52.9983 768.355 0.29543 -0.717957 0.630284
-28.2799 -52.5516 768.45 0.339179 -0.768167 0.543025
-29.2588 -50.59 771.805 0.297333 -0.938494 0.17556
-138.331 -36.555 758.68 -0.579956 -0.133584 0.803621
-14.1641 -50.1032 775.124 0.325036 -0.945294 0.0277746
-17.5725 -50.5366 775.595 0.287938 -0.957422 -0.0208451
-20.5515 -50.7723 774.857 0.288436 -0.95687 -0.0347038
-23.6291 -50.6532 773.524 0.260543 -0.964895 -0.0330827
-26.6432 -50.922 772.938 0.314364 -0.946494 0.0729681
-136.061 -36.3502 761.204 -0.459586 -0.0945189 0.88309
-11.9727 -49.9754 778.818 0.370556 -0.918191 0.140048
-14.7253 -51.2264 777.053 0.325842 -0.945414 0.00442727
-20.8488 -50.894 777.68 0.320079 -0.942333 -0.097766
-101.086 -39.2745 767.808 -0.372372 0.0249754 0.927747
-103.491 -39.1959 768.198 -0.205246 0.0347522 0.978093
-106.787 -39.1056 768.258 -0.0606491 0.0288519 0.997742
-109.538 -38.3456 768.764 -0.0396699 -0.0233061 0.998941
-115.62 -37.7341 767.627 -0.230361 -0.103453 0.967591
-118.05 -38.1385 765.803 -0.246937 -0.0662876 0.966762
-127.997 -35.6837 764.645 -0.264661 -0.176625 0.948029
-129.15 -36.4431 764.951 -0.324086 -0.25398 0.911297
-14.0265 -47.9278 781.333 0.37672 -0.890804 0.254068
-97.5362 -37.7867 770.983 -0.732167 -0.106045 0.672819
-112.519 -35.671 769.073 -0.187291 -0.237839 0.953077
-114.356 -36.218 768.962 -0.197393 -0.246598 0.948802
-14.9838 -47.3306 784.107 0.424184 -0.786601 0.448694
-95.1496 -36.7666 774.879 -0.829994 -0.322153 0.455333
-12.0751 -45.6119 786.804 0.432866 -0.701831 0.565739
-14.8423 -46.6342 786.503 0.440617 -0.726955 0.526681
-94.1347 -37.2578 777.21 -0.721032 -0.473046 0.506301
-12.2529 -43.9821 788.932 0.421373 -0.590054 0.688681
-15.8446 -45.7746 789.623 0.424702 -0.591083 0.685747
-83.5111 -36.818 782.379 -0.51539 -0.672875 0.530672
-92.2281 -35.6963 781.004 -0.588828 -0.776454 0.224501
-106.671 -31.0686 778.556 -0.0562358 -0.951994 -0.300906
-109.618 -30.6374 778.191 -0.0452929 -0.963597 -0.263493
-15.3796 -44.039 790.779 0.408677 -0.557644 0.722507
-19.282 -44.531 791.737 0.404786 -0.445303 0.798658
-93.0515 -33.4327 780.977 -0.55089 -0.833341 0.0454205
-95.3469 -33.2626 782.553 -0.448359 -0.887871 -0.103248
-98.1959 -32.574 782.513 -0.342364 -0.898813 -0.273719
-103.641 -31.3628 780.527 -0.168257 -0.905021 -0.390674
-106.779 -31.8433 780.037 -0.0721649 -0.92063 -0.383709
-110.137 -31.584 780.357 -0.0769234 -0.93148 -0.355568
-112.979 -30.5641 780.41 -0.0715146 -0.933913 -0.350274
-115.774 -30.1144 780.392 -0.0885084 -0.923606 -0.372985
-118.879 -29.8315 780.131 -0.0793243 -0.912901 -0.4004
-121.601 -29.0471 779.549 -0.0407226 -0.906826 -0.419533
-124.747 -28.7928 779.135 -0.0163481 -0.902188 -0.431033
-127.823 -28.6138 778.75 -0.0443782 -0.899755 -0.434133
-130.646 -28.199 778.4 -0.0934034 -0.907778 -0.408919
-133.566 -27.9616 778.13 -0.184044 -0.893099 -0.410489
-136.39 -27.3012 777.778 -0.321585 -0.886906 -0.331635
-21.5537 -41.482 792.923 0.399367 -0.357557 0.844191
-139.922 -25.809 779.996 -0.431011 -0.817833 -0.381285
-141.802 -23.9684 779.599 -0.47618 -0.825544 -0.302869
-25.6191 -40.3433 795.678 0.449053 -0.378208 0.809512
-27.9983 -39.2291 796.014 0.532648 -0.411647 0.739482
-30.4351 -40.1378 796.559 0.559376 -0.41292 0.718746
-142.834 -23.9768 782.329 -0.482883 -0.786576 -0.384866
-146.888 -25.0754 781.867 -0.586963 -0.74317 -0.321204
-147.536 -23.1624 780.907 -0.560928 -0.771088 -0.301302
-145.941 -22.3318 784.482 -0.585973 -0.719885 -0.372023
-30.2022 -36.359 804.629 0.805224 -0.487148 0.338085
-30.0686 -33.9353 806.244 0.82219 -0.47221 0.317839
-30.5834 -32.8792 811.822 0.789025 -0.440472 0.42828
-30.3417 -30.2277 812.777 0.769572 -0.423525 0.477898
-31.4522 -27.3275 816.876 0.651329 -0.480739 0.587077
-33.0051 -28.4843 820.133 0.493551 -0.506965 0.706678
52.5799 -97.8524 694.663 0.00630681 -0.845786 -0.533485
43.9744 -96.1119 694.102 -0.0607743 -0.820413 -0.568532
38.0671 -95.3236 693.407 -0.0553979 -0.828137 -0.557781
29.2255 -93.9854 692.826 -0.0427342 -0.826661 -0.561075
23.3825 -93.4172 691.828 -0.0456226 -0.825151 -0.563066
8.40921 -91.2079 690.379 -0.0464442 -0.818909 -0.572041
-0.452405 -90.0778 689.284 -0.0357643 -0.814038 -0.57971
-3.46222 -89.9806 689.077 -0.0486318 -0.835518 -0.547307
-6.16975 -89.6193 688.759 -0.0464379 -0.839782 -0.540934
-9.36956 -89.1924 688.383 -0.055232 -0.854764 -0.51607
-12.4463 -88.7818 688.021 -0.0702572 -0.878643 -0.472282
-15.2025 -88.3544 687.112 -0.0979776 -0.886656 -0.45193
-20.9392 -87.7204 686.025 -0.210016 -0.893977 -0.39585
-27.1649 -86.7371 686.067 -0.284214 -0.935803 -0.208555
60.0498 -99.3624 699.761 0.138683 -0.864367 -0.48336
58.2883 -99.3757 697.45 0.126342 -0.861611 -0.491593
55.3346 -98.9816 697.103 0.0737621 -0.858518 -0.50745
52.381 -98.5875 696.756 0.0379478 -0.847082 -0.530105
49.139 -98.3832 696.485 -0.0374535 -0.826919 -0.561072
47.4582 -97.9306 696.177 -0.0564164 -0.817628 -0.572977
40.3502 -97.4669 696.688 -0.0590555 -0.817683 -0.572632
37.3965 -97.0728 696.341 -0.0566768 -0.818387 -0.571865
34.1967 -96.6458 695.965 -0.0417318 -0.822836 -0.566745
28.5151 -95.704 695.685 -0.0441722 -0.822392 -0.567204
22.6282 -95.1022 694.605 -0.041948 -0.821622 -0.568487
19.9206 -94.7409 694.287 -0.0506761 -0.821845 -0.567453
13.7672 -93.9198 693.564 -0.0564421 -0.819275 -0.570615
10.5554 -93.3841 693.413 -0.0548656 -0.821019 -0.568258
7.86348 -92.8179 693.195 -0.056683 -0.824462 -0.563071
5.21052 -92.5638 693.011 -0.0741087 -0.846515 -0.527182
1.92867 -92.1259 692.625 -0.0714767 -0.848507 -0.524335
-0.549491 -91.5585 691.885 -0.108621 -0.856133 -0.505211
-3.95484 -91.5552 691.481 -0.114758 -0.887398 -0.446493
-12.8158 -90.3728 690.44 -0.168383 -0.934568 -0.313418
-16.0457 -89.4572 688.713 -0.185465 -0.931558 -0.312735
-18.5071 -89.1287 688.424 -0.241591 -0.931394 -0.272285
-21.545 -89.18 688.288 -0.260917 -0.934085 -0.243737
-24.3002 -88.3838 688.869 -0.333545 -0.937285 -0.101216
-27.7657 -87.3405 689.293 -0.425434 -0.903307 0.0551499
-30.4078 -86.2162 688.637 -0.45844 -0.872194 0.170616
-33.1539 -84.539 687.763 -0.452088 -0.858498 0.242071
-24.8071 -86.9823 692.613 -0.496945 -0.810767 0.309357
-27.6912 -85.4141 691.772 -0.494535 -0.78766 0.36746
-29.93 -84.7845 690.772 -0.48886 -0.799655 0.348666
59.7554 -97.4845 704.398 0.155178 -0.861221 -0.483961
-21.6044 -85.7376 695.294 -0.47173 -0.710556 0.522093
-24.6714 -84.3757 694.417 -0.507142 -0.651626 0.564083
-26.717 -85.033 693.793 -0.527101 -0.704224 0.475639
-18.8422 -84.7653 698.39 -0.481509 -0.566248 0.668963
-21.5982 -83.5225 696.892 -0.486772 -0.570422 0.661567
-13.5817 -83.3625 701.674 -0.500348 -0.512179 0.698086
-15.632 -82.9573 700.674 -0.498877 -0.504526 0.70468
-19.4026 -82.9526 698.734 -0.499815 -0.534056 0.681886
-10.3258 -83.1869 704.572 -0.53281 -0.556532 0.637484
-13.1009 -80.8893 703.631 -0.520802 -0.581358 0.625131
-4.80606 -83.1768 708.235 -0.491795 -0.611796 0.619551
-7.40801 -81.547 707.378 -0.493914 -0.683064 0.538027
-10.5869 -80.9003 705.994 -0.503775 -0.615679 0.60593
-1.85718 -82.2533 711.559 -0.449028 -0.731443 0.51319
-4.56425 -80.6697 710.464 -0.472059 -0.743182 0.474174
3.82599 -81.6343 714.983 -0.398519 -0.851846 0.339913
0.539661 -80.2303 713.627 -0.423376 -0.840663 0.337694
-1.77782 -79.6341 713.96 -0.425119 -0.858565 0.2866
-4.68225 -78.5892 713.176 -0.429769 -0.859424 0.276928
-7.49649 -77.7619 712.583 -0.487093 -0.817693 0.306787
0.618447 -80.1642 717.352 -0.370657 -0.91742 0.144753
-2.30885 -79.768 716.783 -0.443991 -0.87178 0.207056
-5.40295 -78.8582 715.336 -0.464161 -0.842186 0.274365
-8.17158 -78.383 714.947 -0.490628 -0.820286 0.293964
-10.9615 -77.0708 715.113 -0.520102 -0.79363 0.315666
-13.8399 -76.0589 714.322 -0.557558 -0.757302 0.340033
-16.6284 -75.4585 713.884 -0.574014 -0.737748 0.355297
-11.1048 -76.7969 718.3 -0.57483 -0.754466 0.316783
-13.9678 -74.725 717.285 -0.607159 -0.702635 0.371028
-11.3083 -74.7068 719.724 -0.601209 -0.718541 0.349638
41.3084 -80.6718 729.207 0.514413 -0.207622 0.832029
-8.64837 -73.9018 723.911 -0.653854 -0.632306 0.415529
39.1413 -78.9659 732.298 0.661785 -0.270912 0.699033
-5.82063 -74.1166 727.153 -0.658983 -0.608456 0.44218
-8.24041 -72.3703 726.319 -0.663693 -0.597328 0.450235
37.8934 -78.2521 735.084 0.685232 -0.253613 0.682743
-6.13507 -71.5179 729.692 -0.651007 -0.642066 0.404897
37.3901 -76.8711 736.614 0.718444 -0.276997 0.638052
-5.4001 -70.2354 731.762 -0.617468 -0.719439 0.318026
34.5697 -75.6936 740.343 0.724605 -0.269587 0.634247
-3.56223 -69.5609 735.579 -0.548622 -0.814085 0.19047
-6.04826 -67.6749 734.243 -0.492552 -0.862541 0.115826
34.3556 -72.0959 741.928 0.717597 -0.23995 0.653818
32.518 -73.463 743.048 0.711473 -0.243765 0.659079
-3.56824 -68.1617 738.154 -0.457781 -0.888092 -0.0415826
-6.03929 -66.8582 737.254 -0.46457 -0.884471 0.043431
-8.81798 -66.5495 736.401 -0.41205 -0.90843 -0.0704913
-11.9725 -65.6254 736.204 -0.353617 -0.918469 -0.177116
-14.8076 -65.1234 736.051 -0.34125 -0.908896 -0.239701
-17.6456 -64.7612 735.764 -0.338322 -0.907055 -0.250579
31.7086 -71.6987 744.376 0.703419 -0.226855 0.673601
-6.64992 -67.8362 740.475 -0.298381 -0.92228 -0.245699
-9.26521 -67.2168 738.369 -0.342447 -0.913671 -0.218944
-11.2343 -66.9541 738.137 -0.322062 -0.923432 -0.208686
-15.3606 -66.7359 738.925 -0.338982 -0.908883 -0.242944
-21.3076 -65.5852 738.98 -0.428555 -0.894098 -0.130113
-23.8772 -64.0071 738.389 -0.513703 -0.857526 -0.0275533
29.6154 -68.6775 747.252 0.681641 -0.228649 0.695044
-23.9031 -62.6161 740.789 -0.596259 -0.781588 0.183289
27.646 -70.055 749.482 0.65238 -0.255344 0.713583
-21.6155 -62.9772 744.56 -0.639264 -0.733059 0.232306
-23.8008 -61.1888 743.579 -0.629789 -0.74033 0.235113
24.9984 -67.074 752.348 0.635651 -0.278366 0.720042
-21.6601 -61.1526 747.012 -0.646239 -0.709805 0.280273
-23.9927 -58.8513 745.705 -0.639131 -0.729697 0.243008
22.1832 -66.2401 755.355 0.599241 -0.304143 0.740545
-21.575 -59.0593 749.312 -0.613216 -0.771042 0.17164
22.5684 -64.0724 756.266 0.598773 -0.277312 0.751378
19.9177 -64.4519 758.225 0.613778 -0.235548 0.753521
-18.8458 -59.0362 752.724 -0.541669 -0.823433 0.168975
-21.3156 -57.9167 751.682 -0.539601 -0.840813 0.0431742
-113.034 -44.082 741.379 0.0035237 -0.811499 -0.584343
-116.334 -44.0943 741.052 0.00282434 -0.805145 -0.593071
-136.809 -43.2884 739.386 -0.118139 -0.787642 -0.604701
-22.2131 -57.723 755.61 -0.330822 -0.943027 -0.0354435
-27.5921 -55.6865 751.838 -0.398474 -0.885958 -0.23727
-31.174 -55.6671 753.529 -0.223788 -0.884189 -0.410034
-33.7095 -54.5272 753.197 -0.184126 -0.883136 -0.431472
-36.3324 -53.5884 751.889 -0.157715 -0.886936 -0.434132
-39.3382 -53.3478 751.691 -0.129609 -0.875791 -0.464964
-53.9387 -51.0213 750.132 -0.0470636 -0.860911 -0.506575
-60.3111 -51.588 750.272 -0.0219852 -0.848759 -0.528323
-63.5844 -52.0242 751.125 -0.0231989 -0.839974 -0.542131
-66.1693 -49.6698 748.631 -0.0356163 -0.838164 -0.544254
-81.2443 -49.0029 747.639 0.032259 -0.81952 -0.572142
-84.1679 -48.8925 748.334 0.0245076 -0.812298 -0.582728
-86.8889 -48.0096 746.81 0.003328 -0.805717 -0.592291
-89.8286 -48.1567 746.443 -0.00181589 -0.804222 -0.594326
-92.7178 -47.7542 746.139 -0.00430968 -0.807025 -0.590501
-95.8287 -47.1367 744.976 -0.00966506 -0.809885 -0.586509
-98.7664 -46.8496 744.696 -0.0201335 -0.809381 -0.586939
-102.007 -47.2559 745.637 -0.0266522 -0.808288 -0.588184
-104.719 -46.8745 745.236 -0.038636 -0.808439 -0.58731
-107.813 -46.4616 744.873 -0.0368546 -0.806448 -0.590156
-110.403 -45.1135 743.13 -0.0102395 -0.813736 -0.581145
-113.993 -45.7445 744.258 0.0129181 -0.805615 -0.592299
-116.53 -45.2313 743.736 0.013308 -0.804228 -0.594171
-119.409 -44.8051 741.709 0.0146061 -0.801329 -0.598046
-121.87 -44.4767 741.42 0.0158657 -0.799808 -0.600046
-125.532 -44.4727 742.336 0.0430214 -0.78771 -0.614542
-128.762 -43.5571 740.61 -0.0142939 -0.786581 -0.617321
-131.061 -43.7069 740.561 -0.0678626 -0.770799 -0.633454
-138.172 -42.4432 741.574 -0.159534 -0.796761 -0.582855
-139.912 -39.6744 740.504 -0.152541 -0.795269 -0.586753
16.8822 -60.7388 760.902 0.555856 -0.149133 0.817792
-36.8488 -54.5354 754.127 -0.121871 -0.86614 -0.484715
-39.7769 -54.33 754.429 -0.113055 -0.859922 -0.497747
-42.7561 -53.7472 753.433 -0.109203 -0.859137 -0.499959
-45.9559 -53.3202 753.057 -0.100111 -0.853124 -0.512013
-48.6634 -52.959 752.738 -0.0875553 -0.858354 -0.505532
-51.6171 -52.5648 752.391 -0.046079 -0.857482 -0.512446
-54.5566 -52.5144 753.694 -0.0252809 -0.847235 -0.530617
-57.5244 -51.7766 751.697 -0.0239829 -0.844592 -0.534873
-66.2844 -51.2415 751.53 -0.0198045 -0.83833 -0.544803
-73.4934 -50.1305 751.167 0.0118674 -0.826244 -0.563187
-140.396 -41.6322 742.399 -0.182136 -0.791354 -0.583597
14.0368 -60.9526 763.264 0.463405 -0.0791298 0.882607
4.06063 -57.2205 763.803 -0.157291 0.0624426 0.985576
1.18989 -58.8098 762.659 -0.216649 0.0342189 0.97565
-4.74127 -57.8041 762.414 -0.0600507 -0.149661 0.986912
10.0764 -57.7965 765.976 0.144795 0.0175784 0.989305
6.54625 -57.7821 765.782 -0.0617722 0.0478788 0.996941
-7.88518 -54.0299 763.202 0.197841 -0.28538 0.937773
-10.7116 -55.6316 763.827 0.188241 -0.355065 0.915693
-13.7531 -55.2444 764.22 0.178167 -0.475582 0.86144
-16.4702 -54.1892 764.77 0.219717 -0.529474 0.819379
-12.4952 -53.0142 764.691 0.284388 -0.41234 0.865506
-19.4371 -52.0527 766.082 0.31412 -0.589554 0.744147
-22.7859 -49.912 767.808 0.308841 -0.792659 0.525651
-25.8213 -50.4706 768.618 0.320746 -0.753719 0.573611
-19.7615 -48.9113 771.297 0.258235 -0.955337 0.143686
-22.8202 -48.7404 770.973 0.27091 -0.958275 0.091199
-25.6892 -48.8023 770.684 0.303202 -0.923863 0.23355
-8.31289 -49.4968 775.444 0.337898 -0.934376 0.112993
-11.0174 -49.4802 774.787 0.328865 -0.942457 0.0601932
-17.0307 -49.4648 772.742 0.233703 -0.970124 0.0651393
-135.957 -33.4379 761.468 -0.430997 -0.190668 0.881979
-137.242 -32.5675 760.423 -0.417373 -0.233307 0.878275
-140.1 -33.0433 758.278 -0.355304 -0.252536 0.899992
-8.49011 -48.0211 777.845 0.381422 -0.912667 0.146822
-99.7374 -36.1788 767.772 -0.519494 -0.0977461 0.848865
-102.895 -35.5291 767.29 -0.170388 -0.133445 0.976299
-117.541 -33.5298 765.269 -0.36476 -0.204131 0.90845
-127.168 -33.9678 763.859 -0.251098 -0.162435 0.954235
-130.493 -32.1822 763.931 -0.347996 -0.353175 0.868428
-132.624 -31.4412 763.459 -0.481665 -0.266023 0.835004
-135.044 -32.9168 762.933 -0.392828 -0.278239 0.876509
-8.1323 -45.4879 780.187 0.426108 -0.848646 0.313418
-11.1253 -46.5516 780.742 0.40828 -0.860305 0.305258
-105.519 -35.5426 767.992 -0.0546139 -0.130114 0.989994
-109.136 -33.5085 768.67 0.00905436 -0.320161 0.94732
-115.52 -34.0218 768.394 -0.306105 -0.268749 0.913276
-116.804 -33.1514 767.349 -0.32479 -0.314754 0.891875
-8.93102 -45.2996 783.452 0.436801 -0.748578 0.498834
-11.7338 -46.0967 783.349 0.429491 -0.772941 0.467012
-96.6815 -33.3485 773.071 -0.8139 -0.446681 0.371541
-114.706 -31.3565 768.816 -0.315663 -0.46615 0.826476
-8.95382 -44.5955 786.246 0.438417 -0.668779 0.600438
-94.8061 -32.782 776.121 -0.764348 -0.616414 0.189223
-135.595 -26.0561 770.302 -0.227452 -0.970171 0.083863
-144.435 -25.054 769.66 -0.378681 -0.924411 0.0454495
-8.6082 -42.8022 787.957 0.43588 -0.625551 0.647066
-95.0508 -31.7311 778.709 -0.601464 -0.798357 -0.0294357
-97.5417 -31.6433 779.238 -0.508802 -0.839838 -0.189189
-100.651 -31.263 778.969 -0.360754 -0.890315 -0.277842
-103.393 -30.0197 777.706 -0.184583 -0.937891 -0.293751
-106.018 -29.1143 776.454 -0.0748313 -0.962659 -0.260169
-109.128 -28.734 776.184 -0.0305786 -0.959236 -0.280948
-112.212 -29.0214 776.716 -0.127194 -0.976418 -0.174442
-115.382 -28.7697 776.426 -0.16438 -0.970623 -0.175701
-118.257 -28.291 776.042 -0.199144 -0.958096 -0.205896
-121.077 -27.632 775.399 -0.162313 -0.948033 -0.273656
-123.978 -27.5705 775.168 -0.0960462 -0.942551 -0.319957
-126.844 -27.4418 774.565 0.0374434 -0.965358 -0.25823
-130.204 -26.9961 774.147 -0.0687359 -0.9719 -0.225134
-133.268 -27.379 773.555 -0.180767 -0.976287 -0.119105
-135.888 -26.4986 773.314 -0.272918 -0.961935 -0.014041
-138.846 -24.5894 773.161 -0.349101 -0.934993 -0.0625822
-141.531 -24.0618 772.874 -0.355782 -0.932653 -0.059807
-144.593 -23.7194 772.521 -0.414399 -0.909248 -0.0392734
-11.7878 -40.5436 790.113 0.395093 -0.515162 0.760598
-15.1745 -42.2678 791.046 0.392251 -0.491872 0.777304
-17.5274 -41.4538 791.825 0.372285 -0.447463 0.81313
-100.807 -31.0559 780.529 -0.251945 -0.903436 -0.346881
-138.971 -24.8895 775.783 -0.383272 -0.908053 -0.168948
-141.812 -22.66 775.204 -0.399047 -0.90717 -0.133435
-19.0634 -39.7641 792.409 0.377427 -0.363021 0.851918
-142.283 -21.2591 777.881 -0.42464 -0.890167 -0.165175
-147.776 -22.147 777.623 -0.542775 -0.824809 -0.158386
-20.9594 -37.7406 793.554 0.405485 -0.367191 0.83711
-23.0969 -38.3686 793.744 0.40022 -0.368443 0.839091
-27.5913 -35.1762 797.8 0.597576 -0.486532 0.637331
-145.128 -20.2811 782.421 -0.483347 -0.809081 -0.334311
-28.5693 -35.1228 800.781 0.688407 -0.517765 0.507952
-28.1594 -32.4006 802.544 0.721433 -0.528819 0.447086
-28.8424 -31.4151 807.314 0.824001 -0.464371 0.324626
-30.0763 -27.7936 813.282 0.725013 -0.472956 0.500668
-32.0313 -25.66 819.375 0.508473 -0.552879 0.660136
61.6979 -97.2771 694.947 0.115285 -0.878887 -0.462889
58.9115 -97.2581 694.552 0.104926 -0.862705 -0.494703
55.8354 -96.8683 694.161 0.0580386 -0.857333 -0.511479
53.1501 -95.8942 693.269 0.0173322 -0.842335 -0.538676
50.0211 -96.7974 694.176 -0.0481726 -0.823075 -0.565886
47.1847 -95.457 693.391 -0.0609236 -0.819519 -0.569805
44.3452 -94.4149 692.087 -0.056126 -0.824004 -0.563797
40.9509 -95.6644 693.624 -0.0577578 -0.822407 -0.565959
38.262 -93.2227 691.188 -0.0450013 -0.828926 -0.557545
35.272 -93.8396 692.162 -0.0481457 -0.831618 -0.553256
32.3904 -93.4703 691.791 -0.0483044 -0.82737 -0.559576
29.605 -92.2959 690.281 -0.0416474 -0.830191 -0.555921
26.5391 -92.6263 690.835 -0.0451089 -0.828137 -0.558708
23.4936 -91.2521 689.452 -0.0520901 -0.826562 -0.56043
20.4467 -91.8369 690.408 -0.0527737 -0.824069 -0.564026
17.544 -91.5067 690.094 -0.0595474 -0.820642 -0.568332
14.344 -91.8999 690.949 -0.0586752 -0.817139 -0.573446
11.6101 -90.5019 689.254 -0.0548416 -0.822022 -0.566809
8.95738 -89.3886 687.781 -0.0546463 -0.822921 -0.565521
5.53916 -90.4206 689.767 -0.0471247 -0.817185 -0.574446
2.8866 -89.3307 688.265 -0.0450335 -0.81731 -0.574436
-11.5456 -86.4789 685.287 -0.0141107 -0.811106 -0.584728
-18.2119 -87.8846 686.09 -0.15906 -0.878447 -0.45059
-20.5793 -85.4474 684.309 -0.140491 -0.8713 -0.470211
-23.9005 -86.0434 684.885 -0.216833 -0.894966 -0.389896
-26.0807 -84.8004 683.705 -0.156754 -0.914723 -0.372438
-29.9372 -86.2056 685.292 -0.288166 -0.939287 -0.186281
-32.8605 -84.6599 683.834 -0.25626 -0.958276 -0.126644
-35.5053 -84.152 683.766 -0.319706 -0.946821 -0.0362955
-38.5195 -83.7215 683.358 -0.351225 -0.92967 0.111152
-41.3714 -82.7893 682.756 -0.375122 -0.909377 0.179767
-44.2023 -81.7456 682.101 -0.401808 -0.836831 0.371839
61.4836 -97.1183 698.752 0.128434 -0.865486 -0.484188
-35.6902 -82.956 686.851 -0.474391 -0.800789 0.365637
-38.4475 -82.3065 685.894 -0.46388 -0.783096 0.414217
61.3645 -96.0309 701 0.140703 -0.867716 -0.476729
-33.0288 -81.7275 689.655 -0.510987 -0.726114 0.460056
-27.4908 -82.5526 693.765 -0.552537 -0.635239 0.539606
-30.0177 -80.6342 692.519 -0.55488 -0.597045 0.57935
-24.5267 -81.3782 696.589 -0.528907 -0.483398 0.697556
-26.9451 -80.0854 695.589 -0.540818 -0.469531 0.697895
-18.9292 -81.0837 699.709 -0.507719 -0.486954 0.710702
-21.468 -79.7089 699.002 -0.517635 -0.476594 0.710572
-24.0297 -79.2022 698.288 -0.525883 -0.45971 0.715621
-15.8488 -78.9898 702.594 -0.527684 -0.574465 0.625731
-19.5325 -78.9096 700.108 -0.51351 -0.512131 0.688498
-13.1088 -78.742 706.137 -0.519962 -0.679559 0.517531
-15.3778 -77.792 704.916 -0.521039 -0.655374 0.546812
-7.17709 -78.8036 709.609 -0.475637 -0.775962 0.41431
-10.2273 -77.1682 708.684 -0.507076 -0.757357 0.411441
-12.6914 -75.9369 707.93 -0.528078 -0.740821 0.415112
-10.2749 -76.3048 711.334 -0.505031 -0.786257 0.356011
-13.1528 -75.4266 710.995 -0.550288 -0.758388 0.34933
-16.2187 -75.353 710.519 -0.561331 -0.735109 0.380161
-19.1242 -73.6241 709.705 -0.595108 -0.691591 0.409327
-18.7152 -73.7407 712.318 -0.5914 -0.706425 0.388857
-16.8726 -72.4886 716.248 -0.626543 -0.660196 0.414229
-13.9054 -71.606 719.431 -0.653346 -0.618571 0.436472
-16.4161 -70.0428 718.227 -0.66627 -0.589674 0.456474
47.6776 -79.3614 728.355 0.531951 -0.0671245 0.844111
45.0477 -79.9238 728.487 0.509514 -0.0829362 0.856456
-11.0822 -71.8026 722.697 -0.667144 -0.595679 0.447309
-13.1827 -70.3394 721.242 -0.666806 -0.585157 0.461477
41.027 -77.4305 730.961 0.666535 -0.233039 0.708113
-11.21 -69.4135 725.056 -0.667982 -0.611107 0.424674
39.135 -76.1345 734.126 0.688384 -0.250226 0.680819
-8.24487 -69.5645 728.352 -0.660457 -0.654502 0.367999
-10.665 -68.151 727.221 -0.657014 -0.655581 0.372219
38.4243 -73.3839 736.094 0.727292 -0.268639 0.631569
-8.26499 -67.4027 730.758 -0.608047 -0.754587 0.246736
36.3479 -72.9626 739.116 0.72848 -0.263206 0.632487
-8.57826 -65.7468 733.452 -0.492596 -0.869612 0.0335306
-11.264 -64.8251 734.325 -0.422034 -0.897468 -0.12821
-14.3697 -63.5571 734.104 -0.363715 -0.907705 -0.209246
-17.4769 -62.6402 733.495 -0.338548 -0.911587 -0.233227
-20.5353 -62.929 734.267 -0.362215 -0.900064 -0.24225
-23.3077 -62.6236 734.052 -0.383097 -0.901382 -0.201858
-26.31 -62.1296 733.614 -0.419002 -0.892095 -0.169126
-29.0976 -60.8228 732.89 -0.458904 -0.886643 -0.0571908
-26.7082 -62.0026 737.146 -0.557706 -0.827745 0.0616645
-28.768 -60.8123 735.572 -0.52845 -0.848921 0.00856951
31.9936 -66.4599 745.378 0.699458 -0.245973 0.671011
-26.8715 -59.676 739.557 -0.644784 -0.734966 0.209949
-29.0507 -58.0956 738.469 -0.631371 -0.742398 0.224089
28.6198 -67.2307 748.724 0.671982 -0.264983 0.691538
-26.5326 -58.2874 742.031 -0.659772 -0.711973 0.240406
26.7042 -65.1706 751.518 0.642392 -0.305005 0.703068
-26.5099 -56.6784 744.59 -0.613458 -0.763065 0.203474
24.888 -64.1611 753.714 0.59928 -0.290838 0.745839
-24.3919 -56.0526 747.959 -0.576869 -0.804212 0.143052
-133.336 -39.9803 734.824 -0.0898124 -0.824212 -0.559114
-24.6664 -55.1871 750.269 -0.500264 -0.865549 -0.0236771
-27.0434 -53.815 749.294 -0.44874 -0.890586 -0.0740834
-29.969 -53.2724 748.876 -0.396396 -0.906412 -0.145905
-32.9558 -52.7102 749.002 -0.31512 -0.910464 -0.267872
-35.8802 -52.3139 748.408 -0.231919 -0.910589 -0.342112
-38.8629 -52.0926 748.112 -0.187503 -0.903477 -0.385451
-41.7981 -51.429 747.914 -0.142608 -0.883624 -0.44595
-94.7813 -44.1211 741.432 -0.00927544 -0.816074 -0.577873
-98.0264 -44.1913 740.877 -0.019865 -0.814978 -0.579151
-100.857 -43.8136 740.544 -0.0256961 -0.816786 -0.576368
-103.967 -43.4333 740.275 -0.0357569 -0.819752 -0.571601
-106.608 -43.0116 739.772 -0.0383026 -0.819479 -0.571827
-109.718 -42.6313 739.503 -0.0270452 -0.819074 -0.573049
-112.795 -42.2207 739.141 -0.0124341 -0.815568 -0.578528
-115.625 -41.843 738.809 -0.00816197 -0.811966 -0.583648
-118.784 -42.4616 739.052 0.00226781 -0.807012 -0.59053
-121.862 -41.987 738.78 0.00459875 -0.803365 -0.595469
-124.486 -40.6607 737.767 0.0209857 -0.80574 -0.591898
-127.613 -41.3482 738.284 0.0108533 -0.800474 -0.599269
-130.507 -41.2511 737.672 -0.0657636 -0.800214 -0.596099
-133.727 -41.7334 737.399 -0.100224 -0.800027 -0.591534
-136.825 -40.9448 737.489 -0.105848 -0.807122 -0.580819
-139.289 -39.0261 737.026 -0.149418 -0.811575 -0.564818
-141.276 -38.3584 736.32 -0.171845 -0.817588 -0.549562
24.0259 -60.2908 756.8 0.54266 -0.267427 0.796243
19.6873 -60.9669 758.38 0.562516 -0.219322 0.797166
-30.5425 -54.6078 751.16 -0.311559 -0.902986 -0.295885
-32.4307 -54.5842 751.048 -0.262601 -0.913125 -0.31184
-37.2692 -53.4819 750.259 -0.180384 -0.897319 -0.402841
-38.582 -53.3068 750.105 -0.153673 -0.88872 -0.431927
-42.3398 -52.6905 751.09 -0.117514 -0.872007 -0.475178
-45.2794 -52.2222 750.708 -0.107816 -0.873231 -0.47523
-48.0466 -50.8993 749.829 -0.103755 -0.874147 -0.474449
-50.5525 -50.5156 749.441 -0.0811165 -0.874247 -0.478657
-57.1081 -50.7199 749.354 -0.0328526 -0.855742 -0.516358
-60.3264 -50.862 747.77 -0.0304125 -0.848566 -0.528215
-62.9434 -49.7798 748.22 -0.0362459 -0.843247 -0.536303
-65.6163 -47.901 747.169 -0.0434515 -0.835829 -0.547268
-68.5432 -48.2666 747.429 -0.0239469 -0.835167 -0.549474
-71.704 -47.8948 747.122 -0.015982 -0.835447 -0.549338
-74.2517 -47.5841 746.761 0.00389251 -0.836105 -0.548556
-78.0762 -48.2436 746.211 0.0139043 -0.832795 -0.553406
-80.4096 -47.8169 745.233 0.0191456 -0.829877 -0.557618
-83.117 -47.3784 745.433 0.0172703 -0.822087 -0.5691
-87.5658 -47.2274 744.568 -0.0084909 -0.815117 -0.579234
-89.744 -46.5453 744.123 -0.00789929 -0.812035 -0.583555
-92.4886 -46.5705 743.99 -0.00274279 -0.812088 -0.583528
-101.322 -45.2397 742.878 -0.0272528 -0.811418 -0.58383
-104.261 -44.7714 742.496 -0.041722 -0.812186 -0.581905
-107.257 -44.5999 742.254 -0.0397729 -0.813777 -0.579814
-124.979 -42.2353 740.171 0.0201916 -0.797746 -0.602655
-140.358 -37.4713 738.164 -0.170052 -0.813084 -0.556755
17.4485 -56.5991 760.783 0.514926 -0.109002 0.850277
15.816 -56.195 762.169 0.443465 -0.0754949 0.893107
13.5185 -56.982 763.54 0.350168 -0.0403404 0.935818
1.77582 -55.2535 761.711 -0.167809 -0.0209327 0.985597
-1.41392 -54.7161 761.375 -0.0500077 -0.106588 0.993045
-4.29147 -54.6242 762.197 0.121537 -0.19409 0.973426
12.5509 -55.3868 764.941 0.235479 -0.0223298 0.971623
9.95765 -55.0688 765.762 0.154123 -0.0512879 0.98672
7.98854 -54.806 765.531 0.00479413 -0.0782613 0.996921
4.74041 -54.3306 763.46 -0.182606 -0.10182 0.9779
-10.2953 -52.4689 763.876 0.223771 -0.338187 0.914088
-9.03615 -50.7359 763.772 0.274114 -0.467577 0.840377
-13.767 -51.0459 764.783 0.345047 -0.505323 0.790944
-16.4993 -50.2583 765.592 0.331986 -0.599942 0.727911
-10.2703 -47.3075 768.443 0.335759 -0.901478 0.273137
-15.6152 -47.6668 766.341 0.343498 -0.747066 0.569124
-18.88 -47.8358 767.487 0.28119 -0.816589 0.504097
-7.38743 -47.9487 771.38 0.342879 -0.926274 0.156366
-10.4393 -48.1045 771.136 0.288204 -0.941558 0.174373
-13.3067 -47.7119 770.702 0.264144 -0.951804 0.155875
-16.908 -48.05 769.638 0.283387 -0.92657 0.247307
-1.95075 -47.1601 774.28 0.382592 -0.904089 0.190387
-5.14968 -48.5294 773.931 0.364205 -0.913455 0.181532
-138 -30.2151 758.504 -0.31901 -0.299048 0.899335
-141.312 -30.4122 758.609 -0.307437 -0.31732 0.897101
-4.78775 -45.7252 777.171 0.422677 -0.876931 0.228773
-119.535 -30.1123 763.788 -0.374643 -0.332864 0.865358
-123.257 -29.9511 763.235 -0.261797 -0.321405 0.910034
-135.038 -29.3018 762.667 -0.514931 -0.401163 0.757572
-136.832 -29.0251 760.956 -0.38766 -0.326126 0.862184
-5.31105 -44.1422 779.686 0.443162 -0.829322 0.340341
-97.8324 -33.2134 770.053 -0.72895 -0.277712 0.625706
-99.0931 -32.5605 768.558 -0.628456 -0.302845 0.71647
-102.677 -31.84 767.463 -0.337557 -0.327601 0.882459
-106.153 -32.5317 768.17 -0.011525 -0.319945 0.947366
-117.315 -29.5188 766.816 -0.445881 -0.427116 0.786615
-129.107 -29.5031 763.82 -0.0362939 -0.493442 0.869021
-144.683 -25.7784 762.305 -0.54535 -0.782682 0.300005
-2.03711 -42.424 782.216 0.45721 -0.72413 0.516327
-4.97425 -43.5834 782.269 0.450759 -0.736489 0.504382
-111.968 -31.1129 768.844 -0.121525 -0.381038 0.916538
-131.964 -25.3355 766.936 -0.0696555 -0.967615 0.242628
-134.927 -24.5991 766.478 -0.200803 -0.96134 0.188424
-140.87 -23.9691 765.824 -0.383635 -0.894077 0.231195
-147.011 -24.6666 766.093 -0.582585 -0.806472 0.100985
-2.97145 -42.4106 784.996 0.436951 -0.67876 0.59022
-5.42597 -43.02 785.809 0.445213 -0.675658 0.587599
-97.1462 -29.6863 773.981 -0.645145 -0.754728 0.119055
-120.402 -25.0046 771.559 -0.183976 -0.971547 -0.149159
-123.813 -26.8836 772.366 -0.0705758 -0.983624 -0.165838
-126.544 -25.8254 771.034 0.0648386 -0.995227 -0.0729307
-129.351 -25.7605 770.685 0.0748073 -0.997144 -0.0103697
-131.857 -25.6314 770.014 -0.0789119 -0.996747 0.016388
-138.626 -25.3767 769.995 -0.343428 -0.938399 0.0382578
-141.724 -25.0023 768.588 -0.400079 -0.911478 0.0956262
-143.204 -25.2025 767.666 -0.48336 -0.865205 0.133356
-146.316 -23.6574 768.352 -0.464897 -0.884097 0.0473708
-5.6024 -40.3522 787.753 0.427357 -0.599927 0.676353
-97.6024 -29.0091 776.65 -0.466839 -0.866015 -0.179108
-99.8371 -28.4826 776.277 -0.386186 -0.900051 -0.201911
-102.59 -28.2084 775.164 -0.285841 -0.94537 -0.156751
-105.297 -27.8471 774.846 -0.15566 -0.96273 -0.221181
-108.804 -28.0502 774.203 -0.0292821 -0.979194 -0.200805
-112.004 -27.6233 773.826 -0.0868439 -0.978562 -0.186746
-114.711 -27.262 773.508 -0.145408 -0.983614 -0.106588
-117.721 -27.1648 773.302 -0.277978 -0.948552 -0.151583
-120.372 -26.5066 772.843 -0.191147 -0.961061 -0.199563
-146.903 -23.0227 771.976 -0.444019 -0.894071 -0.0590236
-7.36888 -39.3858 788.397 0.428746 -0.583921 0.689357
-11.342 -37.3275 789.971 0.368252 -0.475683 0.798821
-14.7168 -39.1604 790.679 0.374295 -0.452057 0.809659
-144.178 -21.4108 774.492 -0.433693 -0.894946 -0.104796
-147.154 -20.1478 773.882 -0.446592 -0.892336 -0.065505
-18.1738 -37.3852 791.861 0.383043 -0.347267 0.85597
-144.66 -19.3985 776.397 -0.45041 -0.88482 -0.11927
-146.78 -17.788 776.262 -0.479158 -0.869776 -0.117882
-24.356 -35.3025 794.975 0.466236 -0.429996 0.773128
-145.101 -19.4856 779.925 -0.507403 -0.838279 -0.199575
-146.717 -18.4909 779.247 -0.539075 -0.822961 -0.179255
-25.8566 -34.888 795.251 0.466014 -0.440238 0.767478
-26.8633 -32.1259 798.31 0.59191 -0.526606 0.610188
-27.1492 -29.5161 803.705 0.747057 -0.502808 0.434845
-28.4323 -27.8728 807.846 0.832447 -0.40328 0.379996
-28.3592 -26.112 809.223 0.812201 -0.416824 0.408152
39.223 -91.2455 688.281 -0.0400663 -0.829332 -0.557317
21.5249 -88.939 686.144 -0.0583223 -0.82984 -0.554945
15.4702 -87.9561 685.844 -0.0651579 -0.828621 -0.556005
6.74989 -86.7926 684.819 -0.0624103 -0.827482 -0.558013
-11.0992 -84.5334 682.463 -0.0145779 -0.812692 -0.582512
-16.8795 -83.6396 682.042 -0.0300591 -0.813941 -0.58017
-20.0305 -83.5759 681.765 -0.0447043 -0.814974 -0.577771
-22.9482 -83.1058 681.197 -0.0754342 -0.83799 -0.540446
-43.7997 -81.4542 679.006 -0.252738 -0.965967 -0.0550492
-46.5659 -80.4639 677.741 -0.278031 -0.958322 -0.0657012
-49.4523 -80.0415 677.718 -0.360064 -0.921552 0.145242
-52.4315 -79.1117 677.332 -0.344854 -0.895602 0.28102
64.5259 -94.225 693.435 0.104657 -0.881788 -0.459888
61.9034 -95.6642 692.51 0.0908433 -0.87466 -0.476149
59.442 -95.3358 692.221 0.0790576 -0.875093 -0.477455
56.4883 -94.9417 691.873 0.0567542 -0.849722 -0.524168
53.5347 -94.5476 691.526 0.000385964 -0.835587 -0.549358
50.4491 -94.1639 692.289 -0.056964 -0.82212 -0.566458
44.6737 -93.3652 690.485 -0.0547375 -0.818853 -0.571388
42.2273 -93.2811 690.871 -0.0533974 -0.823711 -0.56449
28.9208 -91.2633 688.633 -0.0430982 -0.829261 -0.557197
26.9516 -91.0005 688.402 -0.045726 -0.830817 -0.554665
23.998 -90.6064 688.055 -0.0518322 -0.82998 -0.55538
14.7802 -89.8611 688.318 -0.0601617 -0.822819 -0.565111
6.08393 -88.5703 687.233 -0.0528276 -0.821821 -0.567291
0.152525 -87.9093 686.599 -0.045133 -0.815257 -0.577337
-2.67807 -87.5316 686.266 -0.0351539 -0.815193 -0.578122
-5.75481 -87.1211 685.904 -0.0229762 -0.81034 -0.585509
-8.84913 -86.7082 685.541 -0.0107101 -0.808099 -0.58895
-14.3852 -85.7868 684.802 -0.0379943 -0.822488 -0.567512
-17.5274 -85.3219 684.41 -0.0758904 -0.846685 -0.526654
-24.2453 -84.1692 682.385 -0.105101 -0.860714 -0.498122
-25.9682 -83.9393 682.182 -0.135824 -0.904641 -0.403952
