ply
format ascii 1.0
element vertex 869
property float x
property float y
property float z
property float nx
property float ny
property float nz
end_header
-39.6317 -53.3883 558.194 -0.855999 0.385585 -0.34437
-38.1 -52.9182 555.225 -0.812039 0.383238 -0.440138
-42.7681 -60.9715 570.888 -0.962624 0.164922 0.214837
-42.6004 -58.9465 568.523 -0.9702 0.196942 0.141161
-42.8785 -57.0654 566.097 -0.962554 0.270586 0.0165088
-41.8897 -54.5744 564.267 -0.925887 0.36137 -0.110205
-40.9362 -53.8786 561.106 -0.897329 0.377698 -0.228351
-46.4557 22.0436 501.867 -0.143974 -0.961601 -0.233657
-49.7315 18.8032 514.273 -0.0595583 -0.908776 -0.413011
-49.552 19.95 511.724 -0.090821 -0.933917 -0.34576
-49.2218 21.2528 508.694 -0.107316 -0.946008 -0.305864
-48.1215 22.1899 506.37 -0.141902 -0.955377 -0.259075
-53.6204 10.6351 530.063 -0.0428811 -0.906958 -0.419033
-53.3406 11.9033 527.613 -0.0442572 -0.89998 -0.433679
-52.4767 13.2514 524.548 -0.0449202 -0.89128 -0.451222
-52.1155 14.6964 522.081 -0.04759 -0.887199 -0.458926
-50.8684 15.9339 519.462 -0.0482149 -0.891025 -0.451387
-50.6101 17.5589 516.948 -0.0544956 -0.897828 -0.436961
-52.1684 18.9092 513.948 -0.0523125 -0.90781 -0.416106
-56.861 6.22356 541.368 -0.0145526 -0.898983 -0.437742
-56.1391 7.71114 538.906 -0.0251414 -0.90581 -0.422937
-55.9655 9.01944 535.915 -0.0302778 -0.909839 -0.413856
-55.3166 9.75668 532.417 -0.0387559 -0.909937 -0.412931
-61.0491 -3.40026 559.606 -0.0225353 -0.910666 -0.412527
-60.4462 -1.58386 557.057 -0.0178736 -0.908928 -0.416571
-60.5902 -0.233383 554.784 -0.00766823 -0.903652 -0.428199
-59.3437 0.903642 551.824 -0.00618043 -0.895719 -0.444577
-59.4367 2.13004 549.59 -0.00895248 -0.893902 -0.448172
-58.3628 3.71738 546.164 -0.00403458 -0.892658 -0.450717
-57.8652 4.97281 544.018 -0.00453788 -0.894476 -0.447092
-76.5076 -61.416 649.03 -0.046558 -0.825126 -0.563027
-76.2485 -59.891 646.855 -0.0474328 -0.821321 -0.568491
-75.4796 -54.6533 639.439 -0.0563398 -0.8247 -0.562757
-74.1491 -51.4991 634.6 -0.0623674 -0.827379 -0.55817
-73.8908 -49.8741 632.086 -0.0628339 -0.818793 -0.57064
-73.4843 -47.9415 629.502 -0.064407 -0.808629 -0.584783
-73.0636 -46.4991 627.37 -0.0658159 -0.801336 -0.594583
-73.0727 -44.6854 624.92 -0.0690251 -0.795652 -0.601808
-64.2897 -7.81183 570.912 -0.0568817 -0.896298 -0.439789
-63.611 -6.43237 568.123 -0.0399708 -0.90746 -0.418233
-63.2194 -4.46495 565.866 -0.0377448 -0.914461 -0.402909
-62.8621 -4.05255 562.249 -0.0277328 -0.915352 -0.401699
-80.6407 -70.3655 664.344 -0.0784483 -0.904724 -0.418714
-79.2007 -69.3341 661.921 -0.0688714 -0.894584 -0.441562
-79.0847 -67.768 659.343 -0.0650325 -0.880481 -0.4696
-78.5453 -66.1671 657.034 -0.0495093 -0.858037 -0.511196
-78.2168 -64.3762 654.645 -0.0305635 -0.839871 -0.541925
-77.9162 -63.0071 651.962 -0.0349109 -0.8339 -0.55081
-79.4414 -61.3657 648.993 -0.0497054 -0.821154 -0.568538
-79.0409 -59.6817 646.543 -0.060778 -0.81926 -0.570192
-77.6018 -58.2985 644.668 -0.0526368 -0.817699 -0.573235
-76.0292 -56.354 641.976 -0.0520146 -0.820584 -0.569155
-75.2282 -52.986 637.075 -0.0592489 -0.825737 -0.560935
-77.0384 -51.2617 634.291 -0.0778898 -0.820023 -0.567006
-76.6379 -49.5777 631.841 -0.0789036 -0.814968 -0.574109
-76.3041 -48.1743 629.799 -0.07691 -0.807215 -0.585226
-75.8369 -46.2096 626.941 -0.0776068 -0.796725 -0.599338
-75.4364 -44.5256 624.49 -0.0799326 -0.793393 -0.603439
-73.1101 -42.799 622.559 -0.0593464 -0.784377 -0.617439
-72.1339 -40.595 620.211 -0.0499085 -0.772293 -0.633304
-72.9694 -38.5877 617.853 -0.0438886 -0.770206 -0.636283
-72.664 -36.8258 615.543 -0.0296102 -0.768455 -0.639219
-72.2309 -34.6497 613.436 -0.0205327 -0.768836 -0.639116
-71.5459 -32.8478 611.114 -0.0137449 -0.777964 -0.628158
-71.6458 -30.9611 608.721 -0.0102224 -0.796393 -0.604693
-71.2273 -29.0885 606.709 -0.00945507 -0.808925 -0.587836
-70.7385 -27.4807 603.915 -0.0148937 -0.816414 -0.577276
-70.3877 -26.183 601.497 -0.0146969 -0.826754 -0.562372
-69.8612 -24.6861 598.939 -0.0169709 -0.838976 -0.543903
-69.4274 -22.8617 596.285 -0.0154222 -0.839757 -0.542743
-69.0269 -21.1777 593.834 -0.0165914 -0.850106 -0.526349
-68.6264 -19.4937 591.384 -0.0257991 -0.85481 -0.518299
-68.2262 -18.4359 588.86 -0.0368616 -0.852101 -0.522078
-67.1621 -16.9205 585.74 -0.0501935 -0.850042 -0.524318
-67.2647 -14.8401 583.174 -0.061165 -0.841598 -0.536629
-66.9061 -13.2436 581.115 -0.0714468 -0.845261 -0.529555
-66.7394 -12.0924 579.026 -0.072203 -0.848446 -0.524335
-66.0254 -9.8989 576.059 -0.0709816 -0.866036 -0.494917
-64.6403 -8.6509 573.776 -0.0678138 -0.881735 -0.466846
-65.8429 79.1663 493.949 -0.382084 0.536362 -0.752548
-67.7762 81.7326 494.58 -0.388698 0.534665 -0.750365
-69.7916 84.7251 496.307 -0.415225 0.551373 -0.723586
-71.2362 87.303 499.322 -0.498742 0.534541 -0.682292
-73.1732 87.82 502.728 -0.632961 0.549761 -0.54509
-75.2537 88.5543 506.362 -0.699898 0.484049 -0.525204
-104.366 -26.4336 677.497 -0.564324 -0.629659 0.533918
-78.1186 87.1635 511.315 -0.776656 0.379735 -0.5026
-76.4755 88.3874 509.567 -0.749354 0.407295 -0.522091
-105.734 -24.8336 677.761 -0.582166 -0.622238 0.523357
-80.8428 87.3596 515.902 -0.786666 0.217427 -0.577825
-78.9953 89.6387 514.051 -0.760217 0.154055 -0.63114
-77.5705 89.8109 511.999 -0.741631 0.252835 -0.621336
-107.922 -21.4914 678.68 -0.596221 -0.616418 0.514344
-81.0287 90.2147 517.906 -0.762732 0.0537828 -0.644475
-108.083 -19.9392 680.435 -0.618201 -0.643486 0.45139
-83.5595 90.6731 521.127 -0.706991 -0.114784 -0.697846
-109.281 -17.1854 681.214 -0.645736 -0.630187 0.431148
-111.318 -15.695 679.15 -0.617334 -0.644064 0.451752
-86.0863 91.2963 522.648 -0.61082 -0.308582 -0.729162
-84.2587 94.1063 520.057 -0.549289 -0.404147 -0.731401
-83.5634 96.5092 517.95 -0.45341 -0.442068 -0.773948
-84.227 98.5626 515.702 -0.386292 -0.432716 -0.814577
-83.8265 100.247 513.252 -0.375146 -0.344008 -0.86077
-111.311 -13.5901 681.108 -0.617596 -0.670894 0.410459
-83.8511 103.483 511.62 -0.305185 -0.252888 -0.918101
-112.28 -11.6241 681.974 -0.59192 -0.769601 0.239467
-129.521 -66.8002 769.61 -0.164556 -0.844726 -0.509273
-128.538 -65.4662 766.708 -0.172417 -0.855981 -0.487411
-128.024 -63.735 764.309 -0.217664 -0.77349 -0.595261
-127.724 -62.042 761.726 -0.250066 -0.754551 -0.606729
-126.36 -60.56 759.592 -0.248006 -0.759101 -0.601879
-126.89 -58.5848 756.708 -0.271061 -0.73138 -0.625787
-126.342 -57.0419 754.675 -0.308327 -0.773323 -0.553991
-126.028 -54.9116 752.509 -0.310681 -0.768245 -0.559712
-125.681 -53.6137 749.507 -0.277986 -0.77051 -0.573619
-125.226 -52.0252 747.286 -0.241689 -0.793447 -0.558595
-124.442 -49.6277 745.205 -0.254783 -0.784307 -0.56564
-124.163 -47.9942 742.7 -0.20068 -0.784411 -0.586879
-123.702 -46.285 740.277 -0.198183 -0.813844 -0.546243
-123.24 -44.5757 737.854 -0.191166 -0.81619 -0.545243
-123.178 -42.6216 735.535 -0.152337 -0.839626 -0.521366
-123.083 -41.1932 732.509 -0.080418 -0.829645 -0.552469
-122.733 -39.5989 730.338 -0.0323027 -0.824803 -0.564496
-122.526 -37.9263 727.499 -0.000680393 -0.817333 -0.576165
-122.232 -36.4113 725.401 0.00363402 -0.80743 -0.589952
-121.084 -34.2282 723.105 0.00750921 -0.775056 -0.631849
-121.157 -32.3206 720.906 0.0208251 -0.752012 -0.658821
-119.016 -22.3664 705.752 -0.0559125 -0.834911 -0.547538
-116.863 -13.7644 693.651 -0.0974387 -0.891498 -0.442422
-115.427 -10.4947 688.918 -0.29509 -0.927002 -0.231495
-114.827 -9.79462 685.82 -0.420156 -0.904509 -0.0730247
-115.279 -8.97728 683.732 -0.464217 -0.884695 0.0426398
-86.1409 107.532 512.983 -0.312549 -0.0400394 -0.949057
-130.158 -67.5125 772.995 -0.122108 -0.83403 -0.538037
-121.413 -30.1456 718.073 0.0185012 -0.765562 -0.643096
-121.377 -27.9335 716.753 0.0251147 -0.781382 -0.623547
-121.448 -25.782 714.333 0.0351067 -0.801462 -0.597014
-120.203 -24.3137 711.505 -0.0400481 -0.813851 -0.579692
-120.532 -23.6849 708.102 -0.0370154 -0.824891 -0.564078
-121.061 -22.5089 705.871 -0.0022664 -0.831099 -0.55612
-119.287 -19.4171 703.956 -0.0381824 -0.830503 -0.555704
-119.232 -17.2735 702.177 -0.022461 -0.843297 -0.536979
-119.05 -16.2618 699.093 -0.0244155 -0.857013 -0.514716
-117.485 -15.1834 696.349 -0.0607636 -0.878072 -0.474655
-116.995 -12.0755 691.729 -0.136835 -0.909246 -0.393126
-88.5726 109.141 514.304 -0.314396 0.0862292 -0.945367
-134.198 -65.1344 774.581 0.150166 -0.524987 -0.837758
-131.662 -54.469 759.063 -0.906104 -0.138757 -0.399651
-89.1641 112.02 515.573 -0.336156 0.203173 -0.919631
-133.882 -56.8191 767.492 -0.896322 0.371853 0.241519
-132.48 -54.8226 766.441 -0.888601 0.41475 0.195886
-131.24 -54.3855 763.271 -0.935909 0.348556 0.0508292
-131.312 -53.367 759.878 -0.96633 0.128017 -0.223201
-130.562 -50.581 758.242 -0.931624 0.34435 0.116189
-131.19 -49.8019 755.002 -0.949997 0.297646 0.0944051
-130.373 -46.7352 752.958 -0.946335 0.197581 0.255759
-130.778 -43.7681 748.503 -0.954768 0.180631 0.236198
-90.9601 114.147 516.741 -0.332783 0.249977 -0.909267
-129.46 -40.3945 747.67 -0.910186 0.289433 0.296295
-130.154 -39.896 744.838 -0.929141 0.216452 0.299744
-129.839 -36.7846 742.13 -0.932284 0.275469 0.23444
-129.24 -33.5552 739.55 -0.914644 0.307871 0.261995
-129.827 -32.7864 737.534 -0.895168 0.304828 0.325197
-93.0406 116.155 517.781 -0.326564 0.314973 -0.89115
-129.01 -29.7198 735.49 -0.889414 0.288741 0.354361
-129.046 -27.007 733.063 -0.866479 0.328915 0.375539
-94.7295 118.904 520.313 -0.319212 0.349189 -0.881005
-128.919 -20.7394 726.984 -0.850546 0.366459 0.377198
-128.956 -18.0266 724.558 -0.805064 0.395758 0.441869
-129.044 -14.0978 721.122 -0.767079 0.440999 0.465951
-129.682 -12.1129 718.096 -0.770803 0.44565 0.455257
-128.999 -9.6076 716.869 -0.770961 0.443305 0.457275
-128.969 -6.61415 714.034 -0.773411 0.436447 0.459728
-128.954 -5.11742 712.616 -0.774674 0.430931 0.462795
-129.875 -3.9539 708.368 -0.778555 0.420691 0.465694
-129.659 -3.41324 709.999 -0.777836 0.419478 0.467984
-129.577 -1.63585 708.173 -0.782051 0.412341 0.467303
-129.18 2.05425 706.489 -0.789366 0.397202 0.468115
-129.223 3.96666 703.511 -0.794654 0.387024 0.467695
-129.034 6.01438 702.5 -0.796512 0.385555 0.465743
-129.672 7.99923 699.475 -0.796695 0.398755 0.454171
-129.868 10.7587 697.36 -0.798023 0.396468 0.453843
-129.452 13.0404 695.629 -0.798407 0.406435 0.444249
-128.635 16.1071 693.585 -0.794972 0.424549 0.433333
-129.715 16.4182 691.786 -0.789859 0.426136 0.441056
-129.651 19.552 688.747 -0.787215 0.435587 0.436527
-128.575 22.094 687.915 -0.787492 0.433617 0.437987
-128.544 25.0874 685.08 -0.784439 0.436244 0.440847
-129.661 28.1114 680.854 -0.775845 0.431833 0.459983
-129.764 30.5435 678.835 -0.768777 0.433783 0.469909
-128.947 33.6102 676.791 -0.765732 0.423267 0.484252
-128.984 36.323 674.364 -0.755247 0.401214 0.518294
-149.39 -37.1095 786.462 -0.138131 0.338758 -0.930679
-129.741 39.2432 670.738 -0.746929 0.367445 0.554149
-146.092 -19.8466 765.323 -0.618902 -0.773596 -0.136047
-146.259 -18.912 762.872 -0.621197 -0.722236 -0.304121
-146.079 -17.3647 760.169 -0.595358 -0.668588 -0.445577
-145.352 -15.5179 757.819 -0.530444 -0.634684 -0.561965
-145.805 -12.971 755.887 -0.572499 -0.491601 -0.656181
-143.799 -9.35081 751.724 -0.696264 -0.361558 -0.620074
-151.454 -34.855 787.674 -0.0995674 0.474867 -0.874407
-148.695 -17.1674 766.734 -0.793459 -0.608373 -0.0174387
-149.112 -17.0908 763.412 -0.800604 -0.55491 -0.226072
-148.695 -15.6162 761.118 -0.757295 -0.547572 -0.355907
-148.198 -14.3464 758.836 -0.728271 -0.472544 -0.49631
-146.949 -10.5159 757.499 -0.836251 -0.213918 -0.504899
-145.154 -9.76101 754.527 -0.709213 -0.316139 -0.630137
-153.309 -31.2337 788.788 -0.090013 0.537397 -0.838512
-149.896 -13.5846 765.482 -0.926362 -0.373815 -0.0460109
-148.648 -12.5437 762.818 -0.914479 -0.295527 -0.276391
-147.993 -11.0969 760.457 -0.879505 -0.202564 -0.430626
-154.452 -27.6691 789.674 -0.08828 0.546426 -0.832842
-149.646 -14.3642 768.178 -0.902598 -0.424784 0.0698257
-150.289 -11.0524 767.247 -0.981512 -0.190745 -0.0158378
-23.4626 -95.2516 568.563 -0.290465 -0.781768 -0.551787
-25.3503 -97.0577 574.163 -0.318615 -0.912914 -0.255093
-25.1256 -96.5265 570.651 -0.307057 -0.867902 -0.390463
-25.903 -95.3583 568.878 -0.320004 -0.797195 -0.511936
-23.9582 -92.4528 566.499 -0.250122 -0.633384 -0.7323
-27.3422 -97.0427 578.264 -0.426858 -0.901903 0.066048
-28.0821 -95.9207 574.257 -0.400395 -0.878868 -0.259374
-25.5124 -88.93 565.402 -0.220424 -0.606133 -0.764209
-23.5655 -77.5732 551.793 -0.249495 -0.846861 -0.469658
-22.1912 -76.6491 548.418 -0.324384 -0.803602 -0.498998
-21.996 -75.1818 545.428 -0.338518 -0.751773 -0.5659
-21.7311 -73.9335 543.575 -0.353427 -0.740633 -0.571447
-21.1002 -71.7745 540.57 -0.409143 -0.56615 -0.715595
-20.5172 -69.8818 538.84 -0.43289 -0.453582 -0.779018
-27.8413 -96.7831 581.05 -0.462974 -0.870919 0.164786
-30.0129 -94.851 580.186 -0.55632 -0.805849 0.202768
-25.6272 -85.5255 563.743 -0.214909 -0.612676 -0.760554
-25.1307 -83.7687 561.665 -0.212923 -0.705531 -0.675936
-24.8982 -81.8353 559.359 -0.210486 -0.772782 -0.598752
-24.1917 -80.3902 557.1 -0.231912 -0.814343 -0.532036
-23.8786 -78.9817 554.447 -0.235382 -0.841962 -0.485485
-23.7197 -68.9776 539.616 -0.437464 -0.424184 -0.792902
-21.7357 -65.9016 537.594 -0.459033 -0.277809 -0.843866
-29.5524 -94.7527 582.428 -0.568821 -0.75778 0.319706
-24.6455 -65.704 538.653 -0.485627 -0.238001 -0.841143
-21.8058 -62.9247 536.283 -0.451816 -0.0911204 -0.887445
-32.7649 -92.4444 583.227 -0.639886 -0.673889 0.369349
-25.553 -62.2998 539.416 -0.532636 -0.0139401 -0.846229
-23.2107 -60.6361 537.626 -0.4879 0.0331533 -0.87227
-33.7792 -89.4168 585.193 -0.677886 -0.546687 0.491532
-25.7453 -57.3477 539.258 -0.547166 0.166993 -0.820197
-36.1608 -85.9257 584.336 -0.788987 -0.409286 0.458241
-35.9174 -83.2052 585.804 -0.796958 -0.327621 0.507466
-30.6689 -55.3806 543.845 -0.653732 0.23317 -0.719908
-27.8198 -53.9903 541.287 -0.595212 0.271003 -0.756492
-37.3253 -79.4612 584.875 -0.847164 -0.256622 0.465251
-31.7355 -54.3157 546.546 -0.704528 0.282199 -0.651156
-30.6751 -52.4347 545.661 -0.676723 0.331021 -0.657625
-38.3806 -76.1806 585.937 -0.859314 -0.162745 0.484864
-39.5403 -76.1987 582.878 -0.913171 -0.147345 0.38001
-33.8483 -53.3987 548.667 -0.747034 0.330764 -0.576659
-39.5324 -73.1424 584.694 -0.907106 -0.0833015 0.412576
-40.8599 -71.1404 582.159 -0.935464 -0.028589 0.352263
-41.3074 -69.8282 579.621 -0.950289 -0.00236959 0.311361
-35.2139 -51.1932 552.612 -0.772457 0.414722 -0.480952
-33.7559 -50.7786 549.871 -0.743654 0.401261 -0.534759
-40.4575 -67.618 581.126 -0.941674 0.0407312 0.334053
-40.6381 -65.7333 578.76 -0.95128 0.0741864 0.299272
-41.766 -64.5899 575.8 -0.955928 0.092321 0.27871
-36.6633 -51.2692 555.588 -0.798143 0.423285 -0.428717
-41.2417 -62.9369 577.022 -0.949864 0.121952 0.287899
-41.0426 -60.3418 575.267 -0.946688 0.138669 0.29078
-42.4098 -58.6969 571.787 -0.959452 0.179539 0.217295
-42.2509 -56.882 569.754 -0.961285 0.215989 0.171114
-41.9275 -55.2355 567.51 -0.954087 0.297711 0.0329451
-41.0081 -52.8028 563.211 -0.912527 0.385079 -0.137874
-38.6551 -50.0333 560.193 -0.849181 0.445939 -0.282894
-37.4301 -49.6914 557.364 -0.815897 0.446265 -0.367641
-41.9243 -57.5903 573.414 -0.951518 0.1752 0.252823
-41.4978 -55.5054 571.374 -0.956125 0.221628 0.191589
-41.4066 -52.9293 569.334 -0.947127 0.312157 0.0742134
-40.732 -51.1248 566.705 -0.923036 0.377859 -0.0722944
-40.0379 -50.7547 563.4 -0.888474 0.423413 -0.177018
-41.2878 18.7417 503.776 -0.171212 -0.959094 -0.225446
-43.6049 19.4125 502.226 -0.164253 -0.959666 -0.228172
-44.9528 20.8434 508.761 -0.134474 -0.948351 -0.28731
-43.9902 21.2996 505.84 -0.1598 -0.957795 -0.238942
-44.033 22.1694 503.897 -0.16514 -0.958552 -0.232181
-48.6053 12.8794 525.079 -0.0381768 -0.89535 -0.443724
-48.3234 14.3174 522.685 -0.0395816 -0.890882 -0.452508
-47.6946 15.8144 519.898 -0.0465257 -0.89332 -0.447006
-46.8811 17.1279 517.414 -0.0525717 -0.899269 -0.434224
-46.9357 18.2926 514.869 -0.058544 -0.91031 -0.409765
-46.65 19.8581 511.217 -0.130675 -0.945118 -0.299458
-47.2956 21.0945 508.9 -0.142473 -0.946159 -0.290661
-52.1735 8.4949 536.327 -0.0468149 -0.909706 -0.412605
-51.6021 9.6021 533.05 -0.0446524 -0.91044 -0.411223
-49.7227 10.4057 530.542 -0.0417231 -0.907978 -0.416936
-50.0786 11.7076 527.706 -0.0405329 -0.901422 -0.43104
-55.6335 0.52805 552.172 -0.0226544 -0.895213 -0.445063
-55.5175 2.09408 549.594 -0.0286877 -0.892948 -0.449244
-54.5172 3.25264 546.728 -0.0301834 -0.888968 -0.456974
-54.4804 4.66619 544.032 -0.0375251 -0.892218 -0.450042
-52.7834 5.7269 541.693 -0.0478064 -0.899107 -0.43511
-52.9078 7.33388 538.93 -0.0484896 -0.906087 -0.420304
-54.1903 9.3045 535.177 -0.0438858 -0.913432 -0.404618
-59.6174 -6.87088 567.984 -0.0293185 -0.905818 -0.422651
-59.2025 -5.43113 565.858 -0.0282301 -0.911113 -0.411188
-58.3452 -4.63211 562.773 -0.0255001 -0.911077 -0.411447
-58.2254 -3.24278 560.023 -0.0230787 -0.910525 -0.41281
-57.0806 -2.15084 557.44 -0.0254293 -0.907456 -0.419378
-57.5085 -0.715461 554.454 -0.0172282 -0.898636 -0.438357
-77.2483 -70.9994 664.769 -0.073925 -0.9023 -0.424723
-76.3272 -69.9934 661.785 -0.0633254 -0.892257 -0.447065
-75.9434 -68.3795 659.437 -0.0632712 -0.876238 -0.477707
-75.5429 -66.6955 656.986 -0.0260747 -0.844843 -0.534379
-75.1424 -65.0115 654.536 -0.0179471 -0.840677 -0.54124
-74.4952 -63.0987 651.977 -0.0138941 -0.836892 -0.547192
-74.266 -61.8652 650.108 -0.0178994 -0.831514 -0.555215
-72.6926 -60.202 646.978 -0.0178891 -0.827626 -0.560995
-72.5558 -58.7115 644.902 -0.0297525 -0.820279 -0.57119
-72.4613 -56.7886 642.26 -0.0323591 -0.825394 -0.563628
-71.3821 -55.3017 639.785 -0.0274851 -0.828263 -0.559666
-71.6603 -53.4206 637.36 -0.0375412 -0.829911 -0.556632
-70.8608 -51.8528 634.65 -0.0306333 -0.828406 -0.55929
-70.1973 -50.3199 632.537 -0.0256433 -0.823862 -0.56621
-69.7801 -48.5657 629.984 -0.0237249 -0.815528 -0.578231
-69.5219 -46.9407 627.47 -0.0285907 -0.804741 -0.592937
-69.2636 -45.3156 624.956 -0.024901 -0.796249 -0.604456
-69.6163 -43.0621 622.57 -0.0276443 -0.786327 -0.617192
-70.2474 -41.3787 620.461 -0.030636 -0.773586 -0.63295
-69.4794 -39.05 617.902 -0.0232595 -0.765976 -0.642449
-69.2382 -37.3193 615.764 -0.0261338 -0.764063 -0.644612
-67.8683 -35.2294 613.576 -0.0251985 -0.767222 -0.640886
-64.4297 -18.4313 588.882 -0.0210197 -0.86111 -0.507984
-64.1525 -17.1922 586.596 -0.0252504 -0.858867 -0.511576
-63.353 -15.6244 583.886 -0.0325383 -0.856061 -0.51585
-63.8059 -14.2943 581.053 -0.0496412 -0.853338 -0.51899
-63.4054 -12.6103 578.603 -0.0490503 -0.85645 -0.513895
-62.0418 -11.0054 576.256 -0.0488785 -0.864122 -0.500903
-61.641 -9.46207 573.586 -0.0473468 -0.876282 -0.479467
-60.4677 -8.40664 570.778 -0.0322812 -0.890681 -0.453481
-62.2197 -7.25689 568.396 -0.0405548 -0.902644 -0.428473
-77.3405 -71.5711 666.81 -0.0787935 -0.915286 -0.395022
-70.8736 -35.044 613.387 -0.0208258 -0.765692 -0.64287
-69.4345 -33.6608 611.512 -0.0243358 -0.773041 -0.63389
-67.903 -31.5322 609.115 -0.0221604 -0.787115 -0.616408
-68.3524 -29.0817 606.694 -0.0168281 -0.807477 -0.589659
-67.1706 -27.9153 604.2 -0.0189122 -0.814454 -0.57992
-67.3224 -26.397 601.392 -0.0190771 -0.828891 -0.559084
-66.6541 -24.6652 599.172 -0.0165101 -0.835491 -0.549256
-66.5381 -23.0992 596.594 -0.0136554 -0.841783 -0.539643
-65.8531 -21.2972 594.271 -0.00184868 -0.84971 -0.527247
-66.3232 -19.5617 591.102 -0.0116844 -0.858516 -0.512654
-81.0628 -69.2864 667.771 -0.0825443 -0.908546 -0.40955
-80.3637 -67.0824 669.4 -0.0838145 -0.91531 -0.393933
-63.3753 79.2508 493.594 -0.32737 0.50661 -0.797606
-65.6068 81.7026 493.69 -0.371647 0.534566 -0.759025
-66.3953 84.4717 494.92 -0.366632 0.520691 -0.771013
-66.2413 86.8994 495.525 -0.371112 0.502626 -0.780797
-67.6019 88.7003 497.765 -0.400373 0.514747 -0.758114
-70.006 90.506 501.674 -0.545924 0.506955 -0.667057
-72.1549 91.0347 505.237 -0.659134 0.432103 -0.615491
-74.1506 91.0572 508.272 -0.719091 0.321293 -0.616181
-104.052 -24.4169 680.159 -0.577308 -0.632201 0.516756
-76.0216 91.3639 511.116 -0.731484 0.187215 -0.655654
-74.6815 93.1524 509.871 -0.663649 0.181775 -0.725622
-104.459 -22.1927 681.621 -0.573988 -0.645509 0.503841
-78.9681 93.2371 515.906 -0.70927 -0.0911541 -0.699018
-76.9573 93.4423 513.371 -0.659834 -0.02984 -0.750819
-105.669 -19.5844 683.216 -0.593582 -0.671207 0.444007
-107.194 -18.9928 682.149 -0.611628 -0.646057 0.456641
-80.6196 93.4612 518.907 -0.648486 -0.195056 -0.735812
-80.9053 95.5565 517.607 -0.586872 -0.287461 -0.756933
-79.144 96.753 515.201 -0.608087 -0.199175 -0.768479
-78.6405 98.4427 512.859 -0.580043 -0.178267 -0.79484
-79.1383 101.115 510.766 -0.422992 -0.155845 -0.892631
-107.225 -16.6978 683.232 -0.621694 -0.667121 0.410421
-82.1911 97.9713 515.628 -0.460048 -0.348891 -0.816475
-81.7906 99.6553 513.178 -0.438846 -0.281035 -0.853483
-81.3079 102.218 511.039 -0.367868 -0.201329 -0.907821
-108.726 -14.337 683.874 -0.617054 -0.74228 0.261277
-80.0899 105.17 510.818 -0.330861 -0.118868 -0.936163
-124.162 -62.397 762.361 -0.120418 -0.785787 -0.606662
-123.699 -60.9886 759.965 -0.148893 -0.789242 -0.595758
-123.461 -59.3439 757.228 -0.184765 -0.799803 -0.571119
-123.002 -57.1229 754.981 -0.229855 -0.803406 -0.549277
-122.526 -55.4474 752.66 -0.178846 -0.782853 -0.59595
-121.911 -54.0065 749.956 -0.120963 -0.813585 -0.568724
-111.062 -11.6202 685.916 -0.531849 -0.845253 0.0517972
-111.076 -10.9499 683.369 -0.573061 -0.798754 0.183284
-83.0031 107.938 511.598 -0.316862 -0.0477862 -0.947267
-127.183 -66.9738 772.831 -0.0842347 -0.904826 -0.417365
-126.768 -66.447 769.894 -0.124876 -0.859314 -0.49597
-124.97 -64.9382 767.409 -0.0869278 -0.899487 -0.428214
-124.566 -63.7365 764.873 -0.126234 -0.851224 -0.509395
-122.099 -52.1514 747.68 -0.136742 -0.78779 -0.600574
-122.04 -50.0674 745.296 -0.142106 -0.823435 -0.549328
-120.961 -48.5805 742.821 -0.0346893 -0.815523 -0.577684
-120.877 -46.8712 740.472 -0.00262876 -0.81416 -0.580635
-120.056 -44.8668 738.022 -0.0115708 -0.81931 -0.573234
-120.131 -43.1198 735.486 -0.00763281 -0.819604 -0.57288
-119.481 -41.7489 732.943 -0.00236874 -0.821381 -0.570376
-119.111 -40.041 730.474 0.00229236 -0.820852 -0.571136
-118.588 -38.6012 728.301 0.00338677 -0.81775 -0.575564
-118.758 -36.7037 725.807 0.00453276 -0.807104 -0.590392
-118.552 -34.9634 723.363 -0.000477798 -0.777577 -0.628787
-118.118 -32.4515 721.007 0.00167184 -0.749453 -0.662056
-117.848 -30.8797 718.764 -0.00441962 -0.750907 -0.660393
-117.565 -28.7938 716.588 -0.0105972 -0.777504 -0.628789
-117.476 -24.8124 712.325 -0.0370169 -0.825937 -0.562546
-116.383 -24.1786 709.07 -0.0540712 -0.826355 -0.560548
-115.126 -22.9697 706.127 -0.0564659 -0.828669 -0.556884
-115.501 -20.6599 703.521 -0.0538082 -0.820666 -0.56887
-114.995 -18.7615 702.255 -0.0419024 -0.826443 -0.561459
-114.238 -15.4744 696.782 -0.0719841 -0.881376 -0.466899
-112.781 -14.3482 694.087 -0.147411 -0.927286 -0.344109
-113.322 -12.5988 691.711 -0.224855 -0.925615 -0.304429
-112.62 -11.7661 688.772 -0.431376 -0.896486 -0.101128
-119.795 -26.1084 716.828 0.0172699 -0.790132 -0.612694
-118.329 -25.2592 714.896 -0.0109351 -0.819829 -0.572504
-117.875 -17.6677 702.128 -0.0506027 -0.835482 -0.547183
-115.297 -16.1644 700.216 -0.0482235 -0.850674 -0.523477
-85.043 112.123 513.257 -0.362367 0.158267 -0.9185
-87.4062 113.913 514.346 -0.368617 0.22379 -0.902241
-128.67 -52.3261 763.474 -0.878049 0.469684 0.0917949
-128.732 -51.5084 761.985 -0.890545 0.407305 0.202564
-129.139 -47.3893 756.689 -0.913691 0.282542 0.292129
-89.5585 116.391 516.418 -0.367363 0.300331 -0.880253
-127.715 -44.1975 755.136 -0.893592 0.358264 0.270445
-129.022 -43.2213 751.92 -0.91167 0.276627 0.303867
-127.912 -40.539 750.884 -0.88826 0.312064 0.33706
-128.041 -36.5998 746.224 -0.87277 0.356735 0.333185
-89.5554 118.95 517.007 -0.380611 0.32042 -0.867448
-127.811 -32.7644 742.164 -0.869196 0.349492 0.349791
-127.421 -29.8747 739.929 -0.844212 0.381367 0.37665
-128.007 -29.1059 737.912 -0.832801 0.39506 0.387774
-127.19 -26.0392 735.868 -0.768462 0.459861 0.444965
-91.6718 120.269 519.2 -0.371724 0.345132 -0.861803
-127.227 -23.3264 733.441 -0.767362 0.456074 0.450724
-127.275 -17.6099 726.955 -0.764863 0.443992 0.466749
-127.311 -14.8971 724.529 -0.764604 0.443915 0.467248
-127.426 -9.46117 718.451 -0.766185 0.447927 0.460784
-126.676 -6.67517 716.815 -0.76913 0.440748 0.462797
-126.712 -3.96239 714.388 -0.77692 0.423964 0.465456
-126.255 -0.791996 711.745 -0.787692 0.400815 0.467855
-127.572 1.38997 708.744 -0.790491 0.391646 0.47089
-126.596 3.5109 708.524 -0.802789 0.373607 0.464701
-126.992 6.32741 705.498 -0.809076 0.370553 0.456165
-127.162 8.47886 703.888 -0.818976 0.354793 0.450999
-128.602 8.89377 701.489 -0.803394 0.387173 0.452388
-127.266 10.911 701.869 -0.823446 0.370104 0.430068
-127.369 13.3431 699.851 -0.818458 0.382062 0.429132
-126.979 16.2328 697.615 -0.822212 0.397773 0.407118
-127.324 17.8333 695.598 -0.814744 0.409368 0.410621
-127.669 19.4337 693.581 -0.812233 0.419239 0.405606
-126.785 22.7811 691.128 -0.810587 0.424199 0.403739
-127.115 25.8782 687.693 -0.79301 0.43002 0.431529
-127.326 28.04 684.859 -0.783654 0.439044 0.439462
-144.464 -37.9383 786.697 -0.0733375 0.184047 -0.980178
-126.87 31.2104 682.215 -0.776456 0.438934 0.452164
-127.374 33.7566 678.373 -0.76679 0.434418 0.472561
-146.724 -38.6359 785.848 -0.112434 0.251185 -0.961387
-142.799 -20.8217 765.85 -0.426661 -0.867931 -0.254277
-142.551 -19.2655 763.112 -0.340314 -0.834136 -0.434056
-142.298 -17.7108 760.549 -0.284964 -0.813407 -0.507114
-141.77 -15.9777 758.328 -0.263792 -0.74302 -0.615089
-141.594 -14.3146 755.652 -0.25606 -0.69421 -0.672685
-140.47 -12.5399 753.26 -0.312106 -0.70134 -0.640868
-139.536 -7.05909 746.283 -0.463985 -0.629772 -0.62298
-139.16 -5.418 743.893 -0.560197 -0.577833 -0.59354
-138.659 -3.80911 741.69 -0.626416 -0.519245 -0.581367
-137.704 -1.77229 739.196 -0.621542 -0.509504 -0.595055
-147.453 -34.4984 788.471 -0.0837784 0.436546 -0.895773
-143.533 -13.7514 755.722 -0.535751 -0.549503 -0.641106
-143.132 -12.0674 753.272 -0.522218 -0.543405 -0.657267
-141.642 -10.6172 751.34 -0.45957 -0.573773 -0.677924
-141.619 -8.36161 749.285 -0.555201 -0.52623 -0.644076
-139.656 -1.56768 742.997 -0.7979 -0.318861 -0.51155
-149.213 -31.2937 790.488 -0.0662363 0.529202 -0.845907
-144.987 -19.5241 768.658 -0.635717 -0.771129 0.0349857
-144.069 -7.58809 752.524 -0.768845 -0.233479 -0.595285
-142.384 -6.45845 749.291 -0.746817 -0.310276 -0.588212
-142.077 -3.81779 748.172 -0.839212 -0.211402 -0.501031
-140.831 -3.12742 745.1 -0.808545 -0.278729 -0.518233
-145.974 -17.2309 770.481 -0.750107 -0.63736 0.176385
-147.438 -16.2062 769.314 -0.803527 -0.575325 0.152792
-147.49 -8.02842 759.254 -0.904201 -0.0237243 -0.426447
-145.275 -7.11261 756.082 -0.852536 -0.0997049 -0.51307
-144.32 -6.04411 753.545 -0.838827 -0.11262 -0.532621
-143.166 -4.34467 751.432 -0.835289 -0.133381 -0.533388
-152.057 -28.4629 790.948 -0.0884696 0.546349 -0.832872
-148.996 -13.3487 769.492 -0.905294 -0.398648 0.146705
-148.727 -9.97577 765.12 -0.982774 -0.0995995 -0.155677
-147.455 -8.39524 762.129 -0.93652 -0.0503435 -0.346981
-147.133 -5.96216 760.076 -0.91502 0.06924 -0.397422
-145.663 -5.24785 757.545 -0.906851 0.0426401 -0.41929
-144.513 -3.46555 755.285 -0.901509 0.0351688 -0.431329
-152.157 -26.0272 792.402 -0.0371218 0.607387 -0.793538
-154.043 -24.6285 791.83 -0.0453902 0.60532 -0.794687
-149.298 -10.1526 771.13 -0.959687 -0.228363 0.163862
-149.737 -9.62799 768.357 -0.985992 -0.153113 0.0661518
-148.874 -7.06176 766.732 -0.993257 -0.0136894 -0.115118
-148.023 -6.4249 763.474 -0.963446 0.0715636 -0.258166
-148.229 -2.62513 762.874 -0.937611 0.137793 -0.319216
-146.455 -2.81139 759.09 -0.918373 0.125239 -0.375376
-156.03 -23.2991 792.419 -0.0158053 0.624701 -0.780704
-150.082 -7.62212 769.884 -0.99358 -0.0987077 0.055273
-148.712 -3.87752 765.457 -0.971958 0.0814216 -0.220607
-19.1443 -94.8454 565.744 -0.304558 -0.707855 -0.637327
-21.9829 -97.7917 574.58 -0.277128 -0.931068 -0.237304
-20.8712 -97.417 571.755 -0.260426 -0.909727 -0.32338
-19.5538 -96.3007 568.656 -0.246844 -0.816565 -0.521813
-21.4307 -94.857 566.28 -0.293663 -0.692533 -0.658908
-19.2354 -91.7936 564.877 -0.353192 -0.621016 -0.69971
-17.3191 -77.6427 545.114 -0.408087 -0.75837 -0.508271
-16.8513 -76.1535 542.693 -0.385656 -0.739366 -0.551912
-16.3758 -74.2157 540.277 -0.401257 -0.660759 -0.634342
-15.8417 -72.3699 537.96 -0.39949 -0.558246 -0.727165
-23.2573 -98.584 577.719 -0.296647 -0.953837 -0.0468583
-22.0921 -89.4057 565.328 -0.295622 -0.576538 -0.761716
-18.0695 -78.0642 548.608 -0.390809 -0.792171 -0.468758
-19.2043 -76.8953 544.707 -0.370662 -0.768538 -0.521497
-18.8705 -75.492 542.665 -0.386408 -0.741329 -0.548744
-16.5971 -69.4193 535.899 -0.406836 -0.418744 -0.811873
-14.9858 -68.6161 533.741 -0.422571 -0.387587 -0.819275
-25.1323 -98.2118 580.511 -0.381974 -0.919964 0.0881077
-22.6607 -86.9877 564.142 -0.268073 -0.581359 -0.768218
-21.4981 -84.0966 562.033 -0.324508 -0.654205 -0.683162
-21.5822 -81.8958 559.859 -0.322715 -0.725856 -0.607443
-21.575 -80.2484 557.013 -0.317206 -0.785801 -0.53094
-20.3705 -79.2863 554.581 -0.347612 -0.809515 -0.473129
-20.3824 -77.9473 551.138 -0.328641 -0.824984 -0.459778
-19.1016 -68.8192 537.01 -0.405884 -0.388777 -0.82711
-17.4828 -65.3735 534.87 -0.394443 -0.201021 -0.896663
-26.6672 -96.0184 583.604 -0.46181 -0.832132 0.307062
-20.3058 -63.4358 536.024 -0.441733 -0.0998666 -0.891571
-17.4663 -62.3844 533.946 -0.324762 -0.0353009 -0.945137
-21.2714 -59.6216 537.263 -0.452025 0.0829294 -0.888142
-18.6718 -60.169 535.108 -0.386287 0.0668142 -0.919956
-22.8318 -58.1153 538.043 -0.472228 0.146473 -0.869222
-20.4277 -58.114 536.601 -0.42496 0.156214 -0.891631
-31.2122 -90.4859 586.663 -0.625083 -0.577072 0.525604
-21.9975 -56.0533 537.76 -0.452947 0.217599 -0.864575
-33.1675 -86.8361 587.322 -0.682096 -0.463106 0.565931
-24.8472 -55.1228 539.771 -0.503057 0.253316 -0.826295
-24.1216 -52.7484 539.746 -0.463455 0.332958 -0.821187
-33.1817 -84.8014 588.412 -0.686609 -0.368755 0.626568
-27.534 -52.4758 542.008 -0.585338 0.320865 -0.744598
-35.3659 -80.4098 588.242 -0.772004 -0.269675 0.575574
-28.1122 -49.6816 543.886 -0.595548 0.41105 -0.690188
-36.9614 -77.3925 587.376 -0.81388 -0.211386 0.541217
-30.8825 -49.9029 547.422 -0.679976 0.422954 -0.598951
-29.3578 -46.99 546.664 -0.629125 0.48713 -0.605728
-37.5412 -74.0028 587.775 -0.846025 -0.121765 0.519051
-33.0723 -48.9114 551.062 -0.733829 0.448281 -0.510431
-31.1268 -47.0485 549.574 -0.691507 0.480626 -0.539275
-38.3914 -71.0861 586.824 -0.868545 -0.0664493 0.491135
-39.7287 -68.7774 584.275 -0.920307 0.0297032 0.390068
-35.9867 -48.5595 555.929 -0.784871 0.463574 -0.41119
-33.0998 -46.2955 553.059 -0.727678 0.50447 -0.464752
-39.2044 -67.1244 585.496 -0.909444 0.0391097 0.413984
-39.5679 -64.3161 583.449 -0.922483 0.098934 0.373146
-39.7731 -62.8228 581.626 -0.929937 0.132618 0.342972
-40.6506 -61.0032 577.835 -0.946713 0.138451 0.290801
-37.5801 -48.0925 559.05 -0.817726 0.473823 -0.326828
-34.9206 -46.0984 556.548 -0.764642 0.514162 -0.388536
-39.7471 -59.6852 579.501 -0.931591 0.169109 0.321778
-39.8509 -56.9522 577.598 -0.928706 0.196172 0.314676
-40.7806 -55.1077 574.913 -0.934501 0.222295 0.278016
-41.246 -53.4731 572.2 -0.94589 0.271764 0.177306
-39.2492 -48.4507 565.571 -0.884516 0.447026 -0.133415
-37.4397 -46.8502 563.141 -0.842871 0.491987 -0.217985
-36.6157 -46.4521 560.006 -0.805569 0.503978 -0.311553
-40.0931 -52.2278 573.704 -0.931347 0.281286 0.231238
-40.1026 -50.6505 570.96 -0.929773 0.345302 0.12763
-39.7021 -48.9665 568.51 -0.908641 0.417395 -0.012393
-38.0933 17.8149 504.477 -0.194354 -0.957489 -0.213168
-39.9545 20.4416 505.938 -0.169704 -0.960563 -0.22027
-43.2474 16.9245 517.54 -0.0573294 -0.906383 -0.41855
-42.7786 18.1078 515.177 -0.108927 -0.935664 -0.335662
-42.3116 19.2507 512.121 -0.147043 -0.948075 -0.282015
-42.0869 20.2217 509.687 -0.158649 -0.952212 -0.261003
-47.2681 9.2459 533.513 -0.0259266 -0.911013 -0.411562
-47.1091 10.0982 531.064 -0.0292098 -0.90972 -0.414194
-46.0917 11.5522 527.995 -0.0232842 -0.902884 -0.429253
-44.8619 12.7145 525.332 -0.0226015 -0.895674 -0.444137
-44.7791 14.0699 522.849 -0.0252829 -0.894687 -0.445977
-45.4501 15.7034 519.699 -0.0414631 -0.897102 -0.439874
-50.9081 2.78507 547.324 -0.0534381 -0.891229 -0.450394
-50.9292 4.16145 544.419 -0.0590852 -0.892247 -0.447665
-50.2434 5.61173 541.548 -0.0526385 -0.897456 -0.437952
-49.6243 6.78134 539.086 -0.0430472 -0.901844 -0.429912
-49.194 7.91445 535.773 -0.0378143 -0.910421 -0.411951
-49.8515 9.24448 533.396 -0.0365211 -0.911748 -0.409124
-54.9855 -4.95594 563.201 -0.0172011 -0.913159 -0.40724
-54.3934 -3.70839 560.727 -0.0241725 -0.913007 -0.407226
-53.3704 -2.52643 557.789 -0.0264706 -0.907513 -0.419189
-53.4099 -1.14585 555.119 -0.0311734 -0.898424 -0.43802
-51.7033 0.103065 552.697 -0.0385167 -0.896952 -0.440447
-51.9496 1.6595 549.879 -0.0455856 -0.894142 -0.445457
-72.8768 -71.9251 665.022 -0.0711879 -0.90741 -0.414174
-72.3493 -70.3212 662.363 -0.049357 -0.886365 -0.460349
-71.7909 -68.64 659.936 -0.0164167 -0.871557 -0.490018
-71.5483 -66.9532 657.462 0.00153682 -0.845108 -0.534593
-71.4467 -65.397 655.05 0.00420329 -0.83931 -0.543636
-70.7473 -63.5851 652.562 0.0076386 -0.83796 -0.545678
-70.1698 -61.8238 650.019 0.00756818 -0.83712 -0.546967
-69.5225 -60.3832 647.616 0.00338969 -0.835788 -0.549042
-69.4618 -58.6578 645.139 -0.00641319 -0.833473 -0.552522
-69.0613 -56.9738 642.689 -0.0127922 -0.833047 -0.553055
-68.0661 -55.3622 640.286 -0.0182767 -0.83139 -0.555388
-68.1522 -53.619 637.797 -0.0196496 -0.830448 -0.55675
-67.6609 -52.0939 635.427 -0.014982 -0.826658 -0.562505
-66.8646 -50.3102 632.935 -0.00796162 -0.822396 -0.568859
-66.5761 -48.7739 630.61 -0.00304385 -0.816691 -0.577067
-66.4903 -47.1192 627.843 -0.000128488 -0.806181 -0.591669
-66.1232 -45.5755 625.597 0.0107935 -0.7988 -0.6015
-66.0348 -43.4104 622.876 0.0152266 -0.785852 -0.618228
-65.3985 -41.6341 620.772 0.0215041 -0.775699 -0.630737
-58.8384 -13.0339 579.262 -0.00778398 -0.858136 -0.513364
-58.3317 -11.381 576.604 0.00460254 -0.872793 -0.488069
-58.2653 -10.2013 574.059 -0.0056164 -0.876847 -0.480737
-58.1989 -9.0216 571.513 -0.010871 -0.888613 -0.45853
-56.8022 -6.84646 568.217 -0.0190101 -0.912898 -0.407745
-55.9482 -6.07551 565.948 -0.016241 -0.913606 -0.406276
-73.2274 -72.7641 667.886 -0.0702129 -0.910246 -0.408071
-75.1456 -71.3101 664.287 -0.0616789 -0.908541 -0.413219
-68.0033 -41.2787 620.591 -0.00114725 -0.77286 -0.634575
-66.6162 -39.7906 618.473 0.00344594 -0.76905 -0.639179
-65.3336 -37.551 616.09 0.0102059 -0.774658 -0.632298
-64.4164 -35.716 613.981 0.00618286 -0.771896 -0.635719
-64.6945 -33.8349 611.555 -0.00606995 -0.779581 -0.626272
-64.9393 -31.8134 608.925 -0.0164003 -0.794919 -0.606494
-64.9166 -29.5684 606.799 -0.0189821 -0.806667 -0.590702
-64.6035 -28.1599 604.145 -0.0209626 -0.816423 -0.577074
-64.4498 -26.7047 601.803 -0.0200782 -0.822658 -0.568182
-64.0492 -25.0206 599.353 -0.00898512 -0.832833 -0.553452
-63.6487 -23.3366 596.903 0.00251122 -0.838619 -0.544712
-62.9638 -21.5347 594.58 0.00192128 -0.849908 -0.526928
-62.8477 -19.9686 592.002 0.00496816 -0.856795 -0.515634
-61.8354 -18.7624 589.936 0.0037667 -0.860238 -0.509879
-60.6319 -17.2526 586.64 0.0067743 -0.867745 -0.496964
-60.4637 -15.8618 584.195 -0.00704743 -0.861255 -0.508123
-60.4899 -14.3548 581.554 -0.00840562 -0.858915 -0.512049
-61.2281 -12.7909 579.141 -0.0151087 -0.862634 -0.505603
-75.0473 -71.6321 669.591 -0.0792125 -0.91814 -0.388258
-60.0238 83.0882 494.33 -0.257514 0.461666 -0.848853
-63.0466 82.7643 494.838 -0.340678 0.501096 -0.795513
-62.1472 85.8103 495.242 -0.284593 0.474286 -0.833102
-64.2707 88.5324 496.153 -0.378087 0.487837 -0.786807
-66.0263 91.0001 499.093 -0.419215 0.493229 -0.762223
-68.373 91.5342 501.219 -0.511271 0.515378 -0.68774
-69.2037 92.9806 503.302 -0.572069 0.460721 -0.678582
-100.715 -26.8888 680.23 -0.530039 -0.700761 0.477486
-72.4049 93.8153 507.229 -0.614451 0.312243 -0.724538
-70.0969 94.8456 505.05 -0.574277 0.361659 -0.734445
-101.374 -24.2906 681.908 -0.551234 -0.693697 0.463601
-75.6695 95.2129 511.475 -0.675166 0.0615624 -0.735092
-72.3441 95.7028 508.179 -0.584244 0.21621 -0.782248
-102.316 -21.8104 683.459 -0.588066 -0.666965 0.457533
-74.9684 96.7694 511.085 -0.643753 0.030961 -0.764607
-74.6625 98.8692 509.955 -0.551216 0.0136594 -0.834251
-104.112 -19.684 684.627 -0.603632 -0.665329 0.439279
-77.2925 99.5486 511.085 -0.509924 -0.0985127 -0.85456
-75.5674 102.603 509.64 -0.385121 -0.0752139 -0.919796
-105.677 -16.0977 686.798 -0.582168 -0.761356 0.285337
-77.5042 106.523 510.334 -0.317731 -0.0589376 -0.946347
-107.752 -15.1371 690.498 -0.454965 -0.889843 0.0344423
-108.656 -13.6301 688.289 -0.475565 -0.872947 0.108638
-79.2831 108.544 511.126 -0.319245 -0.0492131 -0.946393
-122.638 -66.2923 770.778 0.0123089 -0.947055 -0.320835
-121.693 -65.3936 767.622 0.0783853 -0.91213 -0.402337
-120.975 -64.0775 765.021 0.0694254 -0.896721 -0.437117
-121.024 -62.664 762.516 0.052618 -0.872473 -0.485821
-120.562 -60.9548 760.093 -0.0357446 -0.830611 -0.555705
-120.036 -59.2751 757.507 -0.052594 -0.826387 -0.560642
-119.358 -56.8145 755.483 0.0339316 -0.813734 -0.580246
-119.137 -55.8101 752.842 0.029416 -0.809098 -0.586937
-119.021 -54.244 750.265 0.0216205 -0.8093 -0.586997
-118.506 -52.1518 748.399 0.0177668 -0.81047 -0.585511
-118.724 -50.1279 745.796 0.0108557 -0.81524 -0.579021
-117.426 -48.5291 743.383 0.00788073 -0.814706 -0.579821
-117.211 -46.8167 740.667 0.0026098 -0.818563 -0.574412
-117.464 -45.1528 738.647 -0.0076069 -0.8227 -0.568425
-117.042 -43.2864 735.906 -0.00678733 -0.816834 -0.576833
-116.475 -41.4791 733.436 -0.00225711 -0.818195 -0.574937
-115.894 -39.8469 731.286 -0.00162646 -0.821649 -0.569992
-115.8 -37.924 728.644 -0.00277916 -0.813858 -0.581058
-115.572 -36.3396 726.578 -0.00232115 -0.808712 -0.5882
-115.468 -34.5696 723.963 -0.00515854 -0.793324 -0.608777
-114.26 -32.6189 721.828 -0.020003 -0.762695 -0.646448
-113.639 -30.9843 719.555 -0.0331491 -0.752613 -0.657628
-112.655 -23.0853 706.604 -0.0501568 -0.823293 -0.565397
-111.255 -21.7018 703.988 -0.0069776 -0.814089 -0.580699
-109.404 -14.9781 694.036 -0.242993 -0.947219 -0.209118
-110.556 -13.7974 690.068 -0.388144 -0.913997 -0.118125
-110.129 -12.7214 688.122 -0.508886 -0.856823 0.0830052
-78.4301 110.579 510.216 -0.323224 0.0172194 -0.946166
-124.348 -66.792 775.052 -0.0440401 -0.922214 -0.384165
-114.051 -28.9117 717.064 -0.0351455 -0.774817 -0.631208
-114.638 -26.556 715.322 -0.033455 -0.808824 -0.587099
-114.413 -25.0587 711.695 -0.046065 -0.836789 -0.545585
-112.616 -23.7937 710.001 -0.0552539 -0.835347 -0.54694
-112.491 -17.9783 702.387 -0.0256727 -0.820697 -0.570787
-112.498 -15.7439 700.901 -0.0347067 -0.852266 -0.521956
-111.665 -15.1178 698.009 -0.0805188 -0.890763 -0.447278
-80.4631 112.408 511.49 -0.362002 0.091005 -0.927724
-82.0619 114.523 512.577 -0.403814 0.169538 -0.898995
-84.0915 116.607 513.739 -0.414752 0.230083 -0.880365
-126.866 -48.3442 760.996 -0.896686 0.348438 0.273029
-86.3682 118.924 515.367 -0.439689 0.292603 -0.849151
-125.622 -45.1006 759.143 -0.874368 0.348969 0.337196
-126.636 -44.5087 756.935 -0.892438 0.344774 0.291009
-125.392 -41.2651 755.083 -0.829183 0.41746 0.37173
-126.488 -37.3473 749.331 -0.847252 0.381387 0.369739
-88.3526 122.01 518.898 -0.436964 0.328909 -0.837187
-86.466 121.158 516.785 -0.445303 0.301749 -0.843002
-125.065 -34.1555 747.779 -0.76486 0.487624 0.420966
-126.438 -33.46 744.971 -0.788828 0.451694 0.416801
-125.128 -29.9357 742.71 -0.760688 0.479166 0.437897
-125.847 -29.7282 741.511 -0.764097 0.476227 0.435159
-124.604 -26.4846 739.658 -0.76359 0.470221 0.442518
-124.934 -23.3875 736.223 -0.763304 0.461329 0.452264
-125.037 -20.9553 734.205 -0.763316 0.45549 0.458123
-124.94 -17.6812 730.961 -0.762941 0.444972 0.468957
-124.483 -14.5108 728.317 -0.762071 0.445583 0.469791
-126.453 -11.8407 723.708 -0.76308 0.444703 0.468986
-126.13 -9.23169 721.881 -0.765319 0.444908 0.465128
-125.673 -6.0613 719.238 -0.771778 0.437549 0.46142
-124.99 -3.55597 718.01 -0.848966 0.302955 0.432985
-124.6 -0.666245 715.775 -0.878533 0.28243 0.385244
-125.223 2.81533 711.332 -0.841722 0.317191 0.436914
-125.337 7.3522 707.391 -0.866352 0.308852 0.392485
-124.864 11.1203 705.467 -0.889023 0.273926 0.366883
-125.076 13.2821 702.633 -0.876577 0.310562 0.367646
-125.899 15.9216 699.415 -0.841929 0.372104 0.390761
-125.082 18.9883 697.37 -0.85929 0.373749 0.349189
-124.985 22.2624 694.127 -0.850066 0.392072 0.351664
-125.705 22.4699 692.927 -0.823057 0.412072 0.390862
-126.035 25.5671 689.492 -0.807891 0.42308 0.410263
-142.904 -39.4446 785.917 -0.0960354 0.057909 -0.993692
-124.925 28.2493 688.456 -0.809891 0.423158 0.406219
-124.535 31.139 686.221 -0.813858 0.418741 0.402853
-125.615 31.4502 684.422 -0.794182 0.431234 0.428149
-125.585 34.4437 681.587 -0.780638 0.437348 0.446465
-142.274 -36.2186 787.625 -0.132528 0.0908132 -0.98701
-140.558 -22.1984 769.031 -0.365184 -0.901396 -0.232648
-139.945 -20.7912 766.316 -0.216426 -0.905411 -0.365227
-140.313 -18.8841 763.74 -0.186276 -0.874459 -0.44791
-139.912 -17.2001 761.29 -0.118302 -0.84563 -0.520495
-138.987 -15.4673 759.367 -0.100194 -0.775983 -0.622745
-138.291 -13.9703 756.429 -0.082913 -0.765497 -0.638074
-137.354 -12.5424 753.89 -0.115423 -0.737835 -0.66504
-137.665 -10.8016 751.669 -0.2102 -0.725255 -0.655607
-136.1 -9.30573 748.973 -0.199037 -0.748214 -0.632898
-136.068 -7.61505 746.467 -0.265135 -0.747816 -0.608666
-135.926 -6.35733 743.682 -0.284095 -0.781609 -0.555317
-135.429 -4.70147 741.228 -0.379266 -0.735031 -0.562038
-135.891 -3.0677 738.602 -0.413329 -0.664553 -0.622518
-135.538 -1.09353 736.752 -0.460153 -0.591924 -0.661729
-133.725 0.385253 734.106 -0.455337 -0.617957 -0.640935
-133.441 2.08657 731.637 -0.567396 -0.547689 -0.614897
-133.063 5.04235 730.023 -0.635233 -0.462025 -0.61888
-125.441 37.1046 679.46 -0.775933 0.424044 0.467027
-124.871 39.9425 677.524 -0.773141 0.394619 0.496517
-144.262 -34.2378 788.049 -0.15764 0.312256 -0.936828
-143.733 -31.8616 787.83 -0.239579 0.384763 -0.891381
-142.427 -21.6708 768.418 -0.402606 -0.891804 -0.206382
-138.999 0.113458 740.631 -0.808704 -0.274717 -0.520123
-137.77 0.917897 737.147 -0.731947 -0.353749 -0.582336
-136.496 1.6495 734.935 -0.687349 -0.337983 -0.642899
-135.369 5.1705 733.392 -0.775292 -0.289575 -0.56131
-146.608 -31.0238 789.875 -0.0506562 0.50146 -0.863697
-142.978 -19.7031 771.312 -0.629608 -0.776208 0.0330896
-141.237 -0.903258 746.562 -0.879545 -0.129092 -0.457969
-140.132 1.4237 744.558 -0.897353 -0.0843745 -0.433173
-138.957 2.48553 741.259 -0.842275 -0.184244 -0.506583
-137.89 3.12437 738.858 -0.844046 -0.12441 -0.521641
-137.175 5.65963 737.071 -0.843178 -0.114285 -0.525347
-149.055 -27.9311 791.6 -0.080041 0.584526 -0.807418
-143.617 -2.3076 753.167 -0.910588 0.0263504 -0.412474
-141.474 -0.830546 749.635 -0.902576 -0.033646 -0.429213
-141.14 0.572791 747.593 -0.91624 -0.0288329 -0.399592
-140.029 5.8369 744.168 -0.925993 0.111017 -0.36085
-138.202 5.38788 740.363 -0.889725 -0.00793453 -0.456427
-145.916 -13.3365 773.065 -0.831352 -0.444692 0.333322
-145.519 -1.99048 757.114 -0.91483 0.129552 -0.382495
-143.097 -0.775219 753.203 -0.91722 0.0951678 -0.386847
-142.275 0.456205 751.102 -0.928467 0.071339 -0.364498
-141.104 2.50154 748.924 -0.93329 0.0895587 -0.347777
-140.569 4.36343 746.516 -0.934317 0.107827 -0.339743
-149.648 -24.3488 793.965 -0.0152604 0.655394 -0.755133
-147.048 -10.302 773.435 -0.899737 -0.329186 0.286549
-146.57 -1.29042 760.117 -0.922095 0.161121 -0.351826
-144.557 -0.125289 757.166 -0.920756 0.146292 -0.361673
-143.607 1.29922 755.035 -0.925863 0.138254 -0.351657
-142.448 3.2978 752.925 -0.93309 0.137476 -0.332329
-151.393 -22.8392 794.718 -0.0211785 0.656186 -0.754302
-148.446 -8.29331 772.955 -0.973294 -0.187518 0.132423
-150.527 -5.08615 771.146 -0.998512 -0.0545076 0.00173206
-150.064 -3.90103 769.016 -0.997515 0.0286217 -0.0643754
-149.524 -2.77825 766.774 -0.972793 0.0970134 -0.210388
-147.544 -0.552893 762.913 -0.932532 0.158906 -0.324243
-146.598 -0.162056 761.024 -0.922539 0.164354 -0.349156
-145.152 2.05377 758.872 -0.92163 0.167134 -0.350235
-152.904 -20.5949 796.013 0.0149304 0.641455 -0.767015
-154.632 -18.8912 795.677 -0.0180943 0.670245 -0.741919
-149.3 -5.43881 773.961 -0.991491 -0.115044 0.0609161
-150.205 -4.57663 772.569 -0.999662 -0.0256341 0.00432345
-149.933 -1.50648 770.549 -0.994565 0.0779981 -0.0689744
-149.135 0.0447798 767.962 -0.977443 0.122377 -0.172131
-147.884 0.751435 765.081 -0.950244 0.146282 -0.275023
-146.914 2.57089 762.868 -0.930337 0.170027 -0.324906
-150.738 -2.01546 773.63 -0.999666 0.0124168 -0.0226585
-15.2168 -96.6622 565.851 -0.295346 -0.789815 -0.537552
-14.7998 -94.2148 563.384 -0.387968 -0.678151 -0.624174
-12.6336 -88.7076 556.418 -0.501661 -0.637306 -0.58496
-17.1715 -99.3905 573.778 -0.194073 -0.951309 -0.239473
-16.8315 -98.7106 571.608 -0.199888 -0.919794 -0.337676
-15.9927 -97.5357 568.389 -0.219182 -0.850095 -0.47885
-17.0575 -95.7278 565.172 -0.304582 -0.749991 -0.587149
-16.6809 -93.434 563.954 -0.377642 -0.641857 -0.667387
-13.7833 -86.4222 554.656 -0.522324 -0.649539 -0.552518
-14.5147 -83.7868 552.194 -0.508655 -0.711986 -0.484093
-12.2276 -79.5529 544.541 -0.395869 -0.749727 -0.530281
-12.1182 -78.3181 541.979 -0.380157 -0.740756 -0.553861
-11.6065 -76.7042 539.346 -0.389758 -0.698378 -0.600297
-11.1855 -74.8006 536.974 -0.361227 -0.638407 -0.67967
-18.5396 -99.5897 577.274 -0.224958 -0.972239 -0.0643776
-20.0053 -98.5667 574.371 -0.232669 -0.950366 -0.206568
-15.5076 -90.0691 562.581 -0.461848 -0.608218 -0.645575
-15.0122 -88.3457 560.173 -0.486807 -0.586757 -0.647098
-16.4238 -86.2031 557.13 -0.519533 -0.647679 -0.557313
-16.8012 -85.0947 554.769 -0.524453 -0.674325 -0.519841
-16.4675 -83.6914 552.727 -0.501339 -0.715742 -0.486182
-15.0911 -80.9626 550.619 -0.475624 -0.746687 -0.465017
-14.702 -79.6842 548.424 -0.428518 -0.764345 -0.481818
-14.8633 -78.8574 544.68 -0.392975 -0.760673 -0.516669
-14.3282 -77.5631 542.29 -0.378558 -0.741035 -0.554582
-13.8944 -75.7388 539.636 -0.377314 -0.696311 -0.610562
-13.7458 -73.6807 537.401 -0.373215 -0.593499 -0.71307
-12.4929 -71.1907 536.038 -0.363455 -0.491306 -0.79153
-11.8841 -68.9158 533.634 -0.336255 -0.366457 -0.867549
-21.1458 -99.4299 580.325 -0.296715 -0.952383 0.0701886
-18.5328 -87.3689 563.636 -0.403189 -0.576515 -0.710682
-18.1952 -85.4491 561.399 -0.423999 -0.607316 -0.671857
-18.4653 -83.8547 558.64 -0.449009 -0.672547 -0.588279
-17.809 -83.5985 555.633 -0.467635 -0.719793 -0.513046
-17.0991 -80.859 553.259 -0.45836 -0.759924 -0.460892
-17.3037 -78.791 551.367 -0.431726 -0.779681 -0.453553
-14.3925 -65.8336 532.894 -0.363447 -0.247387 -0.898168
-22.6057 -98.4016 582.63 -0.332924 -0.910473 0.245358
-19.0485 -82.8714 560.337 -0.442847 -0.664932 -0.601458
-19.3205 -81.3541 556.928 -0.381339 -0.757994 -0.529175
-14.9723 -63.4848 533.648 -0.24745 -0.0500266 -0.967608
-24.4294 -96.4407 585.21 -0.425052 -0.819785 0.383775
-14.6785 -59.8883 533.26 -0.227734 0.0727777 -0.971
-26.3635 -94.015 586.663 -0.500647 -0.705313 0.501883
-17.6037 -58.7361 534.798 -0.344714 0.0932689 -0.934063
-29.387 -90.7136 588.03 -0.578994 -0.575073 0.577977
-18.2944 -56.6299 536.133 -0.336316 0.204996 -0.919167
-28.2842 -88.8766 590.187 -0.538721 -0.520745 0.662273
-20.3749 -54.6215 537.173 -0.394203 0.28352 -0.874197
-30.0247 -85.7143 591.361 -0.598522 -0.415814 0.684741
-30.6674 -86.4319 589.539 -0.634212 -0.441735 0.634544
-21.8865 -52.3772 538.469 -0.415107 0.341049 -0.843429
-20.5989 -51.098 538.334 -0.348855 0.387226 -0.853438
-31.6856 -83.7299 590.617 -0.644702 -0.352681 0.678215
-23.0999 -50.0184 540.299 -0.43764 0.405807 -0.802366
-33.1177 -81.0594 590.688 -0.686926 -0.286961 0.667672
-25.3138 -47.9357 542.875 -0.502684 0.473324 -0.723377
-34.6605 -76.5734 590.546 -0.739772 -0.210254 0.639163
-27.0737 -46.9541 545.021 -0.571076 0.48397 -0.663058
-35.9128 -74.0865 589.82 -0.785905 -0.146979 0.600625
