ply
format ascii 1.0
element vertex 905
property float x
property float y
property float z
property float nx
property float ny
property float nz
end_header
54.8175 74.3744 543.483 -0.101735 -0.887995 -0.448459
55.6906 73.2224 546.174 -0.0930424 -0.89054 -0.445289
57.4331 72.0196 548.299 -0.102056 -0.880013 -0.463855
60.5743 70.3219 550.983 -0.0938291 -0.874878 -0.475169
62.3704 68.6116 554.321 -0.0444901 -0.871536 -0.488308
64.0034 66.5479 555.166 -0.0116454 -0.879007 -0.476667
67.0529 64.443 558.885 0.0571217 -0.878139 -0.474984
68.179 64.6022 561.405 0.0892712 -0.882921 -0.460957
69.6311 63.5999 563.176 0.111451 -0.885448 -0.451177
71.5189 62.2968 565.478 0.14022 -0.881739 -0.450417
18.3634 103.177 498.372 -0.080532 -0.777028 -0.624293
18.6582 102.35 499.858 -0.0867611 -0.77563 -0.625197
21.3765 100.832 502.299 -0.0807996 -0.822932 -0.562365
23.309 99.5749 504.355 -0.0998689 -0.859783 -0.500798
25.0591 96.9955 506.518 -0.0947223 -0.876285 -0.472389
30.2454 94.7934 511.312 -0.105631 -0.886619 -0.450277
28.8378 93.3727 513.868 -0.0854241 -0.881628 -0.46415
32.119 93.4911 513.652 -0.102529 -0.885253 -0.453667
33.1219 90.8057 517.864 -0.0910162 -0.881782 -0.462792
37.2065 90.001 519.726 -0.0938227 -0.885432 -0.455201
37.979 88.2666 521.128 -0.0916316 -0.882575 -0.461157
41.0648 86.1366 524.892 -0.0783825 -0.882835 -0.463097
41.5131 83.9839 529.794 -0.0766814 -0.86356 -0.498381
44.3473 83.8497 529.023 -0.0863178 -0.864598 -0.494994
45.1347 82.826 530.621 -0.0910942 -0.858802 -0.504145
46.992 81.586 532.631 -0.0937867 -0.850628 -0.517335
72.0855 63.6815 563.333 0.16285 -0.879239 -0.447681
73.0778 62.236 568.047 0.196442 -0.871539 -0.449255
80.8137 59.2331 574.827 0.31531 -0.808105 -0.49754
83.5686 57.9416 578.895 0.333436 -0.797636 -0.50259
85.2693 57.2204 580.823 0.3423 -0.799029 -0.494352
11.7469 111.31 488.628 -0.103858 -0.627251 -0.771861
13.0093 109.071 489.506 -0.0930686 -0.671942 -0.734733
15.4803 108.847 495.365 -0.0344665 -0.748293 -0.662472
17.3116 105.909 495.918 -0.0552599 -0.783685 -0.618696
85.4878 58.3187 578.876 0.353885 -0.790211 -0.500333
86.9494 56.554 583.196 0.352822 -0.793702 -0.495534
10.1825 115.759 488.046 -0.146013 -0.58034 -0.801178
16.3738 109.123 492.86 -0.060628 -0.74956 -0.659154
18.3666 108.042 495.454 -0.0700523 -0.779533 -0.622431
88.8263 60.679 581.4 0.372649 -0.784723 -0.49532
88.8964 59.7606 583.908 0.373166 -0.791491 -0.484034
91.0512 59.7464 586.133 0.376216 -0.766854 -0.519997
92.5852 58.9217 588.29 0.343925 -0.776757 -0.527602
95.1627 57.1425 591.434 0.298951 -0.752202 -0.587214
98.6749 54.4841 595.431 0.287654 -0.752722 -0.592169
101.57 52.2516 598.675 0.307809 -0.735577 -0.603473
103.167 51.1491 600.623 0.359101 -0.716625 -0.597909
104.91 49.9462 602.748 0.416359 -0.737194 -0.532157
106.652 48.7434 604.874 0.446067 -0.730761 -0.516733
109.409 47.2991 608.088 0.519298 -0.684506 -0.511645
112.243 45.7168 611.423 0.603519 -0.626471 -0.493253
8.37641 120.095 484.17 -0.189358 -0.579442 -0.792711
10.0824 118.968 485.945 -0.168332 -0.599315 -0.782615
11.2071 117.255 486.171 -0.176734 -0.586016 -0.790791
12.7451 115.608 487.33 -0.142873 -0.604345 -0.783808
92.5901 60.2285 584.614 0.409113 -0.7496 -0.520314
94.3371 59.4369 586.792 0.363099 -0.737471 -0.56947
97.1084 57.5284 590.145 0.355685 -0.724809 -0.590034
99.9363 55.4123 593.451 0.355158 -0.72479 -0.590375
105.854 51.106 600.419 0.543315 -0.59458 -0.592692
109.101 48.8609 604.939 0.629685 -0.544216 -0.554369
112.857 47.6781 609.707 0.756034 -0.433957 -0.489994
113.692 45.0247 613.936 0.720683 -0.472131 -0.507649
8.96331 122.174 481.518 -0.232969 -0.524988 -0.818604
10.4595 120.613 483.038 -0.204907 -0.591585 -0.779769
108.949 55.7431 602.247 0.943841 0.0620597 -0.324519
110.401 53.7473 606.632 0.957649 0.0613956 -0.281318
112.602 50.5802 610.211 0.941844 -0.00987269 -0.335905
1.83486 131.45 472.246 -0.186634 -0.681707 -0.70742
7.04585 128.664 480.512 -0.223548 -0.482559 -0.846855
7.73948 125.907 480.501 -0.269264 -0.38809 -0.88141
104.871 61.7063 596.379 0.90234 0.241146 -0.357254
106.547 60.2057 598.461 0.934704 0.184254 -0.30394
107.822 59.0123 600.551 0.949154 0.210442 -0.234137
108.401 56.5657 604.574 0.953559 0.163184 -0.253171
109.237 55.112 606.359 0.946003 0.100301 -0.308251
2.25287 133.161 474.283 -0.167673 -0.707315 -0.686725
9.3977 128.452 479.594 -0.244273 -0.444893 -0.861627
101.269 67.3568 592.437 0.900557 0.374836 -0.220216
103.808 63.2672 594.453 0.893406 0.294866 -0.33894
104.41 63.24 598.683 0.904389 0.359918 -0.229216
105.649 61.6466 600.577 0.923524 0.304335 -0.233417
5.52781 134.898 473.365 -0.182358 -0.802365 -0.568292
5.71495 136.246 476.014 -0.177155 -0.711666 -0.679815
7.60274 134.943 478.316 -0.18827 -0.653149 -0.733452
9.01884 131.84 479.281 -0.204989 -0.528869 -0.823576
95.3815 74.8573 582.312 0.898785 0.424457 -0.109642
97.3071 73.2759 586.19 0.875499 0.473477 -0.0965482
98.4061 71.5277 588.333 0.881353 0.445694 -0.156759
98.7444 70.717 590.622 0.869365 0.469584 -0.153933
8.74729 136.016 476.477 -0.204893 -0.72296 -0.659808
10.2774 134.734 478.475 -0.211147 -0.648069 -0.731726
91.4526 81.1387 578.396 0.882473 0.469006 -0.0356923
93.6463 77.7047 581.111 0.85171 0.520134 -0.0636463
95.1239 76.2898 585.31 0.846404 0.529843 -0.0535392
87.5342 88.3747 570.706 0.994931 0.0410427 -0.0918067
88.0079 86.8267 572.546 0.980122 0.196142 -0.0298141
89.0477 84.199 573.453 0.923331 0.379505 -0.0586227
90.0575 82.6144 578.363 0.897486 0.440968 -0.00817123
87.4221 91.9406 568.863 0.932781 -0.337756 -0.125863
87.391 88.7834 572.748 0.999567 0.00478953 -0.0290378
88.0509 87.893 574.728 0.987234 0.158406 0.0166328
88.1979 91.4501 571.243 0.951479 -0.303166 -0.052699
88.4182 92.6556 573.186 0.937949 -0.33632 0.0845064
90.2867 94.3018 570.956 0.922794 -0.383883 0.0329409
90.9576 97.7905 574.427 0.891141 -0.411613 0.190898
93.0986 99.2551 572.16 0.890461 -0.421448 0.171641
94.5739 104.483 573.391 0.914599 -0.30255 0.268278
35.2971 151.114 498.286 0.653296 0.743029 -0.145302
96 110.753 571.63 0.916014 -0.282256 0.285043
94.7777 108.646 573.698 0.919023 -0.276098 0.281367
56.2887 141.067 521.971 0.741792 0.508683 -0.43702
96.2604 113.224 572.25 0.916701 -0.275454 0.289454
95.3062 111.339 574.225 0.917347 -0.272323 0.290369
-1.96026 -72.334 540.836 0.309376 -0.345083 -0.886118
-0.440896 -73.5154 543.028 0.354173 -0.41043 -0.840302
2.29957 -75.2697 545.964 0.446193 -0.468964 -0.762224
4.76549 -79.1891 549.593 0.520204 -0.478161 -0.707637
8.1332 -82.6079 553.966 0.680725 -0.477694 -0.555358
-0.467427 -69.6249 540.84 0.353874 -0.246175 -0.902314
1.90739 -71.7946 544.052 0.445228 -0.341883 -0.82758
6.24414 -76.2027 548.024 0.580589 -0.424068 -0.695041
7.5524 -77.0607 551.053 0.672482 -0.40435 -0.619895
8.60635 -79.274 552.818 0.705362 -0.418874 -0.571847
10.33 -80.3377 554.156 0.757504 -0.405371 -0.511725
0.711202 -67.0887 541.015 0.381213 -0.114779 -0.917334
1.44933 -69.3271 541.025 0.405051 -0.238699 -0.882585
2.61104 -70.129 542.442 0.454461 -0.262907 -0.851085
5.11627 -72.5591 545.482 0.580215 -0.375623 -0.722674
8.49651 -74.7578 549.642 0.738721 -0.337671 -0.583327
11.2157 -76.4076 554.615 0.843736 -0.295909 -0.447826
2.31878 -67.55 541.318 0.427402 -0.120143 -0.896043
3.6367 -68.3381 542.614 0.512343 -0.153511 -0.844949
5.73318 -69.4625 544.494 0.599383 -0.215147 -0.771007
7.76251 -70.7582 546.331 0.707118 -0.253291 -0.660173
10.5368 -71.8427 550.195 0.817529 -0.216433 -0.533669
12.144 -73.1433 552.917 0.880222 -0.198227 -0.431179
2.73227 -62.8696 541.799 0.477622 0.0695426 -0.875809
4.05769 -63.9957 541.904 0.514359 0.0308267 -0.857021
5.30082 -65.8533 542.656 0.564182 -0.0400597 -0.824678
11.0809 -66.912 549.846 0.862568 -0.0630278 -0.501999
11.5648 -68.2749 551.098 0.875521 -0.0898083 -0.47476
11.6593 -69.5789 553.214 0.90983 -0.0992219 -0.402945
12.5197 -71.0286 555.111 0.919392 -0.126214 -0.372542
4.8198 -62.3966 543.595 0.59607 0.103072 -0.79629
6.95488 -62.0567 543.731 0.641505 0.105412 -0.759842
10.3808 -63.0963 547.916 0.830755 0.0517189 -0.554231
11.0996 -65.8398 550.967 0.883624 -0.0347899 -0.466902
6.50768 -59.3885 544.721 0.640186 0.171993 -0.748719
7.32568 -57.4506 545.752 0.706045 0.225808 -0.671201
9.82372 -61.6303 547.612 0.804498 0.121623 -0.58137
11.4677 -63.3324 551.731 0.906128 0.0720937 -0.416815
96.2746 -62.0574 635.369 0.0219507 -0.909094 -0.416013
99.7636 -64.6098 639.816 0.409961 -0.891283 -0.193769
79.0644 -47.2064 613.42 -0.122313 -0.873864 -0.470534
83.4831 -48.8616 614.899 -0.126781 -0.875004 -0.46722
83.1036 -50.0575 618.729 -0.116388 -0.872293 -0.47493
85.5075 -51.5277 620.513 -0.119306 -0.869037 -0.480146
87.2501 -52.7305 622.639 -0.117519 -0.868169 -0.482154
89.6808 -54.1562 624.073 -0.123741 -0.86809 -0.480737
91.8535 -55.4984 625.767 -0.124861 -0.864883 -0.486197
94.4704 -57.2732 628.768 -0.125988 -0.857798 -0.498307
95.0547 -59.0542 631.011 -0.0901228 -0.870962 -0.483015
96.2164 -59.8561 632.428 -0.0384861 -0.888245 -0.457754
98.2849 -61.3704 634.11 0.0383355 -0.909106 -0.414797
100.584 -63.2657 637.323 0.252687 -0.920765 -0.297223
103.002 -62.5899 638.626 0.537514 -0.843183 -0.0110056
58.7571 -28.9855 587.731 -0.184358 -0.833927 -0.520171
60.5492 -30.3687 589.633 -0.183555 -0.836123 -0.51692
63.9025 -32.6777 591.444 -0.180931 -0.832784 -0.523197
67.2111 -36.1744 595.328 -0.168692 -0.856573 -0.487673
66.4773 -37.3545 597.838 -0.165291 -0.865041 -0.47369
70.8405 -39.0778 599.536 -0.152161 -0.875909 -0.457855
73.496 -41.0124 602.611 -0.13844 -0.882014 -0.450427
75.338 -42.2209 604.475 -0.131435 -0.884583 -0.44748
77.2018 -43.7054 606.812 -0.130461 -0.884008 -0.448898
78.6058 -45.0708 608.653 -0.131958 -0.878638 -0.458892
53.0799 -21.4946 577.227 -0.208788 -0.846151 -0.490343
54.5336 -22.7636 578.905 -0.210154 -0.84498 -0.491776
58.0492 -27.0814 585.107 -0.190278 -0.836349 -0.514116
60.7176 -28.1369 586.321 -0.188698 -0.836519 -0.514422
62.9482 -29.7462 588.098 -0.187834 -0.834169 -0.518536
104.833 -57.3119 640.919 0.806481 -0.505849 0.306112
-5.15216 22.0009 504.961 0.483255 -0.199896 -0.852353
-3.26346 19.5085 507.648 0.324246 -0.486773 -0.811121
-4.20909 19.0138 509.555 0.249494 -0.58633 -0.770695
-0.691787 16.6978 513.653 0.150328 -0.692326 -0.705752
6.94544 13.0445 520.221 0.0634899 -0.793258 -0.605566
9.1857 12.9505 520.726 0.0842798 -0.76243 -0.641558
8.41093 10.4777 524.373 -0.0321075 -0.858627 -0.511595
14.3408 9.39215 527.013 -0.0332719 -0.838127 -0.54446
13.4934 6.96942 530.571 -0.0929271 -0.890339 -0.445715
16.3726 6.15722 532.074 -0.0990408 -0.893432 -0.438145
20.0405 3.34343 537.299 -0.1142 -0.889681 -0.442071
22.2942 1.86714 538.818 -0.11973 -0.890142 -0.439672
25.1985 -0.137567 542.36 -0.107879 -0.900662 -0.420916
27.8258 -1.91954 545.373 -0.110892 -0.910764 -0.397759
30.7105 -4.6807 551.856 -0.118486 -0.92149 -0.369889
33.5091 -3.83889 550.391 -0.12311 -0.919232 -0.373974
35.2516 -5.04171 552.516 -0.13343 -0.914895 -0.381003
38.6063 -7.71393 556.722 -0.15847 -0.901261 -0.403257
41.0786 -9.24755 559.827 -0.174579 -0.89198 -0.417006
39.5559 -10.7395 562.701 -0.173477 -0.884159 -0.433785
43.7471 -11.5001 563.069 -0.179827 -0.88096 -0.437689
44.6572 -13.5691 566.092 -0.188406 -0.866208 -0.462803
45.9997 -15.3242 569.342 -0.186601 -0.859054 -0.476661
48.1778 -16.0857 569.545 -0.19358 -0.859062 -0.473855
51.5905 -19.2914 573.402 -0.199232 -0.852306 -0.483613
-8.03497 24.8152 503.271 0.545672 -0.119086 -0.829494
-5.63608 24.7926 505.702 0.523495 -0.043226 -0.850931
-2.94973 22.971 506.763 0.497821 -0.0927932 -0.862302
-0.193602 21.2962 508.998 0.477203 -0.14643 -0.866508
106.914 -53.9131 639.724 0.817755 -0.45561 0.351704
-3.33256 25.5175 507.812 0.532852 0.0769524 -0.842703
-1.3433 25.0629 509.217 0.528728 0.0748936 -0.845481
0.941336 24.9267 510.09 0.552341 0.154277 -0.819218
2.72809 24.7964 511.551 0.538464 0.144743 -0.830124
108.38 -48.5136 640.167 0.83961 -0.422324 0.34161
-0.324406 26.8485 510.381 0.545553 0.170934 -0.820459
1.70345 26.5258 511.782 0.529423 0.170331 -0.831083
5.4987 24.7546 514.02 0.560006 0.149777 -0.814838
108.237 -47.1359 642.476 0.782983 -0.581814 0.220068
4.61431 26.8378 514.904 0.567018 0.237907 -0.788601
7.55648 25.1991 516.113 0.582508 0.231907 -0.77904
9.84574 23.7661 518.013 0.572353 0.162931 -0.803657
8.61276 27.9447 518.283 0.572476 0.255101 -0.779227
11.2586 27.4331 519.565 0.558769 0.248481 -0.791224
13.0766 26.6882 521.135 0.554476 0.257231 -0.791447
110.862 -42.6264 641.464 0.714331 -0.689921 0.117216
111.788 -40.672 643.928 0.517175 -0.847148 -0.12194
10.5679 29.9326 520.044 0.550653 0.208673 -0.808231
12.635 29.2818 521.788 0.552324 0.216651 -0.804985
14.8709 29.5754 522.474 0.556493 0.209596 -0.803981
15.622 26.8478 523.137 0.555162 0.261253 -0.789646
113.1 -39.6507 642.372 0.531606 -0.837695 -0.125151
113.181 -40.9853 645.961 0.36577 -0.902604 -0.226976
116.047 -40.0102 644.339 0.216062 -0.931858 -0.291474
117.287 -42.2887 648.338 0.168645 -0.935849 -0.309426
118.99 -43.4825 649.842 0.170164 -0.948743 -0.266328
120.479 -43.5738 652.804 0.212197 -0.962505 -0.168989
14.8263 33.8385 523.37 0.583646 0.166282 -0.7948
14.8656 31.2756 523.44 0.574654 0.184311 -0.797372
17.2407 30.6 524.505 0.580352 0.202297 -0.788839
18.7049 28.3848 525.714 0.577861 0.232292 -0.782379
121.713 -42.6125 654.689 0.259465 -0.959034 -0.113714
16.8572 32.971 524.806 0.600579 0.189294 -0.776835
19.0472 34.3001 525.111 0.609588 0.197446 -0.767736
20.7589 31.5067 527.212 0.594187 0.216054 -0.774766
124.478 -40.7631 653.469 0.212374 -0.970174 -0.116875
18.206 35.9181 525.682 0.62912 0.204519 -0.74992
19.9839 35.3032 527.17 0.623155 0.228567 -0.747954
22.9476 34.1387 528.689 0.622339 0.26027 -0.73821
26.6625 33.1051 532.32 0.629083 0.314174 -0.71102
21.9185 36.7303 529.744 0.645031 0.278855 -0.711459
25.3273 35.1178 532.918 0.645115 0.32111 -0.693336
28.8005 34.2242 534.858 0.641637 0.372989 -0.67021
30.1915 33.348 536.044 0.653775 0.394686 -0.645602
32.3085 32.3671 537.988 0.630559 0.431543 -0.64511
27.6038 36.0093 535.261 0.664179 0.363063 -0.653492
30.5683 34.6588 538.776 0.660323 0.3807 -0.647334
34.7604 31.9089 541.835 0.645298 0.481096 -0.593412
38.7867 31.3353 545.503 0.659583 0.513918 -0.548487
40.77 30.3325 546.838 0.654922 0.539391 -0.529278
36.8643 33.4307 545.324 0.674151 0.450554 -0.585254
40.1604 32.074 548.323 0.681029 0.484851 -0.548743
43.6068 31.1359 550.613 0.679575 0.51796 -0.519515
44.7685 30.334 552.03 0.697059 0.502888 -0.511089
47.1317 29.3917 554.146 0.68738 0.532939 -0.493442
49.2228 28.4886 555.979 0.658693 0.557982 -0.504757
41.5285 33.4462 550.049 0.700451 0.395785 -0.593905
45.3372 31.3155 554.06 0.712904 0.408886 -0.569719
47.854 30.3294 556.555 0.706359 0.429277 -0.562831
51.0103 27.6536 557.958 0.638183 0.595555 -0.48789
53.3334 27.988 561.324 0.656531 0.54709 -0.519288
55.2766 27.6272 563.056 0.666968 0.547435 -0.505439
48.9221 31.8294 557.94 0.706983 0.380003 -0.596467
51.734 30.1232 560.92 0.6869 0.44661 -0.573331
54.241 29.0904 563.322 0.691375 0.474793 -0.544584
58.2788 27.4226 566.007 0.686089 0.527797 -0.500711
62.5148 25.5946 570.915 0.681784 0.533678 -0.500357
65.5579 24.3101 574.14 0.690389 0.534248 -0.487794
55.3651 31.0952 564.664 0.71315 0.380514 -0.58875
58.29 29.5088 567.826 0.70705 0.412997 -0.574034
61.0683 27.5656 570.8 0.712364 0.433904 -0.551601
62.5155 26.9449 572.262 0.712686 0.443479 -0.543512
67.858 23.9615 576.78 0.696915 0.485565 -0.527764
69.8354 23.2226 578.732 0.679298 0.500326 -0.536869
63.7934 28.7732 573.308 0.734037 0.362882 -0.574027
66.6387 26.9263 576.378 0.718028 0.380336 -0.582906
69.241 25.8685 579.313 0.707168 0.414306 -0.572944
72.3873 24.359 581.408 0.708865 0.430441 -0.558777
74.4317 23.1756 583.351 0.682952 0.464059 -0.564115
71.964 27.2278 582.591 0.715498 0.36363 -0.59652
74.2445 25.6885 584.519 0.701224 0.373627 -0.607197
77.3601 24.5065 586.236 0.686483 0.411644 -0.599408
78.9078 23.4732 587.912 0.699077 0.418988 -0.579431
81.167 23.3366 590.57 0.708215 0.411296 -0.573819
136.133 -16.3423 659.616 0.946019 -0.215812 0.241812
76.8981 26.9765 587.131 0.703031 0.371621 -0.606338
79.9129 25.448 590.358 0.70872 0.370938 -0.600101
82.256 24.4128 592.756 0.715373 0.372652 -0.591078
84.0025 23.4243 593.647 0.710593 0.392562 -0.583912
86.1178 22.4986 596.226 0.705915 0.413774 -0.57487
88.0258 21.871 597.879 0.71633 0.418808 -0.558095
90.4369 20.7312 600.198 0.70151 0.470234 -0.535504
93.6076 19.1203 603.462 0.710334 0.494777 -0.500621
86.8458 23.5696 598.525 0.719834 0.394037 -0.571467
89.1514 22.6248 600.206 0.725897 0.409841 -0.552363
91.6922 21.4654 603.113 0.729732 0.439963 -0.523377
95.4547 18.2775 605.141 0.713565 0.495595 -0.495188
98.0428 18.5226 608.945 0.73775 0.487556 -0.46692
99.2045 17.7207 610.362 0.737014 0.503936 -0.4504
102.396 16.2873 613.488 0.72693 0.529678 -0.437052
105.093 14.4395 616.204 0.697715 0.56238 -0.44376
94.9587 21.4198 607.349 0.743513 0.444267 -0.499815
97.7937 19.7969 610.488 0.754946 0.470773 -0.45654
100.838 18.2427 613.27 0.739561 0.504857 -0.445163
102.871 17.3151 615.596 0.729627 0.522225 -0.441504
104.759 16.012 617.898 0.704455 0.54948 -0.449238
109.222 14.3723 621.427 0.671287 0.579734 -0.461825
111.956 13.3851 623.567 0.658959 0.594701 -0.460548
109.71 15.5098 623.318 0.670291 0.585302 -0.456214
113.746 12.7836 625.147 0.670273 0.590872 -0.449003
113.269 15.3609 627.315 0.669338 0.617355 -0.413352
116.334 13.0286 628.951 0.687997 0.603764 -0.402654
118.222 11.7256 631.253 0.693016 0.607415 -0.388297
122.31 9.44425 635.521 0.689958 0.609668 -0.390209
125.638 7.65128 638.512 0.685859 0.599545 -0.412484
141.367 -6.50137 659.483 0.986626 -0.0711947 0.146629
114.866 14.8706 629.645 0.676185 0.622274 -0.394397
117.043 13.9441 631.535 0.689419 0.628472 -0.360173
119.768 11.896 634.653 0.691903 0.621285 -0.367798
123.618 10.0949 638.787 0.667592 0.646598 -0.369095
126.615 9.3325 642.709 0.676923 0.640796 -0.362153
129.401 7.57529 643.736 0.680076 0.635094 -0.366268
133.349 5.52718 647.174 0.675625 0.654592 -0.339175
135.317 3.74393 649.421 0.691847 0.648331 -0.317829
143.014 -2.75782 659.192 0.96822 0.24969 0.0143371
142.073 -2.61273 661.105 0.9812 0.182923 0.0615221
130.427 7.74013 646.516 0.695611 0.63499 -0.336025
140.086 2.325 657.53 0.839842 0.523728 -0.14274
142.347 0.404078 659.059 0.915443 0.39279 -0.0876386
46.679 75.7557 542.035 -0.0544136 -0.882852 -0.466488
48.66 74.1892 544.487 -0.0497169 -0.883022 -0.466691
55.6685 69.4977 552.906 -0.0619996 -0.851515 -0.520651
57.3805 68.3579 554.74 -0.058081 -0.853494 -0.517855
59.2379 66.9197 556.814 -0.0419803 -0.861229 -0.50648
60.9079 65.767 558.851 -0.0280948 -0.87082 -0.490798
63.4075 63.9696 561.995 0.013774 -0.87419 -0.485389
66.9615 61.5417 566.176 0.0959048 -0.873194 -0.477843
69.8129 59.3393 569.367 0.160173 -0.85966 -0.485107
71.6252 58.867 571.695 0.18537 -0.848006 -0.496511
13.2318 102.379 500.088 -0.0346324 -0.796954 -0.603047
16.7059 99.8746 504.091 -0.0721108 -0.83382 -0.547307
18.7205 98.4532 506.247 -0.0528672 -0.873295 -0.484315
21.2254 96.7241 509.302 -0.0628576 -0.87529 -0.479496
24.7105 94.3185 513.553 -0.0594436 -0.878558 -0.473922
28.3303 91.856 517.749 -0.0727147 -0.875886 -0.477007
31.8798 89.3176 521.589 -0.0712382 -0.875501 -0.477937
35.285 87.2565 524.442 -0.069401 -0.876543 -0.476294
37.0757 86.0815 526.445 -0.0677872 -0.872593 -0.483722
38.0881 84.6163 529.295 -0.0637152 -0.863125 -0.500954
38.9066 82.7366 531.442 -0.0635698 -0.857232 -0.510991
41.6163 81.9088 533.163 -0.0772169 -0.848049 -0.524263
44.5771 80.9956 534.277 -0.0819974 -0.843311 -0.531134
44.4967 78.5178 537.41 -0.0681727 -0.850016 -0.522327
46.9092 77.591 538.907 -0.0651909 -0.861035 -0.504351
49.8425 75.4986 541.529 -0.0640932 -0.886491 -0.458285
51.2155 73.808 545.662 -0.0662343 -0.884429 -0.46195
53.589 72.9801 547.054 -0.0859427 -0.882131 -0.463097
52.5713 72.7641 548.825 -0.061802 -0.875578 -0.479106
55.622 71.5768 549.534 -0.0863571 -0.875008 -0.476344
57.5098 70.2738 551.836 -0.0857163 -0.869528 -0.486389
59.1071 69.1712 553.784 -0.0768254 -0.861991 -0.501068
61.1217 67.3124 555.668 -0.0542007 -0.870328 -0.48948
62.719 66.2098 557.616 -0.0253721 -0.876792 -0.4802
64.5342 64.9569 559.83 0.00355631 -0.879102 -0.47662
66.2431 63.5406 561.887 0.0509279 -0.884716 -0.463341
67.9467 62.6013 563.992 0.0862084 -0.884663 -0.458192
70.3061 60.5532 567.287 0.15053 -0.879764 -0.45095
72.4668 59.9496 570.078 0.171057 -0.863578 -0.474312
73.8386 60.3872 573.024 0.230652 -0.843913 -0.484367
79.5533 56.775 580.821 0.269635 -0.815187 -0.512609
82.8877 53.896 585.184 0.323497 -0.811542 -0.486568
6.00398 111.131 489.996 -0.0928513 -0.573179 -0.814153
9.03331 108.965 491.025 -0.0396876 -0.65418 -0.755296
14.1277 104.991 496.662 -0.0290505 -0.79556 -0.605178
15.2498 103.01 499.144 -0.0451112 -0.784291 -0.618751
16.9738 101.352 500.674 -0.0643414 -0.788709 -0.611391
18.789 100.099 502.888 -0.0847195 -0.824686 -0.55921
21.294 98.3697 505.943 -0.0751234 -0.871339 -0.484896
23.9441 96.5405 509.175 -0.0696571 -0.876183 -0.476919
25.8587 95.2819 511.127 -0.0793617 -0.879766 -0.468737
34.646 89.0165 521.692 -0.0767829 -0.878447 -0.471631
39.8737 85.4081 528.067 -0.075827 -0.869209 -0.488596
74.259 61.8342 570.773 0.227717 -0.859136 -0.458292
76.2933 61.0003 572.828 0.261826 -0.833682 -0.486232
78.1811 59.6972 575.131 0.28443 -0.821148 -0.494788
81.8115 57.1914 579.558 0.316447 -0.802765 -0.5054
83.4088 56.0888 581.506 0.334294 -0.80469 -0.490633
85.692 54.4183 584.865 0.34977 -0.805551 -0.478277
86.8772 54.5051 587.647 0.358634 -0.782882 -0.508407
88.6916 54.3565 589.504 0.359869 -0.769112 -0.528168
6.92199 113.969 489.236 -0.129393 -0.518013 -0.84553
8.27673 111.389 489.489 -0.0846454 -0.58718 -0.805018
11.8112 108.214 494.466 -0.0125417 -0.747993 -0.663588
13.251 108.892 496.701 -0.0301405 -0.751046 -0.659562
88.1088 55.3929 587.14 0.357942 -0.783442 -0.508032
89.8874 56.2904 590.072 0.345928 -0.78329 -0.516518
90.6421 54.5079 591.761 0.346765 -0.769134 -0.536831
92.9481 54.7054 594.358 0.292501 -0.767934 -0.569843
95.8787 52.1735 598.71 0.218125 -0.81619 -0.535029
4.96705 118.996 486.45 -0.165462 -0.549885 -0.818687
6.5452 116.919 488.391 -0.137034 -0.538186 -0.831611
9.71326 113.225 488.879 -0.10133 -0.587814 -0.802625
89.9449 57.8746 587.686 0.356094 -0.785494 -0.506158
92.4982 56.6507 591.109 0.290706 -0.801083 -0.523218
94.2891 55.5844 593.239 0.25159 -0.79206 -0.556186
97.1057 53.6942 596.346 0.234924 -0.782844 -0.576165
100.09 51.7244 599.439 0.260646 -0.788349 -0.557288
102.044 50.4834 601.167 0.296221 -0.798865 -0.523516
103.932 49.1803 603.469 0.322091 -0.774818 -0.54398
105.53 48.0777 605.418 0.402005 -0.775776 -0.486377
107.272 46.8749 607.543 0.384695 -0.750275 -0.537678
109.648 44.9109 610.871 0.388898 -0.753245 -0.530453
111.812 43.4893 614.609 0.539255 -0.681538 -0.494681
112.752 42.0589 617.391 0.526541 -0.640658 -0.558849
116.095 40.5324 619.834 0.577805 -0.576271 -0.577973
117.329 39.7322 622.704 0.707604 -0.408679 -0.576435
119.701 38.4397 624.103 0.74556 -0.355904 -0.563448
119.015 37.1121 626.455 0.661764 -0.458648 -0.593052
4.56989 122.487 482.664 -0.226532 -0.489546 -0.842038
5.27013 120.596 483.519 -0.193085 -0.553128 -0.810412
7.02768 119.149 485.376 -0.168425 -0.578347 -0.798215
8.73911 117.546 486.948 -0.160013 -0.569639 -0.806168
114.877 45.8009 615.953 0.858829 -0.176029 -0.481069
117.397 42.9356 619.824 0.837028 -0.179578 -0.516852
119.434 41.2443 624.38 0.897563 0.0574856 -0.437122
120.438 39.7466 626.733 0.865784 -0.0627944 -0.496462
3.67707 126.667 482.144 -0.234768 -0.463407 -0.854481
5.36332 123.824 481.411 -0.242359 -0.438348 -0.865513
111.849 52.2702 610.725 0.962342 0.0471408 -0.267722
112.531 51.3131 612.801 0.957746 0.106524 -0.267163
113.234 49.4412 614.106 0.936069 0.0608393 -0.346516
115.167 47.6299 618.789 0.934527 0.183914 -0.304687
0.204991 133.008 474.464 -0.153883 -0.72377 -0.672664
106.863 59.9353 602.919 0.929078 0.278864 -0.243001
108.256 57.9139 605.926 0.944993 0.267298 -0.18852
110.099 55.1174 610.596 0.958713 0.209593 -0.192197
1.66223 134.917 477.576 -0.172769 -0.68037 -0.712213
4.03294 133.268 480.295 -0.213544 -0.601978 -0.769429
5.87945 129.769 480.683 -0.211261 -0.501277 -0.839101
103.176 65.5089 597.686 0.890677 0.406925 -0.20275
105.013 62.1935 603.243 0.902173 0.415572 -0.115688
107.039 60.0119 607.052 0.903741 0.420387 -0.0807861
3.65268 135.253 475.872 -0.136271 -0.739113 -0.659653
6.25165 133.91 479.113 -0.190555 -0.650508 -0.735206
97.9101 72.2294 590.75 0.837794 0.542977 -0.0572514
99.7075 69.5299 592.689 0.883121 0.445939 -0.145724
92.7582 79.7056 583.443 0.841207 0.539427 -0.0372754
94.4988 76.4571 588.882 0.830303 0.556634 -0.0274894
96.024 74.8099 590.934 0.832414 0.552939 -0.0366758
97.4493 73.7631 593.054 0.826786 0.560751 -0.0445381
88.0602 86.5144 576.562 0.955438 0.295149 0.00509317
88.5202 84.7801 576.615 0.929981 0.367445 0.0109282
90.9194 82.6198 582.6 0.877559 0.479338 -0.0111652
91.638 81.3403 584.816 0.848275 0.52919 -0.0197131
87.9653 90.667 575.32 0.994445 -0.0981871 0.0379284
88.5517 92.8268 575.496 0.960766 -0.24228 0.135012
87.822 91.0756 577.362 0.99415 -0.0603413 0.0895779
90.3395 97.3119 577.118 0.911636 -0.34091 0.229565
92.7884 102.239 575.232 0.906491 -0.32217 0.272909
94.3738 107.553 575.387 0.916415 -0.272734 0.292917
93.2172 105.017 576.453 0.910928 -0.292114 0.29134
94.6342 110.024 576.007 0.917044 -0.26219 0.300479
93.1807 108.188 577.807 0.912856 -0.257554 0.316796
94.9232 112.217 576.07 0.915647 -0.252985 0.312393
0.845102 -85.6647 551.602 0.279093 -0.635621 -0.719787
2.77473 -87.0992 553.877 0.353762 -0.650095 -0.67248
-5.0836 -78.0513 543.703 0.145872 -0.613936 -0.77576
-3.21771 -79.8922 545.577 0.154023 -0.624709 -0.765517
-1.58383 -81.3171 547.666 0.24158 -0.620767 -0.745847
0.013529 -82.4197 549.614 0.251205 -0.613194 -0.748925
-1.13898 -84.2116 550.251 0.176655 -0.646399 -0.742268
2.3 -84.9345 551.257 0.337299 -0.601311 -0.724331
4.27978 -87.0214 554.628 0.459857 -0.632739 -0.623035
6.11252 -86.6296 557.052 0.598257 -0.589327 -0.542939
7.34034 -88.0271 559.404 0.671571 -0.604134 -0.42897
-7.38196 -72.8922 540.098 0.147787 -0.399207 -0.904872
-5.65257 -74.9427 541.552 0.171245 -0.493987 -0.852439
-3.07567 -77.6579 543.549 0.22166 -0.547336 -0.807025
-0.833352 -79.6933 546.17 0.283037 -0.587189 -0.758353
2.65687 -82.5137 550.141 0.334125 -0.597455 -0.728978
6.14585 -84.9935 554.165 0.586792 -0.549613 -0.594644
9.36144 -86.5189 558.686 0.751475 -0.524191 -0.400636
10.5951 -85.2133 561.707 0.837909 -0.48309 -0.254034
-6.23648 -70.5775 539.561 0.183674 -0.297127 -0.937006
-5.25663 -72.5866 539.738 0.190575 -0.372021 -0.90845
-2.99517 -74.9978 542.107 0.24532 -0.485057 -0.839368
0.694579 -77.645 545.935 0.366289 -0.52557 -0.76786
10.8742 -83.5312 558.666 0.811325 -0.450324 -0.372772
-6.14496 -66.5705 538.648 0.237797 -0.128368 -0.962795
-4.06964 -70.6244 539.483 0.262375 -0.295857 -0.918492
12.2759 -82.0141 560.257 0.874492 -0.396942 -0.278748
13.0927 -79.8062 562.531 0.925039 -0.33062 -0.187064
-3.52282 -66.5499 539.109 0.276924 -0.0919721 -0.95648
-1.56691 -65.6603 540.021 0.333413 -0.0499787 -0.941455
12.2196 -75.217 556.74 0.905872 -0.234616 -0.352635
13.3917 -76.3638 559.364 0.927047 -0.263341 -0.266901
13.2792 -79.04 559.771 0.912836 -0.309505 -0.266341
-4.69033 -63.6349 539.223 0.28901 -0.0299115 -0.956859
-3.7271 -61.1856 539.996 0.336906 0.0919786 -0.937035
13.9149 -76.0315 561.77 0.952589 -0.233434 -0.195146
-2.03412 -61.988 540.977 0.364696 0.0637481 -0.928942
0.388169 -61.5531 541.329 0.390052 0.0889846 -0.916483
13.6882 -70.789 557.655 0.945346 -0.112608 -0.306008
13.5029 -71.5238 559.542 0.956474 -0.126602 -0.262925
14.0578 -73.1586 560.985 0.961191 -0.171091 -0.216423
-0.87981 -59.157 541.834 0.391675 0.185102 -0.901292
13.7027 -65.8626 556.465 0.948516 0.00882269 -0.316606
13.721 -67.4974 557.937 0.958824 -0.016371 -0.283528
14.1977 -69.1507 559.469 0.967009 -0.0596866 -0.247653
14.9988 -70.3752 561.789 0.978666 -0.0765728 -0.190657
0.52473 -56.7387 542.501 0.423777 0.244049 -0.872269
2.42415 -57.6813 542.582 0.476756 0.229947 -0.848427
4.5595 -57.2034 544.013 0.536705 0.225444 -0.813095
9.36696 -59.1283 549.245 0.834751 0.178049 -0.521046
12.3355 -62.4153 553.817 0.93149 0.0928732 -0.351712
12.3357 -63.5863 555.816 0.94241 0.0722093 -0.326571
13.7641 -65.1666 557.75 0.952489 0.038607 -0.302116
1.68319 -54.0872 543.459 0.464081 0.31738 -0.826982
4.05571 -54.305 544.567 0.54616 0.299291 -0.78239
4.86008 -52.8912 546.119 0.589242 0.327722 -0.738507
8.62724 -55.7226 548.133 0.766213 0.244845 -0.594112
10.018 -56.381 552.266 0.878473 0.219499 -0.424388
9.86427 -58.3144 551.651 0.877741 0.177619 -0.444998
11.6068 -59.5173 553.776 0.921993 0.140343 -0.360879
13.1219 -61.4121 555.898 0.943832 0.112325 -0.310748
14.0455 -62.6134 558.494 0.952591 0.0827037 -0.292798
6.99213 -53.909 547.559 0.699397 0.288613 -0.653871
9.15903 -55.1847 550.119 0.812425 0.255782 -0.523966
7.83407 -51.18 548.531 0.709195 0.339407 -0.617936
9.91305 -52.5449 550.641 0.801889 0.302494 -0.51524
83.6228 -54.086 625.047 -0.121195 -0.866792 -0.483719
88.6197 -58.1243 630.814 -0.122319 -0.857751 -0.499301
91.3275 -59.8241 633.773 -0.116193 -0.856722 -0.50252
94.09 -60.6987 634.098 -0.0739869 -0.873601 -0.480986
97.3105 -63.4929 637.589 0.139698 -0.916305 -0.375326
96.6432 -65.1734 640.283 0.192316 -0.911119 -0.364524
99.5175 -65.7006 641.588 0.475923 -0.860858 -0.180058
68.5585 -40.5849 604.432 -0.144492 -0.876985 -0.458279
72.8948 -42.8802 608.046 -0.124674 -0.877068 -0.463905
73.5684 -44.043 610.542 -0.121777 -0.874856 -0.468826
76.2259 -44.8019 611.16 -0.114655 -0.876078 -0.468339
77.0873 -48.3862 616.693 -0.130935 -0.873037 -0.469747
81.1048 -48.8248 617.183 -0.121183 -0.869518 -0.478805
82.5347 -51.1686 620.331 -0.117247 -0.870746 -0.477551
83.6964 -51.9705 621.748 -0.121812 -0.866337 -0.484378
85.4389 -53.1733 623.873 -0.11591 -0.868152 -0.482573
88.0149 -54.6992 625.485 -0.116699 -0.86582 -0.486555
89.3949 -56.2461 627.36 -0.119288 -0.860602 -0.495111
91.8612 -57.9481 630.609 -0.126356 -0.856343 -0.50071
101.99 -62.2656 641.858 0.673763 -0.736372 0.0616431
100.58 -65.0653 644.253 0.725327 -0.685468 0.0635189
51.4647 -24.7084 583.426 -0.194219 -0.834615 -0.515458
55.5896 -28.1091 587.718 -0.183526 -0.827815 -0.530132
55.7381 -30.0837 589.504 -0.175559 -0.826136 -0.535424
59.1219 -31.8965 591.677 -0.176351 -0.831888 -0.526178
62.8906 -34.3854 593.884 -0.179142 -0.839209 -0.513456
64.3432 -35.9823 595.847 -0.170812 -0.853285 -0.492675
67.7122 -38.3078 599.956 -0.157392 -0.870438 -0.466439
69.5709 -39.5908 602.223 -0.147634 -0.877647 -0.456005
71.3135 -40.7936 604.348 -0.141513 -0.877715 -0.457811
73.0561 -41.9965 606.474 -0.128586 -0.87688 -0.463193
-16.6366 26.3724 497.896 0.440499 -0.282366 -0.852191
-15.3758 25.6864 497.926 0.421969 -0.304634 -0.853897
-14.8725 24.1359 500.376 0.361558 -0.411634 -0.83656
-12.6397 22.9287 503.902 0.297782 -0.55349 -0.777801
-5.68338 18.2099 512.225 0.1303 -0.76522 -0.630445
-2.24051 15.8376 516.642 0.0543585 -0.818138 -0.572447
2.06653 12.9067 522.127 -0.0177702 -0.88367 -0.467773
5.46869 10.5584 526.276 -0.0538844 -0.891656 -0.449496
41.1986 -14.1992 569.842 -0.181192 -0.861017 -0.475204
43.9124 -16.5039 572.453 -0.182451 -0.856932 -0.482058
46.5531 -18.2636 575.291 -0.18771 -0.851247 -0.490045
49.9411 -19.8218 576.395 -0.194343 -0.849007 -0.491343
51.4534 -22.5826 580.122 -0.194791 -0.843764 -0.500118
54.6132 -24.8691 582.664 -0.201845 -0.840303 -0.503139
103.367 -59.4371 642.8 0.807692 -0.543924 0.227553
-18.7133 27.7393 496.742 0.4561 -0.192875 -0.868776
-15.6053 29.0271 499.334 0.515211 0.00645096 -0.857039
-12.1644 25.4447 500.629 0.464823 -0.134806 -0.875081
-9.61879 22.7547 503.403 0.406729 -0.374474 -0.833271
-7.83396 21.3666 505.389 0.412455 -0.458597 -0.787127
-6.1166 20.1164 507.649 0.3414 -0.533349 -0.773941
-2.77682 17.8811 512.176 0.165502 -0.635323 -0.754303
1.77348 14.9151 517.152 0.124334 -0.777148 -0.616913
4.30709 13.0634 520.379 0.0629313 -0.833275 -0.549266
9.43479 9.56081 526.896 -0.064103 -0.884438 -0.462233
11.2213 8.31716 529.139 -0.0794292 -0.895456 -0.438006
16.2904 4.78668 535.512 -0.107284 -0.891663 -0.439804
21.8622 1.06676 541.543 -0.118806 -0.895215 -0.429507
23.3874 -0.580347 543.595 -0.114763 -0.906097 -0.407208
25.1299 -1.78317 545.72 -0.110289 -0.91382 -0.390857
27.051 -3.00813 549.157 -0.112906 -0.91855 -0.378838
32.3897 -5.60565 554.19 -0.131647 -0.916947 -0.376666
35.0762 -7.46 557.467 -0.150421 -0.905474 -0.396851
37.3089 -9.95571 562.567 -0.168757 -0.886254 -0.431363
40.7678 -12.4853 566.13 -0.17487 -0.870143 -0.46073
44.4434 -15.1144 569.275 -0.181389 -0.860805 -0.475513
47.7833 -17.4199 573.348 -0.187053 -0.855125 -0.483501
105.015 -55.2677 643.338 0.830675 -0.428869 0.355035
-13.0687 28.5459 501.04 0.48922 -0.0355441 -0.871436
-9.39772 27.7409 503.221 0.567805 0.105948 -0.816316
-7.74054 26.8792 504.668 0.563231 0.0514946 -0.824693
105.38 -52.2416 643.811 0.835155 -0.416988 0.35866
-10.6833 29.5124 503.738 0.578601 0.145142 -0.802593
-8.52067 28.6792 505.655 0.561979 0.138638 -0.81545
-4.6084 28.001 507.911 0.584644 0.153101 -0.796713
-2.84853 27.6207 509.546 0.563161 0.166265 -0.809448
105.793 -49.6453 644.471 0.832048 -0.481724 0.275026
-5.97715 29.8418 508.487 0.553413 0.23912 -0.797845
-3.79757 29.1703 509.79 0.56848 0.258063 -0.781174
-1.56165 29.4639 510.476 0.564945 0.270263 -0.779612
0.151734 28.8935 511.885 0.556831 0.271007 -0.785172
2.17868 28.043 513.771 0.55225 0.256723 -0.793167
106.433 -47.7939 644.994 0.808681 -0.552259 0.202597
-2.90979 31.2557 511.055 0.565432 0.290973 -0.771765
-0.750827 30.6332 512.355 0.556247 0.294727 -0.776998
3.55371 30.3904 515.275 0.555682 0.273867 -0.784994
108.533 -45.173 643.344 0.72149 -0.680316 0.128929
1.12686 32.0833 514.341 0.54508 0.248378 -0.800747
6.44821 30.7173 517.373 0.567811 0.246453 -0.785399
109.986 -41.5038 644.935 0.560447 -0.825643 -0.0649075
111.818 -42.0692 648.9 0.360238 -0.900268 -0.244431
114.76 -44.0116 651.952 0.25044 -0.935933 -0.247606
3.20149 34.1027 515.989 0.549152 0.16705 -0.818857
5.54341 33.1374 517.82 0.561724 0.181136 -0.807252
10.3889 33.0686 520.644 0.564738 0.143674 -0.812668
116.469 -43.4352 650.211 0.196649 -0.944548 -0.262981
117.978 -44.5489 652.488 0.200186 -0.952599 -0.229086
119.249 -44.4175 654.747 0.239747 -0.960715 -0.139811
7.41385 35.243 519.327 0.552505 0.100982 -0.82737
10.5888 35.6379 520.594 0.561456 0.118796 -0.818935
12.2278 35.1429 522.146 0.58524 0.133693 -0.799762
121.462 -41.4422 657.44 0.266146 -0.959374 -0.0936371
9.43721 37.3062 520.717 0.563893 0.0986394 -0.819936
12.1469 38.4255 521.247 0.602996 0.136559 -0.785969
123.273 -40.9995 656.206 0.256902 -0.96045 -0.107414
10.4971 41.5046 520.72 0.619641 0.118128 -0.775945
13.77 39.4043 523.293 0.627419 0.176077 -0.758514
16.41 37.7283 524.893 0.636038 0.193086 -0.74711
18.7637 38.0275 527.065 0.641384 0.233095 -0.730954
16.1122 41.4476 526.434 0.663668 0.239014 -0.708814
17.4809 39.8404 527.555 0.649724 0.242528 -0.720444
21.2177 38.7018 530.199 0.660337 0.280744 -0.696518
22.8872 38.1438 532.043 0.665844 0.29436 -0.685568
19.5317 40.8271 529.82 0.661048 0.274952 -0.698153
22.8511 39.6995 532.953 0.673936 0.301358 -0.674532
25.7049 38.0659 534.394 0.662918 0.330451 -0.67182
27.6405 38.1316 536.785 0.681983 0.325715 -0.654835
29.4389 37.2414 538.865 0.679962 0.34569 -0.646646
25.2032 40.4113 535.309 0.681567 0.294841 -0.669728
27.3865 39.8377 537.429 0.681517 0.279333 -0.676393
29.1894 38.8904 539.532 0.693514 0.287133 -0.660752
32.1042 37.1306 541.557 0.696479 0.329784 -0.637306
33.751 36.3225 543.279 0.70053 0.330533 -0.632459
29.5911 40.8013 540.402 0.698202 0.230594 -0.677746
31.9767 39.4923 542.116 0.70826 0.255254 -0.658189
34.6229 40.75 544.981 0.709645 0.221424 -0.668861
34.1723 39.0169 544.458 0.707021 0.26287 -0.656522
36.3213 36.653 545.593 0.693947 0.327712 -0.641126
38.6629 36.2324 548.023 0.70077 0.307109 -0.643899
40.7042 36.2461 550.415 0.711107 0.295161 -0.638128
37.4191 39.1779 547.987 0.704767 0.242927 -0.66655
40.8789 38.8945 551.183 0.714735 0.223929 -0.662578
43.0188 37.0587 553.124 0.721032 0.260949 -0.641887
44.9016 34.4084 554.227 0.717461 0.323588 -0.61688
47.1773 34.4727 556.897 0.737464 0.286709 -0.611511
39.5533 41.1618 549.612 0.71728 0.173193 -0.674918
43.2787 40.6731 552.721 0.735872 0.177582 -0.65342
46.2932 37.7597 557.217 0.737729 0.216264 -0.63952
50.4716 35.5931 560.094 0.743745 0.267972 -0.612401
51.6629 33.3914 560.812 0.726043 0.300771 -0.618384
54.2178 33.3888 564.244 0.736663 0.305605 -0.603269
45.8468 40.2785 556.774 0.741605 0.191443 -0.64294
50.5885 37.4878 561.717 0.743139 0.220307 -0.63183
54.2401 35.5655 565.575 0.741904 0.25134 -0.621616
58.6207 32.0181 568.975 0.727158 0.335505 -0.598896
60.1186 33.2458 570.735 0.726342 0.290624 -0.622869
61.6799 30.043 571.877 0.727431 0.350522 -0.589897
55.776 37.0118 567.605 0.73987 0.235784 -0.630078
58.7783 35.2356 570.608 0.730746 0.256645 -0.632569
63.2794 32.533 573.98 0.741801 0.270878 -0.613479
65.1983 33.3055 575.779 0.741522 0.249917 -0.622644
66.8604 30.1411 578.096 0.735301 0.284896 -0.614953
70.893 29.0898 582.32 0.723974 0.305064 -0.618706
135.88 -15.2308 660.453 0.945411 -0.216054 0.243963
62.5785 35.9495 574.342 0.7367 0.248292 -0.628987
64.509 34.9555 576.008 0.74396 0.2394 -0.623868
67.1957 32.8633 579.361 0.741121 0.252041 -0.622266
69.9234 31.3201 582.578 0.74057 0.273147 -0.61396
71.4786 31.0956 584.201 0.733556 0.278928 -0.619754
75.6885 29.2508 586.881 0.716351 0.318626 -0.62074
136.08 -13.9645 662.417 0.927818 -0.240258 0.28536
72.4969 32.6649 585.313 0.735742 0.281015 -0.61621
74.4032 32.0161 587.688 0.724321 0.298846 -0.621329
76.7035 31.055 589.422 0.723054 0.314574 -0.61501
78.9463 31.614 592.346 0.729212 0.312334 -0.608849
80.3095 28.0565 591.621 0.717906 0.340408 -0.607234
83.7802 27.611 596.14 0.736544 0.349092 -0.579342
84.9419 26.8091 597.556 0.738917 0.354968 -0.572713
87.0038 25.6237 599.994 0.736538 0.373993 -0.563597
80.5993 30.5751 594.426 0.736883 0.325002 -0.592771
83.7768 28.819 597.355 0.742925 0.337382 -0.578131
87.3379 26.9833 601.337 0.745633 0.361394 -0.559844
89.0912 25.2178 601.723 0.74486 0.384333 -0.545409
91.55 24.6882 604.466 0.753587 0.38863 -0.530164
93.0876 23.6759 606.043 0.756131 0.409663 -0.510336
95.1042 23.3605 608.799 0.755749 0.441421 -0.483726
96.9554 22.3798 610.961 0.763136 0.467611 -0.446054
98.9195 21.4158 612.687 0.763209 0.47398 -0.439153
101.621 19.7878 615.875 0.743118 0.507197 -0.436494
104.238 18.1907 619.029 0.71729 0.544429 -0.434846
106.248 16.9098 621.067 0.696611 0.568234 -0.437999
138.997 -7.18879 663.86 0.979513 -0.091975 0.179149
88.7501 28.4518 603.598 0.76305 0.3508 -0.542857
92.0019 26.7042 606.5 0.773201 0.376856 -0.510039
95.892 24.5556 610.647 0.779428 0.43308 -0.452695
99.5112 22.4437 614.936 0.769508 0.485203 -0.415253
102.401 20.449 618.461 0.738557 0.525489 -0.422368
104.724 18.8453 621.294 0.698861 0.577166 -0.422459
105.838 19.8338 623.372 0.688255 0.602458 -0.404164
109.726 17.1604 624.961 0.666075 0.61389 -0.423655
140.337 -6.07883 663.39 0.98335 -0.0732932 0.166285
109.885 18.46 627.432 0.66354 0.640887 -0.385976
112.128 17.3011 629.172 0.662303 0.642036 -0.386193
113.961 17.0983 631.789 0.674467 0.651037 -0.348201
119.059 13.9574 635.712 0.682286 0.643916 -0.346204
123.106 11.2899 639.883 0.666814 0.655561 -0.354398
141.08 -3.74594 664.101 0.988675 -0.0265286 0.147706
124.188 11.5879 643.4 0.681075 0.589293 -0.434593
127.997 9.16585 645.081 0.683539 0.643593 -0.344328
127.301 10.2256 647.546 0.731013 0.534425 -0.424275
130.43 8.42297 649.195 0.706705 0.59998 -0.374956
138.423 4.28297 657.413 0.800662 0.541132 -0.257132
142.489 1.47638 662.372 0.965438 0.256325 -0.0471947
142.147 -0.196089 663.294 0.982661 0.180136 0.0439125
141.128 3.47876 661.092 0.918338 0.366367 -0.149769
15.2358 96.9108 508.196 -0.0345303 -0.869468 -0.49278
30.6704 85.7182 527.178 -0.0282321 -0.8579 -0.51304
34.4473 83.2752 531.168 -0.0361493 -0.853209 -0.520314
40.1918 78.7818 538.345 -0.040429 -0.836824 -0.545978
44.1523 76.7564 540.774 -0.0440124 -0.875824 -0.48062
45.1414 74.0526 544.001 -0.0106389 -0.871216 -0.490784
47.9411 73.2827 548.327 -0.00449785 -0.86152 -0.507703
51.3831 71.0329 551.76 -0.0226563 -0.852647 -0.521995
53.9958 68.377 553.291 -0.0526324 -0.843148 -0.5351
55.7384 67.1742 555.416 -0.0242302 -0.845689 -0.533126
57.4809 65.9713 557.541 -0.0277939 -0.856692 -0.51508
59.2235 64.7685 559.666 -0.00453918 -0.856518 -0.516097
60.9661 63.5657 561.792 0.00392631 -0.863997 -0.503482
62.7086 62.3629 563.917 0.0245806 -0.866817 -0.49802
64.4512 61.1601 566.042 0.0853782 -0.868119 -0.488958
66.3917 59.2343 569.561 0.145147 -0.843795 -0.516665
69.7124 56.8621 573.941 0.23044 -0.818724 -0.525917
73.1167 55.7341 578.475 0.249422 -0.813848 -0.524823
2.48307 108.786 491.072 -0.0904747 -0.568369 -0.817784
7.63366 105.476 496.55 0.0200983 -0.764058 -0.644835
8.49709 102.513 499.671 0.00216943 -0.808638 -0.588302
11.383 103.531 498.15 -0.0061308 -0.796275 -0.604903
14.6063 101.046 502.24 -0.0431112 -0.803433 -0.593833
13.9509 100.521 504.447 -0.0444087 -0.842211 -0.537315
16.31 97.9559 506.178 -0.0475636 -0.867374 -0.495378
16.9442 95.9562 510.22 -0.0330503 -0.871235 -0.489752
18.8512 96.2017 509.277 -0.0517082 -0.874311 -0.482604
20.5042 95.0488 512.504 -0.0439476 -0.874129 -0.483701
22.3364 93.7961 513.528 -0.0502149 -0.875351 -0.480873
23.5133 92.1089 516.921 -0.0405008 -0.868338 -0.494317
25.9936 91.3347 517.605 -0.0493164 -0.871272 -0.488316
27.5264 89.4812 521.228 -0.0484708 -0.863244 -0.502455
29.3335 89.0293 521.679 -0.049266 -0.865995 -0.497621
32.1068 87.1655 524.755 -0.0463197 -0.867023 -0.496111
34.7332 85.3651 527.882 -0.0475095 -0.865705 -0.498294
36.7339 84.0787 529.748 -0.0564466 -0.860176 -0.506864
41.9673 80.1016 536.068 -0.0676542 -0.839716 -0.538795
53.6972 71.1405 551.066 -0.0570392 -0.864114 -0.500053
72.6845 58.309 574.264 0.216786 -0.843691 -0.49111
74.2444 57.612 576.708 0.236205 -0.833183 -0.500013
76.5884 58.3246 577.673 0.238735 -0.835851 -0.494327
75.9573 57.7203 580.07 0.25403 -0.818686 -0.514997
79.2592 55.8914 582.503 0.278795 -0.81242 -0.5121
83.6506 52.5956 587.276 0.33684 -0.779453 -0.528197
85.4688 51.1549 591.67 0.363417 -0.735124 -0.572295
3.78258 111.898 490.638 -0.107407 -0.539806 -0.834909
4.75554 109.072 490.782 -0.0781995 -0.571465 -0.816892
7.1232 107.933 492.713 -0.0323137 -0.660305 -0.750302
8.35334 108.269 495.021 -0.0215604 -0.702455 -0.711402
9.84087 105.335 496.543 0.0135362 -0.781291 -0.62402
86.4273 52.4564 590.033 0.354632 -0.753298 -0.553876
88.5071 51.1208 593.1 0.370355 -0.743822 -0.556387
89.215 49.7162 596.37 0.391542 -0.723407 -0.568662
91.0693 51.0352 597.774 0.34423 -0.738899 -0.579252
92.9087 50.3088 600.325 0.335591 -0.773724 -0.537336
3.04771 115.503 489.611 -0.144493 -0.530645 -0.835187
91.8811 52.455 595.759 0.316877 -0.756606 -0.571959
94.065 52.5828 597.605 0.273855 -0.786673 -0.553308
97.2833 50.9482 601.099 0.198688 -0.846777 -0.493448
100.209 49.5531 604.237 0.204617 -0.850795 -0.484024
99.7669 48.4174 606.806 0.180398 -0.855443 -0.485462
102.081 47.6109 607.981 0.232732 -0.828009 -0.510134
104.608 45.8566 611.076 0.245987 -0.800848 -0.546016
104.849 44.9092 613.004 0.219078 -0.817943 -0.531953
106.447 43.8066 614.953 0.281941 -0.772564 -0.568906
108.298 42.8406 617.593 0.397871 -0.741891 -0.539719
113.315 40.6144 620.078 0.495034 -0.644421 -0.582807
115.109 38.602 623.891 0.466035 -0.661995 -0.587004
115.16 37.7925 625.579 0.431245 -0.656789 -0.618592
117.647 36.0506 628.765 0.464688 -0.677253 -0.570432
121.186 33.6327 632.929 0.676029 -0.486373 -0.553557
124.767 31.7353 637.653 0.748057 -0.29101 -0.596425
127.144 30.2441 641.265 0.830445 -0.19842 -0.520568
1.07632 119.997 485.947 -0.192098 -0.505437 -0.841209
2.90642 118.842 487.523 -0.159172 -0.54158 -0.825442
4.03118 117.129 487.749 -0.153977 -0.54217 -0.826041
5.37881 115.699 489.01 -0.148182 -0.54055 -0.828159
104.773 46.655 609.468 0.247598 -0.833651 -0.493681
109.153 43.6973 614.789 0.407024 -0.754962 -0.514163
120.904 37.008 628.983 0.752469 -0.369549 -0.545182
122.874 35.6893 632.022 0.865978 -0.160284 -0.473699
124.126 33.3555 634.42 0.83627 -0.221873 -0.501422
124.821 35.0741 637.293 0.905695 0.0177081 -0.423559
0.435032 124.114 483.358 -0.244943 -0.40773 -0.879636
2.11543 122.186 483.241 -0.238644 -0.4595 -0.855517
3.05848 120.795 484.975 -0.203031 -0.506321 -0.838103
117.671 44.2045 623.115 0.905981 0.0829383 -0.415115
118.962 42.7019 627.181 0.915531 0.220208 -0.336618
122.332 38.7012 632.917 0.92856 0.174523 -0.327594
123.461 36.9248 635.22 0.91643 0.0951695 -0.388715
1.41183 126.069 482.252 -0.248172 -0.447859 -0.858972
112.525 51.1956 616.091 0.941048 0.206396 -0.268009
113.952 49.5762 619.122 0.938255 0.262811 -0.224963
115.898 46.5327 620.886 0.894379 0.165501 -0.415567
115.099 47.2177 623.199 0.889051 0.31557 -0.331667
117.795 44.4018 627.159 0.912502 0.209511 -0.351348
-2.19196 132.447 475.876 -0.186536 -0.698982 -0.690383
2.205 130.961 481.97 -0.253002 -0.534332 -0.806523
3.25931 128.216 481.952 -0.239593 -0.466337 -0.851543
108.497 57.4533 610.056 0.913091 0.392355 -0.111004
110.551 54.0271 613.137 0.940432 0.275951 -0.19859
111.81 53.18 617.272 0.939126 0.319972 -0.125142
0.0134735 134.022 476.842 -0.174844 -0.690594 -0.70179
-1.71536 133.906 479.37 -0.185459 -0.681111 -0.708303
2.27762 132.603 481.005 -0.240579 -0.575876 -0.781338
102.726 65.6597 601.292 0.841294 0.536984 -0.062225
103.72 64.6474 603.575 0.842239 0.536617 -0.051719
105.595 62.6442 605.609 0.869117 0.490487 -0.0637076
106.931 59.6332 610.809 0.858791 0.510281 -0.0457256
98.5218 72.0053 595.415 0.825753 0.561633 -0.0519633
100.038 69.5358 597.362 0.830286 0.554262 -0.0584721
101.128 67.793 599.011 0.832471 0.55044 -0.0633047
104.231 64.1865 607.13 0.84402 0.533895 -0.0508572
92.498 79.3762 586.669 0.833643 0.551838 -0.0226655
94.3004 77.7016 590.455 0.824299 0.565954 -0.0150559
96.5539 74.4082 595.212 0.817585 0.574306 -0.0415739
98.6525 71.5818 599.303 0.817825 0.573448 -0.0481592
89.3046 84.9261 581.936 0.918899 0.39404 0.0188984
90.8878 81.8852 587.151 0.850047 0.526693 0.00386243
91.9958 80.9943 589.267 0.832265 0.554263 -0.0113151
86.9255 89.6269 579.254 0.996947 0.0405883 0.0667081
87.47 87.5221 579.028 0.969721 0.242429 0.0294905
88.836 85.6668 585.092 0.91053 0.411904 0.0356395
86.6851 90.7974 581.211 0.990657 0.0546838 0.124933
88.3119 94.0168 578.092 0.960695 -0.225787 0.161509
90.6541 99.022 578.489 0.900345 -0.329073 0.284762
88.6995 96.4708 580.261 0.937016 -0.247031 0.246935
90.2211 99.5808 580.773 0.904144 -0.29366 0.310303
91.7162 102.025 578.578 0.901594 -0.303361 0.308383
92.1385 105.047 579.472 0.906539 -0.27416 0.320972
92.8258 109.669 580.113 0.910063 -0.253827 0.327653
-0.549936 -92.8607 557.734 0.23974 -0.764575 -0.598289
-3.04713 -88.0585 553.308 0.0252093 -0.713567 -0.700133
-0.78184 -91.514 555.941 0.195785 -0.737093 -0.64681
2.8917 -92.2947 560.016 0.422673 -0.749634 -0.50931
4.4276 -92.4616 562.615 0.568944 -0.733416 -0.372027
-8.90153 -80.3146 545.552 -0.0380074 -0.694748 -0.718248
-6.84039 -82.0111 546.995 -0.0255431 -0.710074 -0.703663
-6.20687 -84.452 549.682 -0.0434573 -0.706064 -0.706813
-1.58766 -86.756 551.901 0.10621 -0.68592 -0.719885
1.49655 -89.7228 555.381 0.307695 -0.696123 -0.648642
3.96205 -91.1811 558.861 0.461518 -0.71646 -0.523151
6.09067 -90.8893 561.096 0.646914 -0.67061 -0.363021
6.22888 -91.0323 562.935 0.650877 -0.679433 -0.338718
7.32743 -90.9396 565.086 0.728141 -0.646152 -0.228688
-10.9725 -75.3588 541.091 -0.0164448 -0.567567 -0.823163
-9.72711 -78.3616 543.664 -0.0215941 -0.664045 -0.747381
-6.76507 -79.7879 544.663 0.0422163 -0.663394 -0.747078
-4.03319 -82.1581 547.358 0.0833365 -0.682552 -0.72607
8.36738 -89.879 563.246 0.733146 -0.620097 -0.279243
-11.1935 -71.046 539.479 0.0488554 -0.380652 -0.923427
-8.75741 -75.0778 540.493 0.0627203 -0.529409 -0.846045
-6.91979 -76.6974 542.304 0.0913519 -0.567939 -0.817985
9.23684 -88.1018 563.539 0.793173 -0.563703 -0.230466
9.95571 -87.159 565.671 0.841076 -0.524933 -0.130521
