ply
format ascii 1.0
element vertex 871
property float x
property float y
property float z
property float nx
property float ny
property float nz
end_header
21.7923 -50.1986 627.532 -0.00369568 -0.82924 -0.558881
21.0878 -48.6036 624.991 -0.0180066 -0.819049 -0.573441
19.8339 -46.9662 623.153 -0.0343408 -0.813887 -0.580008
18.8806 -44.65 620.936 -0.0489053 -0.814673 -0.577855
17.3957 -43.6802 618.415 -0.058213 -0.819916 -0.569516
15.4655 -42.1317 616.578 -0.0531995 -0.830988 -0.553741
14.4082 -40.3516 614.381 -0.0585171 -0.843551 -0.533851
13.6371 -38.7951 612.194 -0.079341 -0.875576 -0.476519
12.1246 -37.3797 610.01 -0.11207 -0.92933 -0.351833
10.6788 -35.9258 607.471 -0.138381 -0.951789 -0.273767
9.13401 -34.6116 605.037 -0.14074 -0.977717 -0.155762
8.25377 -33.9876 602.785 -0.156802 -0.980748 -0.116393
54.3124 -88.9062 684.311 -0.497731 -0.585733 -0.639672
52.166 -86.5772 681.794 -0.370558 -0.663082 -0.650392
51.3517 -84.8513 679.07 -0.343326 -0.689215 -0.638052
50.1441 -83.4106 677.063 -0.256257 -0.772689 -0.580762
47.1192 -80.5797 672.694 -0.059053 -0.850095 -0.523308
45.7225 -79.0596 670.789 -0.050538 -0.849096 -0.525815
44.0943 -77.7488 668.325 -0.0528696 -0.840184 -0.539719
42.7769 -76.1771 666.135 -0.0566502 -0.830002 -0.554876
42.4885 -74.7016 663.6 -0.0547313 -0.821878 -0.567028
41.6278 -72.7789 661.045 -0.0445976 -0.828276 -0.558543
40.8307 -70.7905 658.842 -0.035077 -0.836609 -0.546677
38.176 -69.6664 657.136 -0.0296167 -0.841042 -0.540158
36.8954 -68.6889 654.497 -0.0363799 -0.83592 -0.547644
35.318 -67.3255 652.315 -0.0399312 -0.841806 -0.538302
34.0006 -65.7538 650.125 -0.0332967 -0.837595 -0.545276
33.2034 -63.7654 647.922 -0.0197295 -0.82105 -0.570516
31.3658 -62.6104 645.746 -0.0203756 -0.822805 -0.567958
30.0485 -61.0387 643.556 -0.0162074 -0.822238 -0.568913
28.7311 -59.467 641.367 -0.0143457 -0.82127 -0.57036
27.4137 -57.8953 639.177 -0.0194581 -0.818103 -0.574743
26.0963 -56.3236 636.988 -0.0187143 -0.825204 -0.564525
24.7789 -54.7518 634.798 -0.0108787 -0.83689 -0.547263
16.8747 -45.3216 621.661 -0.047725 -0.807769 -0.587564
15.5573 -43.7499 619.471 -0.0524615 -0.814425 -0.577892
14.2399 -42.1782 617.282 -0.0553047 -0.825227 -0.562087
12.9225 -40.6065 615.092 -0.0628814 -0.839479 -0.539742
11.3856 -38.7728 612.537 -0.0710514 -0.856018 -0.51204
10.2878 -37.4631 610.713 -0.112747 -0.91307 -0.391907
9.18995 -36.1533 608.888 -0.122287 -0.932582 -0.339612
-93.9844 90.7309 515.42 -0.534007 -0.839843 0.0974675
-95.1098 92.4863 513.932 -0.564618 -0.722981 0.398127
-93.7916 90.7725 519.901 -0.78245 -0.58056 -0.225215
-96.7251 94.8382 514.4 -0.455525 -0.778695 0.431429
-95.2687 91.4036 523.526 -0.687729 -0.575942 -0.44195
-94.695 93.117 520.986 -0.646719 -0.72308 -0.242714
-95.8574 95.199 519.343 -0.610406 -0.782073 -0.125564
-97.9049 96.2031 516.413 -0.363525 -0.899447 0.242578
-99.4342 96.3259 515.18 -0.314007 -0.877101 0.363448
-96.4414 93.0563 523.192 -0.63632 -0.636169 -0.436332
-97.9618 95.4655 520.527 -0.441496 -0.866203 -0.23404
-98.9482 96.6306 518.531 -0.355517 -0.934659 -0.00454458
-7.05588 -11.8711 536.758 -0.713575 0.53995 -0.44639
-6.89775 -11.1872 539.209 -0.718874 0.498553 -0.484423
-7.96524 -10.5498 542.364 -0.729494 0.489338 -0.477898
-8.86215 -9.33785 545.144 -0.743757 0.448113 -0.496004
-24.7749 11.2502 518.802 -0.219356 -0.969386 -0.110339
-9.75907 -8.12592 547.924 -0.730444 0.336389 -0.594385
-27.4288 13.622 517.991 -0.194352 -0.98068 -0.0222165
-29.605 14.5455 516.766 -0.210103 -0.977548 -0.0159866
-10.4885 -6.31214 551.035 -0.726995 0.0634499 -0.683705
-28.8425 15.6795 519.927 -0.177909 -0.978486 -0.104469
-30.5012 16.3675 517.871 -0.18971 -0.981632 -0.020202
-31.8525 16.795 516.079 -0.206143 -0.977866 -0.0358203
57.7249 -86.7511 668.734 -0.531681 -0.595585 -0.602158
57.2982 -86.3366 665.177 -0.52183 -0.59827 -0.608084
16.21 -40.3808 600.945 -0.0883871 -0.982933 -0.161338
-11.444 -6.37438 553.392 -0.736931 0.00120027 -0.675967
-22.8058 8.54862 535.545 -0.0750911 -0.899317 -0.430802
-23.681 9.56907 533.378 -0.0757862 -0.900117 -0.429006
-25.6486 10.6199 531.206 -0.110696 -0.911267 -0.396659
-27.096 12.0874 529.02 -0.131581 -0.916348 -0.378145
-28.2135 13.7439 526.575 -0.171529 -0.931701 -0.320172
-28.5051 15.2773 523.937 -0.181338 -0.950029 -0.25409
-30.5484 15.9988 521.848 -0.145584 -0.973047 -0.178843
-31.6485 16.6699 519.977 -0.152158 -0.98454 -0.0867703
57.662 -88.1217 673.268 -0.743033 -0.328822 -0.582905
57.3775 -87.8453 670.897 -0.601814 -0.5515 -0.57764
15.6921 -36.9099 601.693 -0.107867 -0.979714 -0.168895
-13.3345 -3.85551 555.881 -0.638314 -0.409659 -0.651717
-14.3105 -0.666911 553.276 -0.390874 -0.651999 -0.649704
-16.2115 0.422304 550.749 -0.23367 -0.773304 -0.589406
-17.3728 1.66631 548.573 -0.147473 -0.848698 -0.507901
-18.9503 3.02963 546.39 -0.0890942 -0.881048 -0.464562
-19.5125 4.53961 543.428 -0.083892 -0.889667 -0.448838
-20.6195 6.01117 541.314 -0.0774575 -0.89372 -0.441888
-22.197 7.37453 539.131 -0.0757741 -0.89686 -0.435776
-24.0085 8.09759 536.972 -0.0727626 -0.898411 -0.433085
-25.2998 9.2374 534.799 -0.0768392 -0.898901 -0.431362
56.9711 -88.0954 676.991 -0.678377 -0.433738 -0.593023
57.6938 -86.4775 675.799 -0.706619 -0.383563 -0.594616
16.1901 -36.914 608.241 -0.0756372 -0.953589 -0.291455
14.0435 -35.131 605.332 -0.1318 -0.966366 -0.220828
12.6507 -34.7256 603.035 -0.152141 -0.973494 -0.170772
-14.999 -2.91018 556.191 -0.528948 -0.57122 -0.627631
-16.0563 -1.13013 553.994 -0.35466 -0.716426 -0.600791
-17.4142 -0.0287185 552.176 -0.199858 -0.818277 -0.538962
56.0743 -86.8622 679.042 -0.574616 -0.548511 -0.607415
55.1376 -84.836 677.317 -0.472246 -0.598954 -0.646713
53.7918 -82.8119 675.64 -0.347288 -0.724991 -0.594793
52.0582 -81.1208 673.444 -0.307663 -0.771958 -0.556259
50.9635 -79.8384 670.913 -0.205666 -0.789885 -0.577739
49.8673 -78.5424 668.735 -0.0668618 -0.839637 -0.539016
48.5514 -76.9843 666.192 -0.0524594 -0.830653 -0.554313
47.4941 -75.2043 663.996 -0.0524622 -0.823282 -0.565203
45.3039 -73.8642 662.165 -0.0501671 -0.818374 -0.572492
44.2466 -72.0841 659.969 -0.0473248 -0.826054 -0.561601
43.0592 -70.4082 657.776 -0.0359183 -0.836688 -0.546501
41.963 -69.1121 655.598 -0.0245143 -0.840127 -0.541835
40.127 -67.9708 653.069 -0.0287832 -0.838444 -0.544227
39.0697 -66.1907 650.872 -0.0292687 -0.83201 -0.553988
37.7913 -64.135 648.664 -0.0205695 -0.822306 -0.568674
36.6935 -62.8253 646.839 -0.0150523 -0.816651 -0.576935
35.3776 -61.2673 644.296 -0.00681672 -0.817657 -0.575666
34.0603 -59.6955 642.107 -0.00825959 -0.82073 -0.571256
32.5463 -58.2664 640.276 0.00291306 -0.822047 -0.569412
31.4255 -56.5521 637.728 -0.0106797 -0.823401 -0.56736
29.4953 -55.0037 635.89 -0.0137446 -0.828642 -0.559609
28.9889 -53.2798 632.637 -0.00590212 -0.836898 -0.547327
27.696 -52.1263 630.817 0.00669684 -0.835154 -0.549975
26.0902 -50.517 628.554 6.42388e-05 -0.838514 -0.544881
25.0613 -48.9829 626.438 -0.010126 -0.834509 -0.5509
23.9666 -47.7005 623.907 -0.0297738 -0.828856 -0.558669
22.2272 -45.9176 621.849 -0.0450463 -0.822875 -0.566434
20.9791 -44.372 619.873 -0.0610246 -0.822285 -0.565794
20.2745 -42.777 617.331 -0.0728849 -0.831112 -0.551308
18.4744 -41.1244 615.49 -0.0705627 -0.84201 -0.534827
17.157 -39.5527 613.301 -0.0787339 -0.858383 -0.506931
15.6403 -38.059 610.901 -0.0963207 -0.926693 -0.363266
14.1668 -36.6124 608.716 -0.0971373 -0.949356 -0.29881
13.1675 -35.3352 606.397 -0.106081 -0.962925 -0.248037
11.5494 -34.4422 604.586 -0.150106 -0.959979 -0.236449
-93.1101 93.2125 514.62 -0.612524 -0.754203 0.236628
-92.8004 93.8139 517.606 -0.599195 -0.7979 -0.065741
-94.1596 95.3372 515.064 -0.454034 -0.85896 0.236729
-93.9287 94.7733 518.802 -0.609328 -0.782924 -0.125497
-95.3306 96.0509 516.624 -0.474725 -0.874157 0.102404
-3.92855 -9.42549 535.262 -0.731158 0.464259 -0.499871
-4.16677 -8.99941 539.137 -0.718181 0.447435 -0.532933
-5.6244 -8.67452 542.302 -0.714271 0.445215 -0.54
-6.96666 -6.88398 545.765 -0.755664 0.301843 -0.58126
-20.9604 8.9624 521.03 -0.230269 -0.962915 -0.140612
-22.9216 12.1512 519.247 -0.253764 -0.961037 -0.1096
-8.64386 -6.29713 548.566 -0.746597 0.160518 -0.645621
-24.6608 14.4406 518.797 -0.240421 -0.968484 -0.0650879
58.865 -85.1411 663.723 -0.543891 -0.56801 -0.617695
-7.93717 -4.48383 549.442 -0.695932 0.000629594 -0.718107
-20.0562 10.5723 531.233 -0.124141 -0.943973 -0.305785
-21.7377 11.3996 529.07 -0.128601 -0.944368 -0.302706
-22.4285 12.7518 526.963 -0.189674 -0.94599 -0.262918
-24.309 14.6087 525.043 -0.193458 -0.94739 -0.255003
-25.3992 15.5439 522.26 -0.221392 -0.962734 -0.155334
-26.8741 16.1601 520.301 -0.208043 -0.9702 -0.124217
59.2732 -85.2586 667.503 -0.528357 -0.587897 -0.612549
19.3638 -38.4381 601.355 -0.063396 -0.982004 -0.177901
-10.1598 -2.99785 552.394 -0.632937 -0.310651 -0.709145
-10.1945 -1.05138 551.894 -0.481875 -0.534465 -0.694366
-14.7793 4.01769 544.247 -0.102251 -0.87821 -0.467217
-16.5908 4.74076 542.088 -0.0798255 -0.886481 -0.455828
-17.7781 6.41666 539.895 -0.0675079 -0.892815 -0.445337
-19.0955 7.98837 537.706 -0.0650048 -0.895894 -0.439487
-20.2461 9.07014 535.064 -0.0619159 -0.901503 -0.428322
-21.5825 9.84713 532.315 -0.082964 -0.911745 -0.40229
-23.1599 11.2105 530.133 -0.139862 -0.931163 -0.336709
-24.4773 12.7822 527.943 -0.167591 -0.937661 -0.304475
-25.5751 14.092 526.119 -0.181527 -0.94184 -0.282816
59.5124 -86.0306 673.313 -0.666642 -0.498325 -0.554311
58.9381 -86.5952 670.856 -0.612083 -0.536718 -0.580765
18.7034 -35.7165 603.889 -0.0706454 -0.977597 -0.198278
-11.9867 -1.31787 552.781 -0.455964 -0.558113 -0.693258
-13.423 0.999389 550.102 -0.267536 -0.731774 -0.626842
-14.494 2.56946 547.489 -0.197038 -0.827703 -0.525438
-16.5917 3.51608 545.32 -0.0873241 -0.881709 -0.463643
-17.4699 4.56388 543.86 -0.0774812 -0.887656 -0.453943
58.7285 -84.7729 675.03 -0.584204 -0.572686 -0.575097
58.2719 -82.4519 674.231 -0.540558 -0.624251 -0.56401
55.6371 -79.3085 669.852 -0.350972 -0.703612 -0.617858
53.1003 -77.838 666.953 -0.191459 -0.787813 -0.585401
52.043 -76.0579 664.756 -0.0580296 -0.826927 -0.559307
51.2459 -74.0695 662.553 -0.0510151 -0.819469 -0.570849
49.9285 -72.4978 660.363 -0.0548071 -0.822764 -0.565735
47.0742 -69.0924 655.619 -0.051931 -0.834345 -0.548791
45.9763 -67.7827 653.795 -0.0406268 -0.834015 -0.550243
44.659 -66.211 651.605 -0.0319893 -0.82871 -0.558763
43.3416 -64.6393 649.416 -0.0228923 -0.816458 -0.57695
42.0242 -63.0675 647.226 -0.0233117 -0.811102 -0.584439
39.1699 -59.6622 642.482 -0.0115293 -0.821185 -0.570546
38.0721 -58.3524 640.657 -0.0172466 -0.823736 -0.566711
36.7547 -56.7807 638.468 -0.0152158 -0.826285 -0.563046
35.4373 -55.209 636.278 -0.0197877 -0.830308 -0.556954
34.1199 -53.6373 634.089 -0.022204 -0.832165 -0.554083
32.5425 -52.2739 631.906 -0.0225772 -0.836724 -0.547159
30.965 -50.9106 629.723 -0.0133934 -0.840557 -0.541557
29.3875 -49.5473 627.541 -0.0166985 -0.840194 -0.542029
28.4787 -47.9601 625.116 -0.0195592 -0.839247 -0.543398
27.0187 -46.7401 623.034 -0.0295031 -0.840494 -0.541018
25.3516 -45.1331 620.806 -0.0492592 -0.838174 -0.543175
24.3146 -43.1178 618.424 -0.0690506 -0.836566 -0.543497
23.4134 -41.6655 616.241 -0.0808936 -0.843592 -0.530856
21.966 -40.198 614.055 -0.0854091 -0.863364 -0.497301
20.4122 -38.5469 611.79 -0.0944915 -0.890824 -0.444415
18.8809 -37.4906 609.438 -0.0961874 -0.939129 -0.329825
17.5951 -36.4282 606.863 -0.0854002 -0.971039 -0.223136
16.6261 -34.8275 604.876 -0.0918459 -0.975557 -0.199634
15.4459 -34.5647 602.839 -0.122051 -0.977683 -0.170998
56.9247 -83.9094 676.05 -0.487293 -0.653835 -0.578831
55.9943 -81.9977 674.557 -0.405273 -0.697063 -0.591487
55.0434 -80.4012 672.439 -0.319962 -0.73014 -0.603755
53.9724 -78.8311 669.826 -0.228083 -0.76056 -0.607887
51.8747 -77.8845 667.657 -0.151396 -0.780391 -0.606687
50.5573 -76.3128 665.467 -0.053652 -0.830589 -0.554295
49.24 -74.7411 663.278 -0.0519953 -0.820107 -0.569843
48.3127 -72.8568 661.078 -0.0511417 -0.82201 -0.567172
47.3855 -70.9726 658.878 -0.0453255 -0.829527 -0.556624
46.0681 -69.4008 656.688 -0.0484751 -0.834383 -0.549049
43.9704 -68.4542 654.519 -0.0383925 -0.837178 -0.545581
42.6531 -66.8825 652.33 -0.0287213 -0.835031 -0.549453
41.3357 -65.3108 650.14 -0.0270408 -0.82524 -0.564135
40.0183 -63.7391 647.951 -0.0279001 -0.815975 -0.577413
38.7009 -62.1674 645.761 -0.0207761 -0.811958 -0.583346
37.3835 -60.5957 643.572 -0.017159 -0.818629 -0.574067
36.0662 -59.024 641.382 -0.0149757 -0.821096 -0.570594
34.7488 -57.4523 639.192 -0.0144945 -0.826963 -0.56207
33.2118 -55.6186 636.638 -0.0205758 -0.827823 -0.560612
32.114 -54.3089 634.813 -0.0170553 -0.829688 -0.557967
31.2358 -53.2611 633.354 -0.0162299 -0.833095 -0.552891
-2.37421 -8.12061 536.634 -0.743605 0.395659 -0.538986
-2.0455 -6.8622 538.709 -0.726052 0.332668 -0.601814
-3.89327 -6.84985 541.885 -0.715976 0.347468 -0.605512
-13.4814 6.9234 523.973 -0.216993 -0.968305 -0.123696
-16.244 8.71058 522.122 -0.246724 -0.966435 -0.0716326
-4.0068 -5.04018 543.938 -0.745733 0.205284 -0.63383
-17.5208 10.9886 522.079 -0.217642 -0.968766 -0.118848
-19.4635 12.4105 520.549 -0.246452 -0.962379 -0.114403
-21.2147 13.2267 519.449 -0.257797 -0.960677 -0.103152
-5.7766 -4.05984 547.076 -0.729653 0.0191684 -0.683549
-17.6989 11.6448 526.885 -0.155301 -0.969298 -0.190638
-19.0449 12.6836 524.433 -0.206841 -0.96465 -0.1633
-20.6202 13.8223 522.259 -0.238543 -0.96294 -0.125871
-22.0359 14.6028 520.382 -0.253023 -0.959833 -0.12124
60.9151 -82.9348 662.703 -0.554068 -0.515886 -0.653353
24.0537 -38.187 600.541 -0.0343395 -0.9686 -0.246241
-6.64355 -1.05262 548.843 -0.605538 -0.339166 -0.719923
-8.27414 1.18365 546.862 -0.417147 -0.610286 -0.673453
-9.59152 2.75536 544.673 -0.294281 -0.750427 -0.591826
-11.169 4.11872 542.49 -0.181122 -0.833712 -0.521651
-12.9162 5.14703 539.895 -0.0986865 -0.878083 -0.468222
-14.1013 6.55609 537.783 -0.0737466 -0.892233 -0.445513
-15.8088 7.81526 535.604 -0.06244 -0.902123 -0.426937
-16.6424 9.29689 532.83 -0.10654 -0.945519 -0.307641
-17.4967 10.548 530.36 -0.140796 -0.955673 -0.258583
-18.8733 11.4005 528.375 -0.169655 -0.958312 -0.229903
-22.1178 14.4933 523.641 -0.229593 -0.957777 -0.173062
61.1642 -82.6972 667.177 -0.638766 -0.459394 -0.6172
23.5786 -37.2111 604.039 -0.0517113 -0.962268 -0.267146
21.2756 -36.263 602.223 -0.0437058 -0.982254 -0.182391
-8.9165 -0.47334 549.896 -0.521184 -0.49259 -0.696938
-9.98252 1.21813 547.915 -0.371544 -0.683148 -0.6287
-11.6526 2.97495 546.07 -0.219644 -0.805809 -0.549935
-12.6952 3.39356 543.573 -0.158345 -0.849256 -0.503677
61.1183 -82.9131 670.988 -0.587463 -0.541654 -0.601247
60.7719 -81.3447 669.068 -0.56527 -0.538936 -0.624514
59.0944 -78.9071 667.375 -0.395606 -0.659409 -0.639278
30.777 -45.1701 618.885 -0.0434414 -0.851085 -0.523228
28.8009 -42.8126 615.601 -0.0587123 -0.857628 -0.510908
27.7031 -41.5028 613.776 -0.0673283 -0.870013 -0.48841
26.6053 -40.1931 611.952 -0.0783273 -0.892572 -0.44405
23.865 -37.572 607.946 -0.0726327 -0.940861 -0.330917
21.0279 -36.3302 605.338 -0.056001 -0.962994 -0.26364
19.7721 -35.129 603.942 -0.0770772 -0.982456 -0.169824
59.7154 -81.4658 672.548 -0.605023 -0.54386 -0.581518
58.6467 -79.8344 670.795 -0.489569 -0.603844 -0.629043
57.4266 -78.4024 668.055 -0.350747 -0.704242 -0.617268
56.1525 -76.8776 666.08 -0.243968 -0.742234 -0.624154
54.5691 -74.9696 664.018 -0.129596 -0.797341 -0.589451
53.3421 -73.5246 661.409 -0.0578062 -0.822238 -0.5662
52.2871 -72.0113 659.294 -0.0579914 -0.830931 -0.553345
50.5187 -70.3258 657.628 -0.0580433 -0.833244 -0.54985
49.3739 -68.7793 655.146 -0.0644714 -0.832579 -0.550142
48.2049 -67.4004 652.728 -0.0542341 -0.828023 -0.558065
46.8875 -65.8287 650.539 -0.0344277 -0.819274 -0.572367
45.9603 -63.9444 648.339 -0.0358191 -0.81775 -0.574458
44.6414 -62.3591 646.502 -0.0358149 -0.815469 -0.577692
42.4901 -60.535 644.653 -0.0242651 -0.816543 -0.576775
41.3954 -59.2526 642.122 -0.0291021 -0.824397 -0.565263
40.6908 -57.6576 639.58 -0.0297139 -0.831059 -0.55539
38.7606 -56.1091 637.743 -0.027738 -0.830043 -0.557009
37.8457 -54.4141 635.126 -0.0304724 -0.834376 -0.550353
36.0884 -53.4634 633.029 -0.0259238 -0.837034 -0.546537
34.641 -51.9959 630.843 -0.0261003 -0.838127 -0.544851
33.3236 -50.4242 628.653 -0.0245012 -0.841441 -0.539793
32.0062 -48.8525 626.464 -0.0245789 -0.842242 -0.538539
30.8992 -47.3809 624.35 -0.0241953 -0.842235 -0.538567
29.6779 -45.6974 621.909 -0.0325563 -0.844513 -0.534545
28.1766 -44.1327 619.825 -0.0403263 -0.843415 -0.535747
26.9578 -42.8413 617.717 -0.0525882 -0.844931 -0.532284
25.2519 -41.5958 615.185 -0.072528 -0.847859 -0.525238
24.1946 -39.8157 612.988 -0.085338 -0.870548 -0.484628
23.0057 -38.1261 611.148 -0.0860678 -0.90873 -0.408415
21.5193 -37.1426 608.981 -0.0787321 -0.937132 -0.339979
-0.466283 -5.77615 534.429 -0.839648 0.301049 -0.452062
-0.314369 -5.03753 538.293 -0.739076 0.265095 -0.619267
-1.60453 -4.11078 541.789 -0.723894 0.240936 -0.646474
-10.7015 8.27476 524.64 -0.221894 -0.968771 -0.110659
-12.6348 9.85058 523.509 -0.209393 -0.971838 -0.108102
-2.72101 -2.6369 544.204 -0.727681 0.0724842 -0.682075
-13.9899 11.4575 524.401 -0.214539 -0.971797 -0.0978978
-16.0164 11.6692 523.424 -0.195697 -0.97245 -0.126666
63.9127 -80.4604 657.195 -0.557009 -0.515788 -0.650926
-4.031 -1.33297 546.271 -0.683259 -0.137283 -0.717154
-4.15814 0.799181 545.48 -0.590856 -0.354637 -0.724653
-9.42765 7.08601 536.722 -0.137393 -0.913308 -0.383396
-11.1842 9.18162 533.802 -0.14205 -0.945566 -0.292791
-13.0217 10.3366 531.627 -0.131199 -0.959605 -0.248888
-14.1669 11.3373 528.752 -0.158265 -0.967417 -0.197625
-15.2225 11.9718 526.246 -0.167395 -0.969402 -0.179552
-16.6844 12.5372 524.449 -0.194556 -0.969211 -0.150923
63.4415 -81.3006 662.356 -0.589179 -0.482685 -0.647984
27.0012 -36.2338 601.539 -0.0103865 -0.957717 -0.287523
-5.72699 -0.378049 547.406 -0.58442 -0.352093 -0.731084
-6.36393 1.51131 545.948 -0.458199 -0.55755 -0.692237
-7.10287 3.34597 543.599 -0.348982 -0.70578 -0.616511
-8.63703 4.66241 541.631 -0.224701 -0.806254 -0.547233
-10.0006 5.64784 539.322 -0.137243 -0.863161 -0.48592
-11.8727 6.93835 536.717 -0.100342 -0.904574 -0.414339
-13.1901 8.51006 534.527 -0.106409 -0.93296 -0.343894
-14.0683 9.55786 533.067 -0.112119 -0.943259 -0.312557
62.7034 -81.0561 666.058 -0.635901 -0.447356 -0.62889
62.8265 -79.6589 664.589 -0.540224 -0.552817 -0.634469
31.3738 -41.3087 613.077 -0.0732826 -0.872272 -0.483499
29.6173 -39.2131 610.158 -0.0741258 -0.900914 -0.427621
28.4483 -37.8342 607.741 -0.0506468 -0.926447 -0.373002
26.1445 -37.4276 605.651 -0.0407136 -0.943104 -0.329995
25.9199 -36.4367 602.958 -0.0280416 -0.960596 -0.27653
62.5157 -81.4802 670.32 -0.594574 -0.508454 -0.622861
61.4179 -80.1704 668.495 -0.545703 -0.53918 -0.641477
60.2357 -78.1282 666.288 -0.443112 -0.62977 -0.637998
60.0836 -75.9852 664.081 -0.325306 -0.711233 -0.623157
59.0263 -74.2051 661.885 -0.312343 -0.737466 -0.59882
57.1887 -73.0502 659.709 -0.241488 -0.797199 -0.553315
55.6113 -71.6868 657.526 -0.0791082 -0.830844 -0.550855
54.0743 -69.8531 654.972 -0.0666009 -0.835817 -0.544953
52.9765 -68.5434 653.147 -0.0681734 -0.828181 -0.556299
51.6591 -66.9717 650.958 -0.0663711 -0.818009 -0.571364
50.3417 -65.4 648.768 -0.0539194 -0.815514 -0.576221
49.0244 -63.8283 646.579 -0.0551482 -0.820295 -0.569276
47.441 -61.9203 644.516 -0.0503036 -0.824281 -0.563942
46.297 -60.2913 642.538 -0.0485053 -0.826639 -0.560638
44.9819 -58.9865 640.429 -0.051521 -0.831742 -0.552766
44.0149 -57.3331 637.813 -0.055022 -0.837345 -0.543899
42.0847 -55.7846 635.976 -0.0513701 -0.83977 -0.540507
41.1201 -54.398 633.441 -0.0553588 -0.84069 -0.538679
40.1107 -52.8284 630.722 -0.0523425 -0.844219 -0.533437
33.5708 -45.4197 620.04 -0.04857 -0.854852 -0.516594
32.3438 -43.9747 617.431 -0.0597619 -0.859289 -0.507986
30.8298 -42.5456 615.6 -0.0669438 -0.857708 -0.50976
29.4489 -41.0396 613.059 -0.0661161 -0.881292 -0.467925
27.5853 -39.4527 610.866 -0.0613936 -0.910411 -0.409124
26.6984 -38.261 609.401 -0.0682642 -0.919217 -0.387789
57.6729 -75.6078 665.118 -0.24623 -0.737968 -0.628311
56.7946 -74.56 663.658 -0.19658 -0.766854 -0.610975
55.6968 -73.2503 661.833 -0.0915162 -0.818187 -0.567622
51.9642 -68.7971 655.629 -0.0645997 -0.833754 -0.548343
2.31368 -4.42479 535.096 -0.849385 0.144131 -0.507712
2.64239 -3.16638 537.172 -0.836609 0.1329 -0.531434
-5.22223 5.50948 526.894 -0.217943 -0.967936 -0.124902
0.965195 -2.57954 539.972 -0.731447 0.0669946 -0.6786
-7.15514 7.74039 526.233 -0.205832 -0.971198 -0.120035
-9.38855 9.53751 525.305 -0.201569 -0.973259 -0.11017
-0.819304 -0.237735 543.412 -0.668016 -0.173076 -0.72374
-9.04423 11.1547 529.136 -0.187297 -0.966264 -0.176786
-10.8801 11.1642 526.65 -0.197043 -0.968288 -0.153599
-11.9128 11.3942 524.868 -0.217181 -0.970885 -0.101065
65.2474 -78.8936 658.202 -0.532036 -0.576521 -0.620131
65.0372 -78.7137 655.717 -0.478659 -0.567908 -0.669601
-2.43104 1.01355 544.595 -0.651422 -0.320114 -0.687878
-4.26377 4.0183 542.1 -0.406973 -0.650993 -0.640767
-5.40426 5.36951 539.919 -0.254448 -0.779033 -0.57303
-6.74779 6.70202 537.574 -0.176951 -0.892504 -0.414878
-7.37813 8.20052 534.918 -0.14742 -0.932427 -0.329921
-8.56544 9.87643 532.725 -0.169674 -0.950826 -0.259113
-10.6631 10.823 530.557 -0.177182 -0.960493 -0.214617
-11.7088 11.269 528.766 -0.199636 -0.962647 -0.182908
65.4439 -78.8507 660.855 -0.554999 -0.542215 -0.630856
30.9042 -36.6172 604.225 -0.0189733 -0.92837 -0.371173
28.8886 -37.0005 601.224 -0.00664661 -0.952007 -0.306004
63.7025 -76.4933 662.772 -0.468678 -0.652486 -0.595486
62.2578 -73.4871 660.456 -0.345023 -0.708176 -0.615992
60.9404 -71.9154 658.266 -0.257357 -0.753136 -0.605437
58.8428 -70.9688 656.098 -0.185945 -0.803107 -0.566078
57.5254 -69.397 653.908 -0.0702007 -0.830844 -0.55206
56.208 -67.8253 651.718 -0.0662393 -0.817315 -0.572371
55.6709 -65.6285 649.508 -0.0652276 -0.816094 -0.574226
54.3535 -64.0568 647.319 -0.0649371 -0.820043 -0.568605
53.2557 -62.7471 645.494 -0.0716803 -0.824075 -0.561927
50.4014 -59.3417 640.75 -0.0767347 -0.840055 -0.537047
49.084 -57.77 638.56 -0.0774896 -0.842017 -0.533857
47.7667 -56.1983 636.371 -0.073782 -0.843478 -0.532073
46.8884 -55.1505 634.911 -0.0697496 -0.842822 -0.533654
45.1319 -53.0549 631.991 -0.0680856 -0.842652 -0.534136
43.2943 -51.8999 629.816 -0.0653968 -0.842485 -0.534735
41.7169 -50.5366 627.633 -0.0608411 -0.842796 -0.534784
40.3995 -48.9648 625.444 -0.0518353 -0.845554 -0.531367
39.3017 -47.6551 623.619 -0.0497294 -0.846525 -0.530021
37.7647 -45.8214 621.064 -0.0435478 -0.85402 -0.518414
36.644 -44.1071 618.516 -0.0480238 -0.86258 -0.503636
35.3511 -42.9536 616.697 -0.0541182 -0.863565 -0.501325
34.3694 -41.5956 613.809 -0.0513941 -0.875382 -0.480692
33.5534 -40.09 611.271 -0.0495046 -0.892159 -0.449001
32.236 -38.5183 609.081 -0.0473844 -0.906428 -0.419695
30.8169 -37.2967 606.975 -0.0408899 -0.920824 -0.387828
28.873 -36.8637 604.756 -0.03779 -0.936682 -0.348135
61.5693 -75.7304 663.37 -0.398907 -0.668266 -0.627928
60.7721 -73.7419 661.167 -0.311504 -0.719327 -0.620914
58.9345 -72.5869 658.991 -0.270493 -0.764109 -0.585638
57.6172 -71.0152 656.802 -0.124486 -0.82258 -0.554856
56.2998 -69.4435 654.612 -0.0795828 -0.836611 -0.541986
54.9824 -67.8718 652.422 -0.076502 -0.826275 -0.558047
53.665 -66.3001 650.233 -0.0710906 -0.8153 -0.574658
52.6077 -64.5201 648.036 -0.0681494 -0.817934 -0.571261
51.8105 -62.5316 645.833 -0.0751393 -0.822193 -0.564227
50.2736 -60.6979 643.279 -0.070217 -0.832329 -0.549817
48.9157 -59.5965 641.461 -0.0659028 -0.832984 -0.549359
47.3382 -58.2332 639.278 -0.0671317 -0.838753 -0.540357
45.7607 -56.8699 637.095 -0.0632245 -0.84391 -0.532746
44.9636 -54.8814 634.892 -0.0685115 -0.844129 -0.531744
43.126 -53.7264 632.716 -0.0625146 -0.843712 -0.533144
42.2477 -52.6786 631.257 -0.0627 -0.84236 -0.535255
3.77315 -1.47436 534.281 -0.670553 -0.368071 -0.644114
3.79545 -0.227575 536.532 -0.747659 -0.233503 -0.621677
-1.80467 5.29851 528.569 -0.364888 -0.905895 -0.214967
-3.09352 6.34906 527.815 -0.295982 -0.947212 -0.123226
68.1863 -76.4595 649.275 -0.611448 -0.484811 -0.625372
2.01096 0.400996 540.569 -0.738492 -0.0984535 -0.667036
-2.73259 8.15072 531.403 -0.267434 -0.937535 -0.222504
-3.55846 8.74296 528.899 -0.247612 -0.959728 -0.132706
-6.13025 9.69584 527.294 -0.198359 -0.97328 -0.115671
68.226 -77.2139 652.135 -0.52696 -0.558285 -0.640805
0.862214 1.3316 541.471 -0.668878 -0.200346 -0.715866
-0.330177 3.63449 539.903 -0.550175 -0.52321 -0.650814
-1.90198 5.4626 537.879 -0.393218 -0.748605 -0.533826
-3.07091 6.84144 535.462 -0.30617 -0.880494 -0.361927
-4.22141 7.92325 532.82 -0.209635 -0.940186 -0.268521
-5.66885 9.39077 530.634 -0.17645 -0.962527 -0.205932
-6.96018 10.5306 528.461 -0.193376 -0.970319 -0.145215
67.3734 -76.7974 656.715 -0.47376 -0.590498 -0.653348
34.115 -36.6115 600.642 -0.00139782 -0.93556 -0.353165
67.1671 -76.0323 659.957 -0.477736 -0.608272 -0.633856
37.7495 -40.7585 612.377 -0.0240686 -0.872996 -0.487133
36.7527 -39.5032 609.493 -0.0134195 -0.894735 -0.446395
35.1627 -37.8255 607.475 -0.00912939 -0.91028 -0.413892
33.9814 -36.8194 605.414 0.000914845 -0.926512 -0.376264
32.3028 -36.0168 602.616 -0.0320584 -0.931155 -0.363213
65.4152 -75.0028 661.236 -0.418168 -0.662326 -0.621659
64.3563 -73.209 659.393 -0.37285 -0.653274 -0.65895
63.1527 -71.2543 656.953 -0.310476 -0.718148 -0.62279
61.9644 -69.7895 654.792 -0.197328 -0.756458 -0.623564
60.5343 -68.3897 652.821 -0.0791233 -0.809495 -0.581771
58.6056 -66.8549 650.63 -0.0574419 -0.81511 -0.576451
57.8995 -65.2463 648.442 -0.0592026 -0.816311 -0.574571
56.0994 -63.5936 646.601 -0.0598765 -0.819252 -0.570299
54.6259 -61.6942 644.398 -0.0667568 -0.83104 -0.552192
53.3745 -60.2551 642.416 -0.0773003 -0.836427 -0.542599
52.63 -58.9595 639.683 -0.0707353 -0.838305 -0.540594
51.601 -57.4254 637.567 -0.0711969 -0.836054 -0.544008
50.1985 -55.7992 635.422 -0.0642526 -0.838134 -0.541666
48.4552 -53.955 633.456 -0.0580309 -0.83868 -0.541524
47.7506 -52.3601 630.915 -0.0546449 -0.837265 -0.544059
46.0431 -51.1009 628.735 -0.0477853 -0.839403 -0.541405
44.4656 -49.7376 626.553 -0.0513464 -0.841712 -0.53748
43.4083 -47.9575 624.356 -0.0543585 -0.84169 -0.537219
39.4822 -43.6743 617.804 -0.0384867 -0.860554 -0.507904
37.5291 -41.7213 615.243 -0.034537 -0.866006 -0.498839
36.703 -41.5373 613.817 -0.0360639 -0.865385 -0.499809
5.67486 0.924802 533.489 -0.455641 -0.494962 -0.739867
5.57999 2.57034 531.301 -0.302888 -0.652729 -0.694409
3.81727 4.72066 529.795 -0.379781 -0.801422 -0.462048
5.39076 2.15997 535.916 -0.501317 -0.576861 -0.644913
0.847257 6.50086 529.572 -0.371292 -0.862761 -0.343198
69.701 -74.4003 647.786 -0.66075 -0.465169 -0.589091
69.6613 -73.6459 644.927 -0.646561 -0.496577 -0.579111
3.70248 2.94567 538.267 -0.638941 -0.404579 -0.654271
2.20249 6.41227 536.091 -0.438246 -0.740444 -0.509591
0.366461 7.55356 533.562 -0.368521 -0.831654 -0.415383
-0.76301 7.96299 530.964 -0.317588 -0.911214 -0.26235
70.123 -74.7737 652.403 -0.577012 -0.50405 -0.642644
38.0131 -35.6514 599.442 0.00859831 -0.932018 -0.362309
1.0258 5.52931 537.536 -0.466701 -0.681052 -0.564233
-0.641156 7.25881 534.985 -0.33825 -0.851478 -0.400714
69.3612 -74.1178 655.558 -0.500145 -0.561341 -0.659357
41.9466 -40.2024 610.251 -0.0423114 -0.877829 -0.477101
40.6292 -38.6307 608.061 -0.010241 -0.901805 -0.432021
39.0518 -37.2673 605.878 0.00314633 -0.921331 -0.388766
37.5811 -36.3615 603.107 -0.00131658 -0.922889 -0.385064
36.7844 -35.6705 600.853 0.0112472 -0.940037 -0.340886
67.7945 -73.6688 658.364 -0.458358 -0.596099 -0.659222
66.6974 -71.2008 655.316 -0.37291 -0.64023 -0.671598
65.5659 -69.3243 653.233 -0.315933 -0.698835 -0.641729
64.2485 -67.7526 651.043 -0.236201 -0.745175 -0.623637
62.9312 -66.1809 648.854 -0.13194 -0.783429 -0.607315
61.6138 -64.6092 646.664 -0.0455657 -0.818416 -0.572817
60.8166 -62.6208 644.461 -0.0527699 -0.837109 -0.544484
59.7188 -61.311 642.636 -0.060433 -0.845989 -0.529764
57.4016 -60.1024 640.102 -0.0718677 -0.843907 -0.531654
55.9744 -58.3997 637.73 -0.0805735 -0.841134 -0.534791
54.9711 -56.9513 635.606 -0.0764157 -0.833112 -0.5478
53.5592 -55.5183 633.716 -0.0684556 -0.83331 -0.548551
52.1321 -53.8156 631.344 -0.0589218 -0.834232 -0.548257
50.8147 -52.2439 629.155 -0.0518028 -0.836491 -0.545526
49.8327 -50.7895 626.405 -0.0497951 -0.840637 -0.539306
47.9198 -49.3088 624.782 -0.0529902 -0.843087 -0.535161
46.8625 -47.5288 622.586 -0.0645805 -0.847406 -0.527003
45.7915 -45.9587 619.973 -0.0666123 -0.853963 -0.516053
41.9481 -41.6939 613.563 -0.0449459 -0.864293 -0.500976
39.9407 -40.8739 610.975 -0.0342775 -0.875415 -0.482156
39.0625 -39.8261 609.516 -0.0175712 -0.897871 -0.439908
37.5255 -37.9925 606.961 -0.0107374 -0.919845 -0.392134
61.4392 -66.381 650.978 -0.0479516 -0.812535 -0.580937
58.3654 -62.7137 645.869 -0.0460925 -0.824438 -0.564073
57.048 -61.142 643.679 -0.0592169 -0.834254 -0.548192
55.7306 -59.5703 641.49 -0.0652203 -0.838336 -0.541239
71.5879 -71.4656 638.482 -0.711421 -0.450595 -0.5393
7.12602 3.30066 532.266 -0.37919 -0.699872 -0.605305
5.64948 4.84508 530.152 -0.319433 -0.752762 -0.575597
70.402 -72.2664 642.046 -0.693299 -0.453214 -0.560298
6.16048 4.11005 535.254 -0.51133 -0.637891 -0.575879
6.54738 5.68378 532.954 -0.387266 -0.734351 -0.557453
4.2091 6.66402 530.783 -0.381483 -0.801667 -0.460217
71.8223 -72.2631 647.359 -0.714679 -0.433577 -0.548857
41.3551 -36.7156 596.668 0.00483065 -0.935582 -0.353076
4.65639 5.86551 535.593 -0.425489 -0.739002 -0.522336
3.03797 8.03691 532.919 -0.385984 -0.784275 -0.485725
71.869 -73.2142 652.586 -0.627016 -0.421285 -0.655262
41.4518 -35.0859 601.205 0.0074776 -0.929869 -0.367815
39.6452 -35.5712 598.975 0.00959769 -0.933826 -0.357598
70.4781 -71.6881 654.29 -0.551391 -0.513928 -0.65715
69.7568 -68.7134 652.52 -0.426176 -0.639104 -0.64025
66.6829 -65.0461 647.411 -0.267494 -0.741359 -0.615495
65.3655 -63.4744 645.221 -0.159365 -0.803079 -0.574166
63.7881 -62.1111 643.039 -0.066205 -0.845492 -0.529868
61.9505 -60.9561 640.863 -0.0579641 -0.850906 -0.52211
61.1533 -58.9677 638.66 -0.0667724 -0.848846 -0.524406
60.1389 -57.8896 636.208 -0.0741954 -0.839965 -0.537544
57.9983 -56.241 634.294 -0.0796277 -0.830173 -0.55179
57.2012 -54.2525 632.091 -0.0687581 -0.826817 -0.558253
56.1439 -52.4725 629.894 -0.0616955 -0.831989 -0.551351
54.2168 -50.9514 627.35 -0.0558727 -0.83542 -0.546764
52.9254 -49.8115 625.178 -0.0496399 -0.847698 -0.528151
51.9895 -48.4686 623.211 -0.0560595 -0.855193 -0.515269
50.6143 -46.394 621.143 -0.0625612 -0.858036 -0.509764
48.8925 -44.8743 618.246 -0.0741042 -0.855379 -0.512674
47.9421 -43.7483 616.429 -0.0715301 -0.858168 -0.508361
46.4947 -42.2807 614.243 -0.0638277 -0.864546 -0.498484
45.3073 -40.6049 612.05 -0.0568596 -0.867187 -0.494726
43.9525 -39.5308 609.526 -0.0480498 -0.871795 -0.487508
42.2466 -38.2853 606.993 -0.0106715 -0.912014 -0.41002
41.2356 -36.702 604.628 -0.00853571 -0.920745 -0.390071
40.2752 -35.9688 602.649 0.01147 -0.927783 -0.372945
67.3117 -68.8611 652.515 -0.376823 -0.640195 -0.669443
66.7746 -66.6643 650.305 -0.280994 -0.686612 -0.670527
65.4573 -65.0926 648.115 -0.212634 -0.747452 -0.629367
64.1399 -63.5209 645.926 -0.0685933 -0.828643 -0.55556
62.5624 -62.1575 643.743 -0.063073 -0.844646 -0.531596
60.7249 -61.0026 641.567 -0.0646368 -0.84968 -0.523322
59.627 -59.6928 639.743 -0.0687236 -0.847192 -0.526823
58.3097 -58.1211 637.553 -0.0792806 -0.839265 -0.537911
55.2358 -54.4538 632.444 -0.0725969 -0.832226 -0.549664
54.138 -53.144 630.619 -0.06154 -0.83318 -0.549567
52.8206 -51.5723 628.43 -0.0597616 -0.836155 -0.545228
50.1858 -48.4289 624.051 -0.0575191 -0.849136 -0.525032
48.6489 -46.5952 621.496 -0.0728889 -0.852165 -0.518171
47.9902 -45.8094 620.401 -0.0748888 -0.854086 -0.514712
73.1547 -70.2701 637.027 -0.725084 -0.34904 -0.593653
73.5783 -70.6572 641.29 -0.802893 -0.305298 -0.512011
73.8583 -70.4131 647.12 -0.751427 -0.323794 -0.574904
72.7825 -71.1455 644.844 -0.728881 -0.377249 -0.571329
45.3513 -35.2357 598.751 -0.0158846 -0.935476 -0.353033
43.6897 -34.7857 598.019 -0.00641612 -0.936439 -0.350773
73.3123 -70.6455 650.912 -0.595791 -0.465459 -0.654508
73.6563 -68.8633 650.066 -0.667204 -0.449316 -0.5941
52.3618 -43.4814 613.962 -0.0896289 -0.86067 -0.501212
50.8249 -41.6477 611.407 -0.0832969 -0.866509 -0.492162
50.1662 -40.8619 610.312 -0.0769109 -0.865038 -0.495777
48.4097 -38.7663 607.393 -0.0582397 -0.876927 -0.477082
46.6838 -37.2101 605.438 -0.0141732 -0.908072 -0.418575
44.4671 -35.9839 603.199 -0.00572609 -0.920058 -0.39174
43.5098 -35.2781 600.514 -0.000384691 -0.929649 -0.368447
42.0187 -34.2535 599.406 0.00407747 -0.934987 -0.354659
72.1249 -69.5429 652.327 -0.509379 -0.553618 -0.658817
71.2268 -67.603 650.891 -0.481615 -0.578206 -0.658578
70.1316 -66.096 649.084 -0.415039 -0.664201 -0.621755
68.9489 -64.1662 646.679 -0.336938 -0.73694 -0.585997
67.9811 -62.7523 644.851 -0.222642 -0.782454 -0.581546
66.054 -61.2312 642.307 -0.0750919 -0.842487 -0.533458
64.9593 -59.9487 639.776 -0.0596085 -0.850823 -0.52206
63.5119 -58.4812 637.59 -0.0619153 -0.845989 -0.529594
63.3275 -56.4696 635.034 -0.057321 -0.828508 -0.557036
61.0072 -55.2336 633.207 -0.0686852 -0.817337 -0.572051
59.4671 -53.3726 631.359 -0.0493701 -0.820482 -0.569536
57.9302 -51.539 628.805 -0.0461001 -0.830049 -0.555782
56.6358 -50.3718 627.339 -0.0502506 -0.835779 -0.546761
56.0261 -48.9844 624.522 -0.0484913 -0.847814 -0.528072
54.2268 -47.545 621.911 -0.0514545 -0.858358 -0.510464
52.8428 -46.0117 620.077 -0.0590125 -0.859383 -0.507915
51.8116 -44.6636 617.897 -0.0716217 -0.855511 -0.512807
50.3007 -43.2618 615.359 -0.0708787 -0.857552 -0.50949
48.5932 -42.0026 613.18 -0.0656849 -0.862954 -0.500994
48.0561 -39.8059 610.97 -0.0580639 -0.8633 -0.50134
46.4786 -38.4425 608.787 -0.0483888 -0.87833 -0.475599
44.8606 -37.5495 606.976 -0.0118999 -0.90337 -0.428697
74.709 -68.9652 638.399 -0.767735 -0.295469 -0.568579
75.6902 -68.438 642.982 -0.76735 -0.306722 -0.563112
75.48 -68.2581 640.498 -0.798771 -0.295324 -0.524165
48.4185 -35.1469 596.284 -0.0402705 -0.940206 -0.338217
74.8913 -68.8989 647.243 -0.757584 -0.30656 -0.57627
75.1086 -67.9088 645.082 -0.756641 -0.387842 -0.526377
51.6412 -38.0482 605.964 -0.0900606 -0.890336 -0.446309
50.3238 -36.4765 603.774 -0.0781438 -0.902555 -0.423424
48.7464 -35.1132 601.592 -0.043124 -0.924028 -0.379885
47.531 -34.7573 598.742 -0.0316687 -0.933572 -0.356987
74.0006 -67.7417 648.609 -0.617837 -0.497782 -0.60868
73.7757 -66.2003 646.426 -0.648354 -0.511478 -0.563939
73.0998 -64.1963 644.434 -0.560481 -0.614866 -0.554798
71.8286 -62.0383 642.364 -0.396547 -0.665626 -0.632212
70.2511 -60.675 640.181 -0.282572 -0.778656 -0.560221
68.8221 -59.5045 637.771 -0.154398 -0.831869 -0.533062
67.1222 -58.3802 635.833 -0.0525935 -0.841192 -0.538172
65.7788 -56.3766 633.626 -0.0631925 -0.826296 -0.559679
64.4614 -54.8049 631.437 -0.0772704 -0.82028 -0.566719
62.9213 -52.9439 629.589 -0.0726382 -0.821085 -0.566165
61.604 -51.3722 627.399 -0.0629773 -0.835821 -0.545378
60.2629 -50.0881 625.291 -0.0579648 -0.849538 -0.524333
58.9723 -48.2561 622.313 -0.0615861 -0.861769 -0.503548
58.0972 -47.2357 620.147 -0.0700659 -0.870432 -0.487276
55.2023 -44.3006 615.775 -0.0919273 -0.865302 -0.49275
54.3677 -42.8098 613.237 -0.104802 -0.862253 -0.495516
53.0503 -41.2381 611.047 -0.104224 -0.865038 -0.490761
50.9006 -39.4277 608.845 -0.0905513 -0.868127 -0.488012
50.1092 -38.1063 606.844 -0.0812482 -0.889643 -0.44937
48.8381 -36.7314 604.485 -0.0472825 -0.912505 -0.406324
47.2201 -35.8383 602.675 -0.0276904 -0.922055 -0.386068
71.1338 -64.2269 646.691 -0.418746 -0.647739 -0.636463
69.3773 -62.1313 643.772 -0.236412 -0.760385 -0.604917
68.2795 -60.8215 641.947 -0.12298 -0.822407 -0.555449
76.9768 -65.6359 631.203 -0.532009 -0.453605 -0.714989
77.004 -66.2809 636.89 -0.659941 -0.395008 -0.639098
76.1841 -66.1516 634.05 -0.559498 -0.467538 -0.684375
77.3765 -65.8133 640.883 -0.737043 -0.354893 -0.575168
51.2261 -34.2411 596.615 -0.0530157 -0.940239 -0.336363
76.7763 -66.1499 644.314 -0.722707 -0.37022 -0.583637
76.2261 -64.1366 642.779 -0.612473 -0.513488 -0.601004
74.5399 -61.737 640.949 -0.46915 -0.614979 -0.633798
73.7427 -59.7486 638.745 -0.375472 -0.722537 -0.580484
72.1653 -58.3852 636.563 -0.313828 -0.781148 -0.53974
70.3277 -57.2303 634.387 -0.152816 -0.819753 -0.551953
69.0103 -55.6586 632.197 -0.0707259 -0.834192 -0.546919
68.2131 -53.6701 629.994 -0.0942837 -0.826702 -0.554684
66.5461 -51.9406 627.443 -0.0916673 -0.826494 -0.555432
65.6189 -50.0564 625.243 -0.0833215 -0.843178 -0.531139
64.5211 -48.7466 623.418 -0.0768272 -0.864423 -0.496861
62.9436 -47.3833 621.236 -0.0679339 -0.878689 -0.472536
61.7188 -46.2051 618.708 -0.0840163 -0.883852 -0.460159
59.5668 -45.0333 616.459 -0.0924948 -0.87818 -0.469303
58.3038 -43.6867 614.35 -0.100606 -0.876238 -0.47126
56.9864 -42.115 612.16 -0.115656 -0.869215 -0.480716
55.869 -40.4585 609.715 -0.123257 -0.868831 -0.479522
55.1536 -39.1807 607.54 -0.125974 -0.868355 -0.479677
53.757 -37.8379 605.116 -0.104316 -0.888946 -0.445975
52.5524 -36.0943 602.708 -0.0857839 -0.906188 -0.414082
51.235 -34.5226 600.518 -0.0588544 -0.928932 -0.365542
50.5794 -33.7641 598.717 -0.0498862 -0.932937 -0.356567
73.6233 -62.4116 642.386 -0.469105 -0.664895 -0.581253
71.9969 -60.2118 639.463 -0.36421 -0.734701 -0.572333
70.639 -59.1104 637.646 -0.205966 -0.810223 -0.54874
68.8825 -57.0148 634.726 -0.0618351 -0.839607 -0.539663
68.0042 -55.967 633.266 -0.0679796 -0.833897 -0.547717
66.4673 -54.1333 630.712 -0.0872771 -0.825428 -0.557719
65.1499 -52.5616 628.522 -0.089066 -0.822915 -0.56114
64.6128 -50.3648 626.312 -0.0806602 -0.841084 -0.534856
62.7752 -49.2099 624.136 -0.0677257 -0.85367 -0.516392
61.4173 -48.1084 622.318 -0.071861 -0.869478 -0.488716
78.5311 -64.331 632.575 -0.563644 -0.449445 -0.69304
78.0982 -63.8618 630.432 -0.442716 -0.570551 -0.691718
79.6863 -64.6574 637.263 -0.694485 -0.371099 -0.616422
58.1167 -36.7216 600.28 -0.114379 -0.910298 -0.397838
56.3602 -34.626 597.361 -0.0972317 -0.918168 -0.384075
54.9505 -34.2268 594.933 -0.0672882 -0.936341 -0.344584
79.275 -62.9759 638.718 -0.642606 -0.415792 -0.643564
73.9066 -55.4179 630.794 -0.195469 -0.7886 -0.583011
72.1501 -53.3223 627.875 -0.092983 -0.830242 -0.549593
70.8327 -51.7506 625.685 -0.0999496 -0.829896 -0.548893
69.7349 -50.4409 623.861 -0.0961563 -0.843897 -0.527818
68.1979 -48.6072 621.306 -0.0846275 -0.876319 -0.474239
66.8806 -47.0355 619.117 -0.086378 -0.889188 -0.449315
65.4516 -45.865 616.706 -0.0931723 -0.888703 -0.448916
64.4311 -44.679 614.061 -0.117197 -0.886361 -0.447917
63.2032 -43.4735 612.24 -0.118491 -0.882734 -0.454688
61.5362 -41.744 609.689 -0.122429 -0.875217 -0.467981
60.3612 -40.2573 607.079 -0.127309 -0.872728 -0.471316
58.9941 -38.9941 604.971 -0.13447 -0.875093 -0.464897
57.4166 -37.6307 602.789 -0.133543 -0.894671 -0.426299
55.7294 -36.1364 600.424 -0.110943 -0.912993 -0.3926
54.5218 -34.6957 598.417 -0.0957871 -0.918629 -0.383335
53.476 -34.2497 596.626 -0.0668299 -0.93404 -0.350861
77.3146 -62.0676 640.549 -0.61003 -0.508887 -0.607369
75.7486 -59.077 638.021 -0.41614 -0.67016 -0.614583
74.2117 -57.2434 635.466 -0.333262 -0.740043 -0.584186
72.3336 -56.5587 633.662 -0.17502 -0.809203 -0.560855
71.0162 -54.987 631.473 -0.083173 -0.83192 -0.548627
70.219 -52.9985 629.269 -0.0839582 -0.827294 -0.555459
69.1617 -51.2185 627.073 -0.0963064 -0.829533 -0.550092
66.9156 -50.079 625.132 -0.0845343 -0.842429 -0.532134
65.7467 -48.7002 622.714 -0.0786282 -0.868297 -0.489774
64.4293 -47.1285 620.525 -0.073944 -0.879807 -0.469545
63.3346 -45.8461 617.993 -0.0929647 -0.886835 -0.452639
62.4595 -44.8256 615.827 -0.103085 -0.884799 -0.454426
60.9225 -42.9919 613.273 -0.109851 -0.880718 -0.460726
59.6051 -41.4202 611.083 -0.120206 -0.872565 -0.473478
58.5073 -40.1105 609.258 -0.126149 -0.869004 -0.478453
81.238 -61.5256 626.11 -0.651614 -0.490414 -0.578699
81.0425 -61.8813 632.137 -0.556821 -0.483668 -0.67529
80.8323 -61.7014 629.653 -0.526484 -0.589916 -0.61222
58.6428 -33.8919 592.86 -0.088115 -0.917217 -0.38852
81.3776 -61.9114 635.796 -0.635559 -0.440147 -0.634299
81.4932 -60.6127 634.284 -0.555327 -0.549215 -0.62448
68.6304 -45.375 614.46 -0.100348 -0.896065 -0.432432
67.1424 -44.3777 612.646 -0.116727 -0.891553 -0.437616
65.825 -42.806 610.456 -0.126128 -0.882168 -0.453729
65.3308 -41.3112 607.99 -0.130908 -0.87298 -0.46986
63.2806 -39.7893 605.658 -0.124731 -0.874765 -0.468219
62.0956 -38.3802 603.546 -0.121156 -0.88514 -0.449275
60.5181 -37.0169 601.363 -0.130486 -0.89986 -0.416205
59.8146 -35.431 598.586 -0.118272 -0.908638 -0.400486
58.7838 -34.0874 596.289 -0.108025 -0.913666 -0.391848
57.1529 -34.1103 594.513 -0.0897075 -0.924922 -0.369421
79.7317 -59.7981 636.562 -0.512829 -0.592266 -0.621471
77.8854 -57.0766 634.06 -0.393903 -0.660666 -0.639031
77.125 -55.6823 631.408 -0.327471 -0.703443 -0.630818
76.0862 -54.1992 628.988 -0.255124 -0.760722 -0.596837
74.156 -52.6508 627.15 -0.123599 -0.830178 -0.543625
73.2548 -51.1984 624.967 -0.113369 -0.839315 -0.531694
71.5212 -49.5074 622.771 -0.104073 -0.856704 -0.505199
70.4234 -48.1976 620.946 -0.0991698 -0.879543 -0.465371
69.3767 -46.3453 618.11 -0.0936551 -0.893781 -0.438615
67.612 -45.4942 615.947 -0.0957628 -0.892837 -0.440082
65.9168 -44.4242 613.35 -0.110686 -0.888611 -0.445105
64.5994 -42.8525 611.161 -0.129225 -0.881803 -0.453568
63.0625 -41.0189 608.606 -0.129215 -0.877315 -0.462193
62.4038 -40.233 607.511 -0.12939 -0.873493 -0.469328
83.512 -58.251 617.501 -0.625481 -0.53734 -0.56572
82.5028 -58.5321 619.277 -0.600834 -0.581301 -0.548715
83.216 -59.5828 626.485 -0.679348 -0.437172 -0.589379
62.6667 -33.8875 591.699 -0.0810525 -0.908774 -0.40934
83.1549 -58.5514 629.44 -0.632773 -0.51861 -0.575015
73.1365 -45.4469 613.068 -0.0820652 -0.896998 -0.43435
71.0794 -44.03 610.527 -0.0935417 -0.893869 -0.438461
70.2822 -42.0415 608.324 -0.101491 -0.877735 -0.468274
69.0016 -41.0639 605.685 -0.106383 -0.870129 -0.481206
68.0928 -39.4767 603.261 -0.0993058 -0.876298 -0.471423
66.2205 -37.7458 601.063 -0.0920957 -0.890835 -0.444896
65.458 -36.3333 598.882 -0.0799668 -0.901927 -0.424421
63.9732 -35.3634 596.361 -0.0795866 -0.902027 -0.424281
62.4852 -34.3662 594.547 -0.0932495 -0.909662 -0.404746
60.8298 -33.9709 592.401 -0.0865633 -0.911329 -0.402475
81.9928 -59.0303 633.27 -0.4964 -0.595581 -0.631562
82.0707 -57.1227 631.705 -0.476073 -0.595339 -0.647244
80.6029 -55.1842 629.399 -0.404298 -0.700543 -0.588034
78.7049 -53.5044 627.911 -0.309316 -0.758413 -0.573702
77.6071 -52.1947 626.086 -0.274726 -0.7874 -0.55184
76.0701 -50.361 623.532 -0.148655 -0.83806 -0.524935
75.0128 -48.581 621.335 -0.120218 -0.868196 -0.481438
73.6954 -47.0093 619.146 -0.0985772 -0.887362 -0.450412
73.0524 -46.195 616.281 -0.0903721 -0.891898 -0.443115
70.7237 -45.0513 614.575 -0.0929132 -0.897388 -0.43135
69.1483 -43.7062 611.921 -0.101078 -0.893047 -0.438464
67.8309 -42.1345 609.732 -0.112404 -0.880415 -0.46069
66.7393 -40.8794 606.494 -0.120272 -0.871146 -0.476066
65.6415 -39.5697 604.669 -0.122416 -0.876068 -0.46639
64.3241 -37.998 602.48 -0.119925 -0.884147 -0.451556
63.0068 -36.4263 600.29 -0.104093 -0.901508 -0.420057
62.1285 -35.3784 598.83 -0.11589 -0.899413 -0.421457
80.5531 -57.2182 633.724 -0.454698 -0.620383 -0.639042
79.2358 -55.6465 631.534 -0.371584 -0.682539 -0.629338
76.4912 -52.3721 626.973 -0.194598 -0.811781 -0.550584
74.6249 -50.1455 623.871 -0.122094 -0.842032 -0.525429
73.5271 -48.8358 622.046 -0.106003 -0.866875 -0.487125
72.2097 -47.2641 619.857 -0.0960089 -0.884297 -0.456947
85.8528 -56.3757 617.439 -0.581315 -0.54812 -0.601363
85.8652 -56.4851 614.612 -0.527141 -0.586133 -0.615281
84.8343 -56.5747 621.334 -0.641451 -0.532291 -0.552456
85.8466 -56.321 618.852 -0.609686 -0.54069 -0.579601
84.8909 -56.5162 625.224 -0.703096 -0.471212 -0.532556
85.273 -55.9977 623.083 -0.684854 -0.506301 -0.524056
68.8238 -36.1645 598.006 -0.0614379 -0.896156 -0.439465
66.5934 -34.6823 594.931 -0.0626376 -0.908299 -0.413606
65.6295 -33.5489 592.831 -0.0599628 -0.9135 -0.402395
65.2869 -33.2063 590.268 -0.0576033 -0.915387 -0.398432
83.8844 -55.7237 627.312 -0.60584 -0.562666 -0.562463
83.2719 -53.2012 625.655 -0.497489 -0.67886 -0.54005
81.8447 -51.1682 623.588 -0.429198 -0.741215 -0.516129
80.2672 -49.8049 621.406 -0.343296 -0.777559 -0.526829
78.8198 -48.3373 619.22 -0.20788 -0.844655 -0.493299
77.3723 -46.8698 617.033 -0.11134 -0.884159 -0.453725
76.2776 -45.5874 614.502 -0.0824497 -0.890209 -0.44803
75.2756 -44.6985 611.633 -0.0744773 -0.894554 -0.440712
73.8281 -43.231 609.447 -0.0761057 -0.889055 -0.451431
72.9009 -41.3467 607.247 -0.0868321 -0.873067 -0.479806
71.4145 -40.3632 605.079 -0.0877989 -0.871926 -0.481701
69.8386 -39.0135 602.543 -0.0917961 -0.877029 -0.471586
69.0009 -37.4954 600.712 -0.0806855 -0.885115 -0.458324
66.6836 -36.2868 598.178 -0.0674104 -0.900692 -0.429196
82.9126 -55.5071 629.422 -0.473934 -0.652213 -0.591612
81.1561 -53.4115 626.503 -0.448438 -0.717966 -0.53238
80.359 -51.423 624.299 -0.372092 -0.768428 -0.52064
78.7409 -50.53 622.489 -0.322942 -0.787171 -0.525424
77.204 -48.6964 619.934 -0.145998 -0.858227 -0.492067
75.8866 -47.1247 617.744 -0.102751 -0.884716 -0.454664
86.9929 -54.7658 612.428 -0.445793 -0.606669 -0.658195
87.4819 -54.4885 615.073 -0.489468 -0.568162 -0.661523
87.0155 -54.2734 620.075 -0.663492 -0.451375 -0.596689
72.586 -35.7378 595.706 -0.0514215 -0.897711 -0.437573
70.5288 -34.3209 593.165 -0.0421139 -0.914389 -0.402641
68.9529 -32.9712 590.629 -0.0385918 -0.917009 -0.396995
68.351 -33.0902 588.508 -0.0360312 -0.922401 -0.384548
85.7699 -53.843 623.143 -0.635368 -0.515292 -0.575136
86.4081 -52.1495 621.052 -0.598156 -0.571515 -0.561765
85.0886 -50.5596 619.333 -0.485171 -0.649193 -0.585796
81.0267 -45.7135 612.582 -0.14713 -0.851464 -0.503351
78.1544 -43.7953 610.549 -0.0752518 -0.891803 -0.446121
77.145 -42.2257 607.83 -0.0784901 -0.883489 -0.46183
76.16 -41.0743 605.481 -0.0850831 -0.875004 -0.476581
73.3302 -38.0871 601.107 -0.0824119 -0.873381 -0.480014
72.1897 -36.7359 598.927 -0.0691151 -0.888106 -0.454413
70.7506 -35.8349 596.055 -0.0582045 -0.89621 -0.439796
69.2627 -34.8376 594.241 -0.04777 -0.909749 -0.4124
84.6119 -52.9964 624.379 -0.575045 -0.592474 -0.564179
83.9432 -50.8901 622.525 -0.489803 -0.676996 -0.549336
82.3657 -49.5268 620.343 -0.447926 -0.719728 -0.530428
81.0483 -47.9551 618.153 -0.303656 -0.806747 -0.506904
79.6212 -46.2524 615.781 -0.123135 -0.874018 -0.470033
78.2461 -45.4135 613.443 -0.098965 -0.883162 -0.45851
90.1187 -52.3064 611.285 -0.436038 -0.582381 -0.686078
88.7664 -52.6219 615.183 -0.563259 -0.51452 -0.646536
72.5824 -32.009 587.424 -0.023265 -0.925368 -0.378356
88.7956 -51.8116 618.602 -0.545551 -0.538177 -0.642448
87.881 -49.3176 617.174 -0.471412 -0.582004 -0.662603
83.7093 -44.3406 610.241 -0.16354 -0.83779 -0.520924
82.392 -42.7689 608.051 -0.0718721 -0.884763 -0.460466
81.2941 -41.4591 606.227 -0.0700428 -0.881829 -0.466338
79.1965 -40.5125 604.058 -0.0754697 -0.872395 -0.482939
78.6017 -39.0485 601.699 -0.0760807 -0.870121 -0.48693
75.467 -36.0867 597.147 -0.0548327 -0.887899 -0.456759
74.3723 -34.8043 594.616 -0.0472293 -0.897955 -0.437545
73.1678 -33.3909 591.903 -0.0394801 -0.911388 -0.409651
71.6244 -32.4878 589.985 -0.0315287 -0.92065 -0.389114
87.3041 -51.1597 620.31 -0.551653 -0.569052 -0.609802
86.2334 -49.1529 618.01 -0.457258 -0.617872 -0.639648
85.1154 -47.5031 616.031 -0.354958 -0.729506 -0.584659
83.7743 -46.2191 613.923 -0.284389 -0.785952 -0.549001
82.3131 -44.9615 611.32 -0.157107 -0.850245 -0.502395
80.6056 -43.7024 609.141 -0.0753423 -0.885621 -0.458256
79.5078 -42.3926 607.316 -0.0760413 -0.88547 -0.458433
92.3497 -50.3002 611.04 -0.402021 -0.620712 -0.673124
76.056 -31.8864 585.193 -0.0117535 -0.926437 -0.376265
91.2568 -49.971 614.283 -0.460825 -0.597865 -0.655894
86.2884 -42.8914 606.304 -0.175457 -0.852371 -0.492624
84.1907 -41.9448 604.135 -0.109946 -0.875037 -0.471404
82.8734 -40.3731 601.946 -0.0830511 -0.870922 -0.484353
81.556 -38.8013 599.756 -0.0826999 -0.870944 -0.484374
80.2386 -37.2296 597.566 -0.0766295 -0.875161 -0.477725
