ply
format ascii 1.0
element vertex 893
property float x
property float y
property float z
property float nx
property float ny
property float nz
end_header
1.38543 -81.9764 576.764 0.683076 -0.431733 0.589079
10.0911 -59.5291 542.736 0.908641 0.00329949 -0.417565
10.6937 -60.7069 544.543 0.917315 -0.00071704 -0.398162
5.07754 -75.2881 571.898 0.8141 -0.234315 0.531355
4.40924 -76.455 574.248 0.794807 -0.268221 0.544371
3.51483 -78.7122 575.618 0.759088 -0.315568 0.569388
1.76958 -79.6397 577.499 0.721421 -0.356322 0.593789
11.1072 -57.4572 544.678 0.923284 0.0756435 -0.376596
11.8684 -58.9941 546.467 0.933619 0.0552002 -0.353988
11.9124 -60.0653 549.421 0.942528 0.0686399 -0.327
6.90769 -72.2814 570.465 0.839752 -0.202677 0.503724
6.17136 -73.8573 571.762 0.825127 -0.221047 0.519907
4.51665 -74.304 575.223 0.802447 -0.245172 0.544031
12.0365 -56.5371 548.291 0.941633 0.113626 -0.316885
12.1201 -58.3038 550.823 0.951465 0.106899 -0.288596
13.1082 -59.1318 552.906 0.969963 0.0991651 -0.222123
9.74357 -67.6581 568.397 0.857434 -0.16143 0.488617
7.93766 -69.78 571.291 0.843028 -0.192901 0.502089
6.41496 -70.6989 573.989 0.824525 -0.218862 0.521783
12.8624 -56.3702 552.92 0.962076 0.157802 -0.222506
13.5714 -57.3952 554.737 0.97373 0.142099 -0.177925
12.0043 -63.7933 565.98 0.912235 -0.104041 0.396235
11.3048 -65.6168 567.027 0.888077 -0.121934 0.443229
9.8481 -66.3776 570.577 0.85694 -0.159639 0.49007
8.54048 -67.1152 572.75 0.848387 -0.172829 0.500369
14.0801 -55.8651 556.464 0.975596 0.18014 -0.125546
14.428 -56.8402 558.996 0.991743 0.128212 0.0028336
14.8387 -59.3431 560.563 0.992688 0.065145 0.101621
14.0694 -60.7844 563.776 0.963586 -0.0095711 0.267229
12.5229 -61.2377 566.619 0.924544 -0.0503448 0.377735
10.9468 -62.6944 568.679 0.88152 -0.0942464 0.462645
18.6041 -74.3686 665.393 -0.0330356 -0.827584 -0.560369
18.5887 -76.1631 667.888 -0.0330338 -0.842387 -0.53786
17.3469 -77.6438 670.289 -0.0362926 -0.853542 -0.519758
16.9673 -79.2642 672.946 -0.0369633 -0.852268 -0.521798
16.498 -80.6727 675.409 -0.0455697 -0.845823 -0.531514
16.0736 -82.1871 677.969 -0.0461054 -0.841748 -0.537899
15.3315 -83.8347 680.387 -0.0468651 -0.839054 -0.542025
15.8988 -85.3013 682.027 -0.0475958 -0.841817 -0.53766
13.7732 -86.8785 684.958 -0.067616 -0.858402 -0.508501
13.3757 -88.4994 688.143 -0.11161 -0.894237 -0.433456
12.3167 -89.6918 690.452 -0.146406 -0.924336 -0.352376
13.5283 -91.2118 693.074 -0.167673 -0.932003 -0.321334
12.0284 -91.6766 695.881 -0.211466 -0.936703 -0.279051
27.5109 -55.6508 635.8 -0.0266443 -0.823303 -0.566977
26.2068 -57.2894 638.488 -0.0295522 -0.832845 -0.552717
26.2997 -58.7965 640.611 -0.0282644 -0.834557 -0.550196
25.5565 -60.2537 643.299 -0.0351646 -0.843033 -0.536711
25.8408 -62.043 645.862 -0.0390127 -0.841255 -0.539229
24.4179 -63.069 648.242 -0.0408737 -0.843099 -0.536203
25.3502 -64.629 650.197 -0.045591 -0.842255 -0.537148
24.0847 -66.6165 653.711 -0.0382231 -0.834047 -0.550368
23.2301 -67.949 655.988 -0.0424881 -0.829269 -0.557232
22.0568 -69.7397 658.233 -0.038256 -0.821315 -0.569191
21.3818 -71.759 660.751 -0.0367483 -0.818345 -0.573551
21.0723 -73.2016 663.085 -0.0322759 -0.821745 -0.568941
20.5115 -74.6227 665.667 -0.0338337 -0.830674 -0.55573
13.1561 -91.8113 699.054 -0.227986 -0.933168 -0.277886
50.5208 0.707419 536.035 0.0498145 -0.752392 -0.656829
49.3645 -0.971295 538.18 0.0305551 -0.76527 -0.642984
48.8037 -2.39235 540.762 -0.0160066 -0.789815 -0.613137
48.5028 -3.45447 543.432 -0.0995164 -0.839184 -0.534664
48.1099 -4.92617 546.188 -0.127139 -0.864256 -0.486721
47.1214 -6.6555 548.508 -0.137729 -0.873667 -0.466622
46.4684 -7.92332 551.386 -0.153038 -0.886682 -0.436319
46.2718 -9.15782 553.918 -0.157648 -0.894311 -0.418755
47.1753 -10.5295 556.845 -0.165137 -0.90149 -0.400058
45.6225 -11.0456 559.477 -0.162376 -0.904149 -0.395158
44.792 -11.9815 562.5 -0.164449 -0.904378 -0.393772
44.2994 -13.4492 565.07 -0.161562 -0.901383 -0.401755
32.4862 -43.8072 619.231 -0.0208266 -0.775613 -0.630866
32.6446 -45.7057 621.474 -0.0149466 -0.787749 -0.615815
32.4928 -47.4068 623.99 -0.0143598 -0.803427 -0.595231
31.7384 -48.902 626.634 -0.0234273 -0.815599 -0.578143
29.9947 -50.4551 629.073 -0.0286729 -0.82314 -0.567114
29.5637 -51.9808 631.003 -0.0284473 -0.82036 -0.57114
29.161 -53.9236 633.623 -0.0253339 -0.818253 -0.5743
28.8729 -55.5314 636.161 -0.0256773 -0.822391 -0.568343
28.3121 -56.9525 638.743 -0.0275896 -0.831304 -0.555133
14.2926 -92.4787 703.29 -0.245483 -0.950408 -0.190955
46.3937 -13.2296 564.484 -0.170823 -0.901044 -0.398673
45.3733 -14.9376 567.97 -0.166877 -0.897857 -0.407437
44.5609 -16.0738 570.945 -0.166324 -0.894627 -0.414703
44.0096 -16.9875 573.324 -0.168312 -0.89496 -0.41318
44.803 -18.309 576.303 -0.176552 -0.891517 -0.417165
44.2189 -19.7892 578.993 -0.176606 -0.886548 -0.427601
43.6581 -21.2103 581.575 -0.17763 -0.881248 -0.438005
43.3268 -22.2246 583.849 -0.185141 -0.880283 -0.436834
42.0928 -23.2224 587.099 -0.20083 -0.894135 -0.400237
41.4298 -24.5734 589.697 -0.196044 -0.908311 -0.369509
41.4143 -26.368 592.192 -0.171644 -0.921683 -0.347905
36.8125 -34.1674 608.047 -0.0378669 -0.772334 -0.634086
37.0728 -36.2666 610.367 -0.0455976 -0.767511 -0.639412
37.1582 -37.8561 612.25 -0.0438056 -0.765075 -0.64245
35.0952 -39.7518 615.116 -0.0331978 -0.761536 -0.647272
34.7178 -41.4111 617.316 -0.0336999 -0.761806 -0.646927
34.0096 -42.8561 619.078 -0.0265605 -0.773409 -0.633351
54.6033 4.16052 537.495 0.0873168 -0.592967 -0.800479
41.146 -26.8246 595.658 -0.13878 -0.914011 -0.381214
41.6353 -27.0632 598.596 -0.106569 -0.897957 -0.426985
40.3422 -28.4187 601.288 -0.0778784 -0.859106 -0.505839
40.9451 -30.3056 602.82 -0.0738244 -0.83529 -0.544831
38.8641 -32.0536 605.705 -0.0411038 -0.785967 -0.616901
38.5937 -34.2147 608.175 -0.0514875 -0.769045 -0.637118
56.7274 7.36474 540.882 0.277426 -0.0230016 -0.960472
42.5545 -27.1522 600.141 -0.103209 -0.884238 -0.45549
23.4496 -85.3356 740.196 0.383658 -0.521119 0.762392
26.11 -84.2017 741.785 0.416801 -0.502595 0.757413
28.3802 -81.7732 743.034 0.431628 -0.480996 0.763112
29.4257 -78.9567 743.881 0.484066 -0.427683 0.763392
30.8541 -76.2768 743.885 0.561581 -0.331201 0.758244
34.0297 -72.0796 742.126 0.680252 -0.17408 0.712006
32.2959 -73.9318 744.133 0.625612 -0.253105 0.737934
35.8821 -68.782 740.678 0.706543 -0.127782 0.696038
38.1262 -64.1669 738.767 0.712465 -0.122106 0.691002
37.7286 -66.4882 739.534 0.711787 -0.113525 0.69316
41.0664 -60.3465 736.203 0.716772 -0.15337 0.680232
38.6606 -62.4281 738.485 0.708111 -0.163056 0.687017
42.845 -58.0011 734.859 0.718721 -0.173982 0.673179
45.3887 -52.1127 732.552 0.739097 -0.388772 0.550083
44.2855 -53.7257 734.475 0.731104 -0.373876 0.570705
47.3005 -50.0395 732.656 0.724212 -0.472424 0.502328
49.5033 -47.6019 732.849 0.655152 -0.653891 0.378421
47.9759 -47.9096 734.556 0.656137 -0.680618 0.32595
51.6703 -44.6513 733.085 0.590489 -0.768788 0.245534
49.4014 -45.8236 736.449 0.512085 -0.84791 0.137178
54.4045 -42.4833 732.403 0.47517 -0.871781 0.119209
53.2022 -43.3307 734.377 0.450925 -0.887979 0.0903276
51.6919 -44.4426 737.852 0.393923 -0.916418 -0.0707249
51.2345 -45.5927 740.5 0.306361 -0.938105 -0.161559
50.508 -46.955 743.184 0.204567 -0.97223 -0.113666
50.5542 -48.5526 745.8 0.14637 -0.982755 -0.112997
49.65 -49.5774 748.36 0.124601 -0.990709 -0.0544934
86.4437 41.2637 589.232 0.645444 -0.118519 -0.754556
50.8686 -48.8453 750.936 0.0584303 -0.994314 -0.0890225
88.7068 42.2685 591.439 0.723656 -0.145354 -0.674681
52.4753 -47.0901 752.832 0.0256502 -0.999553 -0.0153343
89.1129 44.3577 592.677 0.74005 -0.149427 -0.655742
90.0416 46.9432 593.668 0.746549 -0.243539 -0.619155
91.0808 45.2008 596.28 0.847766 -0.190768 -0.494875
91.8981 48.5668 595.47 0.781892 -0.283263 -0.555344
92.1758 46.6003 598.062 0.841434 -0.283348 -0.460111
92.6683 46.0161 600.172 0.843845 -0.354984 -0.402383
93.9782 52.2515 594.759 0.49001 -0.645776 -0.585545
94.0548 50.1794 596.955 0.572503 -0.581525 -0.577987
93.7894 48.556 599.489 0.705882 -0.500753 -0.500977
94.0797 46.7713 601.943 0.743396 -0.499103 -0.445262
98.2541 61.1963 583.451 0.676409 -0.498758 -0.541951
98.1044 59.5879 585.583 0.644456 -0.543976 -0.537369
97.7412 57.9063 587.968 0.553574 -0.631985 -0.542356
98.7109 56.5597 590.245 0.507688 -0.63708 -0.579985
96.6167 54.6091 592.832 0.476451 -0.674575 -0.563865
96.2034 52.6172 595.277 0.449044 -0.674658 -0.58583
95.779 51.1028 597.837 0.478319 -0.662618 -0.576323
95.2182 49.6817 600.419 0.539586 -0.658163 -0.525041
100.048 63.0817 584.337 0.842821 -0.214777 -0.493481
100.501 61.1246 586.618 0.800143 -0.313922 -0.511101
101.662 60.2322 587.873 0.802253 -0.327548 -0.499102
65.1994 -28.2168 750.297 0.574308 -0.0683677 0.815779
64.8006 -29.711 752.293 0.606346 0.0204981 0.794937
64.9394 -32.4759 755.449 0.622158 0.0504417 0.781265
63.3737 -33.8104 759.022 0.535084 -0.0149988 0.844666
101.087 64.3099 585.925 0.924933 0.0503296 -0.376784
101.604 63.6041 588.36 0.937244 0.108241 -0.331449
102.656 62.1442 589.722 0.921364 -0.0729492 -0.381794
66.9083 -26.1173 750.081 0.505712 -0.180394 0.843631
102.168 63.9431 592.349 0.950893 0.205898 -0.231104
103.293 62.4952 594.12 0.935063 0.181184 -0.30468
103.035 64.7008 596.44 0.90153 0.385056 -0.197423
103.52 63.916 599.018 0.893966 0.411349 -0.177813
104.143 62.5114 601.285 0.892149 0.411223 -0.186994
69.8818 -20.9763 752.395 0.343239 -0.413468 0.843345
103.682 63.2775 602.769 0.869577 0.479141 -0.119417
104.739 62.1395 604.696 0.863822 0.491156 -0.112151
72.2461 -18.8374 752.923 0.277444 -0.478587 0.833055
105.828 61.3537 609.148 0.851592 0.51715 -0.0857134
104.907 62.8858 612.115 0.8324 0.550791 -0.0611506
74.1253 -16.8172 753.475 0.276667 -0.467488 0.839589
105.17 62.8549 613.898 0.827513 0.558267 -0.0596709
106.883 61.2298 616.28 0.833962 0.54853 -0.0601899
76.7007 -13.3198 754.604 0.300837 -0.428962 0.851756
105.774 62.2883 620.108 0.828402 0.557244 -0.0568239
105.944 62.0205 622.321 0.826301 0.560725 -0.0530446
107.377 59.6849 625.995 0.835794 0.546427 -0.0535366
77.4732 -11.4437 755.223 0.31409 -0.422843 0.85003
106.472 61.9585 625.888 0.83049 0.55406 -0.0574746
106.949 60.8031 630.003 0.838428 0.542407 -0.053225
79.0057 -8.98552 755.554 0.337553 -0.399575 0.85229
107.749 60.2911 633.381 0.842818 0.53457 -0.0623874
107.509 61.0932 636.094 0.842867 0.532226 -0.0794426
80.8579 -5.74415 755.803 0.361622 -0.391038 0.846356
108.288 61.0097 639.413 0.847636 0.523468 -0.0865748
83.4209 -3.54073 756.023 0.374256 -0.382499 0.844764
108.921 61.1752 644.58 0.858557 0.499937 -0.113764
109.596 59.2846 645.428 0.86242 0.4939 -0.110886
84.9042 -0.472966 757.259 0.388321 -0.386648 0.836487
109.218 61.4963 648.888 0.866163 0.482493 -0.130241
109.431 60.3718 651.22 0.873662 0.465241 -0.142358
110.42 59.5438 653.303 0.884278 0.444116 -0.144271
87.4402 1.83687 756.854 0.389985 -0.384466 0.836718
109.915 61.1666 654.667 0.882195 0.446333 -0.150061
111.491 60.1615 657.361 0.887661 0.431891 -0.159775
87.8564 4.65574 758.09 0.388193 -0.39624 0.832046
111.848 60.3673 658.714 0.890357 0.422486 -0.169619
90.2144 6.51361 757.998 0.388789 -0.388787 0.835277
-9.18741 -79.9342 533.128 0.135136 -0.722065 -0.678499
-10.122 -82.3027 537.431 0.106751 -0.832439 -0.543736
-13.1363 -89.0633 550.097 0.00478569 -0.786983 -0.616956
-13.0271 -90.542 552.018 0.0100939 -0.798937 -0.601331
-14.2233 -92.2294 554.315 0.0217829 -0.834875 -0.550008
-15.0368 -93.9181 556.463 0.0619895 -0.873048 -0.483679
-14.243 -95.1671 558.587 0.0820615 -0.902711 -0.42235
-15.8145 -96.6952 561.969 0.175968 -0.95162 -0.251902
-15.9091 -98.1762 564.474 0.195967 -0.960803 -0.196099
-14.6546 -99.0546 565.57 0.31437 -0.94127 -0.123217
-7.1232 -75.4839 530.797 0.281802 -0.545036 -0.789635
-7.56193 -77.7398 532.365 0.248271 -0.615803 -0.747762
-7.64687 -79.7119 534.166 0.216039 -0.738818 -0.638338
-8.49005 -82.0395 539.23 0.111573 -0.84192 -0.527942
-9.33333 -83.0456 543.003 0.0415209 -0.852007 -0.521882
-9.3927 -84.835 545.2 0.0232451 -0.829216 -0.558445
-12.1367 -86.7904 547.886 -0.00193841 -0.807591 -0.58974
-11.2835 -88.578 549.411 0.00208308 -0.782401 -0.622772
-12.7063 -95.6901 563.343 0.289977 -0.943202 -0.162122
-13.829 -96.4982 564.881 0.304157 -0.941222 -0.146936
-14.6273 -97.8502 568.231 0.390038 -0.919957 0.0393751
-4.31715 -74.7902 531.614 0.386917 -0.504028 -0.772173
-5.63259 -76.3551 532.384 0.339152 -0.544676 -0.76701
-13.3485 -95.2902 569.088 0.461646 -0.882758 0.0872973
-14.7778 -96.7181 572.639 0.494249 -0.82329 0.279125
-14.4133 -98.2215 574.989 0.464763 -0.797918 0.383826
-13.2598 -99.7141 577.13 0.466795 -0.775346 0.425372
-3.94755 -70.4927 530.554 0.494339 -0.364342 -0.78923
-3.1684 -72.0291 531.814 0.487872 -0.402271 -0.774699
-11.7161 -93.5147 570.419 0.520915 -0.831354 0.193641
-14.5914 -96.5466 576.26 0.478159 -0.763076 0.434832
-14.3518 -97.9141 577.883 0.472106 -0.720247 0.508291
-1.85474 -68.6253 531.504 0.525529 -0.310496 -0.792093
-0.761259 -70.2204 532.752 0.534234 -0.326283 -0.779829
-10.963 -92.4387 574.603 0.570364 -0.723267 0.38932
0.154393 -65.1341 531.218 0.56669 -0.207337 -0.797417
0.929101 -66.7174 532.142 0.588518 -0.243806 -0.770847
-8.70929 -91.1417 576.518 0.547835 -0.667156 0.504756
2.26389 -63.2155 532.181 0.654961 -0.113131 -0.747146
-8.06789 -88.6878 578.516 0.519494 -0.634565 0.572235
4.21565 -61.5083 533.254 0.709138 -0.0567771 -0.70278
5.74211 -62.047 534.596 0.746984 -0.0838066 -0.659538
-5.98132 -86.2835 578.986 0.504293 -0.603794 0.61735
5.54469 -59.2058 534.955 0.759188 0.0437047 -0.649402
6.55813 -61.0277 535.334 0.780342 -0.0278679 -0.624731
-3.42972 -83.8069 579.654 0.571909 -0.515897 0.637786
-5.08798 -84.1901 580.864 0.528024 -0.531894 0.662027
6.70716 -57.5974 536.867 0.795993 0.0926098 -0.59818
7.66632 -57.8543 538.871 0.826583 0.083791 -0.556542
-1.41311 -81.2379 579.414 0.633151 -0.442169 0.6353
8.44921 -56.3651 540.303 0.843014 0.127968 -0.522448
9.35209 -58.2581 540.951 0.881377 0.0591998 -0.468689
0.0240777 -77.9376 579.364 0.695022 -0.338012 0.63458
-1.38216 -78.7603 580.785 0.648345 -0.374403 0.662927
9.28246 -54.6655 542.332 0.882394 0.147886 -0.446665
10.1606 -55.9063 543.583 0.909804 0.103171 -0.40201
2.86257 -75.0923 577.966 0.764565 -0.270236 0.58516
0.474895 -75.3609 580.569 0.707821 -0.289678 0.644264
11.4056 -54.0466 545.347 0.929804 0.132179 -0.343502
5.15703 -70.8662 576.398 0.810324 -0.228939 0.539409
3.0331 -72.2801 579.003 0.76542 -0.246694 0.594369
11.3476 -52.1807 547.286 0.934632 0.173841 -0.31023
11.8589 -53.1635 550.109 0.951543 0.165928 -0.25891
12.356 -54.5573 552.5 0.962337 0.166707 -0.214746
8.21467 -65.5906 572.921 0.851819 -0.146162 0.503032
6.87709 -68.1331 575.065 0.837967 -0.179971 0.51519
4.80907 -68.5293 577.594 0.804077 -0.197338 0.560818
12.2253 -52.2699 554.312 0.965206 0.198949 -0.169695
12.8857 -53.7692 556.583 0.973001 0.195768 -0.122244
10.7354 -60.729 569.134 0.888498 -0.0519299 0.455932
9.67275 -63.3765 571.706 0.862638 -0.105416 0.494716
8.08036 -63.6653 574.881 0.851011 -0.123965 0.510307
13.1073 -51.7669 558.315 0.976492 0.203224 -0.0718551
13.7366 -53.3452 560.729 0.985564 0.15732 0.0625591
14.1114 -55.6885 562.281 0.982287 0.105923 0.154571
13.2684 -57.1098 565.465 0.950732 0.0574444 0.304645
11.3036 -57.5716 568.594 0.90374 0.00572041 0.428044
13.8309 -52.7913 564.686 0.967642 0.12558 0.218857
13.1591 -53.8355 566.87 0.945238 0.0900047 0.313727
11.1963 -83.5832 680.208 -0.0435343 -0.840789 -0.53961
10.7297 -85.2939 682.07 -0.0518114 -0.84793 -0.527571
10.1689 -86.715 684.652 -0.0791436 -0.869243 -0.488008
10.0632 -87.7712 687.243 -0.106198 -0.897377 -0.428294
9.45567 -89.3107 690.04 -0.167989 -0.9333 -0.317381
8.57936 -90.2148 692.257 -0.206152 -0.942033 -0.264717
20.6793 -61.6498 645.538 -0.0331404 -0.846366 -0.53157
20.2337 -63.2624 647.749 -0.0349702 -0.845159 -0.533369
19.4 -64.2334 650.52 -0.0303218 -0.841054 -0.540101
18.9077 -65.9644 652.946 -0.0332185 -0.837247 -0.545815
18.394 -67.5303 655.168 -0.0298309 -0.831546 -0.554654
18.1058 -69.1381 657.706 -0.0311157 -0.825989 -0.562827
18.5099 -71.1636 660.31 -0.0344542 -0.81871 -0.573172
17.772 -72.7201 662.682 -0.031818 -0.818445 -0.573703
16.2885 -74.3609 664.894 -0.0324159 -0.829506 -0.557557
15.7277 -75.782 667.476 -0.0373492 -0.840985 -0.539768
15.0313 -77.6362 669.79 -0.0368589 -0.852581 -0.521294
14.1978 -78.8705 672.416 -0.0443499 -0.858305 -0.511219
13.6156 -80.1264 674.793 -0.0503698 -0.850466 -0.523613
12.8036 -81.5258 677.623 -0.0419866 -0.843334 -0.535747
12.7453 -82.9902 679.709 -0.0455671 -0.839861 -0.540885
11.6121 -87.1781 686.744 -0.0910992 -0.879387 -0.46731
9.04329 -90.5712 694.776 -0.210711 -0.945711 -0.247451
46.2463 1.3911 535.317 0.0646502 -0.772433 -0.631797
46.1334 -0.26151 537.869 -0.0139962 -0.821121 -0.570582
45.5337 -1.7311 540.416 -0.0407419 -0.822396 -0.567455
44.44 -2.94828 543.16 -0.109769 -0.857798 -0.502129
44.0737 -4.35226 545.794 -0.130182 -0.872196 -0.471515
43.4424 -5.71415 548.227 -0.139992 -0.878673 -0.456438
43.0552 -7.02852 550.673 -0.144345 -0.885999 -0.440647
43.0018 -8.49657 553.571 -0.152795 -0.897891 -0.412849
27.8394 -45.5863 620.728 -0.0171855 -0.787413 -0.616186
27.3625 -46.6363 623.009 -0.0224202 -0.804498 -0.593532
26.846 -48.3258 625.744 -0.0246201 -0.819254 -0.572902
26.6036 -50.1402 628.178 -0.0293995 -0.822358 -0.56821
25.8615 -51.7878 630.596 -0.0239356 -0.816838 -0.57637
26.4825 -53.1911 632.592 -0.0250252 -0.816227 -0.577188
24.2409 -54.9895 635.453 -0.0290217 -0.823159 -0.567069
23.6805 -56.7265 637.862 -0.0298146 -0.830112 -0.556799
22.8473 -58.1714 640.371 -0.0311028 -0.834111 -0.550719
22.2865 -59.5925 642.953 -0.0324618 -0.841169 -0.539797
22.2711 -61.387 645.448 -0.0335912 -0.845094 -0.533561
21.983 -62.9948 647.986 -0.0388934 -0.844054 -0.534846
21.171 -64.3942 650.816 -0.0356892 -0.840719 -0.540295
20.9549 -65.6 652.72 -0.0348582 -0.837172 -0.545828
10.6304 -90.7959 699.935 -0.245056 -0.939234 -0.24039
11.4816 -91.004 702.329 -0.253284 -0.946596 -0.199509
48.3934 3.94264 533.993 0.153983 -0.529871 -0.833982
50.0251 2.63688 534.5 0.0709266 -0.735045 -0.674298
43.5518 -9.77663 556.763 -0.154958 -0.90466 -0.396962
42.5671 -10.5768 559.768 -0.153721 -0.906461 -0.393316
42.2248 -11.6889 562.393 -0.148713 -0.906083 -0.396104
41.664 -13.11 564.975 -0.14057 -0.905536 -0.400305
42.5971 -14.2387 567.365 -0.14702 -0.902841 -0.404059
40.9192 -15.1954 570.347 -0.142291 -0.90217 -0.407237
40.4358 -16.2185 573.165 -0.145241 -0.904092 -0.401898
30.7892 -39.1552 614.683 -0.0133687 -0.756579 -0.653765
30.8582 -41.2228 616.581 -0.0123287 -0.760576 -0.649132
31.3712 -42.7461 618.033 -0.00890498 -0.772597 -0.634834
29.7836 -45.3245 621.062 -0.0078611 -0.786842 -0.617104
29.2228 -46.7456 623.644 -0.0111459 -0.806733 -0.590811
28.7555 -47.9298 625.795 -0.0199391 -0.816774 -0.576614
28.2882 -49.114 627.947 -0.0280393 -0.821894 -0.568951
49.9361 5.92986 535.131 0.261453 -0.37125 -0.890963
41.6966 -17.2332 575.204 -0.166326 -0.89667 -0.410267
40.6762 -18.9413 578.69 -0.163172 -0.891347 -0.422937
39.7746 -20.1289 581.326 -0.159543 -0.890227 -0.426664
39.3531 -21.3448 584.284 -0.180026 -0.892514 -0.413534
38.6487 -22.2164 586.672 -0.181254 -0.895972 -0.405441
38.4318 -23.5724 589.597 -0.174741 -0.908592 -0.379376
38.0066 -24.5603 592.446 -0.146146 -0.910015 -0.387961
37.901 -25.6165 595.038 -0.123875 -0.909342 -0.397181
35.4261 -30.0286 603.052 -0.016149 -0.819087 -0.573443
35.3808 -31.685 605.278 -0.0193187 -0.794598 -0.606828
34.8696 -33.5932 607.708 -0.0284627 -0.779227 -0.626095
33.8201 -35.3659 609.758 -0.0320688 -0.771229 -0.63575
32.8407 -37.0414 612.342 -0.0305043 -0.76525 -0.64301
32.7824 -38.5057 614.428 -0.0200805 -0.756871 -0.653255
53.2892 6.71425 537.453 0.229239 -0.260119 -0.93797
38.7739 -26.253 597.491 -0.100236 -0.900023 -0.424159
37.6639 -27.7492 600.784 -0.0601216 -0.858783 -0.5088
37.7208 -29.4051 602.499 -0.0379074 -0.830004 -0.556468
22.3785 -82.2479 743.212 0.378235 -0.526591 0.761341
24.1472 -80.5658 744.522 0.410784 -0.493178 0.766832
25.7049 -78.0126 745.878 0.453762 -0.431241 0.779827
28.5019 -75.1488 745.689 0.518118 -0.368066 0.772063
29.8522 -72.5746 745.976 0.580439 -0.280903 0.764319
32.9344 -68.8942 743.752 0.688686 -0.159844 0.70722
30.7756 -70.1103 746.294 0.63237 -0.222291 0.742089
35.4392 -63.7934 741.391 0.721553 -0.137052 0.678659
33.7468 -65.7169 742.87 0.713466 -0.138953 0.686774
37.9639 -60.0344 739.167 0.707908 -0.224453 0.669691
36.1484 -62.2118 740.963 0.719336 -0.168403 0.67394
40.0686 -56.5518 737.958 0.714977 -0.306766 0.628253
42.4717 -53.7434 736.588 0.727965 -0.43406 0.530715
43.9251 -50.4524 736.449 0.683821 -0.585985 0.434753
42.6918 -51.1577 738.786 0.651176 -0.661139 0.372646
45.8272 -47.9423 736.976 0.620257 -0.73851 0.264357
48.0196 -46.3563 738.373 0.469175 -0.878482 0.090242
46.0304 -47.1251 741.972 0.400544 -0.915663 0.0335503
82.69 41.1301 585.439 0.543378 -0.251599 -0.800898
48.7213 -45.5662 740.655 0.361647 -0.93121 -0.0453847
48.254 -46.7504 742.807 0.3386 -0.940386 -0.0320176
47.4323 -47.6278 745.797 0.21345 -0.976951 -0.00242928
46.8219 -49.0793 748.418 0.2229 -0.973991 0.0407024
46.3476 -48.6803 750.626 0.125644 -0.971501 0.200997
48.1133 -47.4098 752.406 0.0602996 -0.986588 0.151683
85.4474 45.0654 589.656 0.618002 -0.229599 -0.751903
49.5618 -45.6965 754.128 0.0292928 -0.994643 0.0991287
87.3922 49.5219 588.464 0.60731 -0.423482 -0.672189
87.2655 47.165 590.335 0.656942 -0.261807 -0.707025
88.9016 51.0275 588.999 0.567111 -0.535586 -0.625726
89.6961 49.0242 591.628 0.681525 -0.368524 -0.632229
90.1648 47.7341 592.44 0.703922 -0.29566 -0.645817
90.8974 52.5449 590.857 0.564292 -0.573046 -0.5943
91.2592 51.0435 592.756 0.607423 -0.538019 -0.584443
91.7968 49.7727 593.917 0.670306 -0.427767 -0.606387
95.0718 62.1185 579.346 0.674858 -0.521233 -0.522382
95.2014 60.0593 581.843 0.591946 -0.622444 -0.512018
94.7768 58.6502 584.461 0.535455 -0.681591 -0.49872
94.8043 57.4596 586.963 0.499539 -0.686914 -0.527835
92.6391 56.1015 589.717 0.463915 -0.709448 -0.530534
93.008 54.5065 592.137 0.471903 -0.696167 -0.540979
93.4404 53.1573 593.522 0.465362 -0.683843 -0.561958
97.0829 65.7027 578.27 0.836732 -0.296782 -0.460218
98.3644 63.2883 580.912 0.788792 -0.286504 -0.543804
97.1486 62.1231 582.123 0.732902 -0.407339 -0.544912
98.5167 67.3259 579.862 0.912614 -0.0434122 -0.406511
99.3631 65.6644 581.898 0.891166 -0.11981 -0.437571
99.6949 63.9621 582.527 0.870652 -0.160403 -0.465012
99.4661 67.7513 583.982 0.932865 0.164732 -0.320354
100.044 66.0268 586.063 0.937117 0.0962844 -0.33547
99.85 66.359 588.527 0.934656 0.205492 -0.290157
64.273 -24.8518 751.755 0.538533 -0.18314 0.822461
100.326 66.6335 590.331 0.932844 0.278774 -0.228227
100.828 66.7398 593.016 0.915984 0.351035 -0.194287
66.1532 -22.7822 752.101 0.447486 -0.32144 0.834526
101.266 66.6264 596.244 0.889833 0.424036 -0.168496
66.6492 -19.7776 753.805 0.369973 -0.422413 0.827458
101.789 66.3791 600.579 0.853346 0.511774 -0.0994352
102.845 65.2412 602.506 0.854116 0.510132 -0.101247
69.6053 -17.6305 754.176 0.305819 -0.484103 0.819829
102.665 66.1523 607.035 0.82125 0.568407 -0.0496105
103.833 63.8477 608.925 0.830761 0.55286 -0.0646581
70.7543 -15.0604 755.453 0.310166 -0.472493 0.824953
103.184 65.7196 612.138 0.817466 0.573562 -0.0526823
103.252 64.8443 616.319 0.819002 0.571073 -0.0557776
104.786 63.1163 618.025 0.826464 0.560051 -0.0574551
73.0908 -13.4034 755.323 0.309021 -0.453987 0.835705
103.868 64.8338 620.224 0.819075 0.57107 -0.0547237
74.4233 -9.95672 756.541 0.332041 -0.433603 0.837698
104.392 64.5865 624.558 0.824596 0.562789 -0.0575316
104.737 64.2981 627.961 0.831537 0.552222 -0.0599767
76.5143 -7.10457 757.403 0.349345 -0.410527 0.842274
105.583 63.8428 631.38 0.834184 0.547791 -0.0637323
106.247 63.161 634.634 0.84035 0.537789 -0.0677785
78.0301 -5.01093 757.917 0.357555 -0.410988 0.838596
105.743 64.7838 635.999 0.838719 0.538325 -0.0822
106.05 63.8961 637.901 0.841841 0.533112 -0.0842332
106.945 62.8312 640.414 0.849245 0.519471 -0.0945095
79.7868 -2.65645 758.819 0.369414 -0.40443 0.836642
106.484 63.5973 641.898 0.84738 0.522475 -0.0946899
107.702 62.3863 643.239 0.851156 0.51498 -0.101633
81.6805 0.0453949 759.091 0.383283 -0.402088 0.831517
107.947 63.1934 648.965 0.861059 0.49196 -0.128661
83.4289 2.55366 759.283 0.390572 -0.39682 0.830655
109.019 63.0212 652.589 0.866804 0.476746 -0.14616
85.7033 5.16762 759.763 0.390852 -0.401346 0.828345
88.026 6.5837 759.304 0.389996 -0.393884 0.832321
-18.4139 -93.3186 555.71 0.0325759 -0.857278 -0.513822
-17.5387 -95.4891 557.74 0.0686527 -0.887754 -0.455169
-18.3085 -97.001 560.678 0.0893077 -0.926388 -0.365828
-13.4356 -80.7847 536.966 0.0739042 -0.835331 -0.544757
-11.9917 -81.7744 538.768 0.0647298 -0.853981 -0.516263
-15.1775 -85.4591 547.377 -0.00212264 -0.813686 -0.581301
-16.0096 -87.7465 549.423 -0.00203936 -0.795997 -0.605297
-15.7524 -89.7277 551.874 -0.00183718 -0.801336 -0.598211
-17.2198 -91.1665 553.959 0.0131835 -0.823943 -0.566519
-18.4538 -96.7519 562.527 0.129231 -0.953183 -0.273389
-12.4993 -81.1267 540.467 0.0600855 -0.857944 -0.510218
-12.5794 -82.1627 542.493 0.03433 -0.857477 -0.513376
-13.5274 -83.732 545.2 0.00663525 -0.83982 -0.542824
-13.0833 -85.2395 546.791 -0.00484521 -0.82426 -0.56619
-6.57955 -71.6712 529.334 0.419927 -0.431437 -0.798451
-5.4853 -66.7952 528.672 0.501051 -0.280525 -0.81869
-5.46995 -69.1739 529.4 0.497474 -0.330441 -0.802078
-13.9087 -94.5778 574.006 0.522447 -0.763676 0.379273
-15.0641 -94.4939 575.98 0.450698 -0.757167 0.472831
-16.4121 -95.3011 579.803 0.426586 -0.671795 0.605571
-3.16 -65.4337 528.591 0.523448 -0.218957 -0.823444
-1.60798 -66.4825 530.558 0.544734 -0.245002 -0.802022
-14.3861 -92.3556 578.189 0.447964 -0.642749 0.621452
-1.64509 -63.6755 529.771 0.538826 -0.113371 -0.834753
-12.5317 -90.3542 579.825 0.458926 -0.600923 0.654429
0.0273132 -59.484 529.924 0.580993 -0.000571387 -0.813908
0.123937 -62.2567 530.936 0.587041 -0.0932291 -0.804171
-10.9662 -88.4703 580.911 0.465809 -0.588541 0.660788
1.92989 -58.2821 531.58 0.645984 0.0757138 -0.759587
-8.82989 -85.7616 581.123 0.476704 -0.581302 0.659425
2.98543 -55.9489 533.287 0.683407 0.150601 -0.714334
3.66002 -57.8395 534.136 0.709851 0.111156 -0.695525
-7.40301 -82.938 582.323 0.497471 -0.518125 0.695751
4.95058 -55.0409 535.956 0.738342 0.188871 -0.64744
-4.63457 -80.4347 582.526 0.56875 -0.430735 0.700707
7.03415 -53.3493 537.921 0.781044 0.219237 -0.584727
7.36824 -55.2697 538.679 0.802292 0.167822 -0.572855
-3.0374 -77.7964 582.553 0.62323 -0.362502 0.692948
-4.56441 -78.4863 583.924 0.579533 -0.394072 0.713337
7.78738 -51.6297 540.047 0.800858 0.235804 -0.550476
8.53938 -52.4649 541.639 0.829326 0.217401 -0.514738
-0.0851926 -74.0114 581.937 0.699831 -0.268656 0.661862
-1.95705 -75.248 583.174 0.655571 -0.295797 0.694788
9.23709 -50.557 543.567 0.876521 0.225723 -0.425159
1.70796 -70.8791 580.371 0.752834 -0.237618 0.613822
0.997685 -72.6012 581.714 0.715849 -0.246742 0.653206
10.0102 -48.8385 545.504 0.894063 0.248106 -0.372955
10.7831 -50.0956 548.078 0.936119 0.200556 -0.288893
4.33115 -66.7083 578.274 0.804724 -0.178737 0.566103
2.22299 -68.7365 581.043 0.745814 -0.20541 0.633694
10.7432 -48.1896 549.351 0.931625 0.242813 -0.2704
11.4914 -49.7554 551.905 0.956222 0.204874 -0.208966
12.0252 -50.2722 554.061 0.963655 0.213176 -0.161012
6.36744 -64.2971 577.24 0.83033 -0.129396 0.542041
4.21741 -64.4793 579.868 0.784832 -0.12497 0.606977
11.6008 -47.6135 553.398 0.955213 0.243633 -0.167961
12.1984 -48.9743 556.141 0.966007 0.22703 -0.12364
12.5801 -49.8523 558.286 0.974077 0.213726 -0.0741324
10.5729 -56.0493 569.738 0.895333 0.0154829 0.445128
9.46297 -57.9883 571.102 0.87824 -0.0187218 0.477853
8.17413 -58.6026 574.086 0.862055 -0.041436 0.505117
7.19435 -59.9623 576.843 0.844128 -0.0606838 0.532697
6.10825 -62.0155 578.846 0.811436 -0.0907027 0.57736
12.4819 -48.6332 560.097 0.97621 0.214409 -0.0322759
13.0574 -50.5484 562.557 0.98035 0.170462 0.099278
12.557 -50.6914 565.565 0.96126 0.144257 0.234882
11.644 -52.3542 568.254 0.926154 0.0879573 0.366746
10.4335 -54.1165 569.932 0.898575 0.0421102 0.436794
13.1857 -70.204 659.537 -0.0234506 -0.822607 -0.568127
12.9867 -72.3239 662.277 -0.033157 -0.822252 -0.568157
12.3253 -73.7402 664.209 -0.0359348 -0.829927 -0.556713
12.0869 -75.3777 666.675 -0.0417008 -0.837545 -0.544775
12.3928 -76.9688 668.907 -0.0456368 -0.848231 -0.527656
11.4381 -78.4083 671.78 -0.0508369 -0.856064 -0.514364
11.1107 -79.676 674.4 -0.0467928 -0.849574 -0.52539
9.61161 -80.9932 677.223 -0.0420737 -0.842113 -0.537657
8.74648 -82.8321 679.509 -0.0442625 -0.838415 -0.543231
7.59601 -84.7261 681.702 -0.0517439 -0.847794 -0.527795
7.03523 -86.1471 684.284 -0.0986406 -0.885057 -0.454912
6.87549 -87.3275 687.251 -0.114596 -0.903764 -0.412406
6.18568 -88.6494 689.694 -0.177962 -0.939714 -0.292007
6.16891 -89.3909 692.768 -0.191505 -0.948046 -0.254036
21.5471 -51.1127 630.03 -0.0239836 -0.815709 -0.577965
21.5317 -52.9072 632.525 -0.0221312 -0.817149 -0.576002
20.5837 -54.4765 635.232 -0.0267056 -0.826429 -0.562408
20.4448 -56.2992 637.394 -0.0296238 -0.830974 -0.555523
19.9863 -57.7903 639.959 -0.0333805 -0.834083 -0.550628
19.4255 -59.2113 642.541 -0.0323395 -0.839372 -0.542594
17.9381 -60.7385 644.698 -0.0329253 -0.845517 -0.532932
17.334 -62.4261 647.057 -0.0312028 -0.846347 -0.531717
17.0502 -64.2024 650.026 -0.0327794 -0.841006 -0.540032
16.5396 -65.4923 652.168 -0.0312077 -0.839022 -0.543202
15.3966 -67.0558 654.778 -0.0251322 -0.832773 -0.553044
14.8358 -68.4769 657.36 -0.0211093 -0.824986 -0.564759
15.0931 -70.4581 659.811 -0.0216321 -0.820698 -0.570952
14.6257 -71.6423 661.963 -0.0266597 -0.819574 -0.572353
6.6027 -89.6897 696.764 -0.220086 -0.950603 -0.218898
8.77431 -90.5013 698.532 -0.236174 -0.943967 -0.230538
44.2551 3.94373 532.572 0.0519968 -0.662789 -0.746999
44.7982 2.1954 534.284 0.00385762 -0.768683 -0.639618
42.8245 0.351194 537.488 -0.0172734 -0.821999 -0.569227
42.4682 -1.20991 540.037 -0.0782252 -0.847765 -0.524572
41.7029 -2.49091 542.651 -0.120027 -0.867231 -0.483222
40.036 -4.95953 547.902 -0.142252 -0.880383 -0.452426
39.8981 -6.41978 550.748 -0.145206 -0.890705 -0.430767
39.4964 -7.44854 553.154 -0.147815 -0.894936 -0.421
40.64 -8.95337 556.051 -0.148701 -0.901127 -0.407257
39.0825 -9.72313 558.784 -0.137572 -0.905919 -0.40048
38.4565 -10.799 561.774 -0.131607 -0.90655 -0.401057
38.0321 -12.3135 564.334 -0.131666 -0.906722 -0.400648
26.2929 -40.7894 616.119 -0.0183 -0.763221 -0.645878
27.2212 -43.2865 618.286 -0.0160619 -0.771448 -0.636089
25.0623 -44.8341 620.016 -0.0277033 -0.782746 -0.621724
24.8262 -46.5905 623.007 -0.03351 -0.802288 -0.595996
24.212 -47.9247 625.392 -0.0330007 -0.817113 -0.575532
23.1972 -49.3856 627.854 -0.0284034 -0.821469 -0.569546
23.5479 -51.13 629.875 -0.0243791 -0.819634 -0.572369
22.7067 -53.2615 633.747 -0.0267233 -0.819365 -0.57265
7.30849 -89.6487 701.007 -0.241572 -0.947195 -0.210867
40.321 -10.7229 561.64 -0.137576 -0.906698 -0.398713
39.6667 -12.3808 564.652 -0.131021 -0.906646 -0.401032
38.8333 -13.6151 567.278 -0.130783 -0.905239 -0.404275
37.1819 -14.2892 570.034 -0.124775 -0.906097 -0.404252
37.2827 -15.7125 572.758 -0.131691 -0.909278 -0.394805
38.149 -17.1589 575.636 -0.140549 -0.902452 -0.407218
37.9793 -18.3718 578.243 -0.144416 -0.897416 -0.41688
36.5555 -19.2769 580.864 -0.14521 -0.89513 -0.421493
36.0113 -20.4089 583.841 -0.155155 -0.895731 -0.416644
35.4506 -21.8299 586.422 -0.155427 -0.896411 -0.415077
34.6677 -22.4972 588.209 -0.143657 -0.899312 -0.413037
30.1681 -33.0665 607.268 -0.00493399 -0.792314 -0.610094
30.4042 -35.1459 609.37 -0.0119201 -0.775701 -0.630987
29.087 -36.8088 611.654 -0.0125114 -0.764638 -0.644338
30.034 -38.1563 613.326 -0.0101856 -0.756412 -0.654016
28.5446 -40.565 615.86 -0.0103093 -0.759328 -0.650626
36.3131 -22.6471 588.629 -0.154153 -0.899441 -0.408954
34.9405 -23.5126 592.357 -0.103994 -0.908087 -0.405663
35.1289 -24.9206 595.109 -0.0769977 -0.895143 -0.439079
35.2948 -26.4887 597.768 -0.0621351 -0.883112 -0.465029
34.6751 -27.9606 600.547 -0.0208016 -0.844017 -0.535913
33.3447 -29.3931 602.385 0.00435095 -0.823819 -0.566836
32.6145 -31.4712 604.901 -0.00415498 -0.799942 -0.600062
32.4198 -32.8421 607.009 -0.0181745 -0.790025 -0.612805
20.2946 -83.6763 741.392 0.356515 -0.535953 0.765278
22.877 -77.2794 747.991 0.429245 -0.462929 0.775529
24.9998 -74.8748 748.42 0.471605 -0.421623 0.774482
27.2102 -72.0288 748.143 0.552294 -0.311592 0.773228
29.8474 -68.1217 746.945 0.655442 -0.191573 0.730545
32.494 -63.5188 744.098 0.708378 -0.170114 0.685027
31.9834 -65.9459 745.44 0.697068 -0.155358 0.699972
34.4743 -60.3645 742.972 0.712212 -0.242464 0.65876
32.5178 -61.8317 745.032 0.712183 -0.204697 0.671487
37.3322 -56.9902 740.657 0.699704 -0.350892 0.622326
34.9001 -58.0505 743.37 0.702268 -0.310047 0.640851
39.5745 -54.0344 740.108 0.689124 -0.485051 0.538362
37.0791 -54.4611 742.643 0.685225 -0.457217 0.566938
40.9829 -51.1283 741.142 0.623846 -0.701661 0.344221
43.5095 -48.5577 740.533 0.540644 -0.817598 0.198084
41.6555 -49.1219 743.554 0.511689 -0.825671 0.237574
41.0201 -49.7652 746.161 0.436174 -0.838239 0.327274
78.9529 41.1726 582.908 0.500053 -0.305801 -0.810206
44.3429 -47.8683 744.034 0.365477 -0.918262 0.152389
43.8416 -49.1604 747.383 0.248526 -0.941523 0.227529
42.1506 -49.8106 749.424 0.302516 -0.855796 0.419639
79.9205 43.3277 585.466 0.532461 -0.298068 -0.792238
43.4097 -48.3599 751.907 0.18182 -0.9146 0.361176
82.291 44.8102 587.571 0.552306 -0.259723 -0.792151
45.7497 -47.2943 752.421 0.126319 -0.971634 0.199925
83.6935 49.3121 587.255 0.554177 -0.422984 -0.716919
83.2605 46.9449 588.68 0.566975 -0.337245 -0.751535
85.8577 53.5444 583.083 0.441297 -0.687815 -0.57634
85.4123 51.7983 585.617 0.519032 -0.569827 -0.637105
85.5558 49.6299 587.602 0.567431 -0.449649 -0.68981
89.0638 60.0705 577.301 0.470684 -0.727936 -0.498563
88.3873 58.3735 579.53 0.457645 -0.756795 -0.466714
88.2578 56.7868 582.252 0.451446 -0.742271 -0.495207
88.2662 54.9176 584.62 0.460617 -0.711573 -0.530561
88.1567 53.2649 586.769 0.488167 -0.6552 -0.576547
89.3764 52.9363 588.16 0.527452 -0.621556 -0.579191
92.4461 66.5406 570.918 0.711154 -0.472042 -0.520995
91.988 64.6691 573.341 0.632504 -0.559703 -0.535417
91.4556 63.2438 575.694 0.586961 -0.611662 -0.530421
91.3161 61.4779 578.032 0.542239 -0.666507 -0.51161
92.4156 60.0098 580.368 0.545256 -0.687905 -0.479044
91.3247 58.2319 583.394 0.481527 -0.723019 -0.495353
90.908 56.5612 586.034 0.468829 -0.715263 -0.518264
90.1072 54.9164 588.073 0.50238 -0.670292 -0.546189
94.4997 67.7602 571.986 0.772317 -0.389517 -0.5018
95.068 65.3555 574.373 0.73099 -0.425317 -0.533628
94.3829 63.7942 576.778 0.684402 -0.501957 -0.528803
93.2579 62.6095 578.641 0.634086 -0.580654 -0.510663
95.2618 70.0904 573.463 0.873206 -0.134353 -0.468465
96.1258 68.4855 575.776 0.848175 -0.21848 -0.482561
96.8211 66.5593 576.36 0.822771 -0.228945 -0.520223
96.6377 70.4052 577.856 0.937381 0.128239 -0.323839
97.8988 69.1272 579.751 0.935945 0.0500517 -0.34857
97.5729 70.853 581.792 0.931116 0.301886 -0.204666
98.5828 69.5966 583.934 0.927033 0.286319 -0.24214
61.411 -24.0199 753.656 0.547983 -0.15658 0.821704
60.4884 -26.7217 756.488 0.589769 -0.0895864 0.802588
99.1769 69.4262 587.745 0.918518 0.365261 -0.15136
98.5256 70.1215 590.892 0.886337 0.441802 -0.138625
62.5091 -21.4146 754.038 0.48182 -0.297651 0.824168
99.2148 69.9865 593.872 0.861583 0.497916 -0.0987632
99.8125 68.0351 596.413 0.860686 0.494927 -0.119443
65.69 -18.7829 755.015 0.365714 -0.456952 0.810832
99.4866 69.7608 598.454 0.839344 0.539377 -0.0676352
99.8788 68.7393 601.463 0.827734 0.558665 -0.0524376
100.867 67.9113 603.546 0.826176 0.561 -0.0520715
66.9259 -17.1189 755.619 0.338829 -0.468515 0.815898
100.491 68.5434 606.136 0.818767 0.572973 -0.0363554
102.195 66.5476 610.056 0.817358 0.573866 -0.0510361
68.5276 -13.8117 757.206 0.324614 -0.467546 0.822209
100.78 68.4938 611.981 0.812321 0.581203 -0.0483585
102.262 67.2518 615.105 0.812324 0.580778 -0.0531598
70.1856 -12.016 757.973 0.33125 -0.455168 0.826496
102.959 66.9221 620.885 0.81598 0.575374 -0.0558707
71.5644 -9.30245 758.798 0.337533 -0.448763 0.827456
102.847 67.5233 625.258 0.816486 0.573881 -0.0633335
73.9916 -7.53216 758.75 0.344393 -0.431034 0.834028
104.065 65.7468 630.936 0.832308 0.550113 -0.0681109
75.8729 -4.86189 759.079 0.35883 -0.424905 0.831082
104.233 66.4931 638.355 0.84192 0.531984 -0.0903544
76.9632 -1.73786 760.164 0.373762 -0.424902 0.824476
104.897 66.601 642.044 0.845528 0.524969 -0.0974216
78.7821 0.774514 760.78 0.381141 -0.420646 0.823279
105.875 66.1921 646.098 0.853519 0.507557 -0.117859
81.1711 3.72346 761.179 0.387663 -0.419076 0.821032
83.2085 5.18451 760.973 0.391178 -0.41391 0.821984
-19.9143 -87.8781 548.502 -0.00623212 -0.807992 -0.589161
-21.3362 -91.0153 553.051 0.0104138 -0.820324 -0.571804
-18.9515 -92.0479 554.55 0.0201026 -0.832858 -0.553122
-15.9261 -80.9968 539.503 0.0499666 -0.856103 -0.514384
-16.5858 -82.5378 541.707 0.0250682 -0.858068 -0.512923
-17.1428 -83.6858 544.053 0.0031774 -0.842277 -0.539036
-16.1712 -84.8783 546.319 0.00510092 -0.820625 -0.571444
-18.0105 -87.7292 549.579 0.00973931 -0.794385 -0.607336
-18.4778 -88.9134 551.73 0.00674636 -0.805041 -0.59318
-8.60295 -69.1325 528.742 0.425404 -0.39253 -0.815446
-6.50081 -65.786 527.555 0.492354 -0.201234 -0.846813
-4.69801 -62.5982 527.087 0.49803 -0.0835187 -0.863128
-16.2566 -92.4362 580.484 0.413301 -0.634797 0.652852
-17.3705 -94.4955 582.595 0.336803 -0.620988 0.707769
-3.1934 -60.112 527.578 0.528106 -0.0354459 -0.848439
-15.9624 -89.8973 582.41 0.37134 -0.565047 0.736769
-1.52249 -57.0122 527.801 0.546931 0.0432658 -0.836059
-13.1811 -87.6307 583.216 0.375962 -0.567335 0.732655
0.22727 -55.7499 530.473 0.642825 0.111953 -0.757788
-10.9093 -85.3636 582.8 0.44038 -0.555154 0.705599
1.09623 -54.1537 532.896 0.668311 0.188377 -0.719635
-9.33641 -83.0774 584.363 0.446997 -0.518173 0.729171
2.5725 -52.5097 535.09 0.704001 0.252155 -0.663928
-7.84476 -80.2053 585.267 0.508041 -0.446223 0.736736
4.88403 -51.5879 536.68 0.720754 0.274131 -0.636684
-5.46656 -76.6879 584.597 0.58226 -0.359712 0.729096
5.84996 -49.2315 539.639 0.735737 0.306103 -0.604146
-4.72506 -74.7437 585.368 0.606136 -0.303931 0.735
7.0013 -47.5779 541.671 0.793764 0.303928 -0.526845
8.17835 -49.5117 542.024 0.822856 0.264313 -0.503038
-1.53656 -71.7489 584.481 0.672618 -0.240177 0.699928
8.43533 -46.3187 544.612 0.853057 0.313034 -0.417496
1.07287 -66.8369 582.536 0.718278 -0.177954 0.672614
-0.238655 -68.2846 584.359 0.689085 -0.20618 0.694731
-1.66599 -69.6228 585.752 0.66924 -0.216371 0.710846
9.6779 -44.9892 547.329 0.882494 0.308302 -0.355183
10.4633 -46.1563 549.596 0.927072 0.265671 -0.264493
2.74384 -63.6712 581.465 0.759085 -0.118864 0.640048
1.47583 -64.8277 582.567 0.730081 -0.149357 0.666839
10.5037 -44.3425 550.151 0.912931 0.317613 -0.256278
10.7492 -45.621 553.874 0.946643 0.281377 -0.157141
10.9596 -46.9374 556.052 0.960865 0.245606 -0.128129
6.99739 -57.2108 575.293 0.851525 -0.021203 0.523886
5.9305 -58.1949 577.425 0.832887 -0.0407514 0.551941
4.60729 -59.9355 579.665 0.792986 -0.0686409 0.60536
3.52246 -61.5987 581.535 0.769045 -0.0931025 0.632377
11.195 -45.2515 557.951 0.956223 0.275544 -0.0985539
11.9211 -46.9959 559.134 0.970092 0.233212 -0.0673378
11.7137 -47.3564 562.57 0.97503 0.192836 0.11014
9.45722 -52.2415 571.301 0.895426 0.064227 0.440553
8.58343 -54.2839 572.674 0.877495 0.0334867 0.478416
7.02966 -54.8611 575.625 0.850805 0.00782849 0.525423
11.4323 -44.4073 562.195 0.967253 0.251759 0.0322316
11.7968 -45.9107 564.545 0.96972 0.200704 0.139143
11.3508 -47.1284 566.973 0.954817 0.166978 0.245852
11.5512 -49.4525 568.352 0.930248 0.106155 0.351239
9.17108 -50.0387 571.928 0.887761 0.0658153 0.455575
7.80494 -74.9402 665.928 -0.0510442 -0.841649 -0.537607
7.40192 -76.6198 668.692 -0.0540979 -0.852009 -0.520724
6.5685 -77.8541 671.318 -0.0541271 -0.852329 -0.520197
5.17424 -80.5094 676.525 -0.0433985 -0.841386 -0.538689
4.55669 -82.4929 678.93 -0.038815 -0.844163 -0.534679
4.32602 -84.0648 681.356 -0.0586161 -0.86162 -0.504158
4.17424 -85.766 683.872 -0.0760861 -0.894422 -0.440705
2.93182 -86.7202 686.563 -0.128076 -0.935718 -0.328677
2.64304 -87.8015 689.391 -0.151365 -0.946157 -0.286138
15.7633 -57.5285 639.186 -0.0277624 -0.835757 -0.548397
15.2025 -58.9495 641.768 -0.0329763 -0.840565 -0.540706
14.6418 -60.3706 644.35 -0.0336093 -0.843893 -0.535458
13.6937 -61.9399 647.057 -0.0267981 -0.846029 -0.532463
13.4941 -63.7316 649.389 -0.0285095 -0.842111 -0.53855
13.0258 -65.1945 651.636 -0.0263857 -0.837569 -0.545695
12.4368 -66.5919 654.158 -0.0234886 -0.83185 -0.554503
12.7427 -68.1829 656.389 -0.0199563 -0.827345 -0.561339
10.1884 -69.7295 659.147 -0.0273051 -0.828175 -0.559804
10.0469 -71.4225 661.438 -0.0333677 -0.824248 -0.565245
9.47649 -73.3782 663.956 -0.0383427 -0.830983 -0.554975
9.32471 -75.0794 666.472 -0.0486536 -0.842887 -0.535886
8.85739 -76.2636 668.624 -0.0531731 -0.849228 -0.525343
8.10968 -78.1583 672.066 -0.0484405 -0.852064 -0.521191
7.64237 -79.3425 674.218 -0.0464605 -0.848857 -0.526578
7.08159 -80.7636 676.8 -0.0466706 -0.841915 -0.537588
6.70774 -81.7109 678.521 -0.0423377 -0.842398 -0.537191
3.41521 -88.532 692.255 -0.173189 -0.954184 -0.244005
3.34109 -88.6577 694.881 -0.195685 -0.952507 -0.23332
40.6576 5.44652 530.139 0.064286 -0.68262 -0.72794
40.4581 3.89863 531.954 0.0261334 -0.704475 -0.709248
40.2977 2.46968 534.453 -0.0315007 -0.775398 -0.630686
39.5545 1.01244 537.141 -0.0630799 -0.836983 -0.54358
39.7661 -0.762206 539.696 -0.0882552 -0.860729 -0.501356
38.4451 -1.84881 542.463 -0.125232 -0.874122 -0.469284
37.8504 -2.82235 544.828 -0.134994 -0.877045 -0.461052
37.5834 -4.33198 547.715 -0.139034 -0.883519 -0.447285
37.0226 -5.75303 550.297 -0.146163 -0.888617 -0.434737
36.0529 -6.89398 552.944 -0.142458 -0.89591 -0.420774
21.6089 -43.9347 620.051 -0.0515816 -0.78555 -0.616645
20.8807 -45.606 622.293 -0.0516329 -0.792274 -0.607977
20.488 -47.3033 624.925 -0.0385558 -0.806674 -0.589738
19.9272 -48.7243 627.507 -0.0295269 -0.813609 -0.580663
18.4135 -50.5448 629.662 -0.0178733 -0.818275 -0.574549
18.5343 -52.4327 632.135 -0.0188324 -0.81863 -0.574012
18.0111 -53.8643 634.487 -0.0247234 -0.825276 -0.564188
17.6861 -55.9881 636.966 -0.0255509 -0.8317 -0.554637
17.1253 -57.4091 639.548 -0.0311182 -0.832559 -0.553062
16.5645 -58.8302 642.13 -0.0324972 -0.839146 -0.542934
5.13688 -88.8371 699.239 -0.22785 -0.951539 -0.20654
42.4535 5.64409 531.606 0.155633 -0.536756 -0.82926
40.3242 -3.35176 545.364 -0.13441 -0.87591 -0.463375
37.45 -8.00208 554.961 -0.142663 -0.898317 -0.415541
36.4746 -9.3902 558.633 -0.138841 -0.902633 -0.407403
35.3229 -10.2312 561.406 -0.129155 -0.905517 -0.404177
34.8984 -11.7456 563.966 -0.126174 -0.904884 -0.406528
35.727 -12.9907 566.656 -0.119853 -0.906233 -0.405435
34.2891 -13.7252 569.55 -0.126266 -0.907025 -0.401699
34.1684 -15.0827 572.428 -0.129724 -0.910611 -0.392377
33.6077 -16.5038 575.01 -0.133698 -0.907884 -0.397331
25.704 -34.5573 608.673 -0.0128759 -0.790227 -0.612679
25.7567 -36.3985 611.157 -0.0165783 -0.766979 -0.641458
24.7807 -38.3726 613.51 -0.0141759 -0.75487 -0.655721
23.3114 -39.8971 615.439 -0.0272317 -0.761306 -0.647821
23.5317 -42.3943 617.831 -0.0318623 -0.76785 -0.639837
34.9697 -16.3844 575.372 -0.134669 -0.905779 -0.401782
34.4089 -17.8055 577.954 -0.137385 -0.901824 -0.409682
33.3239 -18.7549 580.972 -0.140391 -0.89966 -0.413404
33.1503 -20.0277 583.429 -0.142797 -0.901972 -0.407499
32.4532 -21.3554 586.033 -0.128159 -0.899045 -0.418681
31.9825 -22.1367 588.986 -0.106623 -0.89547 -0.432162
31.0577 -22.9577 591.819 -0.0759473 -0.890973 -0.44766
30.5093 -24.5484 594.477 -0.0429347 -0.878815 -0.475227
30.4936 -26.1924 597.054 -0.00251969 -0.865345 -0.501171
29.8189 -27.9192 599.277 0.0127426 -0.848004 -0.529836
29.0433 -29.3809 601.644 0.0151813 -0.830957 -0.55613
30.0144 -30.8676 603.894 0.0108013 -0.816867 -0.576725
27.6773 -32.5103 606.51 0.00372427 -0.804697 -0.593674
27.6795 -34.8581 608.936 -0.0108606 -0.782878 -0.622081
32.8632 -23.8194 594.061 -0.0798624 -0.895326 -0.438194
52.7295 18.671 543.912 0.532412 0.389619 -0.751489
54.1746 20.236 546.249 0.551843 0.420049 -0.720436
20.1599 -78.5125 747.11 0.370765 -0.49555 0.78547
20.4175 -75.846 749.408 0.4008 -0.481676 0.779325
22.2437 -73.4764 750.044 0.459963 -0.431564 0.776007
24.8631 -70.9105 749.701 0.539512 -0.331101 0.774144
27.5106 -66.8227 748.75 0.630315 -0.225998 0.742716
26.6405 -69.121 749.329 0.568511 -0.283619 0.77224
29.8404 -63.9828 747.333 0.685969 -0.180098 0.704991
28.1779 -64.7743 749.247 0.658526 -0.198693 0.725854
31.943 -59.7848 746.324 0.686097 -0.264411 0.677759
30.3591 -61.4068 748.282 0.688738 -0.214764 0.692471
33.8939 -56.9109 744.94 0.648487 -0.38403 0.657256
32.1407 -57.8157 746.773 0.668995 -0.324632 0.668625
36.4189 -53.6036 744.017 0.625658 -0.55457 0.548638
34.6798 -54.4429 746.082 0.615466 -0.468591 0.633738
38.3281 -51.8295 744.536 0.552202 -0.716906 0.425579
36.7234 -52.3853 747.077 0.510427 -0.663653 0.546835
76.1252 42.4713 580.684 0.484833 -0.350231 -0.801421
39.2494 -49.9957 746.269 0.449156 -0.801273 0.395247
38.2165 -50.5523 748.992 0.404606 -0.745305 0.52992
75.8513 43.711 581.307 0.488555 -0.357318 -0.796014
40.2625 -49.2784 751.067 0.281136 -0.832774 0.476917
77.2951 46.3291 584.224 0.480073 -0.412159 -0.774374
79.8335 45.0411 585.228 0.519246 -0.33357 -0.786838
79.3672 48.1666 585.491 0.507427 -0.434019 -0.744409
42.6479 -45.3213 755.157 0.155295 -0.903466 0.399542
84.3747 59.1122 572.463 0.376365 -0.760872 -0.528605
83.7714 57.7581 574.492 0.349762 -0.777994 -0.521912
83.2106 56.3371 577.073 0.348879 -0.787239 -0.508467
82.9225 54.7293 579.612 0.369519 -0.766225 -0.525694
82.226 52.8751 581.926 0.427739 -0.666259 -0.610851
81.7977 51.4971 584.302 0.479698 -0.534327 -0.695978
81.6534 49.5972 586.272 0.524918 -0.422639 -0.738808
85.9532 62.3992 570.548 0.44069 -0.721215 -0.534454
86.3115 60.2534 573.318 0.412813 -0.743552 -0.526038
86.2508 58.4022 575.772 0.403142 -0.762903 -0.505426
86.7315 57.4457 577.78 0.404636 -0.771299 -0.491291
85.6458 55.4945 580.625 0.387187 -0.754513 -0.529902
84.132 53.674 582.78 0.405943 -0.699437 -0.588216
83.7582 52.7266 584.501 0.464512 -0.64533 -0.606447
89.3679 67.5712 567.455 0.640619 -0.544688 -0.541222
88.5705 65.7735 569.746 0.581967 -0.60188 -0.546859
88.2262 63.8411 571.836 0.525225 -0.661628 -0.535152
88.381 62.0929 574.135 0.505897 -0.685417 -0.52371
88.7393 61.1202 575.872 0.482981 -0.714028 -0.506846
91.0525 70.6839 565.613 0.800914 -0.347004 -0.487981
91.6377 68.4591 568.292 0.743314 -0.398508 -0.537285
90.7608 66.2777 570.241 0.666192 -0.521551 -0.533079
92.9055 72.4271 567.507 0.848944 -0.237923 -0.471897
93.3149 70.1287 569.72 0.812642 -0.288675 -0.506241
94.4007 69.7229 570.604 0.81209 -0.258356 -0.523222
93.8398 74.0415 568.986 0.930005 0.0388671 -0.365487
94.8739 72.7209 571.428 0.913904 0.0398125 -0.403973
95.2167 70.7422 571.343 0.892686 -0.0757361 -0.44427
95.2741 73.4976 575.195 0.94542 0.214819 -0.24502
95.5966 72.509 577.626 0.943354 0.185354 -0.275186
95.5012 73.8517 578.925 0.917298 0.340608 -0.206278
95.7824 73.207 581.536 0.91273 0.382927 -0.142444
96.8816 72.0021 584.017 0.911473 0.377449 -0.163551
58.9004 -22.9282 757.069 0.533671 -0.213613 0.818269
96.5397 72.8368 585.951 0.888184 0.44901 -0.0975646
60.9991 -20.9826 756.126 0.489384 -0.299414 0.819058
96.7942 72.5846 592.452 0.843252 0.535008 -0.0518787
62.1971 -18.6841 757.216 0.439774 -0.429369 0.788823
97.9898 72.0263 598.505 0.825466 0.562905 -0.0417625
63.1316 -15.6038 758.533 0.418357 -0.448003 0.790108
113.123 106.348 540.992 0.497116 -0.855264 0.146285
99.3225 70.848 604.246 0.816537 0.576063 -0.0376833
99.2974 69.7358 608.857 0.813868 0.579522 -0.042121
65.2232 -13.2782 759.106 0.377159 -0.472935 0.796294
115.375 107.762 542.647 0.509075 -0.77415 0.376212
99.1768 69.9663 614.767 0.806577 0.588984 -0.0503099
67.3694 -10.9899 759.669 0.352607 -0.4707 0.80877
100.278 69.4862 618.615 0.809498 0.584465 -0.0557931
