ply
format ascii 1.0
element vertex 898
property float x
property float y
property float z
property float nx
property float ny
property float nz
end_header
54.1502 -28.0419 593.794 -0.145401 -0.944182 -0.295599
50.2939 -38.2642 611.963 -0.0831666 -0.761344 -0.642991
49.2794 -40.2516 614.135 -0.0722841 -0.75625 -0.650277
47.9686 -42.5371 616.368 -0.0703608 -0.752896 -0.654368
56.3169 -28.6236 593.015 -0.17771 -0.929651 -0.32275
55.2542 -28.2983 596.449 -0.174363 -0.921656 -0.346622
53.9571 -29.4167 600.781 -0.154834 -0.886053 -0.436963
53.4799 -31.1356 602.868 -0.162064 -0.851466 -0.498739
52.7044 -33.2964 604.473 -0.151549 -0.803586 -0.575571
51.6882 -35.0823 607.046 -0.118001 -0.768157 -0.629294
50.8544 -36.3166 609.671 -0.0887427 -0.762146 -0.641294
52.0148 -39.5186 612.809 -0.097091 -0.76281 -0.639292
33.5628 -90.2737 732.21 0.379453 -0.423739 0.822472
34.5356 -88.7231 733.565 0.387313 -0.421414 0.82
37.0626 -87.184 733.219 0.408665 -0.375499 0.831862
39.2886 -83.3723 734.639 0.527176 -0.271233 0.805306
41.2127 -79.9013 733.714 0.607513 -0.139063 0.782042
44.8036 -74.9823 729.998 0.689956 -0.0247566 0.723428
43.6929 -76.9985 731.435 0.670095 -0.047901 0.740728
46.3157 -71.5823 728.712 0.725824 -0.0642731 0.684871
44.5529 -72.9942 730.747 0.70306 -0.0555308 0.708959
49.6263 -66.9577 725.78 0.740265 -0.121242 0.661293
48.9077 -68.7437 726.771 0.740723 -0.105503 0.663474
47.8248 -70.5355 727.292 0.735252 -0.0696916 0.674201
51.0427 -65.3398 725.705 0.735585 -0.14165 0.662458
54.0126 -60.0384 723.57 0.714054 -0.167729 0.679702
52.5492 -61.2918 724.886 0.718203 -0.154478 0.67847
51.9806 -63.2331 725.824 0.727768 -0.151901 0.668789
55.8522 -56.2612 722.078 0.710034 -0.145528 0.688965
54.0911 -57.8747 723.712 0.71238 -0.156877 0.684035
57.687 -52.8417 720.815 0.698815 -0.190841 0.689375
57.1585 -55.2758 720.29 0.710912 -0.163073 0.684114
60.4482 -50.0864 718.633 0.700864 -0.254294 0.666427
59.3517 -51.8162 719.185 0.704158 -0.208624 0.678703
62.3473 -47.074 717.605 0.691064 -0.348132 0.633431
65.3868 -43.0646 716.89 0.672838 -0.51074 0.535195
63.3604 -44.1127 718.138 0.675035 -0.491292 0.550418
66.5074 -41.1565 717.893 0.643903 -0.621529 0.446196
67.8525 -38.4701 718.792 0.582515 -0.759127 0.290522
70.0734 -36.183 719.275 0.54787 -0.819215 0.169485
69.0227 -36.2758 721.707 0.475227 -0.878786 0.0435287
68.1497 -37.1117 724.438 0.429862 -0.901812 -0.0441878
95.5951 28.4045 609.702 0.92405 0.27829 -0.26208
71.1399 -35.1505 722.621 0.385043 -0.921606 -0.0488245
70.4471 -36.3527 725.626 0.300013 -0.928683 -0.218035
69.7377 -37.8117 727.989 0.226811 -0.927364 -0.297578
69.1657 -38.8197 731.028 0.18929 -0.903996 -0.383354
68.0144 -39.9603 733.113 0.133625 -0.896777 -0.421823
67.7816 -41.8883 735.778 0.114807 -0.88811 -0.445062
67.5903 -43.4876 738.342 0.0947476 -0.873435 -0.477634
66.8613 -44.858 740.749 0.120741 -0.873565 -0.471492
66.3707 -46.3383 743.48 0.110242 -0.928978 -0.353336
65.8801 -47.8185 746.21 0.113144 -0.971095 -0.210174
65.0604 -48.5899 748.761 0.130954 -0.986043 0.102812
96.3256 28.1081 612.487 0.895772 0.294791 -0.332703
72.9029 -34.7907 723.368 0.312224 -0.936144 -0.161709
72.4353 -35.9749 725.519 0.243807 -0.932185 -0.267562
71.7806 -37.6328 728.532 0.156224 -0.916619 -0.367972
71.4065 -38.5802 730.253 0.143271 -0.901334 -0.408742
70.5648 -40.7118 734.125 0.114735 -0.892355 -0.436508
70.0971 -41.8961 736.277 0.127414 -0.887344 -0.443155
69.5828 -43.1987 738.644 0.208059 -0.880674 -0.425587
68.9748 -44.7383 741.44 0.229887 -0.876547 -0.422867
68.4137 -46.1593 744.022 0.246729 -0.8976 -0.365294
67.8525 -47.5804 746.604 0.213331 -0.969745 -0.118677
67.075 -47.8575 749.623 0.20688 -0.943307 0.259561
97.593 29.2126 616.198 0.874574 0.232895 -0.4253
68.4623 -46.1969 752.146 0.285402 -0.837941 0.46519
98.2976 31.3465 619.753 0.820456 0.0955817 -0.563663
99.3863 30.6125 621.425 0.795571 0.108204 -0.59612
99.9544 32.1768 623.378 0.703304 -0.121362 -0.700453
101.163 29.7953 623.298 0.731224 0.0907683 -0.676071
74.7027 -35.8088 744.115 0.708248 -0.391474 0.58748
72.4903 -38.4304 749.163 0.860726 -0.0487422 0.506729
73.3393 -40.6668 751.312 0.823902 -0.148065 0.547049
72.4159 -41.6894 753.743 0.670908 -0.338803 0.659617
101.923 34.1262 624.791 0.515531 -0.414095 -0.750169
102.062 32.2601 626.012 0.624003 -0.242105 -0.742971
76.3737 -32.7939 744.201 0.461847 -0.372141 0.805114
108.299 49.6491 603.241 0.664548 -0.477854 -0.574483
107.539 47.8983 605.482 0.534503 -0.636363 -0.556192
107.586 46.1056 608.108 0.469251 -0.702899 -0.534543
106.889 44.6726 610.654 0.400869 -0.734226 -0.54792
106.601 42.9594 613.134 0.334583 -0.747523 -0.573815
106.411 41.4847 615.767 0.243601 -0.804634 -0.541501
105.544 39.9627 618.061 0.228436 -0.78942 -0.569766
104.782 38.3684 620.669 0.253702 -0.739021 -0.624085
103.503 36.4868 622.648 0.414217 -0.544831 -0.729098
76.8411 -29.7571 745.586 0.361601 -0.311253 0.878843
109.806 51.0403 604.48 0.843642 -0.248576 -0.475898
109.952 49.2818 607.001 0.803308 -0.369636 -0.466975
109.543 47.3662 608.065 0.709062 -0.499305 -0.497921
79.6131 -26.8455 746.629 0.247349 -0.452725 0.856655
110.847 51.7349 608.429 0.923878 -0.0287197 -0.381607
111.898 50.1871 610.711 0.884375 -0.13389 -0.447162
82.0466 -25.5432 746.713 0.227986 -0.456848 0.859833
111.984 51.7563 612.174 0.935059 0.195359 -0.295804
112.693 50.8678 615.325 0.93758 0.206086 -0.280131
113.266 50.3358 618.643 0.94384 0.26683 -0.194851
84.2042 -21.4216 748.289 0.225069 -0.436032 0.871333
113.022 51.5408 622.158 0.904916 0.40677 -0.125162
114.048 49.6088 625.384 0.901397 0.414285 -0.125899
85.7492 -17.6696 749.528 0.268816 -0.383204 0.883681
113.483 50.8202 629.415 0.863844 0.499811 -0.0629435
114.448 49.9069 632.995 0.856613 0.513882 -0.0462549
87.7053 -15.7772 749.833 0.30527 -0.34979 0.885696
114.581 49.8394 636.666 0.854176 0.5178 -0.0476102
114.751 49.5715 638.879 0.854427 0.517461 -0.0467862
90.2554 -12.1117 750.081 0.351428 -0.297496 0.88769
115.32 49.4425 642.999 0.861184 0.505947 -0.0487828
115.576 48.2509 645.885 0.862873 0.501467 -0.0630977
91.2999 -9.89597 750.946 0.379069 -0.28938 0.878957
115.191 48.5123 650.012 0.867791 0.489584 -0.08513
116.525 47.1096 650.982 0.861806 0.500562 -0.0820214
93.876 -6.47348 750.485 0.390365 -0.315593 0.86488
92.8054 -8.44627 750.328 0.386414 -0.303023 0.871126
117.589 47.449 656.194 0.870368 0.474361 -0.132067
96.7676 -3.56795 750.389 0.378411 -0.358084 0.85357
117.546 48.6226 660.462 0.878945 0.447509 -0.164897
118.105 46.9235 661.681 0.875511 0.458865 -0.151405
98.3307 -0.504407 750.865 0.36726 -0.38005 0.84893
117.765 49.0713 665.017 0.883591 0.440172 -0.159737
118.536 48.2041 666.547 0.886869 0.438715 -0.144886
99.1807 0.717392 750.948 0.362023 -0.385601 0.848676
118.641 49.2213 668.582 0.890755 0.427816 -0.153394
119.835 47.7032 671.085 0.891191 0.430224 -0.143825
101.396 4.4117 751.526 0.362414 -0.398398 0.842577
101.274 1.98988 750.941 0.356215 -0.383487 0.852085
119.92 48.3923 674.407 0.897436 0.419893 -0.135272
120.382 47.6633 677.747 0.899959 0.414424 -0.135376
103.687 6.27523 751.501 0.362071 -0.397542 0.843128
121.161 48.2901 681.98 0.899071 0.411608 -0.149166
105.431 9.56525 752.141 0.381009 -0.407815 0.82977
121.581 48.0857 684.98 0.897614 0.411081 -0.159066
122.466 47.218 687.096 0.903545 0.397528 -0.159931
107.188 11.9196 753.044 0.387838 -0.412998 0.824023
122.476 49.5736 689.815 0.894827 0.413616 -0.167946
123.235 47.1347 692.524 0.903813 0.393709 -0.167673
109.305 14.5286 753.198 0.38815 -0.428748 0.815791
123.192 49.9247 694.069 0.893943 0.410838 -0.179105
124.327 47.7424 696.504 0.903435 0.388662 -0.180963
111.979 17.1624 752.905 0.393415 -0.425551 0.814942
123.944 50.084 698.097 0.897902 0.405549 -0.171177
125.152 48.1844 700.689 0.907759 0.381329 -0.174821
112.485 19.7167 754.304 0.394693 -0.427517 0.813294
125.015 50.7014 702.156 0.889869 0.419027 -0.180414
125.615 49.7251 704.363 0.896227 0.405192 -0.180544
126.264 48.0774 705.921 0.911786 0.369888 -0.178409
114.468 21.7824 754.633 0.402192 -0.430379 0.808094
125.936 50.2678 708.508 0.889194 0.423086 -0.174162
126.784 49.4095 711.125 0.891587 0.420484 -0.168121
116.45 24.5171 755.484 0.40827 -0.443087 0.798116
127.313 49.9976 714.469 0.884166 0.433375 -0.174459
118.196 27.23 756.311 0.408129 -0.453133 0.792528
127.995 49.8167 718.875 0.880454 0.440792 -0.17465
128.915 48.5087 720.679 0.890629 0.419117 -0.176408
120.716 29.7634 756.123 0.43579 -0.45549 0.776283
119.838 28.0598 755.382 0.423428 -0.453942 0.783994
129.436 49.8408 725.883 0.877363 0.451785 -0.161634
122.509 31.9239 756.492 0.460338 -0.465756 0.755751
129.732 50.1618 730.191 0.870803 0.467993 -0.150613
123.359 34.8553 757.854 0.441254 -0.4499 0.776457
130.533 48.86 733.134 0.887502 0.436258 -0.148388
130.616 50.3056 735.11 0.867534 0.473718 -0.151581
125.536 38.0869 758.267 0.463804 -0.39268 0.794159
125.295 35.5965 757.231 0.44357 -0.432329 0.785072
130.47 50.5547 736.958 0.870325 0.47052 -0.145414
131.491 50.0786 741.566 0.87668 0.464255 -0.12609
127.73 39.4535 757.849 0.552999 -0.345661 0.758097
132.427 49.7364 745.067 0.89185 0.446512 -0.0723197
129.893 42.9707 758.222 0.657643 -0.139079 0.74038
132.68 50.9141 749.256 0.874427 0.468153 0.127317
133.575 49.0594 751.335 0.876222 0.411042 0.251555
132.603 49.2347 754.706 0.811319 0.332308 0.48097
131.769 48.0004 757.331 0.756277 0.216851 0.617269
4.44675 -84.5994 548.839 0.537045 -0.703408 -0.465618
4.70501 -86.3863 551.359 0.574297 -0.719455 -0.3906
3.90273 -87.8049 553.696 0.576077 -0.75491 -0.313441
2.97297 -89.0513 556.41 0.550474 -0.807459 -0.212106
2.59983 -90.2853 558.729 0.57106 -0.81827 -0.0657555
1.33567 -91.0744 561.215 0.542109 -0.840092 0.019054
6.7409 -81.0885 547.552 0.656084 -0.59024 -0.470287
6.99772 -83.0699 550.003 0.662554 -0.631579 -0.402655
7.06026 -84.8995 552.713 0.677797 -0.669397 -0.304136
6.05719 -86.0365 555.137 0.682312 -0.699533 -0.212378
4.76893 -86.9596 557.835 0.692117 -0.716211 -0.0895297
4.28443 -88.3329 560.266 0.660698 -0.750393 0.0197029
2.91956 -89.3038 563.115 0.634775 -0.756654 0.156642
8.66145 -77.4422 546.49 0.751232 -0.438556 -0.493274
9.00904 -79.4857 548.927 0.746718 -0.514022 -0.422129
8.76687 -81.1815 551.282 0.755037 -0.566117 -0.330804
8.68163 -82.8442 554.052 0.758883 -0.6054 -0.239974
7.93728 -84.4362 556.219 0.757657 -0.637449 -0.140053
7.12803 -85.4191 559.196 0.755664 -0.654844 0.0122779
6.29423 -86.6534 561.821 0.734186 -0.663714 0.14302
4.82347 -87.3149 564.729 0.691853 -0.682351 0.236085
10.634 -75.4615 548.009 0.830236 -0.344802 -0.437973
10.6 -77.173 550.44 0.833702 -0.416843 -0.362192
10.4435 -79.1173 552.927 0.842658 -0.481397 -0.241215
10.0757 -81.1825 554.379 0.822345 -0.543086 -0.169721
8.93237 -81.7478 558.229 0.829781 -0.558078 0.00360125
8.14653 -82.9603 560.771 0.812539 -0.563757 0.148185
7.5182 -84.2226 563.208 0.777637 -0.588856 0.220292
6.37864 -85.1347 565.726 0.755875 -0.581851 0.300172
12.1072 -73.4896 549.415 0.887749 -0.257642 -0.381474
11.9909 -75.3808 551.951 0.897579 -0.329126 -0.293304
11.9395 -77.2486 554.281 0.901872 -0.396938 -0.170491
11.3079 -78.7233 556.652 0.885479 -0.457365 -0.0821205
10.7539 -79.8294 559.459 0.874683 -0.477386 0.0838574
9.48316 -80.7195 562.295 0.851183 -0.465898 0.241717
8.92329 -81.991 564.669 0.823864 -0.475332 0.30872
13.2047 -71.2917 551.008 0.931174 -0.178629 -0.317816
13.5415 -73.1211 553.415 0.9366 -0.25098 -0.244518
14.083 -75.4049 555.969 0.934483 -0.342914 -0.0956597
13.3727 -77.2286 558.068 0.926361 -0.373986 0.0446121
13.0248 -77.9202 560.611 0.913858 -0.372255 0.162141
10.7508 -78.6364 563.928 0.869433 -0.379992 0.31574
9.85291 -79.847 565.76 0.844786 -0.388246 0.368242
14.1863 -70.7257 554.729 0.976892 -0.148807 -0.153425
14.7481 -72.6568 557.535 0.971294 -0.236723 -0.0234382
14.4228 -73.9594 559.849 0.953245 -0.263134 0.148609
12.8542 -75.261 562.546 0.897104 -0.304421 0.320206
24.0046 -88.7769 686.975 -0.0513243 -0.840112 -0.539979
23.3333 -89.784 689.006 -0.0699237 -0.850702 -0.520977
22.9745 -91.7723 691.842 -0.0901914 -0.877455 -0.471104
22.3618 -93.1537 694.368 -0.130823 -0.914658 -0.382474
21.6499 -94.0473 696.751 -0.174424 -0.932065 -0.31754
32.935 -68.116 654.274 -0.0657822 -0.829831 -0.554124
31.7764 -71.3093 659.759 -0.0425909 -0.829997 -0.55614
31.0346 -72.926 662.049 -0.0326143 -0.827491 -0.560531
30.0546 -74.6425 664.232 -0.030831 -0.831152 -0.55519
29.2208 -75.8769 666.857 -0.0254708 -0.835846 -0.548372
29.1368 -77.6247 669.363 -0.0329273 -0.839283 -0.542697
28.3711 -78.9058 671.977 -0.0381294 -0.84396 -0.53505
27.9463 -80.4202 674.537 -0.0397625 -0.850101 -0.525116
27.1346 -82.3462 677.077 -0.0400576 -0.844424 -0.534176
26.961 -83.8823 679.389 -0.0320696 -0.836941 -0.546353
26.6725 -85.4901 681.927 -0.0271012 -0.835803 -0.54836
25.3408 -86.7591 684.135 -0.0350583 -0.833573 -0.551295
21.9264 -94.8775 700.131 -0.205315 -0.939412 -0.274502
22.5903 -95.5594 703.385 -0.219245 -0.945239 -0.241772
59.5911 -2.46121 539.57 -0.0721412 -0.739472 -0.669311
59.712 -4.61241 541.898 -0.0975176 -0.789952 -0.605364
58.2788 -5.85712 544.388 -0.132453 -0.832063 -0.538635
57.863 -7.30758 546.985 -0.148586 -0.833738 -0.531793
57.2112 -8.84192 549.484 -0.158331 -0.856792 -0.490754
56.4086 -9.9973 551.966 -0.174335 -0.868309 -0.464379
56.135 -11.0392 554.723 -0.185839 -0.877924 -0.441263
55.5271 -12.5787 557.52 -0.195189 -0.887742 -0.416912
54.8563 -13.5038 560.35 -0.206534 -0.886427 -0.414234
40.176 -51.9778 630.394 -0.101662 -0.815973 -0.56908
39.2068 -53.9085 632.607 -0.0990207 -0.821882 -0.560985
38.6924 -55.2112 634.973 -0.0957619 -0.822053 -0.561301
38.1313 -56.6323 637.555 -0.0839765 -0.822579 -0.562416
37.1515 -58.3079 640.138 -0.0788201 -0.829343 -0.553152
37.146 -60.0943 642.407 -0.0777062 -0.830462 -0.551629
36.4492 -61.9486 644.721 -0.0721521 -0.830566 -0.552226
36.1606 -63.5564 647.259 -0.0694012 -0.8331 -0.548751
35.5995 -64.9775 649.841 -0.0731733 -0.834348 -0.546359
34.4743 -66.1621 651.704 -0.0703359 -0.835642 -0.544752
32.5541 -69.36 657.225 -0.0558095 -0.82852 -0.557171
32.5065 -74.7437 664.709 -0.0416483 -0.830297 -0.555763
24.0892 -96.06 703.436 -0.213127 -0.942552 -0.25724
61.448 -3.54574 540.539 -0.0788811 -0.755357 -0.650549
58.2682 -11.5985 555.169 -0.188622 -0.879846 -0.436226
57.707 -13.0196 557.751 -0.2008 -0.883393 -0.423435
57.3329 -13.967 559.472 -0.20994 -0.881346 -0.423266
54.791 -14.4828 562.993 -0.214795 -0.880821 -0.42192
55.9366 -15.5694 565.258 -0.213461 -0.883415 -0.417149
54.3704 -16.904 568.831 -0.217763 -0.889159 -0.402462
53.9963 -17.8514 570.552 -0.209731 -0.892668 -0.398945
53.2949 -19.6277 573.78 -0.191268 -0.897985 -0.396283
52.959 -20.8275 576.823 -0.173379 -0.895996 -0.408816
52.775 -22.0811 579.772 -0.161029 -0.894249 -0.417598
52.8869 -23.2617 582.439 -0.149191 -0.892317 -0.426042
52.0921 -24.5979 585.017 -0.143054 -0.89336 -0.425961
51.1866 -25.5575 587.545 -0.135283 -0.908113 -0.39627
45.5002 -39.9579 613.707 -0.0762983 -0.756092 -0.650003
44.7825 -41.8829 615.939 -0.0733279 -0.751612 -0.655517
43.1474 -45.3257 620.467 -0.0796151 -0.769923 -0.633151
42.5888 -47.0489 622.447 -0.0870726 -0.785105 -0.613211
41.6797 -48.7828 624.83 -0.0932034 -0.790123 -0.605821
40.9199 -50.2684 627.72 -0.0969597 -0.80247 -0.588762
41.4335 -54.2311 632.622 -0.111032 -0.819902 -0.561633
40.9191 -55.5337 634.989 -0.108865 -0.821133 -0.560259
40.3112 -57.0732 637.786 -0.10347 -0.822489 -0.559291
24.155 -95.356 708.485 -0.248731 -0.951128 -0.182996
54.9433 -22.1129 579.451 -0.149512 -0.901255 -0.406675
51.3045 -26.7426 590.879 -0.133028 -0.938979 -0.317211
51.9502 -28.0383 593.783 -0.141445 -0.945719 -0.292592
50.7012 -28.2367 596.655 -0.128582 -0.933543 -0.334611
50.3783 -30.9878 602.333 -0.122631 -0.864322 -0.487759
48.9788 -32.4733 604.407 -0.0979678 -0.814737 -0.571494
48.6737 -34.3702 606.55 -0.0854716 -0.769746 -0.632602
48.5849 -35.6639 609.247 -0.0738388 -0.760843 -0.644721
47.4112 -37.4545 611.492 -0.0723818 -0.759908 -0.645988
47.3743 -39.3472 613.638 -0.0724137 -0.7588 -0.647286
52.8201 -27.9593 596.978 -0.144679 -0.931773 -0.332966
51.4867 -27.912 599.91 -0.129137 -0.900777 -0.414639
51.9056 -29.9664 601.775 -0.122097 -0.870325 -0.477103
31.2127 -89.2788 734.28 0.357817 -0.472776 0.805264
32.8693 -87.5451 735.304 0.380531 -0.452906 0.806271
33.9539 -85.3944 736.317 0.445947 -0.42906 0.785519
36.1387 -83.9592 736.187 0.491561 -0.379793 0.783661
38.5378 -80.2652 735.75 0.591883 -0.246323 0.767463
37.6692 -82.0758 736.162 0.550207 -0.307091 0.77651
39.9277 -76.1051 734.904 0.677729 -0.131743 0.723413
39.0443 -78.0559 735.188 0.647711 -0.190964 0.737566
43.199 -70.9175 732.119 0.708649 -0.0919898 0.699539
41.6545 -73.634 733.716 0.701377 -0.0953187 0.706389
46.1486 -68.595 729.739 0.725466 -0.106863 0.679911
44.366 -69.6717 731.276 0.716072 -0.10561 0.689991
47.7563 -64.814 729.119 0.719194 -0.125853 0.683316
50.9975 -59.7788 726.543 0.712967 -0.144542 0.686139
49.6988 -61.1702 728.206 0.714158 -0.134013 0.687037
52.86 -55.8819 725.065 0.706605 -0.149548 0.691625
51.0629 -57.2676 726.39 0.714128 -0.156476 0.682303
55.3709 -53.2109 723.207 0.709331 -0.190605 0.678616
53.5454 -53.6302 725.059 0.712466 -0.197876 0.673229
57.4332 -49.8267 721.606 0.692439 -0.300237 0.656038
56.3366 -51.5565 722.159 0.696701 -0.221693 0.682246
59.1686 -45.8284 721.279 0.670714 -0.444675 0.593639
57.7118 -47.5367 721.184 0.6725 -0.375754 0.637615
61.9936 -42.9899 720.841 0.638473 -0.600898 0.480909
60.4719 -43.6211 722.632 0.633049 -0.609742 0.476931
63.7775 -41.1196 720.859 0.596253 -0.721146 0.352749
61.8212 -40.991 724.413 0.541316 -0.812803 0.215238
65.6495 -38.8424 722.757 0.516161 -0.842911 0.151915
63.8828 -39.5883 725.739 0.42945 -0.902723 0.0257657
62.9844 -40.064 727.896 0.406432 -0.913513 -0.0175162
66.0998 -37.9781 726.017 0.425206 -0.90417 -0.0409572
65.0445 -39.033 729.783 0.299852 -0.926787 -0.226173
64.326 -39.8311 732.839 0.208474 -0.925284 -0.31684
63.6606 -41.433 735.133 0.124716 -0.913648 -0.386902
63.5692 -43.0523 737.542 0.0951688 -0.894898 -0.436006
63.1175 -44.5404 740.276 0.0596653 -0.875042 -0.480356
62.2374 -45.7726 743.059 0.0426756 -0.916401 -0.397979
61.7154 -47.3708 745.552 0.0800756 -0.957329 -0.277685
61.1169 -48.7742 747.824 0.0907038 -0.986159 -0.138793
95.5957 37.232 594.808 0.824916 -0.333591 -0.456324
95.1569 30.1593 607.087 0.96861 0.185984 -0.164941
67.7415 -37.8722 727.231 0.345145 -0.923572 -0.167004
67.2271 -39.1749 729.598 0.230738 -0.916968 -0.325469
66.4855 -39.1194 732.372 0.187609 -0.912491 -0.363542
65.921 -41.5156 735.288 0.121743 -0.89934 -0.419961
65.4501 -43.675 737.774 0.0786152 -0.880699 -0.467107
64.8889 -45.0961 740.355 0.0703094 -0.87526 -0.478515
64.3278 -46.5172 742.937 0.0642099 -0.921265 -0.383598
63.7666 -47.9383 745.519 0.0575751 -0.958671 -0.278632
63.299 -49.1225 747.671 0.10114 -0.983641 -0.149064
62.5596 -48.4169 750.222 0.135037 -0.988164 0.0727838
93.9806 31.2489 610.743 0.935518 0.174949 -0.306918
63.1834 -46.1521 753.347 0.13713 -0.796905 0.588335
95.1596 32.1583 614.482 0.91122 0.103069 -0.398818
66.3654 -44.3103 753.891 0.170399 -0.679612 0.713507
96.528 34.7173 617.563 0.82604 -0.185429 -0.532235
97.4485 33.3944 619.049 0.810273 -0.112522 -0.57515
67.6624 -42.243 755.698 0.281278 -0.518349 0.807587
97.9814 36.6753 618.84 0.653011 -0.451112 -0.608337
98.3655 35.1708 621.001 0.661679 -0.356268 -0.659738
99.0813 34.0029 622.837 0.662682 -0.308569 -0.682377
72.4265 -33.4986 745.472 0.583962 -0.269172 0.765855
71.4322 -35.5243 746.659 0.830988 -0.119768 0.543244
69.7466 -37.3045 752.672 0.747882 0.0349578 0.66291
69.1855 -38.7256 755.254 0.677285 -0.0253492 0.735284
68.1738 -40.5894 756.913 0.396548 -0.316904 0.861581
105.244 52.1813 597.232 0.477874 -0.632875 -0.609184
105.077 50.5633 599.558 0.441575 -0.642856 -0.625897
104.35 49.1979 602.135 0.386982 -0.7251 -0.569627
103.789 47.7768 604.716 0.361041 -0.749265 -0.555203
103.307 45.8316 607.172 0.311136 -0.784304 -0.536713
102.853 44.3765 609.613 0.298261 -0.794689 -0.528687
102.242 42.8937 612.15 0.299146 -0.798652 -0.522175
101.444 41.4693 614.795 0.32807 -0.780538 -0.5321
101.038 40.2582 617.304 0.35954 -0.741446 -0.566558
100.831 38.4437 619.852 0.471979 -0.613541 -0.63309
100.407 36.4027 622.123 0.507033 -0.492582 -0.707305
99.8973 35.0222 623.576 0.576785 -0.420645 -0.700269
73.9301 -30.4694 745.724 0.402276 -0.273207 0.873803
106.895 53.6355 598.275 0.774929 -0.290449 -0.56136
107.237 51.5561 600.316 0.629146 -0.510545 -0.586104
107.397 50.08 602.12 0.621597 -0.490801 -0.610518
105.832 47.9557 605.259 0.502483 -0.689725 -0.521335
105.638 45.5317 606.788 0.377445 -0.754777 -0.536514
104.873 45.528 609.669 0.366927 -0.750948 -0.549037
104.422 42.4527 612.381 0.224166 -0.809933 -0.541994
103.861 41.0316 614.963 0.225632 -0.806328 -0.546741
103.3 39.6105 617.545 0.2823 -0.766965 -0.576256
102.739 38.1894 620.127 0.371301 -0.679156 -0.633153
108.207 54.2485 602.073 0.83622 -0.158675 -0.524937
109.489 52.1423 602.548 0.815874 -0.244216 -0.524126
76.4966 -26.6279 747.234 0.280727 -0.394524 0.874954
109.287 53.9029 605.216 0.920763 -0.0364747 -0.388412
110.288 52.42 606.361 0.895334 -0.121642 -0.428463
78.5192 -23.466 748.252 0.234537 -0.452747 0.86024
110.025 54.4401 609.449 0.93732 0.170412 -0.30396
110.71 53.3298 612.763 0.941233 0.217541 -0.258372
81.9742 -22.0742 748.607 0.229878 -0.453773 0.860956
110.739 53.4964 616.057 0.908464 0.374395 -0.1858
111.868 52.2338 617.06 0.925286 0.317728 -0.207109
81.8602 -19.328 749.513 0.238933 -0.431224 0.870033
111.04 54.0028 619.596 0.886357 0.44907 -0.112725
111.388 53.8378 622.486 0.858329 0.50675 -0.0804689
111.821 53.539 626.483 0.852933 0.518865 -0.0573102
112.618 53.1666 630.518 0.850434 0.523999 -0.0467682
84.928 -14.4768 751.107 0.293603 -0.358455 0.886176
112.781 53.178 634.046 0.85056 0.523645 -0.0484161
112.765 51.91 636.83 0.85337 0.517869 -0.0597625
87.7948 -12.3813 751.14 0.33613 -0.320199 0.885714
113.607 51.8574 641.051 0.86197 0.504157 -0.0532285
89.6147 -8.16598 752.113 0.371487 -0.314299 0.873621
88.9764 -10.7854 751.695 0.351675 -0.316882 0.880858
113.546 51.9726 644.006 0.869786 0.487871 -0.073853
114.493 51.0214 647.32 0.871757 0.481878 -0.0885062
114.286 50.7859 649.905 0.874887 0.474759 -0.0957955
91.3025 -4.78663 752.016 0.378626 -0.332957 0.863586
114.929 51.5725 651.833 0.882714 0.454561 -0.119127
115.371 50.5295 653.97 0.881967 0.453455 -0.128504
93.9749 -3.68506 751.267 0.389169 -0.351225 0.85158
115.407 51.1417 657.316 0.884426 0.44169 -0.150669
116.205 50.1681 659.471 0.884372 0.440014 -0.155802
95.2646 0.091683 752.076 0.381454 -0.378615 0.843293
115.964 51.7598 662.619 0.884288 0.438293 -0.16104
117.014 51.0896 664.415 0.885765 0.435574 -0.160298
97.4187 2.57509 752.362 0.368985 -0.389219 0.844014
117.41 52.6513 666.833 0.886888 0.433067 -0.16088
117.757 51.8564 668.969 0.888217 0.433545 -0.152017
99.0647 5.04309 752.723 0.370782 -0.406966 0.834805
117.819 52.9406 670.451 0.886586 0.437219 -0.151012
118.19 51.3176 672.078 0.891231 0.429094 -0.146919
118.776 51.13 675.278 0.895085 0.421537 -0.145358
101.392 7.57073 753.264 0.3731 -0.41913 0.827724
118.859 52.5756 677.254 0.890822 0.432133 -0.14035
119.842 50.7612 679.451 0.894648 0.42307 -0.143585
103.441 10.0315 753.951 0.384505 -0.421583 0.821233
119.414 52.9953 681.479 0.888739 0.436609 -0.139697
120.413 51.7282 683.477 0.888683 0.432486 -0.152307
120.649 50.1304 684.915 0.898117 0.411751 -0.154421
104.59 12.7964 754.705 0.394252 -0.423056 0.815836
120.82 52.4172 687.663 0.886113 0.438437 -0.150255
106.471 15.4665 755.035 0.392702 -0.430341 0.812768
121.196 52.4708 691.067 0.876229 0.45091 -0.170012
122.649 51.7998 694.112 0.889441 0.420332 -0.179486
107.674 18.0499 755.827 0.388421 -0.429777 0.815121
122.406 52.7415 697.483 0.881386 0.43641 -0.180845
110.391 20.8116 756.021 0.39067 -0.428505 0.814715
109.734 18.7441 755.03 0.393855 -0.434547 0.809968
123.488 52.9498 702.093 0.873019 0.458821 -0.16529
111.476 22.9623 757.034 0.391048 -0.439122 0.808859
124.093 52.2336 705.122 0.877955 0.446661 -0.172304
124.168 52.5186 708.201 0.876122 0.453714 -0.162956
113.459 25.3996 757.47 0.394397 -0.443862 0.804635
125.006 52.6058 713.079 0.867581 0.472716 -0.154408
115.848 28.3484 757.869 0.398264 -0.448973 0.799881
125.902 53.2439 715.949 0.862465 0.484302 -0.14699
126.524 51.8392 718.216 0.86632 0.472592 -0.161699
118.073 30.3204 757.598 0.412457 -0.451836 0.791027
126.768 52.6461 723.942 0.858066 0.4923 -0.146164
128.217 51.0519 724.541 0.85983 0.484286 -0.161739
118.325 32.9281 759.476 0.404698 -0.434391 0.804689
128.744 50.9899 728.108 0.861502 0.483153 -0.156129
121.421 35.6936 759.347 0.416344 -0.424698 0.803921
128.009 52.9957 730.214 0.853407 0.499567 -0.148757
128.442 52.6968 734.211 0.845937 0.513637 -0.143418
123.198 37.4831 758.975 0.442816 -0.419232 0.792564
129.063 52.8716 737.347 0.844594 0.517011 -0.139144
130.325 50.8038 738.807 0.851023 0.50702 -0.136716
124.428 41.752 759.849 0.489268 -0.251707 0.835021
130.408 52.2493 740.782 0.855598 0.502111 -0.125841
130.432 52.2306 744.844 0.859879 0.507957 -0.0508627
127.389 43.5579 759.163 0.59404 -0.0685873 0.801506
130.917 51.4457 747.423 0.858348 0.507855 0.072946
130.579 46.5602 758.604 0.714206 0.101447 0.692545
131.17 52.6234 751.612 0.788613 0.547896 0.279103
131.34 52.3556 753.825 0.775749 0.516614 0.362385
-1.42413 -88.0651 549.141 0.244803 -0.803881 -0.542076
-2.93053 -89.9082 551.551 0.2437 -0.828727 -0.503807
-2.7273 -91.1439 553.612 0.270321 -0.866582 -0.419478
-2.77899 -92.7136 556.514 0.303494 -0.907911 -0.289117
-4.06677 -93.9878 559.018 0.293301 -0.935681 -0.196153
2.07485 -79.9559 540.48 0.517856 -0.626228 -0.582807
1.62895 -81.5685 542.69 0.414773 -0.697374 -0.584493
0.831641 -83.1701 544.992 0.37948 -0.721002 -0.579786
0.929134 -85.2071 547.217 0.358873 -0.761098 -0.540315
0.356454 -87.6914 549.502 0.367351 -0.782391 -0.502909
0.603787 -88.8695 552.277 0.393411 -0.808628 -0.437434
0.00497949 -90.396 555.074 0.400275 -0.858347 -0.320967
-0.510024 -91.7251 557.551 0.40023 -0.893093 -0.205431
-1.64004 -92.7003 560.4 0.395532 -0.9152 -0.0772227
-3.01521 -92.9896 563.024 0.394866 -0.917641 0.0448947
4.14086 -78.8532 541.245 0.570182 -0.570392 -0.591223
3.9439 -81.0498 543.479 0.521443 -0.622563 -0.583534
4.02761 -82.4504 546.183 0.529398 -0.65662 -0.537203
2.73335 -84.7332 547.87 0.438278 -0.736243 -0.515615
2.30918 -86.7741 550.14 0.42727 -0.762861 -0.485267
0.204854 -92.1032 559.822 0.499521 -0.864536 -0.0552869
-0.597514 -91.2549 563.601 0.491791 -0.862635 0.118335
6.1364 -77.0637 542.664 0.659419 -0.484028 -0.575225
6.08511 -79.3598 544.536 0.635412 -0.546963 -0.545053
0.419075 -89.4368 566.062 0.587881 -0.762914 0.268997
7.32984 -72.9193 541.718 0.756549 -0.318145 -0.571329
7.83074 -74.8672 543.854 0.744654 -0.377508 -0.550435
8.94395 -75.906 545.073 0.765688 -0.390386 -0.511195
2.50164 -87.6204 567.347 0.659605 -0.676007 0.328538
8.81764 -71.1043 543.373 0.820404 -0.2273 -0.524664
9.41505 -72.975 545.295 0.818258 -0.286507 -0.498365
10.3039 -74.2072 546.304 0.832302 -0.290462 -0.472128
4.63144 -85.3923 568.012 0.725652 -0.57704 0.374772
10.5457 -69.1101 545.095 0.86876 -0.155184 -0.470291
11.1639 -71.0164 546.753 0.872173 -0.202103 -0.445498
12.2079 -71.8289 548.027 0.885655 -0.221674 -0.408016
7.26088 -82.7444 567.698 0.790604 -0.463996 0.399567
5.34041 -82.9601 570.474 0.756661 -0.458817 0.46578
12.3931 -68.2893 548.466 0.915117 -0.117425 -0.385709
13.2959 -70.4699 549.011 0.918137 -0.157804 -0.363486
8.62067 -78.4023 567.159 0.846565 -0.322065 0.423795
7.23991 -79.893 569.118 0.818541 -0.353373 0.4529
13.3404 -66.7048 550.367 0.94097 -0.0484345 -0.335007
13.8321 -69.1097 551.958 0.953918 -0.11154 -0.278566
13.8071 -69.5457 555.906 0.984707 -0.126964 -0.119302
10.7888 -76.1723 565.146 0.875166 -0.283374 0.392153
15.0036 -66.0044 554.164 0.983593 -0.0253552 -0.178612
14.843 -67.8001 556.821 0.996543 -0.0642127 -0.0527127
13.7008 -69.7751 558.778 0.984761 -0.147041 0.0928736
13.1384 -70.1432 561.939 0.949383 -0.166723 0.266226
12.3053 -72.4598 563.213 0.902949 -0.234012 0.360446
15.6116 -65.115 558.156 0.999872 -0.013582 0.00840914
14.6734 -66.2891 560.763 0.982461 -0.0524466 0.178938
25.9515 -75.7419 666.221 -0.0280249 -0.837553 -0.545636
25.663 -77.3497 668.759 -0.0276833 -0.84402 -0.535596
24.6715 -78.3256 671.202 -0.0349842 -0.847768 -0.529212
24.4147 -80.0904 673.719 -0.0390954 -0.848772 -0.527312
23.4349 -81.766 676.302 -0.0376003 -0.842614 -0.537203
22.827 -83.3055 679.099 -0.0375034 -0.834622 -0.549545
21.6316 -84.6678 681.284 -0.0370212 -0.835844 -0.547718
21.6158 -86.4624 683.779 -0.0390094 -0.837092 -0.545669
21.0649 -87.8754 686.135 -0.0482639 -0.842153 -0.537074
20.6154 -89.6352 689.119 -0.0808661 -0.867034 -0.491643
19.9113 -90.8238 691.175 -0.10435 -0.892514 -0.438782
18.9629 -92.3931 693.882 -0.158979 -0.925046 -0.344986
18.6737 -93.4744 696.71 -0.184278 -0.933417 -0.307856
18.8719 -93.787 699.292 -0.19107 -0.947156 -0.257659
34.0446 -56.3583 636.818 -0.0514393 -0.824211 -0.563942
33.4836 -57.8847 639.341 -0.050538 -0.828559 -0.557616
33.2973 -59.5626 641.863 -0.045733 -0.832887 -0.551551
32.3619 -61.2534 644.215 -0.0447914 -0.833867 -0.550145
31.8008 -62.6745 646.797 -0.0496531 -0.835255 -0.547616
31.0568 -64.3838 649.471 -0.0519689 -0.841739 -0.537378
30.4298 -65.7972 651.607 -0.0551358 -0.836914 -0.54455
29.867 -67.7058 654.356 -0.0534993 -0.829837 -0.555435
29.6931 -68.9787 656.813 -0.0450908 -0.826468 -0.561176
28.7236 -70.6461 659.17 -0.0380749 -0.826651 -0.561425
28.1437 -72.2043 660.946 -0.0292042 -0.826854 -0.561658
26.7847 -73.9811 663.885 -0.0303424 -0.829586 -0.557554
25.8019 -81.7333 675.672 -0.0385342 -0.847925 -0.528714
25.0537 -83.6281 679.115 -0.0331352 -0.83667 -0.546704
24.4926 -85.0491 681.696 -0.0318319 -0.834627 -0.549894
19.274 -94.1648 703.432 -0.22083 -0.950868 -0.216987
57.1893 -1.26643 538.544 -0.0824582 -0.759457 -0.645311
56.714 -3.61121 541.798 -0.108733 -0.78319 -0.612201
55.3356 -4.99858 544.22 -0.112883 -0.81699 -0.565494
55.5917 -6.45338 546.961 -0.133579 -0.841464 -0.523541
53.6686 -7.99374 549.181 -0.144553 -0.865591 -0.479433
52.8348 -9.22809 551.807 -0.155605 -0.875189 -0.458074
54.0953 -10.2429 553.846 -0.168747 -0.87991 -0.444166
53.0959 -12.1161 557.536 -0.188833 -0.891897 -0.410927
51.8527 -12.807 560.372 -0.190681 -0.893238 -0.407144
52.2235 -13.9269 563.031 -0.205559 -0.885786 -0.416088
51.5873 -15.3268 566.073 -0.212461 -0.885934 -0.412288
51.5167 -16.3664 568.341 -0.211724 -0.888063 -0.408064
50.304 -17.2768 570.996 -0.205014 -0.889257 -0.40889
39.2256 -46.1986 622.62 -0.0747898 -0.789681 -0.608943
38.2111 -48.1859 624.792 -0.0729701 -0.800228 -0.59524
37.65 -49.607 627.373 -0.0688139 -0.807197 -0.586258
37.0718 -51.0013 629.734 -0.0818409 -0.81971 -0.566902
36.0625 -53.2579 632.136 -0.0680434 -0.823773 -0.562822
35.8315 -54.8299 634.561 -0.0672207 -0.822504 -0.564773
35.9513 -56.1913 637.324 -0.0603832 -0.824185 -0.563092
35.5772 -57.1387 639.045 -0.0593383 -0.826349 -0.560024
34.5419 -61.6943 644.446 -0.0621147 -0.829047 -0.555719
33.9807 -63.1154 647.028 -0.0622126 -0.831483 -0.552056
33.4195 -64.5365 649.61 -0.0674209 -0.836305 -0.544103
20.2127 -94.3834 706.421 -0.241111 -0.950235 -0.197276
59.7358 0.484549 538.899 -0.0556699 -0.740499 -0.669748
53.6631 -15.3653 565.457 -0.21774 -0.885403 -0.410672
52.4473 -18.4443 571.051 -0.210565 -0.893176 -0.397364
50.4177 -18.7594 573.729 -0.193652 -0.892336 -0.40772
49.7358 -20.0476 576.261 -0.185665 -0.888412 -0.419825
49.5362 -21.3407 579.282 -0.17808 -0.88799 -0.423982
49.9287 -22.8889 582.001 -0.170278 -0.888073 -0.427004
49.1163 -24.2884 584.831 -0.157035 -0.888864 -0.430418
48.1686 -24.9938 587.664 -0.164396 -0.904719 -0.393012
47.6993 -26.2522 590.123 -0.161525 -0.926711 -0.339287
46.9557 -27.7094 592.812 -0.16184 -0.937538 -0.307944
47.5767 -28.5765 595.499 -0.131702 -0.932837 -0.335365
43.8414 -35.2109 608.988 -0.0673908 -0.763138 -0.642713
43.7091 -37.2612 611.084 -0.0715483 -0.761234 -0.644518
42.7642 -39.2334 612.989 -0.074733 -0.755143 -0.651286
41.7872 -41.1839 615.237 -0.067973 -0.751443 -0.656288
41.5961 -42.9838 617.933 -0.0712124 -0.756201 -0.650453
40.1494 -44.3245 620.366 -0.066312 -0.774284 -0.629355
49.5901 -27.7745 593.182 -0.137583 -0.943326 -0.302005
49.216 -28.7218 594.904 -0.131228 -0.936546 -0.325055
48.2896 -27.9325 598.477 -0.128583 -0.909849 -0.394515
47.0867 -29.8979 601.927 -0.119237 -0.862605 -0.491625
47.0715 -32.219 604.132 -0.0959483 -0.811052 -0.577051
46.4168 -33.877 607.144 -0.0715645 -0.765597 -0.639327
45.9492 -35.0612 609.296 -0.0700406 -0.761032 -0.644922
45.4749 -38.1957 612.116 -0.0781166 -0.760093 -0.645102
50.0997 -28.5781 599.823 -0.127616 -0.894176 -0.429142
27.8521 -88.7307 733.852 0.335428 -0.516034 0.788161
29.8847 -87.6829 736.253 0.380393 -0.489399 0.784723
31.2432 -84.5912 738.61 0.416751 -0.482905 0.770144
33.8839 -81.9273 738.617 0.479402 -0.429838 0.765123
32.7909 -82.9452 738.69 0.468349 -0.452042 0.759149
36.4556 -78.2384 737.623 0.636731 -0.251592 0.728886
34.7195 -79.3051 738.983 0.589878 -0.307006 0.746854
38.6487 -74.7788 736.518 0.680187 -0.154901 0.716485
37.1396 -75.8256 737.938 0.66639 -0.182221 0.722994
40.6243 -70.8317 735.15 0.710371 -0.118982 0.693698
39.1058 -72.3858 736.773 0.704262 -0.125917 0.698685
42.6433 -67.7414 733.901 0.714132 -0.114526 0.690579
40.7159 -69.0153 735.589 0.714471 -0.115452 0.690074
45.4273 -64.7988 732.078 0.717487 -0.116711 0.686725
43.1004 -65.3484 734.156 0.71596 -0.112862 0.688958
47.2418 -61.3877 730.341 0.715966 -0.12389 0.687054
45.6992 -62.6922 732.019 0.714698 -0.115464 0.689837
49.5899 -55.9888 728.013 0.713486 -0.171172 0.67944
48.0152 -58.2636 729.44 0.712821 -0.146486 0.685877
52.1476 -52.6585 726.684 0.716595 -0.233838 0.657123
50.1648 -53.9472 728.216 0.715688 -0.22298 0.661869
54.615 -49.6928 724.917 0.689224 -0.337315 0.64124
52.6082 -49.7195 727.298 0.705959 -0.391221 0.590396
56.8892 -46.2697 723.519 0.67563 -0.459954 0.576165
55.064 -47.1684 725.227 0.688094 -0.464502 0.557463
58.0581 -43.7169 725.686 0.599639 -0.691019 0.403639
59.456 -41.8367 725.524 0.536605 -0.794479 0.284356
61.3537 -40.7228 727.687 0.428768 -0.90169 0.0557945
60.2737 -40.4812 731.329 0.327144 -0.940887 -0.087801
59.6655 -41.2518 734.219 0.215613 -0.944269 -0.248731
56.8174 -48.3742 747.255 0.0387839 -0.962994 -0.266716
56.3829 -49.3971 748.921 0.0522692 -0.979146 -0.196316
92.4279 38.5011 592.494 0.782462 -0.227416 -0.579686
62.2125 -39.9509 732.148 0.221655 -0.944236 -0.243492
61.6514 -41.372 734.73 0.171113 -0.934614 -0.311796
60.1697 -42.8015 737.325 0.122318 -0.914334 -0.386046
59.6564 -44.2328 739.868 0.0891323 -0.89915 -0.428469
59.1613 -45.6841 742.418 0.0442467 -0.906375 -0.42015
58.5995 -46.8719 744.679 0.0378548 -0.94737 -0.317894
58.8547 -48.7437 749.689 0.06778 -0.993024 -0.0964803
93.8728 40.0659 594.831 0.797502 -0.346579 -0.493835
95.1347 37.9981 596.291 0.839405 -0.331681 -0.430565
59.9151 -46.8069 752.276 0.145573 -0.962061 0.230753
94.9022 39.9606 597.902 0.839974 -0.368724 -0.398105
93.2204 36.7862 605.666 0.962174 -0.111106 -0.248749
93.2312 33.8582 608.511 0.969112 0.0317615 -0.244566
93.1706 33.9733 611.466 0.914719 -0.0496493 -0.401028
93.7857 37.4111 610.781 0.831943 -0.31792 -0.45475
94.0425 35.4298 613.232 0.887287 -0.170502 -0.428546
95.311 37.7173 614.767 0.758115 -0.414416 -0.503509
95.2784 35.4087 615.958 0.807284 -0.301443 -0.50737
98.9763 44.4182 609.084 0.381436 -0.762615 -0.522422
98.1977 42.8311 611.237 0.484578 -0.718536 -0.498888
97.8397 41.3172 613.722 0.542412 -0.671524 -0.504822
97.3744 39.7235 616.319 0.564804 -0.637862 -0.523572
97.6137 38.3559 617.943 0.593395 -0.566819 -0.571489
103.36 54.4422 594.348 0.546873 -0.540567 -0.63931
102.716 52.5861 596.506 0.426415 -0.668815 -0.60898
101.982 50.5205 598.862 0.395004 -0.694064 -0.60187
101.256 49.2128 601.47 0.328992 -0.76303 -0.556372
100.879 47.6329 604.067 0.295357 -0.792983 -0.532862
100.292 46.5027 606.276 0.338535 -0.782726 -0.522239
70.6371 -29.8931 746.874 0.506802 -0.135659 0.851322
68.4565 -32.0588 748.888 0.634666 0.0683809 0.769755
105.461 56.2763 595.96 0.751723 -0.312277 -0.580857
72.942 -27.7887 747.178 0.34635 -0.308078 0.886075
106.129 58.4303 597.92 0.914666 0.0872393 -0.394685
107.237 56.1068 599.767 0.895354 -0.0292707 -0.444393
73.3782 -24.8308 748.707 0.291469 -0.411972 0.863322
107.558 57.4855 603.908 0.924437 0.234909 -0.300391
76.0152 -22.8788 749.193 0.240162 -0.447157 0.861611
107.566 57.2907 606.707 0.920439 0.257125 -0.294414
108.218 57.018 609.41 0.913075 0.339473 -0.225947
77.5726 -20.0625 750.694 0.233761 -0.44839 0.862729
108.938 56.7733 613.693 0.889067 0.435897 -0.139836
109.975 55.3356 614.87 0.903402 0.393993 -0.169218
80.356 -18.223 750.665 0.241883 -0.420247 0.874577
109.147 57.1046 617.406 0.855964 0.510142 -0.0841427
109.584 56.9911 620.634 0.847039 0.527776 -0.0630681
81.8293 -15.1362 752.394 0.266489 -0.389693 0.881545
110.381 55.5039 624.346 0.845886 0.529985 -0.0599453
110.362 55.8154 628 0.844478 0.533377 -0.0486439
110.732 55.6966 634.018 0.847848 0.527283 -0.0559182
85.2889 -10.2147 752.95 0.337843 -0.354084 0.872059
83.5113 -12.0041 753.322 0.316267 -0.369804 0.873624
111.308 55.3629 638.414 0.856498 0.512859 -0.0582026
111.884 54.6914 641.074 0.861514 0.502665 -0.0715575
112.093 54.4961 644.498 0.866579 0.492479 -0.080649
112.868 53.3626 646.561 0.871754 0.481448 -0.0908481
89.2822 -5.25739 752.867 0.380937 -0.336271 0.861283
112.763 54.861 649.687 0.876417 0.466973 -0.117603
113.163 54.2153 651.897 0.882197 0.453926 -0.12522
91.1339 -1.4896 753.407 0.386535 -0.372222 0.843825
113.941 54.3715 656.103 0.884586 0.443738 -0.143539
114.665 52.5525 656.189 0.885195 0.443049 -0.141907
93.1385 0.319759 753.096 0.386224 -0.382321 0.839441
114.662 54.5376 659.14 0.882059 0.443382 -0.159322
115.202 54.0606 662.655 0.876632 0.454231 -0.158716
95.2172 4.10744 753.695 0.383046 -0.419312 0.823075
115.086 55.5684 663.75 0.875836 0.454596 -0.162032
115.665 54.4939 665.608 0.878157 0.450024 -0.16223
96.4997 6.46044 755.463 0.384396 -0.43174 0.81599
116.161 55.2792 671.087 0.868546 0.475017 -0.141378
98.4158 7.73404 755.109 0.385813 -0.433657 0.814303
116.998 55.1924 673.836 0.871101 0.470572 -0.140518
100.172 11.161 755.75 0.392793 -0.430182 0.812809
117.831 55.71 677.787 0.862571 0.486685 -0.138237
118.086 55.3082 681.108 0.863923 0.483041 -0.14251
101.48 13.7825 756.78 0.394187 -0.428021 0.813274
118.681 54.9363 684.518 0.870848 0.472804 -0.134458
119.669 54.1081 686.601 0.87153 0.469463 -0.14156
103.287 16.3938 757.274 0.394168 -0.421037 0.81692
120.284 54.8873 690.94 0.861821 0.477438 -0.171222
105.358 17.8315 757.063 0.387682 -0.426408 0.817238
120.916 55.316 696.252 0.857002 0.488843 -0.163031
107.922 20.623 757.317 0.382335 -0.42977 0.817996
121.198 55.9226 700.52 0.850661 0.501102 -0.158973
108.206 23.8981 759.084 0.379597 -0.433143 0.817492
122.515 54.8184 703.297 0.86038 0.480743 -0.169212
122.433 55.3619 706.193 0.857957 0.488513 -0.158949
110.876 26.5791 759.204 0.384331 -0.44234 0.810324
110.544 24.5019 758.376 0.386808 -0.438672 0.811139
123.338 55.0773 711.172 0.860686 0.488584 -0.143199
112.576 29.0228 759.369 0.388909 -0.443511 0.807495
124.096 54.6323 713.996 0.861679 0.485685 -0.147036
124.623 54.5702 717.563 0.850068 0.505616 -0.147433
114.639 31.9194 759.862 0.386902 -0.42921 0.816141
124.51 55.1713 721.936 0.839688 0.523681 -0.143813
126.028 54.4047 727.073 0.840213 0.522898 -0.143596
118.78 36.9006 760.599 0.40113 -0.409051 0.819617
126.363 55.3249 732.881 0.832131 0.537252 -0.137542
120.8 40.1275 760.684 0.416615 -0.374926 0.828168
126.796 55.026 736.878 0.834336 0.532966 -0.140823
128.328 54.8774 739.453 0.836356 0.532402 -0.130598
129.129 53.5756 742.396 0.849667 0.515977 -0.108787
129.279 54.1457 748.553 0.846879 0.527151 0.0700482
127.938 47.7672 759.856 0.590434 0.174406 0.788016
-6.39649 -91.299 553.31 0.141806 -0.865336 -0.480712
-7.04688 -92.7715 555.554 0.165549 -0.903675 -0.394924
-7.42692 -94.3919 558.211 0.209667 -0.930933 -0.299003
-2.7296 -81.7396 541.649 0.289577 -0.775294 -0.561307
-3.01811 -83.3474 544.187 0.213473 -0.792044 -0.571922
-2.86006 -85.2459 546.43 0.199036 -0.796015 -0.571616
-4.16017 -87.3407 548.422 0.115192 -0.800581 -0.588049
-4.87807 -89.2931 550.387 0.129998 -0.818758 -0.559228
-6.27361 -93.7968 560.968 0.331745 -0.939414 -0.0862965
-7.42833 -94.1936 564.372 0.413405 -0.910405 -0.0161043
0.161686 -77.4787 537.651 0.508117 -0.578488 -0.638097
-0.216844 -79.7263 539.817 0.434457 -0.6931 -0.575204
-0.476356 -81.9053 542.435 0.351881 -0.745374 -0.566213
-0.788106 -82.6948 543.869 0.341123 -0.750017 -0.566665
-1.44939 -86.303 547.549 0.232567 -0.792225 -0.564174
-4.69117 -93.6622 562.645 0.370923 -0.928664 -0.000200775
-5.70592 -93.2787 566.13 0.431601 -0.892813 0.128864
-6.63671 -93.7731 568.164 0.528072 -0.841734 0.112358
2.14258 -73.7568 536.644 0.616028 -0.423508 -0.664191
2.84147 -75.8569 538.545 0.596556 -0.502262 -0.625982
3.51521 -77.2211 539.683 0.593115 -0.526924 -0.608742
-3.37927 -91.7568 567.368 0.453892 -0.849518 0.268888
-4.98299 -92.163 569.7 0.532715 -0.797596 0.28294
4.35032 -72.2295 537.965 0.68055 -0.355023 -0.640945
4.74465 -74.6243 540.073 0.673307 -0.430315 -0.601237
-1.40496 -89.9338 568.51 0.535926 -0.770273 0.345635
-3.48991 -90.3302 571.615 0.485659 -0.777869 0.398818
6.43678 -70.5022 539.369 0.766993 -0.277852 -0.578377
0.363121 -87.857 570.037 0.606969 -0.69101 0.392548
-1.6762 -88.4161 573.063 0.533412 -0.709085 0.461162
7.61474 -66.4549 538.865 0.811289 -0.180416 -0.556112
8.15963 -68.5259 540.831 0.818234 -0.205308 -0.536974
8.2393 -69.258 542.769 0.821445 -0.208918 -0.530643
1.98891 -86.036 571.77 0.672964 -0.580937 0.457855
-0.250201 -86.2774 574.444 0.610649 -0.59012 0.528077
8.62358 -64.8743 540.153 0.861645 -0.126009 -0.491619
8.81493 -66.0814 542.319 0.858267 -0.133239 -0.495606
9.61588 -67.2701 544.395 0.866883 -0.138809 -0.478796
3.41111 -83.801 573.005 0.71574 -0.478817 0.50838
1.20948 -83.9292 575.462 0.666487 -0.494464 0.557943
10.1512 -63.5773 543.988 0.904203 -0.0485006 -0.42434
10.8651 -65.5708 545.951 0.902102 -0.0721825 -0.425443
11.5392 -67.1982 546.944 0.904759 -0.097077 -0.414714
6.05706 -78.4897 570.621 0.804101 -0.327845 0.495923
5.39051 -80.4015 571.457 0.782795 -0.374661 0.496851
3.45746 -80.8724 574.679 0.750299 -0.363599 0.552129
11.7805 -61.8378 545.88 0.923312 0.00932151 -0.383939
12.1309 -63.5823 547.901 0.931899 -0.00698871 -0.36265
12.5741 -64.5635 549.781 0.938335 -0.0173427 -0.345292
8.22472 -75.4193 568.473 0.843223 -0.24422 0.478886
6.66809 -76.3066 570.826 0.820074 -0.25315 0.513219
5.27199 -77.5775 573.276 0.787097 -0.289185 0.54484
12.5293 -61.2357 549.445 0.946518 0.0384672 -0.32035
13.7051 -63.5495 551.969 0.965084 0.0204074 -0.261146
10.2952 -72.002 567.037 0.857357 -0.1943 0.476641
8.2917 -72.7407 569.526 0.841149 -0.200634 0.50221
13.8456 -60.5718 553.749 0.982806 0.0595722 -0.174766
15.0776 -62.8451 555.903 0.993292 0.0372205 -0.109483
14.0568 -65.1718 561.679 0.975773 -0.051388 0.212666
13.1617 -67.2628 563.276 0.937081 -0.108099 0.331956
11.0922 -68.5782 565.764 0.889465 -0.15243 0.430833
14.9824 -60.0638 557.596 0.99757 0.0686089 -0.0121513
14.7994 -62.4095 559.585 0.997715 0.0245257 0.0629516
14.2369 -62.7775 562.746 0.967721 -0.0120677 0.251734
13.4445 -64.19 564.352 0.936463 -0.0608936 0.34544
18.6245 -84.5172 680.946 -0.0424765 -0.835773 -0.547429
17.7729 -85.9093 682.861 -0.0446749 -0.839937 -0.540842
17.2846 -87.6311 685.913 -0.0554164 -0.85164 -0.521189
16.428 -89.0378 688.496 -0.0905897 -0.8792 -0.467761
16.333 -90.4398 691.045 -0.118311 -0.907747 -0.402489
15.9484 -91.6811 693.386 -0.164178 -0.931665 -0.324107
27.9184 -62.3826 646.114 -0.0407262 -0.837564 -0.54482
27.3104 -63.9221 648.911 -0.0475861 -0.844919 -0.532774
26.9015 -65.1241 651.123 -0.0501528 -0.840286 -0.539819
26.484 -67.0946 653.899 -0.0423724 -0.830472 -0.555447
25.7422 -68.3769 656.285 -0.0433878 -0.825855 -0.562211
24.8874 -69.7094 658.562 -0.0392104 -0.823134 -0.566492
24.3827 -72.1086 660.908 -0.037663 -0.823322 -0.566324
23.9238 -73.5998 663.473 -0.0296469 -0.826556 -0.562074
22.6816 -75.0805 665.874 -0.0302302 -0.837789 -0.545156
22.9384 -77.0618 668.325 -0.0306654 -0.844907 -0.534033
22.3773 -78.4829 670.907 -0.0356398 -0.849749 -0.525981
21.8161 -79.904 673.489 -0.0433371 -0.848683 -0.527123
21.255 -81.3251 676.071 -0.0450522 -0.843433 -0.535341
20.0128 -82.8058 678.472 -0.041914 -0.835129 -0.548454
20.3197 -83.6935 680.374 -0.0394023 -0.837555 -0.544931
19.5649 -87.5386 684.484 -0.0469943 -0.841584 -0.538078
18.8167 -89.4334 687.926 -0.0677177 -0.862001 -0.502363
15.0883 -92.296 695.998 -0.197098 -0.936241 -0.29087
15.7564 -92.7926 698.485 -0.211155 -0.945119 -0.249327
53.544 0.592697 536.451 -0.0337357 -0.767272 -0.640433
52.3083 -1.61911 538.838 -0.0483758 -0.781717 -0.621754
52.0822 -3.06905 541.089 -0.0678914 -0.779222 -0.623061
52.2488 -4.31207 543.637 -0.0902453 -0.823087 -0.5607
51.5045 -5.75819 546.456 -0.12085 -0.858675 -0.498068
50.3987 -7.3323 548.835 -0.133528 -0.86731 -0.479525
50.0646 -8.73351 551.477 -0.146676 -0.878446 -0.454773
49.5484 -9.83471 554.244 -0.158497 -0.891898 -0.423553
48.8336 -11.0004 557.321 -0.170418 -0.902689 -0.395107
34.2602 -47.5841 624.264 -0.0387857 -0.80035 -0.598277
33.6991 -49.0052 626.846 -0.0375779 -0.813043 -0.580989
33.6935 -50.7917 629.115 -0.0421655 -0.819581 -0.57141
32.5324 -52.6937 631.534 -0.0364973 -0.822517 -0.567568
32.017 -54.3215 634.012 -0.0352067 -0.821907 -0.568533
31.388 -55.9591 636.46 -0.0277841 -0.824425 -0.565289
30.4863 -57.41 638.951 -0.0296465 -0.83154 -0.554673
29.6999 -59.0524 641.072 -0.0324898 -0.833999 -0.550808
29.501 -60.8721 643.803 -0.0367721 -0.837169 -0.545707
29.6208 -62.2335 646.566 -0.0422048 -0.837289 -0.545129
29.1532 -63.4177 648.717 -0.0506952 -0.841438 -0.537971
26.9955 -70.8155 659.282 -0.0408201 -0.823333 -0.566088
16.9185 -93.7032 702.012 -0.227622 -0.949872 -0.214314
16.2704 -93.4108 704.356 -0.239249 -0.952134 -0.190263
54.7502 2.99863 536.875 -0.0326164 -0.767372 -0.640372
55.2823 -1.27547 538.124 -0.0675031 -0.772778 -0.631077
54.5341 -3.17025 541.567 -0.0978732 -0.789746 -0.605576
53.4586 -5.89399 546.515 -0.133288 -0.855143 -0.500964
51.7283 -10.2757 554.476 -0.170106 -0.889291 -0.42453
51.3542 -11.2231 556.197 -0.174562 -0.898422 -0.402947
48.9701 -11.9974 559.9 -0.169058 -0.90268 -0.395714
49.7709 -13.2992 562.844 -0.181532 -0.895575 -0.406191
49.2097 -14.7202 565.426 -0.189812 -0.893165 -0.40771
48.1032 -15.7678 568.094 -0.192114 -0.89079 -0.411808
47.6507 -16.8424 570.891 -0.189098 -0.891076 -0.412585
47.546 -17.8323 574.099 -0.187488 -0.888769 -0.418255
46.9631 -18.8251 576.622 -0.184728 -0.887074 -0.423055
45.8957 -19.9746 579.243 -0.182733 -0.886184 -0.425777
45.5558 -21.3109 581.753 -0.182792 -0.881612 -0.435141
45.2793 -22.7724 584.541 -0.1834 -0.880321 -0.437492
39.2897 -38.4319 612.675 -0.0566966 -0.75668 -0.651323
38.5288 -40.1145 615.127 -0.0509922 -0.754915 -0.653838
37.7127 -41.9022 617.684 -0.0497624 -0.759099 -0.64907
36.8139 -43.7792 620.108 -0.0513191 -0.77783 -0.626376
35.7744 -45.7636 622.109 -0.0412608 -0.792467 -0.608518
35.2678 -51.9608 630.208 -0.058492 -0.820908 -0.568057
47.7488 -22.448 581.77 -0.174441 -0.884228 -0.433257
47.3123 -23.5532 583.778 -0.168541 -0.883397 -0.437269
45.2632 -24.3564 587.151 -0.186207 -0.896833 -0.401269
44.3826 -25.7092 589.992 -0.192487 -0.917111 -0.349078
43.8682 -27.0118 592.359 -0.178856 -0.928481 -0.325475
44.7396 -27.6406 595.92 -0.143246 -0.92234 -0.358844
43.2381 -29.5921 602.034 -0.0949478 -0.865168 -0.492411
43.3312 -31.0999 603.471 -0.0832421 -0.818432 -0.568542
42.3767 -33.3266 606.279 -0.0666546 -0.769963 -0.634598
41.228 -34.5705 608.249 -0.0597453 -0.76235 -0.644401
40.2355 -36.5604 610.57 -0.0610714 -0.766598 -0.639216
40.9214 -39.7378 613.182 -0.0627625 -0.753187 -0.654805
44.6499 -27.4757 599.245 -0.122205 -0.903941 -0.409825
45.3658 -28.6435 601.082 -0.108846 -0.869885 -0.481096
44.5174 -32.7255 605.622 -0.0700912 -0.775403 -0.627564
26.2119 -87.7956 734.881 0.332636 -0.517526 0.788365
