ply
format ascii 1.0
comment VCGLIB generated
element vertex 2938
property float x
property float y
property float z
element face 0
property list uchar int vertex_indices
end_header
87.5 54.5 626 
86 53 626 
81 52 615 
1 2.5 465 
-1 2.5 463 
-2.5 2.5 460.5 
1 0.5 466.5 
-2 0.6666667 462 
-0.6666667 -3.333333 464.3333 
139.5 46 662 
125 48 671 
37.5 74 556 
-31 67 496 
-22.5 66.66666 488.1667 
35.5 75 554 
34 75 553 
92 79 583 
11 74 530 
57.5 77 551 
59.5 78 550 
60 77 549 
57.5 78 548 
-23 71 492 
-26.33333 72.33334 495 
-24 72 493 
33.5 80.25 546.25 
35.5 80.5 544.5 
-24.5 74 495 
5.333333 76.33334 506.3333 
31.66667 83 542.6667 
-15 76 494 
-12.5 77 492.5 
-14.33333 78.5 492 
31.5 86 538 
29.5 86.5 536.5 
-16.5 80.5 493 
35.2 87 534.6 
-18 82 493 
31.5 88.5 532.5 
-16.5 83 494 
1 84 503 
6 86.33334 512 
7 86.5 514 
-8.5 84.66666 496.8333 
29 90 532 
27.25 90.25 530.25 
5 88.5 510 
-10.66667 86.5 497 
-8 86.5 498 
1.75 88.75 506.5 
-2.6 88.6 502.4 
89 93 535 
-7 88.33334 499 
89.5 94.5 532.5 
92 97 537 
93 107 516 
94 108 514 
111.5 111 531 
115.5 112 528.5 
95 110 514 
94 110 512 
109 113 527 
111.5 114 526 
109.6667 114.6667 524.3333 
95 113 509 
109.5 116 522.5 
96 114 510 
111.4286 116.8571 520.2857 
97 115 512 
114 117 519 
115.5 118 518 
113.5 118.5 516.5 
101 119 513 
105.4 120 514.6 
111 120 516 
101.5 120.5 510.5 
107.25 121 512.75 
97 119 500 
99 120 505 
103.5 122 510.25 
100 122 506 
101.6667 122.3333 508.3333 
86 187 498 
91.5 185 495 
77.5 182 487 
65.5 178 478 
65.66666 176 476 
73.5 174 474.5 
75.5 173 474 
73.6 172.2 473 
78 171 474 
79.66666 170 473 
77.5 169 472 
83.5 167 472 
77.66666 167 470 
79.5 166 469 
77 165 468 
94 160 464 
99.66666 159 464 
94 159 462 
91 77 587 
-20.66667 64.5 486.1667 
87 75 576 
83 73 566 
41.5 72.75 556.75 
-26.4 64.2 489 
-30.33333 64.66666 492.3333 
101.3333 76.33334 596.6667 
82 72 565 
43.5 72 558.75 
37.5 72 560 
103.5 76 598 
86 73 577 
43.5 71 561 
-26 62 487 
113.3333 75 598.3333 
80 70 564 
41.5 70 562 
-25 61 486 
-32 62 493 
111.5 74 600 
43.5 69 563 
-12.66667 60.33333 482.3333 
-26 60 485 
-33 61 494 
81 69 568 
111.5 72.5 602.5 
80 68 567 
78 68 564 
119.5 70.5 604.5 
117.6667 70.33334 606.6667 
81 66 575 
121.5 68 609 
107.3333 67 612.6667 
105 66 614 
77.5 62 575 
101.6667 64.33334 616.6667 
105.5 63 618 
93.5 61 621 
95.5 61 623 
97.5 60 625 
89.5 58.5 622 
69.5 53 604.5 
73.5 52 608.5 
83.5 52.5 618.5 
82 52 617 
79.5 52 614 
0 2.5 464 
1 -1.5 466.5 
-2 -1.666667 462 
-2.5 -3.5 461 
14 30 542 
14 35 547 
137 46 667 
13 42.5 538.5 
-32 66 497 
-31 66.66666 494.6667 
84 75 565 
91 78 585 
-29 66.5 492 
-26.4 66.6 490.2 
-24.5 66.5 489 
29.5 75 555 
55.5 76.5 551 
57.5 76 552 
92 80 583 
-26.5 69 492 
10 73 525 
53 77 549 
54 78 550 
-27 71 494.3333 
-24.66667 70.66666 492.3333 
55.5 78 548 
34 79 547 
-27 72.5 496 
-22.2 72.4 492.8 
31.66667 80.66666 546.3333 
-22.66667 74.5 494.6667 
-20 74 493 
29.5 82 546 
-24.5 75 496 
31.5 82 544 
33.4 82.4 542.6 
-16.66667 76.33334 494 
35.5 83 540.5 
35.5 84.5 538.5 
-16.5 78.33334 492.3333 
33 86 538 
34 85 537 
35.66667 86 536 
-14.33333 80.5 492.1667 
4 83 508 
29.5 87 534 
-13 82 493 
1.8 84.4 504.4 
3 84.5 506.5 
33.66667 88.5 532.5 
-14.66667 83 494 
-2.571429 84.57143 500.4286 
0 84.5 502 
-7 84 497 
-4.666667 84.33334 499 
5 86.5 510 
2 86.5 506 
7 88.66666 514.3333 
21.33333 90.5 530.5 
-6.666667 86.55556 498.7778 
-2.333333 86.66666 502 
6 88.5 512.5 
89 92 537 
88 92 534 
-11 88 497 
-8.5 88.5 498.5 
-1 90.5 505 
-10.75 90.5 498.625 
91 96 535 
92 99 532 
93 104.5 520.5 
94 106 522 
95 107 520 
113.6 110.6 530.6 
93 108 509 
109.6667 113 528.6667 
115.3333 113 527 
113.6667 114 526 
96 112 515 
115.6 114.6 524.4 
117.3333 115 522.6667 
113.4 116.6 520.4 
109.6 118.4 518.6 
111.6 118.6 516.6 
97 116 505 
96 117 503 
98 118 507 
103.75 120 514.5 
101.6667 120.3333 512.3333 
105.5 122.1667 510.5 
97.5 120.5 500.5 
99 121 503 
108 123 509 
88 212 546 
84 211 545 
77.5 209 540 
85 207 539 
88 206 537 
107 188 503 
93 154 455 
103.5 155 461 
97.4 154.4 458.6 
93 152 453 
97 153 457 
95.33334 152.3333 454.6667 
107 154 464 
101.7143 154.2857 462.5714 
99 152 459 
105.5714 152.7143 464.2857 
103.4286 150.7143 464.5714 
101.6667 148.6667 464.6667 
103.3333 148.3333 466.5 
98 141 460.5 
99 140 462.5 
73.5 124 468 
95 122 484 
97 123 490 
95 121 486 
125.6667 74.66666 598.3333 
131 74 600 
129.5 73 601 
132 72 602.5 
-44 67 561 
125 71 603 
133.3333 68.33334 608.6667 
129.5 67 611 
-38 48 505 
-38 47 503 
-39 21 476 
-22.66667 19 458 
-20.5 18.66667 456.8333 
-39 18 475 
-22.33333 16.33333 457 
-32.33333 16.66667 462.5 
-38 16.5 472 
-24.66667 14.5 456.8333 
-26.66667 14.66667 458 
-29 14.5 460 
-37 14.33333 468 
-38 14.66667 470 
-20.5 12.5 455 
-26.4 12.6 457 
-30.5 12.66667 460.5 
-34.33333 12.66667 464.3333 
-12.66667 10.33333 456.5555 
-18.66667 10.33333 455 
-14.5 9 456 
-16.4 8.4 455 
-4.5 6.666667 460.5 
-14.5 6.5 455 
-12.85714 4.285714 455 
-6.5 2.5 458 
-11 2.5 455 
-4.75 0.75 458.625 
-6.6 0.6 456.8 
-9 0 455 
-8 -1.25 456 
-10 -3.5 456 
-38 23 479 
-37 23 476 
-38 24 480 
-26 24 461 
-26.25 26 462.75 
105 50 683 
107.5 50 680 
114 49 672 
119 48 662 
70 52 657 
74 52 653 
82 51 643 
64 53 651 
67.5 52.5 646.5 
91 52 639 
-35 68 504 
-60 77 559 
-34.5 71 506 
-60 79 557 
-33 71 504 
-58.5 79 555 
-32 72.5 502 
-54.5 80.5 552.5 
-56.5 81 551 
-58.66667 82.33334 550.3333 
-56.5 83 548 
-46.5 83 547 
-2.625 76.25 496 
0 76 498 
-43 84 544 
-41 82.5 532 
-44.66667 88.33334 538.3333 
-45 90 536.5 
-50.33333 91 535 
93 115 495 
93 117 488 
94 120 484 
107.5 176 480 
101.5 176 479 
107 175 478 
105 174 477 
107 173 476 
93.5 172.5 474.5 
63.66667 166 467 
62 165 466 
63.2 164.4 464.6 
73 163 465 
71.33334 162 463 
71.66666 160 460 
65.66666 160 459 
61.33333 158 456 
65.66666 157 454.6667 
67 156 453 
109 130 500 
111.5 128.5 500.5 
114 127 501 
109.5 128 502.5 
109.4286 126.7143 504.5714 
117.5 78 593 
117.5 77 594.5 
13 70.5 544 
92 72 600 
89.5 70.5 596.5 
5 58.5 500 
89 69 599 
6 56.5 502.5 
92 66 611 
7 55 507 
88 65 605 
90 64 611 
7 53 504 
-22.5 50.5 480.5 
65.5 59 577 
83 60 597 
67.5 58.5 578.25 
-22.66667 47 476.3333 
81 58 593 
79 57 588 
10 50.5 513 
113.5 59 625 
78 56 590 
10 48 514 
8 48 508 
115 58 626 
79 54 595 
135.5 56 629 
-5 42 475 
135.5 53 633 
5.5 18.5 476.5 
7 16 477 
8 13 481 
3.5 12.5 468.5 
-1 -21.5 462.5 
-2 -21.5 460.5 
-1 -23 460.5 
4 23 479 
4 24 480 
4 26.66667 483 
12 34 531 
-18.5 34.75 468.25 
141 47 649 
141 48 647 
-6.5 36.5 470.25 
135.5 50.5 638.5 
137.5 50 640 
133.5 51 636.5 
10 42 520 
133.5 52 635 
-5 40 473 
13 72.5 542.5 
123.5 78.5 590.5 
13 74.5 540.5 
119.6667 80.33334 588.6667 
17.5 77 551 
115.6 82 586.4 
19.66667 78.66666 550.3333 
17.5 78.5 548.5 
113.5 83 584 
121.5 84 582 
123.5 84 580.5 
96 86 578 
99.5 88 576 
95.5 88 572.5 
12 84.5 533 
107.5 90 570 
105.5 91 569 
49.4 88.8 530.6 
51.5 89 529 
49.66667 90 528 
103.6667 95 562 
47.66667 91 526.3333 
94 95 552 
107.3333 96.33334 560.3333 
101.5 97 558.5 
59.5 91 523 
75.33334 92 524 
94 96 550 
61.75 92.25 522 
101.3333 98.5 556 
63.5 93 520.5 
95 97 548 
97 99 552 
101.5 100 555 
67.66666 94.33334 518.6667 
103.4 100.4 552.4 
65.5 95 516.5 
105.3333 101 550.6667 
107.5 101 549 
105.3333 102 548.3333 
111.6667 102.6667 546.6667 
115.6667 103 543 
109.6667 105 543 
109.5 106 540.5 
83.66666 100 508 
85.66666 101 506.3333 
87.33334 102.3333 506.3333 
85.66666 102.3333 504.3333 
99.5 108.5 533 
89.5 104.5 506.5 
87.33334 104.3333 501 
91.5 106.5 506.5 
90 107 504 
109.4 125 506.6 
109 182 491 
97.5 177 481 
97.5 175 478 
99.33334 174 476.6667 
103.3333 172 475 
69 166 467 
71.5 165 467 
69 164 465 
61.66667 162.3333 462 
61.33333 161 460 
69 159 458 
75.5 156 455 
109.6667 78 594 
111.5 77 595 
13 66 543 
-22.5 59 482 
-20.33333 58 481 
-22.66667 56.5 480 
92 70 605 
7 58 509 
91.5 68.5 607 
90 68 605 
87 67 596 
-24.5 54.66667 480 
89 66 603 
-26.5 53 481 
86 65 597 
8 56 511 
-24.33333 52 482.1667 
75.5 59 577 
73.5 58 578 
7 50 501 
77.5 58.5 582.5 
-28.2 48.6 482.6 
7 48.5 502.5 
6 48.5 500.5 
77 55 586 
123.3333 58.66667 624.3333 
121.5 58 626 
-24.5 44.5 474.75 
-28.5 44.5 478.25 
123.5 57 627 
125.5 56 628.5 
-18 42 471 
7 44.5 506 
-12.28571 42.42857 472.8571 
-14.5 41 472 
-33 42.5 484.5 
-34 43 486 
129.5 54.5 630.5 
125.5 53 633 
3 20 471 
1.333333 20.66667 468.6667 
5.5 20.5 481 
6 14.66667 474.6667 
5 12.33333 472.6667 
-1 -25 457 
-2 -25 458 
1.5 22.5 471 
1 24.5 472.5 
-2 24.5 468 
-0.5 25 471 
-2.25 26.5 470.25 
1 26.5 474.5 
10 29 516 
-6.333333 28.66667 468 
-4 28.5 470 
-5 30.75 469 
-10.5 32.66667 468 
11 36.5 526 
-8.333333 34.5 469 
-4 35 472 
-14.66667 36.66667 468.3333 
-12 37 470 
125.5 51 638.5 
-14.6 38.6 470 
127.5 51 636 
-34.5 40.5 484.5 
127.5 52 635 
-16.5 40.66667 470.8333 
111.5 79 592.5 
113.5 79 591 
23.5 76 554 
109.5 80.5 588.5 
111.5 80 590 
21.33333 76.5 553 
123.5 81 586.5 
23.5 78 552 
123.5 82 584 
12 76.5 534 
25.66667 79 550.6667 
118 83 583 
28 79 549 
115.5 84 582 
21.5 80 548 
113.5 85 581 
101.5 86.5 578.5 
105.5 88 576 
103.6667 88.66666 574.6667 
93 89 565 
97.66666 90 570.6667 
103.5 90 573 
94 90 566 
95 91 564 
94 92 561 
59.33333 88 530 
95 93 562 
57.5 89 528.5 
96 94 561 
53.5 90.5 526.5 
98 96 560 
55.5 91 525 
65.5 92 524 
71.5 92.5 522.5 
69.33334 93 520.3333 
105.6 99 554.4 
71.5 94 520.5 
73.66666 94.66666 518.3333 
71.5 96 518 
75.5 95 517 
97 101 548 
99 101 550 
69.5 96 516 
83.33334 96 514.3333 
99.5 102.5 548.5 
117.5 102 546.5 
119.3333 102.6667 544.6667 
81.5 97 513 
77.75 98 510.75 
83.66666 98 512 
121.5 103 543 
119.5 104 542 
79.6 99 508.4 
88 100 514 
118 105 540.5 
119.75 106 540.5 
79.4 100.4 506.6 
113.5 107 538 
77.33334 101 505 
89.5 102.5 511 
101.4 108 536.6 
115 107 537 
79.5 102 504 
91.5 104.5 514.5 
81.5 102 503 
107.5 109 534.5 
83.4 103 500.6 
77.66666 104 500.8333 
107.4 110.4 532.6 
113.6667 124 508 
64 188 496 
100 178 482 
99 177 481 
97.5 174 476 
100 173 476 
70 165 466 
63.5 162.5 462.5 
63.66667 161 460.6667 
71.5 159 458 
70 159 457 
71.66666 157 456 
73.66666 156 455 
111.5 78 594 
109.5 77 595 
-20.33333 59 482 
-22.5 58 481 
13 64.33334 543 
-20.33333 56.5 480 
7 59 510 
91 69 605 
-20 54.5 479 
89 67 601 
-26.66667 54.66667 480.4445 
87 66 599 
7 56.5 508.5 
-24.33333 53 481 
-26.5 52.5 482.5 
86 62 601 
73.5 59 577 
9 52 510 
85 61 602 
77.5 58.5 580.5 
75.5 58 578.5 
7 50.5 502 
77 57 583 
-24.5 46 475 
-28 46 479 
121.5 59 625 
123 58 626 
-26 44.33333 475 
7 46.5 506.5 
-30 44 479 
127.6667 56.33333 628.6667 
-14.66667 42.5 472.1667 
131.5 54.5 630.5 
7 44 505 
-12.25 41 472 
-34 42 485 
127.5 53 633 
2 21 470.5 
6 20 483 
5 16.5 471 
5 14.66667 472.3333 
6 12.33333 475 
0 -25 459 
-2.375 -25.375 456.625 
1 22.33333 468.6667 
5 23 481 
-0.6666667 24 468.6667 
1.333333 24.66667 474 
-2 25 470 
-3 26 468 
10 30.5 516.5 
-5 28.5 468.75 
-6.5 30.5 468.3333 
-4.4 30.6 470 
-8.333333 32.66667 468 
11 38.66667 527 
142 47 656 
-10.5 34.5 469 
-12.375 36.625 468.75 
129.5 49 642 
131.5 49 641 
127.5 51 638 
-15 38 469 
-12.33333 38.5 470.1667 
12 43 531 
125.5 52 635 
-35 41 487 
-18.33333 40.66667 470.6667 
109.5 79 592 
115.3333 79 590.3333 
21.33333 76 554 
23.5 76.5 553 
111.5 81 588 
121.5 81 586.5 
21.33333 78 552 
27.6 78.8 550.4 
121.5 82 584 
120 83 583 
25 79 549 
113.5 84 582 
12 78.5 534 
23.5 80 548 
115.3333 85 581 
103.5 86.5 578.5 
93 87 569 
107 88 576 
108 87 575 
101.3333 88.66666 574.6667 
101.6667 90.33334 572.6667 
97.66666 90.66666 569 
99.75 91 570.5 
95 91 566 
57.5 88 530.5 
59.66667 88.66666 528.3333 
95 93 560 
96 94 563 
55.25 90.5 526.75 
99.66666 96 560 
53.66667 91 525 
96 96 556 
67.5 92 524 
69.5 92.25 522.75 
107.6 99 554.6 
75.5 94.5 518.5 
97.5 100 550 
73.66666 95 517 
100 102 551 
71.33334 96.33334 516 
81.33334 96 514 
98 102 549 
119.6667 102 546.6667 
83.5 97 513 
117.6667 103 544.6667 
79.5 98 510.5 
82 98 512 
117.3333 104.3333 542 
77.5 99 508.5 
119.6667 105 541 
88 100.5 512 
117.6 106 540.4 
77.6 100.6 506.4 
115.6667 107 538.6667 
79.5 101 505 
103.5 108 536.5 
113.3333 107 537 
77.33334 102 504 
83.6 102 502.6 
89 103 508 
91 104 512 
105.5 109 534.5 
81.5 103 501 
79.5 104 500.75 
105.6 110.6 532.4 
104 112 532 
115 124 508 
66 188 498 
95.66666 177 481 
95.66666 175 478 
93.5 174 476 
105.3333 172 474.3333 
73.33334 164.6667 466.6667 
67.75 162.75 462.75 
67 161 461 
75.5 159 459 
73.5 158 457 
69.33334 157 455 
71 156 453 
113.6667 77 594.6667 
13 67 544 
-24.4 58.6 482.6 
-24.5 56.5 480.25 
-27 56.5 482 
8 58.5 514 
-22.66667 54.66667 480 
13 60.5 542 
8 57 512 
87 64 600 
8 55 510 
-20.28572 52.42857 481 
-22.5 52 482 
9 54 513 
80 59 586 
71.5 58.5 578.25 
10 52 514 
-20.33333 46.33333 474.6667 
78 56 587 
-30 46 481 
117.5 59 625 
7.5 48.5 505 
119.5 58 626 
-20.33333 44.33333 473 
-22.25 44.625 474 
6 46.33333 500 
-6 43 476 
-31 44.66667 482.3333 
131.5 56 629 
-18.6 42.6 472 
6 44.5 502 
127.5 54.5 630.5 
-4 41 476 
-35 42.5 489 
131.5 53 632 
5 20.5 478.5 
3.5 20.5 472.5 
5 18 472.5 
5 17 474 
5 12.5 471 
-3 -21.66667 457 
-2 -23.5 458.5 
-2.5 -27 455 
3 22 474 
2 23 473 
5 24 483 
1 24 471 
0 25 472 
11 28 521 
-2 27 472 
0 27 474 
11 30.5 523 
-8 29 468 
10 33 518 
-10.5 31 468 
-5 32.5 469 
-6.5 34 469 
-4.714286 34.28571 470.2857 
-16.5 36.66667 468.5 
125.6667 50 640.6667 
131.5 50 639 
-35 39 484.5 
11 42 526 
129.5 51 636.5 
-16.5 38.5 470 
129.5 52 635 
-14.71429 40.57143 470.7143 
113.5 79 593 
111.5 79 591 
25.5 76 554 
113.6667 80 590 
115.5 80.5 588.5 
27.5 76.5 552.5 
25.5 78 552 
117.3333 82.33334 584.6667 
23.5 79 551 
123.5 83 582 
21.5 79 549 
109.5 84 582 
27.33333 80 548.3333 
111.5 85 581 
107.3333 86 578.3333 
106 87 577 
103.5 88.25 576.75 
12 82.5 534 
94 88 570 
105.5 88.5 574.5 
107.5 89 573 
95 89 568 
105.3333 90 572.3333 
53.5 88.5 531 
94 92 559 
55.66667 89 529 
99.5 95 562.5 
53.5 90 528 
59.33333 90 526.3333 
96 95 558 
97.5 95 560.5 
97.33334 96.66666 558.6667 
57.66667 91 524.6667 
63.66667 92 524 
73.5 92.5 522.5 
98 98 556 
76 93 520.3333 
104 99 554.5 
73.33334 94 520.6667 
99.5 100.5 552.5 
71.5 95 518.5 
96 100 548 
69.33334 95 517 
75 96 516 
77.33334 96.5 515 
121.5 102.5 544.5 
79.33334 97 512.3333 
77.5 98 512 
119.5 103 543 
83.5 98.25 510.75 
121 104 542 
81.4 99 508.6 
86 100 510 
89 101 514 
81.5 100.5 506.5 
87 101 508 
89 102 513 
111.5 107 539 
83.5 101 505 
106 108 538 
81.33334 102 504 
107.3333 108 537 
79.5 102.5 502.5 
101.6667 109 534.6667 
92 106.5 510.5 
101.4 110.4 532.6 
111.25 124 508.25 
93 203 533 
115 205 540 
90 199 524 
81 197 519 
61.66667 155 452 
87.57143 150.5714 450.5714 
87.4 148.2 449 
79.6 146.2 447 
77.33334 144.6667 446 
83.83334 142.8333 446 
81.33334 142 445 
82 140 446 
69.33334 138.6667 444.5555 
72 137 445 
71 138 446 
69.8 137 446.8 
75.6 136 448.2 
109 144 478 
71.66666 134.6667 450.2222 
109.3333 142.5 480 
83.66666 133 452.5 
109.4 140 482.6 
105 139 481 
103.6667 138.6667 478.3333 
102 138 476 
81.66666 132 454 
108 140 485 
99.5 136.5 472.5 
98 135 468 
109.6 139 484.4 
87.66666 130.6667 455 
102 136.5 479 
89.33334 130 456 
111 138 486.5 
91.6 130.4 458.4 
101 135 481 
97 132.5 470.5 
89.4 129 459 
79.4 128.4 460.6 
77.5 128 462 
101 133 483 
82 127 461 
111.5 134.5 491 
83.5 126.1667 462.3333 
99 131 483 
98 130 480 
77.5 126 464.25 
79.33334 124.5 465 
111.3333 131 495 
98 128 482 
77.33334 124.5 466.5 
113 130.3333 496.6667 
77.5 123 469 
79.5 122.5 470.3333 
113 128.5 499 
95.5 124.5 481 
81.33334 122 472 
83.6 120.6 472.4 
81.6 120.4 474.4 
92 120 480 
79.33334 119 474.6667 
125.5 78 592.5 
125.5 77 595 
-3 58 485 
-2 57 486 
1.666667 56.66667 490.6667 
5 55 496 
1 52.5 486.5 
6 52 499 
137 59 625 
4 46.66667 494.6667 
111.5 57 628 
109.5 56 630.5 
4 44.5 492.5 
115.5 55 630.5 
109.6667 54.66667 632.6667 
111.5 54 635 
-14.66667 -19.66667 447 
-23 -21.33333 448 
-22 -25 444 
-9 -31 452 
-26.33333 -28 450.6667 
-24.5 -27 448 
-26.28572 -25.71428 448.4286 
-33 -20 464 
-34 -19 467 
-12.6 -17.2 447 
-18 -16 447 
-12.75 -15.75 448.75 
-27 -15.5 454 
-24.5 -15 452 
-14.66667 -15 450 
-31 -13.66667 464.6667 
-24.5 -13.16667 454.3333 
-30 -7.5 459 
-28 -7.4 457 
-28.5 -5.5 458.5 
2 28.5 478 
1 30.5 476 
1.666667 34.33333 480.3333 
3 34 483 
-2 36.5 474.5 
89 51 664 
97.5 50 656.5 
77 52 667 
103.5 50 646 
115 50 642 
113.5 51 640 
123.5 52 637 
127 78 594 
-39 71 524 
127.5 80 588 
-36 88 513 
-36 90.5 514 
87 107 495 
65.33334 108 494 
85 107 493 
67.66666 108.5 492.5 
69.5 109 491 
71.66666 110.3333 490.3333 
69.33334 111 488.6667 
75.66666 112 488 
69.5 112.5 486.5 
69.5 114.25 484.375 
83.4 114 482.6 
81.4 115 480.6 
87.8 116.2 480.4 
89 117 479 
89.33334 118.6667 476.6667 
91 119 478.5 
93 212 547 
109.5 211 549 
65 203 528 
63 203 527 
61 202 525 
106 209 546 
101 208 543 
108 207 542 
105.3333 206 540.6667 
78 196 515 
90 191 508 
81.5 189 502 
104 187 502 
101.5 187 500.5 
67.33334 154 451 
89.5 155 456 
65.66666 153 450 
87.5 154.25 454.25 
67.66666 152 449 
87.66666 152 452 
61.5 151 448 
65.4 148.6 446.8 
71.66666 146.5556 446.4445 
69.4 144.6 446 
73.66666 142.5 445 
107.4444 148.3333 468.3333 
75.66666 140.6667 444 
77.28571 138.5714 444.8571 
79.66666 138 446 
77.66666 137 447 
77.25 135 448.5 
105.6667 142.6667 476.3333 
107.4 142.4 478.6 
79.77778 134.5556 450.7778 
105.5 140.75 478.5 
75.75 133 452.25 
73.8 132.2 454.2 
65.33334 130.6667 456.4445 
67.5 130 458 
65.5 129 459 
107.5 137 488.75 
103.75 136.25 484.5 
106 136 490 
71.375 128.5 460.75 
75.4 127 462.6 
104 134 490.5 
103 133 488.5 
69.5 126 464.3333 
102 132 490 
71.5 125 465 
69.66666 124.6667 467 
105.6667 131 496.6667 
101.5 130.5 492 
103.4 130.6 494.6 
107.4 130.4 498.4 
99.5 128.5 488.5 
98 127 485 
69.66666 123 469 
105.5 129 499 
101.5 128.5 494.5 
71.4 122 470.6 
97 125 487 
101.5 126.5 496.5 
75.28571 120.8571 472.5714 
73.4 120 474.4 
63.66667 120 476 
71.5 119 475 
-38 65 514 
-38 61 510 
-2.333333 52.66667 482.6667 
101.5 58 628 
103.5 57 629 
101.5 56 630.5 
101.5 54.5 632.5 
103.5 54 634.5 
97 54 636 
9 22 501 
-36 18.5 467 
-26.4 -19.6 450.4 
-22.5 -20 447 
-24.5 -19.66667 448.8333 
-12 -21.5 450 
-16.33333 -21.33333 446.6667 
-27 -21.33333 452 
-33 -24 460 
-34 -23.5 462.5 
-12.57143 -23.28572 448.5714 
-16.33333 -23.33333 444.3333 
-34 -25 464 
-31 -25.5 460 
-30 -29.5 456.5 
-6.5 -29.25 448.5 
-29 -31.5 456 
-30.4 -31.4 458.4 
-16.5 -28 449 
-14.5 -27 446.5 
-14.66667 -25.33333 444.4445 
-12.33333 -25.16667 446.5 
-26 -18 449 
-20.33333 -17.33333 447 
-25 -17 450 
-20.44444 -15.33333 448.4445 
-4 -17 462 
-22.5 -15 450.5 
-4 -15 464 
-20.66667 -14 451 
-18.33333 -13 452 
-8.5 -11.5 456.75 
-10 -10 456 
-8 -10 458 
-10.33333 -7.333333 455 
-8.666667 -5.333333 455 
-6.5 -5.5 457 
-5 -5.5 458.5 
8 24 500 
9 25 507 
-34.5 26.5 476 
6 34 493 
5 36.5 491 
121 48 658.5 
123 48 656 
109.5 50 645 
62 54 673 
63 53 672 
95.5 52 640 
97.5 53 638 
-40 76.5 528.5 
125.5 85 578 
-41 79 530 
125.5 86 577 
127 88.66666 572.3333 
-38 84.5 518 
-39 88.5 522.5 
65.5 105 498 
68 106 498.5 
65.6 106.6 496.4 
63.5 107 495 
89 109 495 
77.33334 109 490.6667 
89.33334 110.3333 492.6667 
79.5 110 490 
77.4 111 488.8 
92 112 496 
77.75 112 486.25 
79.6 113 484.4 
77 114 485 
75.57143 114.5714 482.5714 
91 116.6667 484.6667 
61.33333 116 482 
63.5 116.3333 480.5 
92 118 486 
65.66666 117 478.5 
67.5 118 478 
65.5 119 476.75 
105.6667 212 550 
69.5 204 531 
84 201 528 
80 200 524 
110 204 538 
103.3333 203 534.3333 
101 202 533 
87.5 198 522 
85 198 521 
74 195 512 
72 194 510 
71 193 509 
66 192 506 
70 155 452 
81.5 152.25 451 
79.33334 151 450 
77.5 150 449 
79.6 148.4 448 
92 147 450 
89.33334 146.6667 448 
85.4 144.6 446.6 
91.25 144.75 448 
91.5 142.5 447 
89.66666 140.3333 446.2222 
61.66667 139 445 
63.5 138.5 446 
61.5 137 447 
67.6 137 448.4 
66 136 450 
63.71429 134.8571 450.2857 
89.33334 134 452 
92 134 454 
91 133 453 
89.5 132 454.5 
79.66666 131 455 
81.5 130.5 456.5 
83.33334 130 458 
81.5 129 459 
100 134 478 
99 133 477 
87.5 128 460.5 
95.5 130.5 470.5 
92 128 464 
91 127 463 
94 129 470 
85.5 126 464 
87.66666 125 465 
113 132 495 
95 126.5 474.5 
94 126.5 472.5 
85.66666 124.5 466.6667 
93.66666 124.6667 475 
85.33334 122.5 468.6667 
87.5 122 470.5 
92 122.5 474 
90 122 472 
85.8 121 471 
89.33334 120 474.3333 
87.5 119 475 
-39 68 518 
4 59 498 
4 56.5 496.5 
5 50.5 493 
3.666667 50.33333 490.6667 
1.25 50.5 488.5 
-0.5 50.75 486.75 
-2.6 50.6 484.8 
5 49 495 
-2 48.66667 486.3333 
1.666667 48.83333 490.6667 
127.5 59 623 
129.5 59 625 
131.5 58 626 
5 46 497 
1 44.5 486.5 
119.5 56 629 
6 44.5 498.5 
123.3333 54.33333 630.6667 
117.5 54 632 
120 53 633 
-35 2.333333 468 
-10 -19.66667 450 
-28.75 -19.75 452 
-30.5 -19.5 454.5 
-32 -20 457 
-10 -22 452 
-20.4 -22 442.6 
-4.5 -23.75 456 
-8.5 -23.66667 452.3333 
-20.5 -23.5 440.5 
-22 -23.66667 442.3333 
-20.5 -25 438 
-6 -27 454 
-20.66667 -29 450.6667 
-16 -30 454 
-12 -33 455 
-4.666667 -27 452 
-7 -26 452.3333 
-30 -18 453 
-10.6 -17.8 448.8 
-8.6 -17.8 450.8 
-30.5 -16 458.5 
-28.33333 -15.33333 456.6667 
-28 -13.25 458.5 
-29 -12 460 
-27 -11.5 458 
-25 -11.66667 456.3333 
-23 -11.5 454 
-20.66667 -11.5 452.8333 
-32 -11 464.5 
-31 -11 462 
-30.4 -9.6 460.4 
-26.75 -9.75 456.25 
-22 -9.666667 453 
-33 -9.5 466 
-26 -7.5 455 
-32 -5.333333 462 
-24.66667 -5.5 454.8333 
-1 28.5 473 
-2 30.5 472 
0 30 474 
1 32 475 
-3 32.5 471 
1 36.5 478.5 
85.5 51 668.5 
102 50 653 
67 54 687 
70 53 683 
72 53 680 
97 50 648 
121.5 50 641 
119.5 51 638.5 
113.5 52 638 
115.5 52.5 636.5 
1 40.5 482.5 
117.5 52 635 
-2 40.66667 478.6667 
-38 71 517 
129 81 586 
127.5 82.5 582.5 
-36 76.66666 508 
-36 79 510 
-38 80 515 
-37 81 512 
-37 83 514 
81.4 105 498.4 
83.33334 105 497 
81.6 106.6 496.4 
79.5 107 495 
73.5 108.5 494.5 
75.8 108.6 492.8 
63.4 110 490.6 
73.5 110 492 
61.5 111 488.5 
67.5 112 488 
61.4 113 486.6 
61.6 114 484.4 
63 114 486 
81.57143 116.7143 478.5714 
81.25 118.375 476.5 
83.5 118 478 
107.5 214 552 
103.5 212 550 
101.5 212 549 
99.5 211 548 
78 203 530 
83 201 527 
81 200 525 
67.5 196.5 514.5 
65 196 513 
105.5 203 535 
89 199 523 
73 194 511 
61.5 191 502 
75.5 154.5 452.5 
79.5 152.5 450.5 
81.75 150.75 450.5 
81.33334 148.4444 448.3333 
90 146 447 
87.66666 146.5 448 
91.5 144 447 
85.42857 142.5714 446 
87.33334 140.3333 446 
67.42857 138.7143 444.7143 
65.33334 138.3333 446 
109 145 473 
67.66666 137 447 
61.375 136.75 448.625 
65.42857 134.5714 450.4286 
88 134 452 
85.6 133 452.4 
101.5 138.5 474.5 
87.6 132 454.4 
81.5 131 455 
79.4 130.6 456.6 
77.33334 130.5 458 
92 130 460 
79.66666 129 459 
100 134 480 
96 131 472 
91.5 128.5 462.5 
89.66666 128 460.5 
100 132 483 
111.5 134.25 492 
85.44444 126.3333 462.3333 
110 133 493 
109 134 494 
91.25 126.75 464.75 
95.66666 128.3333 474.6667 
89 125 465 
111.4 132.4 494.6 
93.33334 126.3333 470.6667 
89.5 122.25 470.5 
85.25 120.25 472.25 
87.5 120 474 
89 119 475 
2 58.66667 494 
2 57 493 
3.5 56.5 494.5 
1 51 486.6667 
0 50 488 
6 50.5 498 
129.5 59 623 
5.333333 48.33333 496.3333 
127.5 59 625 
2 46.5 490.5 
-0.6666667 46.33333 484.6667 
125.5 58 626 
127 57 627 
121.5 56.5 628.5 
3 44.66667 490.6667 
2 44.33333 488.3333 
117.5 55 630.5 
121.5 53 633 
-35 -2 470.5 
-6 -22 454 
-5 -23.5 454.75 
-7 -23.33333 453 
-8.5 -25 452.5 
-20.5 -24 439 
-4.571429 -25.42857 456.1429 
-13 -29 452 
-19 -31 457 
-15 -33 458 
-13 -33 456.5 
-13 -32 455 
-28 -27 451 
-31 -19 456 
-31 -18 459 
-28.33333 -16 454.6667 
-31 -12 464 
-24.33333 -11.33333 455 
-26 -9.5 455 
-30.75 -7.5 460.75 
-26.75 -7.25 456 
-22 -8 453 
-34 -6 467 
-33 -5.333333 464 
-22.5 -5.5 454 
-20.66667 -5.5 452.8333 
-34 -3.5 468.5 
11 24.5 518.5 
-4.5 27 468.25 
-2.6 30.8 471 
1 30.5 475 
-0.25 32.5 474.5 
-2 32.5 472.25 
-2 35 474 
1 36.66667 480.3333 
0 37 478 
107.5 50 652 
1.25 38.5 482.5 
65 54 691 
93.5 51 650 
95.5 51 649 
98 50 647 
119.5 50 641 
121.5 51 639 
111.3333 52.33333 638.6667 
123.5 52 635 
0 41 482 
127.5 81 586 
-38 72.5 516 
125.5 81 585 
129 82.5 582.5 
-39 74 519 
-37 78 512 
-38 79 514 
-36.5 80.5 510.5 
79.6 105 498.4 
79.4 106.4 496.6 
81.33334 107 495 
71.5 108.5 494.5 
69.5 109 493 
65.6 110 490.4 
67.5 109 491 
71.33334 110 492 
67.5 111 488.5 
61.33333 112 488 
67.5 112.6667 486.5 
67.4 114 484.6 
85.5 114 482.5 
87 115 480.5 
79.44444 116.4444 478.4445 
79.6 118.2 476.4 
115.5 215 554 
114 214 553 
115.5 213 553 
109.5 213 551 
95.5 211 546.5 
93 210 545 
95.5 209 544 
108 204 537 
115 202 534 
81.5 193 511 
81.33334 154 453 
71.66666 154 451 
83.33334 153 452 
69.4 152.8 450 
75.5 151 450 
73.5 150.5 448.5 
75.66666 149 448 
69 148 447 
67.375 146.375 446.375 
67.5 144 445 
61.33333 142.5 444.1667 
105 147 469 
63.63636 140.5455 444.2727 
107.375 146.625 470.75 
91.5 138.5 446.5 
89.66666 136.5 446.5 
104 144 472.5 
103 143 470.5 
102 142 469 
87.5 136 448.5 
89.2 135 448.4 
91.25 135 450.5 
101.6667 140.6667 470.3333 
61.6 134.4 452.6 
61.5 133 454.6667 
76 131 455 
72 130 458 
69.625 130.375 456.25 
69.33334 129 458.6667 
67.44444 128.3333 460.3333 
63.5 127 462.5 
65.5 126.25 464.75 
68 125 465 
104 132.3333 492.3333 
65.33334 125 466.5 
107.75 132 496 
101 130.5 488.5 
65.5 123 469 
67.5 122.3333 470.5 
61.5 122.25 472 
63 122 474 
63.5 121 473 
61.4 120.4 474.6 
99.5 124.5 496.5 
-3 48 483 
97.5 58 628 
99.5 57 629 
-3 44 479 
97.5 56 630 
97.66666 54.66667 632.3333 
1 42.4 484.4 
99.5 54 635 
-30 -21 453 
-8.666667 -21 450.6667 
-29 -21.5 454 
-33 -22 459 
-17 -22 442 
-10.25 -23.25 450.5 
-17 -24 440.5 
-30 -25.5 456.5 
-16.66667 -29 450.3333 
-31 -30 460 
-20.5 -30 454 
-21 -33 459 
-22.33333 -31.33333 454.6667 
-4.333333 -28 448.3333 
-31 -27.66667 458 
-6.666667 -27.33333 450.3333 
-10.33333 -27 447 
-4.5 -19.25 456.25 
-28 -18 451 
-4.5 -17.5 458.5 
-6 -17 456 
-7 -16 455 
-8 -15.33333 456.3333 
-8 -13.2 458.4 
-10 -13 456.3333 
-16.33333 -11.5 452.6667 
-18.33333 -9.666667 452 
-4.25 -7.5 460 
-14.66667 -5.666667 453 
-12.66667 -5.5 454 
-34.66667 22.66667 468.3333 
9 26.33333 508.6667 
-30.66667 26.66667 468.3333 
-33 27 474 
5 28.33333 486 
5 32 491 
6 36.5 495 
4 37 488 
92 51 679 
116 49 653 
118 49 651 
123.5 49 644 
5 38.5 492 
73 53 675 
95.5 51 643 
107.5 52 640 
2 40.5 486 
101.5 53 638 
6 42 497 
-37 74.33334 510.6667 
-39 79 520 
125.5 89 570 
-38 82.5 517 
125.5 90.5 568.5 
-41 90 530 
70 105 498 
69.75 106.75 496.25 
75.5 107 495 
77.33334 108 494 
79.5 108.5 492.5 
88 112 488 
89 112.5 486.5 
89.33334 114.6667 484.6667 
63.5 115 482.75 
91 115 486 
75 116 480.5 
69.5 117 478.5 
69.5 118 476.5 
105.5 214 552 
102 213 551 
79.5 203 530.5 
77 203 529 
82 201 527 
66 196 514 
113 204 539 
64 192 504 
63 191 503 
73.4 154.6 452.6 
77.33334 152.5 450.5 
83.6 150.4 450.2 
81 150 449 
83.66666 149 449 
77 148 447 
85.66666 147 448 
89.625 144.25 447 
87.28571 142.5714 446 
85.33334 140.3333 446 
65.6 139 444.4 
67.25 138 446 
65.33334 137 447 
109 144.5 474.5 
63.55556 136.6667 448.6667 
61 136 450 
67.28571 134.8571 450.5714 
101.5 138.5 472.5 
87.4 133 452.6 
85.33334 132 454 
92 132.5 456 
101 137 475 
83.5 131 454.75 
77.5 131 457 
79.5 130.25 458 
77.66666 129 459 
91.33334 128.6667 460.6667 
100 132 481 
109.4286 134.5714 492.4286 
95.5 128.5 472.5 
87.625 126.375 462.25 
111.5 133 493 
93 127 469 
89.66666 126 464.3333 
91.66666 126.3333 467 
109.6667 132.6667 494.6667 
89.4 124.6 466.6 
91 123 470.5 
89.33334 122.6667 468.6667 
89 121 471 
87.33334 120 472.3333 
85.66666 120 474.3333 
84 120 476 
3 58 495 
1.75 58.5 492.25 
3 56 493 
0 48.33333 488.3333 
6 48.66667 498.6667 
-0.5 47 486.5 
-2 46.66667 484.3333 
125.5 59 624.5 
1 46.66667 488.3333 
127.5 58 626 
0 45 484 
125.5 57 627 
123.5 56 628.5 
5 44 495 
120 55 630.5 
-2 42.66667 480.3333 
-0.4 42.4 482.4 
123.5 53 633 
109 54 636 
-35 -1 469 
-7 -20 451 
-5 -21.33333 454.3333 
-6.714286 -21.28572 452.4286 
-6.5 -23.83333 454.1667 
-22 -25 441 
-14.6 -29.4 452.4 
-24 -29.33333 450.6667 
-19 -31 458 
-14 -33 456.5 
-16.2 -31.4 456.4 
-14.33333 -31.33333 454.6667 
-28 -26 451 
-20 -26 443 
-30.5 -17.5 456.5 
-10.66667 -15.66667 450.6667 
-24.625 -9.625 454.625 
-32 -9.5 462.5 
-33 -7.666667 465 
-22.6 -7.2 454 
-20.66667 -7.333333 452.4445 
-34 -7 467 
-30.6 -5.4 460.4 
-26.5 -5.5 456 
-33 -5 466 
11 24 517 
-2.75 28.25 470.75 
1 28.66667 475 
-1 32 473 
-2.333333 34.66667 472.5 
-1 34.5 474.5 
-0.75 36.25 476.5 
2 36.5 483 
82 52 675 
105.5 50 653 
1 38 481 
66 54 689 
72 53 677 
99.66666 50 646.6667 
117.5 50 641 
-2 38.66667 476.3333 
-0.6666667 38.33333 478.3333 
123.5 51 639 
109.5 52.5 638.5 
-0.6666667 40.66667 480.6667 
111.5 53 637 
121.5 52 635 
-39 69 522 
125.5 81 587 
127.5 81 585 
125.3333 82 584 
-39 75 516.5 
-36 80 509 
-36 82.5 510.5 
77.4 105 498.6 
77.6 106.6 496.4 
83.5 106.5 495 
69.4 108.4 494 
71.66666 109 493 
67.33334 110 490.3333 
65.5 111 488.5 
63.5 112 488 
65.5 113 486.5 
65.6 114 484.4 
87.5 114.5 482.5 
85.4 115 480.6 
77.5 116.3333 478.3333 
77.5 118 476.5 
95.5 212 548 
105.5 211 548.5 
67 204 529 
109.5 209 546 
111 207 543 
87.33334 202 530 
85.5 202 529 
82 198 520 
79.5 196 516.5 
89.5 195 516 
76 191 506 
74 191 504 
72 190 502 
70 190 501 
91.33334 150.6667 450.6667 
91 148 449 
83.33334 146 447 
81.5 144.5 446 
80 143 446 
77.6 142.4 444.4 
79.5 140.5 444.75 
73.44444 138.6667 444.3333 
75.5 137 445 
73.4 137 446.6 
71.33334 136 448.5 
69 136 450 
78 134 452 
75.27273 134.4545 450.5454 
100 138 470 
79.4 133 453 
99 136 469 
77.57143 132.1429 454.2857 
91 131 455 
103 137 481 
100 135 475 
85.4 130.4 456.6 
109 138 488 
87.66666 130 458 
102 136 482 
111 137 488.25 
98 133 474 
85.5 129 458.5 
109.5 136 490.5 
83.6 128 460.4 
81 128 462 
99 131 479 
97.5 130.5 476.5 
79.625 126.75 462.5 
81.33334 126 464.1667 
97 128 478 
81.5 124.5 466.5 
97 127 481 
109.6 130.4 496.6 
96 126.5 479 
81.66666 123 469 
111.6667 130 498.6667 
109.5 129 499 
83.33334 122.5 470 
77.66666 122 472 
79.5 121 473 
91.5 121 477 
77.66666 120.3333 474 
83 119 475 
129.5 77 595 
0 59 490 
-2 59 488 
0 56.5 488.5 
5 57 498 
0 55 486 
-2 55 484 
3 54 491 
1.333333 54.33333 488.3333 
5 53 494 
-0.6 52.6 484.4 
3 52 489 
3 48.5 493 
133.5 59 625 
135.5 58 626 
133.5 57 627 
115.5 56 629 
113.5 56 630 
112 55 631 
113.5 54 632.5 
113.5 53 634 
-32.5 -19.5 460.5 
-12.28571 -19.71428 448.4286 
-18.33333 -19.66667 446.7778 
-20.33333 -21 446.3333 
-25 -22 450 
-22 -22 444.5 
-23 -23.33333 446.3333 
-24.5 -23.25 448.5 
-26 -23.25 450.5 
-19 -33.5 461 
-19 -35 462 
-20.5 -28 448.5 
-23 -28 450 
-24.5 -25.33333 446.8333 
-16.5 -17.33333 446.6667 
-31 -16 462 
-16.66667 -15 448.3333 
-18 -15 450 
-30 -14 461 
-26.6 -13.2 456.6 
-22.5 -13.25 452.75 
-16.5 -14 450.5 
-28.5 -9.666667 458.1667 
12 27 527 
3 28.5 480 
4 30.5 483 
1.333333 32.66667 478.3333 
1 34 477 
84 51 671 
87.5 51 667 
91.5 50 662 
96 50 658 
99.5 50 655 
78 52 663 
79 52 661 
107 50 646 
112 50 643 
109.5 51 641 
115.5 51 639 
119.5 52.5 636.5 
129.5 78 593 
127.5 78.5 590.5 
-39 73 526 
127.3333 84 580.6667 
-36 85 512 
-37 86 515 
85.25 104.5 498.75 
88 106.3333 498.3333 
85.75 106.25 496 
61.5 108.5 494.3333 
63.8 108.6 492.4 
75.5 110.5 490.5 
73.33334 111 489 
71.66666 112 488 
73.6 112.6 486.4 
73.42857 114.1429 484.4286 
79.4 114 482.6 
77.5 115 480.5 
89.5 116.5 482 
85.66666 116.6667 478.8889 
90 118 480 
92 118 483 
85.33334 118.3333 476.6667 
87 118 478 
117 215 555 
117 212.3333 552.3333 
62 202 526 
111.6667 210.6667 548.6667 
107.3333 209 546 
105 209 545 
93.5 206 539 
107 206 541 
73 198 519 
83.5 189 502.5 
103 187 501 
65.5 154 451 
91.33334 155 456 
85.5 154 454 
67.5 153 450 
85.66666 152.5 452.5 
65.75 152 449 
63.42857 150.4286 448 
67.33334 148 447 
69.55556 146.5556 446.5555 
71.66666 144.5 446 
69 144 445 
75.66666 142.5 445 
105.4286 148.2857 468.4286 
73.33334 140.6667 444 
79.33334 138.6667 445 
77.33334 138 446 
79.66666 137 447 
81.42857 136.1429 448.4286 
107 143 477 
79 135 448.5 
106 142 478 
105 141 476.5 
77.44444 134.4444 450.3333 
73.33334 132.8333 452.5 
75.42857 132.2857 454.4286 
67.57143 130.5714 456.4286 
65.66666 130 458 
107.75 138 488.5 
67.33334 129 459 
105.6667 136.3333 488.3333 
104 136 487 
107.5 136 490.5 
69.57143 128.5714 460.4286 
104 134.5 488 
73.6 127 462.4 
103 132 490 
102 132 488 
71.6 126 464.4 
69.66666 125 465 
103 131 492 
71.33334 124.5 466.5 
107.75 130.75 496.5 
100 129 490 
105.5 130.5 498.5 
101.5 128.5 492.5 
71.5 123 469 
107.5 129 499 
98 126 487 
97 125 485 
75.5 122 472 
69.6 122 470.4 
73.5 121 472.5 
101.5 126.5 498.5 
76 120 474 
61.33333 120 476 
69.6 119 474.6 
-38.5 66.5 514.5 
-38 64 513 
-38 62.5 510.5 
-38 60 509 
-2.4 54.4 482.4 
-3 53 481 
103.5 58 628 
101.5 57 629 
103.5 56 631 
103 54.5 632.5 
101.5 54 635 
-36 16.66667 467 
-20.25 -19.75 446.75 
-33 -21 460 
-18.33333 -21 446.6667 
-34 -22 462 
-13 -21.5 448.5 
-34 -23 461 
-12 -23 450 
-16.75 -22 444.5 
-27 -23.5 452.5 
-34 -26 467 
-33 -26 464 
-7 -30 450 
-28.33333 -30 456.6667 
-29 -31 458 
-20 -35 462 
-20.28572 -33.71429 460.7143 
-31 -29 458 
-18.33333 -28 448.5 
-12.33333 -27 446.3333 
-33 -27 466.5 
-12.5 -26 445 
-26 -19 449 
-26.375 -17.625 450.25 
-24.4 -17.8 448.8 
-22 -17.5 447 
-4 -17 460 
-22.6 -15.6 449 
-22 -14 451 
-4 -13.66667 464 
-16.33333 -13 452 
-10 -11.33333 456 
-8 -11.5 458 
-8.285714 -9.714286 456.5714 
-9 -7.333333 455 
-6.5 -7.333333 457 
-5 -7.2 458.6 
-10.4 -5.6 455 
9 24 505 
8 24.5 502.5 
7 28.33333 499 
-35 27 478 
4 31 484 
6 33 492 
6 35 494 
122 48 657 
87.5 51 684.5 
117 49 652 
5 38 491 
77 53 689 
113 49 648 
111.5 50 644 
61 54 675 
65 53 668 
105.5 51 642 
107.5 51 641 
93.5 52 640 
99.5 53 638 
127.6667 84.66666 578.3333 
-40 78 529 
127.5 86 577 
125.6667 88.33334 572.6667 
-38 86.5 518.5 
-37 87 516 
-39 90.66666 522 
67 105 498 
67.33334 106.6667 497 
62 107 495 
79.5 109 491 
90 110 495 
77.25 110.25 490 
79.66666 111 488.5 
91 111 493 
79.4 112 486.6 
77.4 113 484.6 
73.5 115 482.5 
76 115 480.5 
90 116 484 
92 116 487 
63 116 482 
61.25 117 480.75 
67.5 117 478.5 
92 118 484 
65.6 118.4 478 
67.66666 119 476.5 
113 215 554 
113.5 213 552 
111 213 551 
94 211 546 
100 208 543 
95.5 207 540 
73.5 202 527 
61.5 199 518.5 
77 195 514 
113.3333 201 533 
83 193 511 
89 191 507 
100 187 500 
81.5 155 454 
83.66666 154 453 
69.33334 154 451 
82 153 452 
71.66666 152.5 450.1667 
75.66666 150 449 
73.33334 149 448 
72 148 447 
65.5 146.5 446 
67.5 145 446 
65.66666 144.6667 445 
63.66667 142.5 444.5 
61.58333 140.5 444.75 
105.6667 146.5 470.5 
89.66666 138.3333 446 
91.33334 136.6667 446.6667 
105.3333 143 474.6667 
101 140 469 
89.66666 135 450.6667 
63.25 134.25 452.625 
61 134 454 
63.66667 133 454.5 
65 132 456 
73.5 131 455 
71.33334 130.3333 456.3333 
69 130 458 
71.66666 129 458 
65.42857 128.2857 460.4286 
62 127 462.5 
67.33334 126 464.5 
102 131 490 
67.6 125 466.6 
105.5 132 496 
67.5 123 469 
65.4 122.4 470.6 
63.5 122 472 
61.5 121 473 
63.5 120.5 474.5 
-36 64.5 502.5 
-37 63 504 
99.5 58 628 
97.5 57 629 
99.5 56 630 
99.33334 54.66667 632.3333 
6 43 498 
1.666667 42.66667 486.3333 
104 54 636 
97.66666 54 634.3333 
-36 20 467 
-10.28571 -21.28572 450.2857 
-28.25 -21.25 452.75 
-30.16667 -21.33333 454.5 
-32 -21.66667 457 
-18.6 -22 442.4 
-32.33333 -23.33333 458.6667 
-11 -24 449 
-18.66667 -23.5 440.5 
-28.4 -23.6 454.4 
-17 -23.66667 442.3333 
-29 -25 456 
-30.5 -25 458.5 
-18.66667 -25 438 
-18.33333 -29 451 
-32 -29.33333 464.3333 
-21 -30 453 
-31 -31 461 
-22 -33.33333 458.6667 
-20 -35 458 
-23 -31 453 
-6.8 -28 448.6 
-5 -28 450 
-10.66667 -25.66667 447 
-28 -19 451 
-4 -19 458 
-5 -17.66667 456.6667 
-8 -17 452 
-8.75 -13.5 456.75 
-18.5 -11.5 452.5 
-16.33333 -9.666667 452.4445 
-14.5 -7.333333 453 
-12.66667 -7.333333 454.2222 
-4 -5.333333 460 
-14 -5 454 
-35 25 473 
-34 26 474 
-32.5 26.5 472 
-31 27 471 
-28.5 27 468 
5 30.5 486 
5 33 488.5 
5 34.5 490 
111.5 49 658.5 
115 49 654.5 
119.5 48 650 
6 38.5 495 
81 52 681 
121.5 49 644 
4 38.5 488.5 
6 40.33333 496.3333 
66 53 665 
93.5 51 643 
3 40 487 
105.5 52 640 
1 40.5 484.5 
103.5 53 638 
-38 69 513 
-38 70 515 
-37 71 512 
-36 72.5 510.5 
-36 74.5 508.25 
-38 81 517 
-41 89 530.5 
-42 91 531 
-41 91 529 
71.6 105 498.4 
69 106 498.5 
71.4 106.4 496.6 
73.66666 107 495 
79.5 108 494 
77.5 108.5 492.5 
89 111 490.6667 
89.5 114 486 
61.66667 115 483 
73.66666 116 480.5 
71.5 117 478.5 
69 118 478 
71.5 118 476.5 
100 124.5 499 
113.5 211 550 
101.5 210 547 
64 203 528 
115.5 210 549 
102 208 544 
103.5 206 540.5 
100 205 538 
97.5 204.5 536.5 
95.5 204 534.5 
75.5 198.5 520.5 
69.33334 197 516.3333 
86 194 514 
92 192 511 
77.5 188 500 
105 187 502 
61.33333 154 450 
88 155 456 
63.66667 153 450 
89.66666 154 454 
61.33333 152.5 449 
89.5 153 453 
61.66667 150 447 
67.66666 150.3333 448.3333 
63.6 148.4 446.4 
75.5 145 446 
73.57143 146.4286 446 
73.75 144 445 
71.33334 142.5 445 
69.5 140.6667 444 
81.75 138.25 446 
83.375 136.625 447 
77.75 136 448.25 
108 144 478 
83.66666 135 448.5 
108 142 480 
83.33334 133 451 
81.6 134.5 450.2 
71.33334 134 452 
104 140 478 
69.33334 133 453 
106 140 480 
107.6 140 482.4 
71.66666 132 454.3333 
107.5 139 484.5 
63.33333 131 457 
106 138 486.5 
105 137 485 
61.5 130.5 458 
63.66667 129 459 
103 135 485 
73.33334 128.3333 460.6667 
102 134 486 
105.5 134.5 491 
69.4 127 462.6 
101 132 485 
75.5 126 464.5 
100 130 485 
73.33334 125 465 
75.5 124.5 466.5 
98 128 485 
99 128.5 486.5 
103.5 130 497 
75.6 122.8 469 
101.5 128.5 496 
73.5 122 470.5 
103.4 128.6 498.6 
96 124 486 
69.33334 120.8333 472.6667 
71.5 120 474.5 
65 120 476 
73.5 119 474.75 
63.5 119 477 
-37 67 509 
105.5 57 629 
107.5 56 631 
107.5 55 633 
105.5 54 634 
95.5 54 636 
10 22 507 
10 21 504 
-36 12.5 467 
-34 -21 467 
-22.71428 -19.57143 448 
-14.66667 -21.5 447 
-35 -23.33333 464.6667 
-13 -24 447 
-14.75 -23.75 445 
-12 -25 448 
-32 -25 460.6667 
-10.2 -29.6 450 
-28 -31.5 455 
-8.5 -31.5 450.5 
-8.5 -29 449 
-5 -29 445 
-4 -28 443 
-14.5 -27.5 448.5 
-32 -28 463 
-16.5 -27 447 
-16.5 -26 444.5 
-24.33333 -15.33333 450.3333 
-4.5 -15.5 462.5 
-6 -15 460 
-12.75 -13.75 452.75 
-5 -13 461 
-10.375 -9.625 455 
-6.4 -9.8 458.6 
-8 -5.666667 456 
8 26.5 504 
6 30.66667 495 
6 32.5 496.5 
6 34.5 498 
3 35 484 
124 48 655 
79 52 686 
109.5 50 651 
115.5 49 646 
64 53 670 
101.5 51 642 
97 52 640 
93.5 53 637 
96 53 638 
-41 80.5 530.5 
125.5 86.5 574.5 
-39 86.33334 523 
-38 90.5 519 
-37 90.5 516 
61.5 106 499 
64 105 498 
63.4 106.4 496.6 
65.66666 107 495 
87.75 108.25 494.25 
89.5 108.5 496.5 
85.33334 108.3333 492 
91 110.5 496.5 
83.5 109 490.5 
88 110 492 
81.33334 110 490 
83.57143 110.8571 488.5714 
90 112 492 
92 112 494 
77 112 488 
83.5 112 486.5 
92 114 493 
81.4 113 484.6 
69.33334 115 482.3333 
65.5 116 480.5 
63.66667 117 478.6667 
61.625 118.375 478.25 
117 216 556 
115 216 555 
110 215 554 
111.3333 214 553 
115 212 551 
97.5 209 545 
117 210 550 
75.5 202.5 528.5 
70 201 524 
67.5 200 522.5 
65.5 200 521 
63.5 199 520 
84 194 512 
80 193 510 
78 192 508 
87 190 505 
91.5 188 502 
90 188 501 
79.5 154 453 
75.4 152.6 450.6 
71.4 150.6 448.6 
75.33334 148 447 
69.8 148.6 448 
61.66667 147 446 
63 146 445 
61.33333 144.6667 444.7778 
67.5 142.5 444 
65.66666 140.6667 444 
103.5 146.75 468.5 
107 146 472 
85.33334 138.3333 446 
103.6667 144.6667 470.6667 
102 144.6667 468.6667 
87.66666 137 446.6667 
107.5 144.5 474.5 
105.5 144.5 472.8333 
89.33334 136 448 
103.3333 142.6667 472.3333 
87 135 449 
85.5 134.5 450.5 
103.5 140.5 474.5 
102 140 472 
87 133 451 
67.8 134.4 452 
65.75 133 452.75 
67.4 132 454.6 
69.66666 131 455 
61.6 132 456.4 
75.5 130.8333 456.6667 
73.66666 130 458 
75.33334 129 459 
61.5 128.5 460.375 
63 128 463 
65.5 127 462.5 
107.7143 134.7143 492.2857 
106 134 494 
101 131 486 
63.57143 126.5714 464.8571 
105 132.5 493 
61.66667 126 466 
107.2 132.6 495 
63.5 125 467 
63.33333 123 469 
61.4 122.6 470.6 
100 127 493 
67.5 122 472 
65.75 121 473 
98 124 492 
99.5 124.5 494.5 
67.33334 120.1667 474.5 
-36 66 504 
-37 65 506 
-36 62.66667 500.6667 
-37 60.5 503 
-2.333333 46.33333 482.3333 
96 58 628 
93.5 57 628 
-0.6666667 44.33333 482.6667 
-2.333333 44.5 480.6667 
95.5 56 630 
95.5 55 632 
3 42.5 488.5 
107.5 54 636 
93 54.5 634.5 
10 23 510 
-7 -21 451 
-30 -23.33333 456 
-10 -25 451 
-17 -25 440 
-25 -29.5 452.5 
-26.8 -29.8 454.8 
-24 -32 455 
-22 -32 456.5 
-20.5 -32 458.5 
-14.5 -29 451 
-10.33333 -28 448.5 
-4 -28 446 
-28.33333 -25.66667 452.3333 
-18.5 -26 443 
-9 -26 449 
-6.6 -19.4 452.4 
-5 -19.5 454.75 
-6.5 -17.5 454.25 
-10.2 -15.2 452.4 
-8.5 -15.75 454.5 
-6.666667 -16 456.6667 
-5 -16 458 
-10.5 -13.5 454.5 
-7 -14 459 
-12.66667 -11.5 454.5 
-6 -12 460 
-4.25 -11.5 462.25 
-14.33333 -9.333333 454 
-4.666667 -9.666667 460.3333 
-18.33333 -7.333333 452 
-16.33333 -5.5 452.6667 
10 24.5 512.5 
-34 24 469 
10 26.5 514 
5 30.5 491 
3.5 36.5 486.5 
89.5 51 682.5 
92 51 680 
113.5 49 656.5 
121.5 48 649 
117.5 49 645 
75 52 670 
67.5 53 662.5 
97.5 51 642 
5 40 493 
101.5 52 640 
4 41 490.5 
107 53 638 
5 42.66667 494.3333 
-37 68 511 
-36 70 509 
-37 75 512 
-39 76.5 516.5 
-39 78 518 
-40.5 84.5 530.5 
-39 84.5 524 
125 91 566 
-40 87 528.5 
-40 88.5 527 
125 94 563 
-40 91 525 
75.6 105 498.4 
75.4 106.4 496.6 
69.66666 107 495 
83.66666 108 494 
81.5 108.5 492.5 
87 109 491 
86 110 490 
87.25 110.75 488.5 
87.33334 112 486.6667 
89.66666 112.6667 488.3333 
91 113 490 
85.5 113 484.5 
91 114.3333 488.6667 
88 114 484 
65.33334 114.8333 482.3333 
69.6 116 480.4 
75.75 116.5 478.375 
73 118 479 
75.4 118 476.6 
116 216 556 
113.5 210 548 
103.5 208.5 544.5 
69 200 523 
99 205 537 
94 204 534 
74 198 520 
71.5 198 518.5 
87.5 194.5 514.5 
85 194 513 
77 192 507 
91 192 509 
79.33334 189 501 
63.66667 154 451 
91.5 154 454.5 
63.33333 152 449 
91.5 152.5 452.5 
65.25 150.25 448 
67.66666 149 448 
61.66667 148.4444 446.4445 
75.5 146.75 446.5 
73.75 145 446 
75.66666 144 445 
69.33334 142.5 445 
104 148 468 
71.33334 140.6667 444 
81 139 445 
83.5 138.3333 446 
81.75 137 446.75 
107.6667 144 476 
79.66666 136 448.3333 
82 135 449 
83.5 134.5 450.25 
69.33334 134.3333 452 
107.5 141 480.75 
103.5 140.25 476.5 
71.33334 133 453 
69.33334 132 454.1667 
67.5 131 455 
61.5 131 457 
107.5 139 486.5 
105.5 138.5 484.5 
63.33333 130.5 458 
61.33333 129 459 
105.5 136.5 487 
103 134 486 
102 134 484 
75.66666 128.3333 460.6667 
107 135 491 
105 135 489 
71.5 127 462.5 
102 132.5 486.5 
73.4 126 464.6 
75.66666 125 465 
100 130 487 
99 129 484 
73.66666 124.5 466.5 
104 130 498 
73.33334 123 469 
75.66666 122.3333 470.6667 
98 126 489 
99.5 126.5 491 
98 125 490 
71.66666 121 472.5 
69.66666 120 474.3333 
75.6 119 474.4 
61.66667 119 477 
-2.5 56 482.5 
107.5 57 629 
105.5 56 631 
105.5 55 633 
107.5 54 634 
94 54 636 
9 23 504 
-36 14.33333 467 
-34 -21 464 
-14.6 -23 446.4 
-32.33333 -25.66667 462 
-8.5 -30 450 
-10 -31 451 
-20 -32 460 
-11 -29 449 
-28.5 -29 455 
-15 -28 450 
-12.33333 -28 448 
-18.33333 -27 447 
-32 -27 461 
-21 -19 448 
-22.85714 -17.57143 448.1429 
-26 -16 451 
-5 -15.75 460.5 
-12 -15 452 
-6.4 -13.4 460.2 
-5 -13.8 462.2 
-14.5 -13 452.5 
-12.6 -13 454.2 
-10.66667 -11.66667 455 
-6.666667 -11.33333 459 
-9 -9 455 
-7 -9 457 
-5 -9 459 
-8 -7.333333 456.1667 
-10 -5 456 
6 28.5 494 
4 32.5 485 
4 34.5 486.5 
86 51 688 
78 52 687 
80 52 684 
111 50 650 
111.5 49 649 
114 49 647 
103.5 51 642 
99.5 52 640 
95 53 637 
127 86.5 574.5 
-39 82.5 524 
-38 88.33334 519 
-37 88.66666 516 
63 106 499 
61.57143 106.7143 496.4286 
67.5 107 495 
89.5 108.5 498 
86 108 494 
87 108.6667 492.6667 
81.66666 109 491 
92 111 498 
83.5 110 490 
81.5 111 488.5 
81.66666 112 486.5 
91 113 492 
83.66666 113 484.5 
92 116 489 
71.66666 115 482 
67.33334 116 480.5 
62 117 479 
63.33333 118.3333 478.3333 
99.33334 213 550 
97.5 212.5 548.5 
103.3333 211 548 
115.5 208 546 
113.5 208 545 
112 207 544 
89.5 202 531 
77.5 199 522 
61.5 195 510.5 
114 205 540 
91.5 199 524.5 
73 190 503 
63.5 155 452 
85.4 150.6 450.4 
85.71429 148.8571 449 
83.33334 147 448 
77.71429 146.7143 447 
79.33334 144.5 446 
81.66666 143 446 
83 142 445 
81.33334 140.5 445 
83.5 140.3333 446 
71.44444 138.6667 444.3333 
69.66666 138 446 
71.6 137 446.4 
109 144 476 
73.5 136 448.5 
69.625 134.75 450.625 
109.6667 141 480.8333 
81.5 133 452.5 
83.33334 132 454 
85.5 131 454.5 
105.6667 138.6667 482.6667 
101.5 137 477 
100 136 474 
98 135 470 
91.5 131 456 
111 138.75 484.75 
109.6 138.2 486.6 
89.5 130 458 
97 132.5 468.5 
91 129 459 
102 134.5 483 
77.6 128.6 460.4 
101 133 481 
79.66666 128 462 
110 135 491 
83 127 461 
81.5 127 462.5 
99 131 481 
79.5 126 464 
98 130 482 
77.5 125 465 
97 128 480 
109.5 131 495 
79.66666 124 466.6667 
79.33334 123 469 
113 130 498 
77.4 122.4 470.6 
96 124.5 483 
81.75 120.75 472.75 
83.5 120 475 
85 120 476 
77.4 119 474.6 
127.5 77 595 
1 58 491 
-2.25 58.5 486.75 
-1 56.5 486.5 
-2.333333 56.66667 484.6667 
1 56 488.6667 
1 54.5 486.5 
6 54 499 
6 52.5 496.5 
3 46.5 493 
137 58 626 
109.5 57 628.5 
111.5 56 630 
113.5 55 631 
111.5 54.5 632.5 
109.5 54 634.5 
-13 -19.5 447 
-23 -23 448 
-24 -24 447 
-27 -25 451 
-19 -32 461 
-10 -32 452 
-24.33333 -28 450 
-26.33333 -27 448.6667 
-20.33333 -27 447 
-22.8 -25.6 446.4 
-20.5 -26 444 
-14.66667 -17.33333 446.4445 
-32.5 -17.5 464 
-26.5 -15.25 452.5 
-16.5 -16 447 
-14.66667 -15.5 448.1667 
-12.75 -15 450.5 
-31 -15 464 
-26 -14 455 
-24 -14 452.5 
-14.66667 -14 451 
-28.75 -7.25 458 
-28 -5.5 457 
1 28.66667 476 
2 30.33333 478 
3 32.5 482 
2 33 480 
0 34.5 476 
2 35 482 
-3 36.5 473 
83 51 673 
78 52 665 
102 50 646 
114 50 642.5 
116 50 641 
-2.75 38.5 474.75 
121.5 52 637 
127 78 593 
129.5 78.5 590.5 
125.6667 80 588.6667 
-36 84 511 
-36 89 514 
85.2 106.6 495 
67.5 108 494 
65.5 108.5 492.5 
69.66666 110 490 
71.33334 111 489 
73.5 112 488 
71.5 112.5 486.5 
71.5 114.3333 484.3333 
81.6 114 482.4 
83.6 115 480.4 
89.5 118.25 478.25 
92 120 482 
103.5 214 552 
108 213 551 
111.5 204.5 539 
109 204 537 
107 203 536 
102 203 534 
86 198 522 
75.5 195 513 
69.5 193 508.5 
67.5 192.5 506.5 
65.5 192 504.5 
92 196 518 
71.5 155 452 
83.5 152 451 
77.33334 151 450 
79.33334 150 448.6667 
77.8 148.6 448 
85.2 146 447 
91.33334 146.3333 448.5 
87.75 144.375 446.875 
89.33334 142.5 446.1667 
91.5 140.5 446.5 
63.75 139 444.75 
61.66667 138.5 446 
63.33333 137 447 
67.33334 136 450 
65.57143 136.8571 448.5714 
61.8 135 450.6 
91.66666 134.3333 452.3333 
101 139 471 
89.5 133 452.5 
91.25 132.5 454.75 
77.66666 131 455 
83.6 130.6 456.4 
82 129 457 
81 130 458 
99.5 134.5 476.5 
83.33334 129 458.6667 
99 133 479 
95.5 130.5 468.5 
85.4 128 460.6 
97.5 130.5 474.5 
94 128.5 468.5 
89.33334 126.5 462.5 
87.33334 126 464 
85.33334 125 465 
87.6 124.6 466.4 
93 124.5 472.5 
87.66666 122.5 468.8333 
85.66666 122 470 
91.33334 122.6667 473 
87.5 121 470.75 
91 121 474.5 
89.5 120.5 472.5 
86 119 475 
3.5 58.5 496.5 
-41 60 531 
3.666667 54.33333 492.3333 
-1 51 485 
3 51 489 
2 50 490 
-2 50.5 486 
5.75 50.5 494.75 
-1 48.5 487 
-2.5 48.5 485 
1 48 489 
131.5 59 625 
5 47 498 
1 46 487 
129.5 58 626 
131.5 57 627 
5 45 496 
1 44.5 485 
117.5 56.5 628.5 
124 55 629 
-2.666667 42.33333 478.3333 
121.5 54.5 630.5 
119.5 54 632 
119 53 634 
117.5 53 633 
-35 0.5 468.5 
-8.5 -19.5 450.5 
-10.75 -19.5 449 
-4 -21.66667 456 
-8.333333 -21.66667 452 
-6.6 -25.4 454.4 
-4.666667 -27 455 
-16.25 -29.5 452.5 
-18.66667 -30 454.6667 
-22.5 -29.33333 450.6667 
-15 -32 456 
-6 -27 452 
-32 -19 458 
-30 -19 453 
-30 -17.66667 454.3333 
-28.75 -17.5 452.25 
-10 -17.5 450 
-30 -16 457 
-29 -15 458 
-28 -14 457 
-32 -12 467 
-30 -11.5 461 
-26 -11.5 457 
-22 -11.5 453 
-25 -10 456 
-23 -9.666667 454 
-20.66667 -9.666667 452.5555 
-32 -7.666667 462 
-24.66667 -7.333333 454.7778 
-35 -3.5 472.5 
11 26.5 520 
-2 28.4 472 
-0.25 28.75 474 
-0.6666667 30.66667 472.6667 
-3 34 471 
101 50 654 
103.5 50 653 
68 53 686 
71 53 682 
123 50 641 
117.5 51 639 
0 39 480 
113.6667 52.66667 636.3333 
-2.4 40.2 476.8 
-1 40 479 
129 81 584.5 
-39 74 522 
125.5 83 582 
-37 76.5 511 
-36 79 508 
-37 82 513 
83.6 104.6 498.4 
83.33334 106 496.3333 
