ply
format ascii 1.0
comment PCL generated
element vertex 1634
property float x
property float y
property float z
element camera 0
property float view_px
property float view_py
property float view_pz
property float x_axisx
property float x_axisy
property float x_axisz
property float y_axisx
property float y_axisy
property float y_axisz
property float z_axisx
property float z_axisy
property float z_axisz
property float focal
property float scalex
property float scaley
property float centerx
property float centery
property int viewportx
property int viewporty
property float k1
property float k2
end_header
0.012 0.086000003 0.74800003
0.013 0.086999997 0.75199997
0.015 0.086999997 0.755
-0.068000004 0.086999997 0.74699998
-0.067000002 0.086999997 0.74400002
-0.064999998 0.086999997 0.741
-0.064000003 0.086000003 0.73799998
-0.061999999 0.086000003 0.736
-0.061000001 0.086000003 0.73299998
-0.059 0.085000001 0.73100001
-0.057999998 0.085000001 0.73000002
-0.057 0.085000001 0.72799999
-0.056000002 0.085000001 0.727
-0.054000001 0.085000001 0.72600001
-0.052999999 0.085000001 0.72399998
-0.052000001 0.085000001 0.72299999
-0.050999999 0.083999999 0.722
-0.048999999 0.083999999 0.72100002
-0.048 0.083999999 0.72100002
-0.046999998 0.083999999 0.72000003
-0.046 0.083999999 0.71899998
-0.045000002 0.083999999 0.71899998
-0.043000001 0.083999999 0.71799999
-0.041999999 0.083999999 0.71700001
-0.041000001 0.083999999 0.71700001
-0.039999999 0.083999999 0.71700001
-0.039000001 0.083999999 0.71600002
-0.037 0.083999999 0.71600002
-0.035999998 0.083999999 0.71600002
-0.035 0.083999999 0.71600002
-0.034000002 0.083999999 0.71600002
-0.033 0.083999999 0.71499997
-0.030999999 0.083999999 0.71499997
-0.029999999 0.083999999 0.71499997
-0.028999999 0.083999999 0.71499997
-0.028000001 0.083999999 0.71499997
-0.027000001 0.083999999 0.71499997
-0.026000001 0.083999999 0.71600002
-0.025 0.083999999 0.71600002
-0.023 0.083999999 0.71600002
-0.022 0.083999999 0.71600002
-0.021 0.083999999 0.71600002
-0.02 0.083999999 0.71700001
-0.018999999 0.083999999 0.71700001
-0.017999999 0.083999999 0.71700001
-0.016000001 0.083999999 0.71700001
-0.015 0.083999999 0.71700001
-0.014 0.083999999 0.71799999
-0.013 0.083999999 0.71899998
-0.012 0.083999999 0.72000003
-0.011 0.083999999 0.72100002
-0.0099999998 0.083999999 0.72100002
-0.0080000004 0.083999999 0.722
-0.0070000002 0.085000001 0.72299999
-0.0060000001 0.085000001 0.72399998
-0.0049999999 0.085000001 0.72500002
-0.0040000002 0.085000001 0.72600001
-0.0020000001 0.085000001 0.72600001
-0.001 0.085000001 0.72799999
0 0.085000001 0.72899997
0.001 0.086000003 0.73100001
0.0020000001 0.086000003 0.73199999
0.003 0.086000003 0.73299998
0.0049999999 0.086000003 0.73500001
0.0060000001 0.086000003 0.73699999
0.0070000002 0.086000003 0.73900002
0.0080000004 0.086999997 0.741
0.0099999998 0.086999997 0.74299997
0.011 0.086999997 0.74599999
0.012 0.088 0.74800003
0.013 0.088 0.75099999
0.015 0.088 0.75300002
-0.068000004 0.088 0.74599999
-0.067000002 0.088 0.74400002
-0.064999998 0.088 0.74199998
-0.064000003 0.088 0.73900002
-0.061999999 0.086999997 0.73699999
-0.061000001 0.086999997 0.73500001
-0.059999999 0.086999997 0.73199999
-0.057999998 0.086999997 0.73000002
-0.057 0.086000003 0.72899997
-0.056000002 0.086000003 0.727
-0.054000001 0.086000003 0.72500002
-0.052999999 0.086000003 0.72399998
-0.052000001 0.086000003 0.72299999
-0.050000001 0.085000001 0.72100002
-0.048999999 0.085000001 0.72000003
-0.048 0.085000001 0.72000003
-0.046999998 0.085000001 0.72000003
-0.046 0.085000001 0.71899998
-0.045000002 0.085000001 0.71899998
-0.043000001 0.085000001 0.71799999
-0.041999999 0.085000001 0.71700001
-0.041000001 0.085000001 0.71700001
-0.039999999 0.085000001 0.71700001
-0.039000001 0.085000001 0.71600002
-0.037 0.085000001 0.71600002
-0.035999998 0.085000001 0.71499997
-0.035 0.085000001 0.71499997
-0.034000002 0.085000001 0.71499997
-0.033 0.085000001 0.71499997
-0.030999999 0.085000001 0.71499997
-0.029999999 0.085000001 0.71399999
-0.028999999 0.085000001 0.71499997
-0.028000001 0.085000001 0.71399999
-0.027000001 0.085000001 0.71399999
-0.026000001 0.085000001 0.71499997
-0.025 0.085000001 0.71600002
-0.023 0.085000001 0.71600002
-0.022 0.085000001 0.71600002
-0.021 0.085000001 0.71600002
-0.02 0.085000001 0.71700001
-0.018999999 0.085000001 0.71700001
-0.017999999 0.085000001 0.71799999
-0.016000001 0.085000001 0.71799999
-0.015 0.085000001 0.71799999
-0.014 0.085000001 0.71799999
-0.013 0.085000001 0.71899998
-0.012 0.085000001 0.72000003
-0.011 0.085000001 0.72000003
-0.0099999998 0.086000003 0.72100002
-0.0080000004 0.086000003 0.722
-0.0070000002 0.086000003 0.72299999
-0.0060000001 0.086000003 0.72399998
-0.0049999999 0.086000003 0.72399998
-0.0040000002 0.086000003 0.72600001
-0.003 0.086000003 0.727
-0.001 0.086000003 0.72799999
0 0.086000003 0.72899997
0.001 0.086999997 0.73000002
0.0020000001 0.086999997 0.73100001
0.003 0.086999997 0.73299998
0.0049999999 0.086999997 0.73400003
0.0060000001 0.086999997 0.73699999
0.0070000002 0.088 0.73900002
0.0080000004 0.088 0.741
0.0099999998 0.088 0.74299997
0.011 0.088 0.74599999
0.012 0.089000002 0.74800003
0.013 0.089000002 0.75
0.015 0.089000002 0.75300002
-0.068000004 0.090000004 0.74699998
-0.067000002 0.089000002 0.745
-0.064999998 0.089000002 0.74299997
-0.064000003 0.089000002 0.741
-0.061999999 0.089000002 0.73799998
-0.061000001 0.088 0.736
-0.059999999 0.088 0.73299998
-0.057999998 0.088 0.73100001
-0.057 0.088 0.72899997
-0.056000002 0.086999997 0.72799999
-0.054000001 0.086999997 0.72600001
-0.052999999 0.086999997 0.72399998
-0.052000001 0.086999997 0.72299999
-0.050999999 0.086999997 0.72299999
-0.048999999 0.086999997 0.72100002
-0.048 0.086999997 0.72000003
-0.046999998 0.086999997 0.72000003
-0.046 0.086000003 0.71899998
-0.045000002 0.086000003 0.71899998
-0.043000001 0.086000003 0.71799999
-0.041999999 0.086000003 0.71799999
-0.041000001 0.086000003 0.71700001
-0.039999999 0.086000003 0.71700001
-0.039000001 0.086000003 0.71600002
-0.037 0.086000003 0.71600002
-0.035999998 0.086000003 0.71600002
-0.035 0.086000003 0.71600002
-0.034000002 0.086000003 0.71499997
-0.033 0.086000003 0.71499997
-0.030999999 0.086000003 0.71399999
-0.029999999 0.086000003 0.71399999
-0.028999999 0.086000003 0.71399999
-0.028000001 0.086000003 0.71399999
-0.027000001 0.086000003 0.71399999
-0.026000001 0.086000003 0.71499997
-0.025 0.086000003 0.71499997
-0.023 0.086000003 0.71600002
-0.022 0.086000003 0.71600002
-0.021 0.086000003 0.71600002
-0.02 0.086000003 0.71700001
-0.018999999 0.086000003 0.71799999
-0.017999999 0.086000003 0.71799999
-0.016000001 0.086000003 0.71799999
-0.015 0.086000003 0.71799999
-0.014 0.086000003 0.71899998
-0.013 0.086999997 0.72000003
-0.012 0.086999997 0.72000003
-0.011 0.086999997 0.72000003
-0.0099999998 0.086999997 0.722
-0.0080000004 0.086999997 0.72299999
-0.0070000002 0.086999997 0.72299999
-0.0060000001 0.086999997 0.72399998
-0.0049999999 0.086999997 0.72500002
-0.0040000002 0.086999997 0.72600001
-0.003 0.086999997 0.727
-0.001 0.088 0.72799999
0 0.088 0.72899997
0.001 0.088 0.73100001
0.0020000001 0.088 0.73199999
0.003 0.088 0.73400003
0.0049999999 0.088 0.73500001
0.0060000001 0.089000002 0.73699999
0.0070000002 0.089000002 0.73900002
0.0080000004 0.089000002 0.74199998
0.0099999998 0.090000004 0.745
0.011 0.090000004 0.74699998
0.012 0.090000004 0.74900001
0.013 0.090000004 0.75099999
0.015 0.090999998 0.755
-0.068000004 0.090999998 0.74900001
-0.067000002 0.090999998 0.74699998
-0.064999998 0.090999998 0.745
-0.064000003 0.090000004 0.74199998
-0.063000001 0.090000004 0.73900002
-0.061000001 0.090000004 0.73699999
-0.059999999 0.089000002 0.73400003
-0.057999998 0.089000002 0.73199999
-0.057 0.089000002 0.73100001
-0.056000002 0.089000002 0.72899997
-0.054000001 0.089000002 0.727
-0.052999999 0.088 0.72500002
-0.052000001 0.088 0.72399998
-0.050999999 0.088 0.72299999
-0.048999999 0.088 0.722
-0.048 0.088 0.72100002
-0.046999998 0.088 0.72000003
-0.046 0.088 0.72000003
-0.045000002 0.088 0.71899998
-0.043000001 0.086999997 0.71799999
-0.041999999 0.086999997 0.71799999
-0.041000001 0.086999997 0.71799999
-0.039999999 0.086999997 0.71700001
-0.039000001 0.086999997 0.71700001
-0.037 0.086999997 0.71600002
-0.035999998 0.086999997 0.71600002
-0.035 0.086999997 0.71600002
-0.034000002 0.086999997 0.71499997
-0.033 0.086999997 0.71499997
-0.030999999 0.086999997 0.71399999
-0.029999999 0.086999997 0.71399999
-0.028999999 0.086999997 0.71399999
-0.028000001 0.086999997 0.71399999
-0.027000001 0.086999997 0.71399999
-0.026000001 0.086999997 0.71399999
-0.025 0.086999997 0.71499997
-0.023 0.086999997 0.71499997
-0.022 0.086999997 0.71600002
-0.021 0.086999997 0.71700001
-0.02 0.086999997 0.71700001
-0.018999999 0.086999997 0.71799999
-0.017999999 0.086999997 0.71799999
-0.016000001 0.086999997 0.71799999
-0.015 0.088 0.71899998
-0.014 0.088 0.71899998
-0.013 0.088 0.72000003
-0.012 0.088 0.72000003
-0.011 0.088 0.72100002
-0.0099999998 0.088 0.722
-0.0080000004 0.088 0.72299999
-0.0070000002 0.088 0.72299999
-0.0060000001 0.088 0.72399998
-0.0049999999 0.088 0.72600001
-0.0040000002 0.089000002 0.727
-0.003 0.089000002 0.727
-0.001 0.089000002 0.72799999
0 0.089000002 0.73000002
0.001 0.089000002 0.73100001
0.0020000001 0.089000002 0.73199999
0.003 0.089000002 0.73400003
0.0049999999 0.090000004 0.736
0.0060000001 0.090000004 0.73699999
0.0070000002 0.090000004 0.74000001
0.0080000004 0.090000004 0.74199998
0.0099999998 0.090999998 0.74599999
0.011 0.090999998 0.74900001
0.012 0.092 0.75099999
0.013 0.092 0.75300002
0.015 0.092 0.75599998
-0.068000004 0.093000002 0.75199997
-0.067000002 0.092 0.74900001
-0.066 0.092 0.74699998
-0.064000003 0.092 0.74299997
-0.063000001 0.090999998 0.74000001
-0.061000001 0.090999998 0.73799998
-0.059999999 0.090999998 0.736
-0.059 0.090999998 0.73400003
-0.057 0.090000004 0.73199999
-0.056000002 0.090000004 0.73000002
-0.055 0.090000004 0.72899997
-0.052999999 0.090000004 0.727
-0.052000001 0.089000002 0.72500002
-0.050999999 0.089000002 0.72399998
-0.048999999 0.089000002 0.72299999
-0.048 0.089000002 0.722
-0.046999998 0.089000002 0.72100002
-0.046 0.089000002 0.72000003
-0.045000002 0.089000002 0.72000003
-0.043000001 0.089000002 0.71899998
-0.041999999 0.089000002 0.71899998
-0.041000001 0.089000002 0.71799999
-0.039999999 0.089000002 0.71799999
-0.039000001 0.088 0.71700001
-0.037 0.088 0.71700001
-0.035999998 0.088 0.71700001
-0.035 0.088 0.71600002
-0.034000002 0.088 0.71499997
-0.033 0.088 0.71499997
-0.030999999 0.088 0.71499997
-0.029999999 0.088 0.71399999
-0.028999999 0.088 0.71399999
-0.028000001 0.088 0.71399999
-0.027000001 0.088 0.71399999
-0.026000001 0.088 0.71399999
-0.025 0.088 0.71499997
-0.023 0.088 0.71499997
-0.022 0.088 0.71600002
-0.021 0.089000002 0.71700001
-0.02 0.089000002 0.71799999
-0.018999999 0.089000002 0.71799999
-0.017999999 0.089000002 0.71799999
-0.016000001 0.089000002 0.71899998
-0.015 0.089000002 0.71899998
-0.014 0.089000002 0.72000003
-0.013 0.089000002 0.72000003
-0.012 0.089000002 0.72000003
-0.011 0.089000002 0.722
-0.0099999998 0.089000002 0.722
-0.0080000004 0.089000002 0.72299999
-0.0070000002 0.089000002 0.72399998
-0.0060000001 0.090000004 0.72500002
-0.0049999999 0.090000004 0.72600001
-0.0040000002 0.090000004 0.727
-0.003 0.090000004 0.72799999
-0.001 0.090000004 0.72899997
0 0.090000004 0.73000002
0.001 0.090000004 0.73100001
0.0020000001 0.090000004 0.73299998
0.003 0.090999998 0.73500001
0.0049999999 0.090999998 0.736
0.0060000001 0.090999998 0.73799998
0.0070000002 0.090999998 0.74000001
0.0080000004 0.092 0.74299997
0.0099999998 0.092 0.74599999
0.011 0.093000002 0.75
0.012 0.093000002 0.75300002
0.013 0.093000002 0.75599998
0.015 0.093999997 0.76099998
-0.068999998 0.094999999 0.76200002
-0.068000004 0.093999997 0.755
-0.066 0.093999997 0.75099999
-0.064000003 0.093000002 0.745
-0.063000001 0.093000002 0.74299997
-0.061000001 0.092 0.73900002
-0.059999999 0.092 0.736
-0.059 0.092 0.73400003
-0.057 0.092 0.73299998
-0.056000002 0.090999998 0.73100001
-0.055 0.090999998 0.72899997
-0.052999999 0.090999998 0.72799999
-0.052000001 0.090999998 0.727
-0.050999999 0.090999998 0.72500002
-0.050000001 0.090999998 0.72399998
-0.048 0.090000004 0.72299999
-0.046999998 0.090000004 0.72100002
-0.046 0.090000004 0.72000003
-0.045000002 0.090000004 0.72000003
-0.043000001 0.090000004 0.71899998
-0.041999999 0.090000004 0.71899998
-0.041000001 0.090000004 0.71799999
-0.039999999 0.090000004 0.71799999
-0.039000001 0.090000004 0.71700001
-0.037 0.090000004 0.71700001
-0.035999998 0.090000004 0.71700001
-0.035 0.090000004 0.71700001
-0.034000002 0.090000004 0.71600002
-0.033 0.089000002 0.71499997
-0.030999999 0.089000002 0.71499997
-0.029999999 0.089000002 0.71499997
-0.028999999 0.089000002 0.71499997
-0.028000001 0.089000002 0.71399999
-0.027000001 0.089000002 0.71399999
-0.026000001 0.089000002 0.71499997
-0.025 0.090000004 0.71600002
-0.023 0.090000004 0.71600002
-0.022 0.090000004 0.71600002
-0.021 0.090000004 0.71700001
-0.02 0.090000004 0.71799999
-0.018999999 0.090000004 0.71899998
-0.017999999 0.090000004 0.71899998
-0.016000001 0.090000004 0.71899998
-0.015 0.090000004 0.72000003
-0.014 0.090000004 0.72000003
-0.013 0.090000004 0.72100002
-0.012 0.090000004 0.72100002
-0.011 0.090000004 0.722
-0.0099999998 0.090000004 0.72299999
-0.0080000004 0.090999998 0.72399998
-0.0070000002 0.090999998 0.72500002
-0.0060000001 0.090999998 0.72600001
-0.0049999999 0.090999998 0.727
-0.0040000002 0.090999998 0.72799999
-0.003 0.090999998 0.72899997
-0.001 0.090999998 0.72899997
0 0.090999998 0.73100001
0.001 0.092 0.73199999
0.0020000001 0.092 0.73299998
0.003 0.092 0.73500001
0.0049999999 0.092 0.73699999
0.0060000001 0.092 0.73900002
0.0070000002 0.093000002 0.741
0.0080000004 0.093000002 0.74400002
0.0099999998 0.093000002 0.74699998
0.011 0.093999997 0.75099999
0.012 0.093999997 0.755
0.013 0.094999999 0.75999999
0.015 0.096000001 0.76700002
0.016000001 0.097000003 0.773
-0.068000004 0.096000001 0.76099998
-0.066 0.094999999 0.75400001
-0.064000003 0.094999999 0.74800003
-0.063000001 0.093999997 0.74400002
-0.061000001 0.093999997 0.741
-0.059999999 0.093000002 0.73799998
-0.059 0.093000002 0.73500001
-0.057 0.093000002 0.73299998
-0.056000002 0.093000002 0.73199999
-0.055 0.092 0.73000002
-0.052999999 0.092 0.72899997
-0.052000001 0.092 0.72799999
-0.050999999 0.092 0.72600001
-0.050000001 0.092 0.72500002
-0.048 0.092 0.72399998
-0.046999998 0.092 0.72299999
-0.046 0.090999998 0.72100002
-0.045000002 0.090999998 0.72000003
-0.043000001 0.090999998 0.71899998
-0.041999999 0.090999998 0.71899998
-0.041000001 0.090999998 0.71899998
-0.039999999 0.090999998 0.71799999
-0.039000001 0.090999998 0.71799999
-0.037 0.090999998 0.71700001
-0.035999998 0.090999998 0.71700001
-0.035 0.090999998 0.71700001
-0.034000002 0.090999998 0.71700001
-0.033 0.090999998 0.71600002
-0.030999999 0.090999998 0.71499997
-0.029999999 0.090999998 0.71499997
-0.028999999 0.090999998 0.71499997
-0.028000001 0.090999998 0.71499997
-0.027000001 0.090999998 0.71499997
-0.026000001 0.090999998 0.71499997
-0.025 0.090999998 0.71600002
-0.023 0.090999998 0.71600002
-0.022 0.090999998 0.71700001
-0.021 0.090999998 0.71799999
-0.02 0.090999998 0.71799999
-0.018999999 0.090999998 0.71899998
-0.017999999 0.090999998 0.71899998
-0.017000001 0.090999998 0.72000003
-0.015 0.090999998 0.72000003
-0.014 0.090999998 0.72000003
-0.013 0.090999998 0.72100002
-0.012 0.090999998 0.72100002
-0.011 0.090999998 0.722
-0.0099999998 0.092 0.72399998
-0.0080000004 0.092 0.72399998
-0.0070000002 0.092 0.72500002
-0.0060000001 0.092 0.727
-0.0049999999 0.092 0.72799999
-0.0040000002 0.092 0.72899997
-0.003 0.092 0.72899997
-0.001 0.092 0.73000002
0 0.093000002 0.73100001
0.001 0.093000002 0.73299998
0.0020000001 0.093000002 0.73400003
0.003 0.093000002 0.736
0.0049999999 0.093999997 0.73799998
0.0060000001 0.093999997 0.74000001
0.0070000002 0.093999997 0.74199998
0.0080000004 0.093999997 0.745
0.0099999998 0.094999999 0.74900001
0.011 0.094999999 0.75300002
0.012 0.096000001 0.75700003
0.014 0.097000003 0.764
0.015 0.097999997 0.77200001
0.016000001 0.098999999 0.78100002
-0.067000002 0.097000003 0.759
-0.064999998 0.096000001 0.75099999
-0.063000001 0.096000001 0.74599999
-0.061999999 0.094999999 0.74299997
-0.059999999 0.094999999 0.74000001
-0.059 0.093999997 0.73699999
-0.057 0.093999997 0.73500001
-0.056000002 0.093999997 0.73299998
-0.055 0.093999997 0.73100001
-0.052999999 0.093999997 0.73000002
-0.052000001 0.093000002 0.72899997
-0.050999999 0.093000002 0.727
-0.050000001 0.093000002 0.72600001
-0.048 0.093000002 0.72500002
-0.046999998 0.093000002 0.72399998
-0.045000002 0.092 0.72100002
-0.041999999 0.092 0.72000003
-0.041000001 0.092 0.72000003
-0.039999999 0.092 0.71899998
-0.039000001 0.092 0.71899998
-0.037 0.092 0.71899998
-0.035999998 0.092 0.71899998
-0.035 0.092 0.71799999
-0.034000002 0.092 0.71799999
-0.033 0.092 0.71799999
-0.032000002 0.092 0.71700001
-0.029999999 0.092 0.71700001
-0.028999999 0.092 0.71700001
-0.028000001 0.092 0.71600002
-0.027000001 0.092 0.71600002
-0.026000001 0.092 0.71600002
-0.025 0.092 0.71700001
-0.023 0.092 0.71700001
-0.022 0.092 0.71700001
-0.021 0.092 0.71799999
-0.02 0.092 0.71899998
-0.018999999 0.092 0.72000003
-0.017999999 0.092 0.72000003
-0.017000001 0.092 0.72000003
-0.015 0.093000002 0.72100002
-0.014 0.093000002 0.722
-0.013 0.093000002 0.722
-0.012 0.093000002 0.72299999
-0.011 0.093000002 0.72299999
-0.0099999998 0.093000002 0.72399998
-0.0080000004 0.093000002 0.72500002
-0.0070000002 0.093000002 0.72600001
-0.0060000001 0.093000002 0.727
-0.0049999999 0.093000002 0.72799999
-0.0040000002 0.093999997 0.72899997
-0.003 0.093999997 0.73000002
-0.001 0.093999997 0.73100001
0 0.093999997 0.73199999
0.001 0.093999997 0.73400003
0.0020000001 0.093999997 0.73500001
0.003 0.094999999 0.73699999
0.0049999999 0.094999999 0.73900002
0.0060000001 0.094999999 0.741
0.0070000002 0.094999999 0.74299997
0.0080000004 0.096000001 0.74699998
0.0099999998 0.096000001 0.75099999
0.011 0.097000003 0.755
0.012 0.097999997 0.76099998
0.014 0.098999999 0.76800001
0.015 0.1 0.77600002
0.016000001 0.101 0.78500003
-0.067000002 0.098999999 0.76499999
-0.064999998 0.097999997 0.755
-0.063000001 0.097000003 0.74800003
-0.061999999 0.097000003 0.74400002
-0.059999999 0.096000001 0.741
-0.059 0.096000001 0.73900002
-0.057 0.096000001 0.736
-0.056000002 0.094999999 0.73400003
-0.055 0.094999999 0.73199999
-0.054000001 0.094999999 0.73100001
-0.052000001 0.094999999 0.73000002
-0.050999999 0.094999999 0.72799999
-0.050000001 0.093999997 0.727
-0.048 0.093999997 0.72600001
-0.034000002 0.093000002 0.71899998
-0.029999999 0.093000002 0.71799999
-0.028999999 0.093000002 0.71799999
-0.028000001 0.093000002 0.71799999
-0.027000001 0.093000002 0.71700001
-0.026000001 0.093000002 0.71700001
-0.025 0.093000002 0.71799999
-0.023 0.093000002 0.71799999
-0.022 0.093000002 0.71899998
-0.021 0.093999997 0.72000003
-0.02 0.093999997 0.72000003
-0.018999999 0.093999997 0.72100002
-0.017999999 0.093999997 0.72100002
-0.017000001 0.093999997 0.72100002
-0.015 0.093999997 0.722
-0.014 0.093999997 0.72299999
-0.013 0.093999997 0.72299999
-0.012 0.093999997 0.72299999
-0.011 0.093999997 0.72399998
-0.0099999998 0.093999997 0.72500002
-0.0080000004 0.093999997 0.72600001
-0.0070000002 0.093999997 0.727
-0.0060000001 0.094999999 0.72899997
-0.0049999999 0.094999999 0.73000002
-0.0040000002 0.094999999 0.73000002
-0.003 0.094999999 0.73100001
-0.001 0.094999999 0.73299998
0 0.094999999 0.73400003
0.001 0.096000001 0.73500001
0.0020000001 0.096000001 0.736
0.003 0.096000001 0.73799998
0.0049999999 0.096000001 0.74000001
0.0060000001 0.096000001 0.74199998
0.0070000002 0.097000003 0.745
0.0080000004 0.097000003 0.74800003
0.0099999998 0.097999997 0.75300002
0.011 0.097999997 0.75800002
0.012 0.098999999 0.76499999
0.014 0.1 0.77200001
0.015 0.101 0.78100002
0.017000001 0.103 0.78899997
0.017999999 0.104 0.79799998
-0.068000004 0.101 0.76899999
-0.064999998 0.098999999 0.75700003
-0.064000003 0.098999999 0.75099999
-0.061999999 0.097999997 0.74599999
-0.059999999 0.097999997 0.74299997
-0.059 0.097000003 0.74000001
-0.057999998 0.097000003 0.73799998
-0.056000002 0.097000003 0.73500001
-0.055 0.096000001 0.73299998
-0.054000001 0.096000001 0.73199999
-0.052000001 0.096000001 0.73100001
-0.050999999 0.096000001 0.72899997
-0.050000001 0.096000001 0.72799999
-0.034000002 0.094999999 0.72000003
-0.033 0.094999999 0.72000003
-0.032000002 0.094999999 0.72000003
-0.030999999 0.094999999 0.72000003
-0.028999999 0.094999999 0.72000003
-0.028000001 0.094999999 0.71899998
-0.027000001 0.094999999 0.71899998
-0.026000001 0.094999999 0.71899998
-0.025 0.094999999 0.72000003
-0.024 0.094999999 0.72000003
-0.022 0.094999999 0.72000003
-0.021 0.094999999 0.72100002
-0.02 0.094999999 0.72100002
-0.018999999 0.094999999 0.722
-0.017999999 0.094999999 0.722
-0.017000001 0.094999999 0.722
-0.015 0.094999999 0.72299999
-0.014 0.094999999 0.72299999
-0.013 0.094999999 0.72399998
-0.012 0.094999999 0.72399998
-0.011 0.094999999 0.72500002
-0.0099999998 0.096000001 0.72600001
-0.0080000004 0.096000001 0.727
-0.0070000002 0.096000001 0.72799999
-0.0060000001 0.096000001 0.72899997
-0.0049999999 0.096000001 0.73100001
-0.0040000002 0.096000001 0.73100001
-0.003 0.096000001 0.73199999
-0.001 0.097000003 0.73400003
0 0.097000003 0.73500001
0.001 0.097000003 0.736
0.0020000001 0.097000003 0.73699999
0.003 0.097000003 0.73900002
0.0049999999 0.097000003 0.741
0.0060000001 0.097999997 0.74299997
0.0070000002 0.097999997 0.74599999
0.0080000004 0.098999999 0.75
0.0099999998 0.098999999 0.755
0.011 0.1 0.75999999
0.012 0.101 0.76800001
0.014 0.102 0.77600002
0.015 0.103 0.78399998
0.017000001 0.104 0.79100001
0.017999999 0.105 0.79900002
-0.068000004 0.103 0.77200001
-0.064999998 0.101 0.759
-0.064000003 0.1 0.75300002
-0.061999999 0.1 0.74900001
-0.061000001 0.098999999 0.745
-0.059 0.098999999 0.74199998
-0.057999998 0.097999997 0.73900002
-0.056000002 0.097999997 0.73699999
-0.055 0.097999997 0.73500001
-0.054000001 0.097999997 0.73299998
-0.052000001 0.097000003 0.73199999
-0.050999999 0.097000003 0.73100001
-0.035 0.096000001 0.72100002
-0.034000002 0.096000001 0.72100002
-0.033 0.096000001 0.72100002
-0.032000002 0.096000001 0.72100002
-0.030999999 0.096000001 0.72100002
-0.028999999 0.096000001 0.72100002
-0.028000001 0.096000001 0.72100002
-0.027000001 0.096000001 0.72000003
-0.026000001 0.096000001 0.72100002
-0.025 0.096000001 0.72100002
-0.024 0.096000001 0.72100002
-0.022 0.096000001 0.72100002
-0.021 0.096000001 0.722
-0.02 0.096000001 0.722
-0.018999999 0.096000001 0.72299999
-0.017999999 0.096000001 0.72299999
-0.017000001 0.096000001 0.72399998
-0.015 0.096000001 0.72399998
-0.014 0.096000001 0.72399998
-0.013 0.097000003 0.72500002
-0.012 0.097000003 0.72600001
-0.011 0.097000003 0.727
-0.0099999998 0.097000003 0.727
-0.0080000004 0.097000003 0.72799999
-0.0070000002 0.097000003 0.72899997
-0.0060000001 0.097000003 0.73000002
-0.0049999999 0.097000003 0.73199999
-0.0040000002 0.097000003 0.73199999
-0.003 0.097999997 0.73299998
-0.001 0.097999997 0.73400003
0 0.097999997 0.736
0.001 0.097999997 0.736
0.0020000001 0.097999997 0.73799998
0.003 0.098999999 0.74000001
0.0049999999 0.098999999 0.74199998
0.0060000001 0.098999999 0.74400002
0.0070000002 0.098999999 0.74699998
0.0080000004 0.1 0.75199997
0.0099999998 0.101 0.75800002
0.011 0.102 0.76300001
0.012 0.103 0.77100003
0.014 0.104 0.778
0.015 0.105 0.78600001
0.017000001 0.105 0.792
0.017999999 0.106 0.79900002
-0.067000002 0.103 0.76800001
-0.066 0.102 0.75999999
-0.064000003 0.102 0.755
-0.061999999 0.101 0.75099999
-0.061000001 0.101 0.74699998
-0.059 0.1 0.74400002
-0.057999998 0.1 0.741
-0.056000002 0.098999999 0.73799998
-0.055 0.098999999 0.736
-0.054000001 0.098999999 0.73500001
-0.052000001 0.098999999 0.73299998
-0.034000002 0.097000003 0.72299999
-0.033 0.097000003 0.72299999
-0.032000002 0.097000003 0.722
-0.030999999 0.097000003 0.722
-0.028999999 0.097000003 0.722
-0.028000001 0.097000003 0.722
-0.027000001 0.097000003 0.722
-0.026000001 0.097000003 0.722
-0.025 0.097000003 0.722
-0.024 0.097000003 0.72299999
-0.022 0.097000003 0.72299999
-0.021 0.097000003 0.72299999
-0.02 0.097999997 0.72399998
-0.018999999 0.097999997 0.72399998
-0.017999999 0.097999997 0.72500002
-0.017000001 0.097999997 0.72500002
-0.015 0.097999997 0.72600001
-0.014 0.097999997 0.72600001
-0.013 0.097999997 0.727
-0.012 0.097999997 0.727
-0.011 0.097999997 0.72799999
-0.0099999998 0.097999997 0.72899997
-0.0080000004 0.097999997 0.73000002
-0.0070000002 0.097999997 0.73000002
-0.0060000001 0.098999999 0.73100001
-0.0049999999 0.098999999 0.73199999
-0.0040000002 0.098999999 0.73400003
-0.003 0.098999999 0.73400003
-0.001 0.098999999 0.73500001
0 0.098999999 0.736
0.001 0.098999999 0.73799998
0.0020000001 0.1 0.73900002
0.003 0.1 0.741
0.0049999999 0.1 0.74299997
0.0060000001 0.101 0.74599999
0.0070000002 0.101 0.74900001
0.0080000004 0.102 0.75400001
0.0099999998 0.102 0.75999999
0.011 0.103 0.76700002
0.012 0.104 0.77499998
0.014 0.105 0.78200001
0.015 0.106 0.78799999
0.017000001 0.107 0.79400003
0.017999999 0.108 0.79900002
-0.067000002 0.104 0.76300001
-0.066 0.104 0.75999999
-0.064000003 0.103 0.75599998
-0.061999999 0.103 0.75300002
-0.061000001 0.102 0.74900001
-0.059 0.102 0.74599999
-0.057999998 0.101 0.74199998
-0.057 0.101 0.74000001
-0.055 0.1 0.73699999
-0.054000001 0.1 0.73500001
-0.032000002 0.098999999 0.72299999
-0.030999999 0.098999999 0.72299999
-0.028999999 0.098999999 0.72299999
-0.028000001 0.097999997 0.722
-0.027000001 0.097999997 0.722
-0.026000001 0.097999997 0.722
-0.025 0.098999999 0.72299999
-0.024 0.098999999 0.72299999
-0.022 0.098999999 0.72399998
-0.021 0.098999999 0.72399998
-0.02 0.098999999 0.72500002
-0.018999999 0.098999999 0.72500002
-0.017999999 0.098999999 0.72600001
-0.017000001 0.098999999 0.727
-0.015 0.098999999 0.727
-0.014 0.098999999 0.727
-0.013 0.098999999 0.72799999
-0.012 0.098999999 0.72899997
-0.011 0.098999999 0.72899997
-0.0099999998 0.098999999 0.72899997
-0.0080000004 0.1 0.73000002
-0.0070000002 0.1 0.73100001
-0.0060000001 0.1 0.73199999
-0.0049999999 0.1 0.73299998
-0.0040000002 0.1 0.73299998
-0.003 0.1 0.73500001
-0.001 0.1 0.736
0 0.101 0.73699999
0.001 0.101 0.73799998
0.0020000001 0.101 0.73900002
0.003 0.101 0.741
0.0049999999 0.101 0.74400002
0.0060000001 0.102 0.74699998
0.0070000002 0.102 0.75
0.0080000004 0.103 0.75599998
0.0099999998 0.104 0.76200002
0.011 0.105 0.76899999
0.012 0.106 0.77600002
0.014 0.107 0.78299999
0.015 0.108 0.78899997
0.017000001 0.108 0.79400003
0.017999999 0.109 0.79799998
0.018999999 0.109 0.801
0.021 0.11 0.80400002
-0.067000002 0.105 0.759
-0.064999998 0.105 0.759
-0.064000003 0.104 0.75700003
-0.063000001 0.104 0.755
-0.061000001 0.104 0.75199997
-0.059999999 0.103 0.74800003
-0.057999998 0.103 0.74400002
-0.057 0.102 0.74199998
-0.055 0.102 0.73900002
-0.030999999 0.1 0.72399998
-0.029999999 0.1 0.72399998
-0.028000001 0.1 0.72399998
-0.027000001 0.1 0.72399998
-0.026000001 0.1 0.72399998
-0.025 0.1 0.72399998
-0.024 0.1 0.72500002
-0.023 0.1 0.72500002
-0.021 0.1 0.72500002
-0.02 0.1 0.72600001
-0.018999999 0.1 0.727
-0.017999999 0.1 0.727
-0.017000001 0.1 0.727
-0.016000001 0.1 0.72799999
-0.014 0.101 0.72899997
-0.013 0.101 0.72899997
-0.012 0.101 0.72899997
-0.011 0.101 0.73000002
-0.0099999998 0.101 0.73000002
-0.0080000004 0.101 0.73100001
-0.0070000002 0.101 0.73199999
-0.0060000001 0.101 0.73199999
-0.0049999999 0.101 0.73299998
-0.0040000002 0.101 0.73500001
-0.003 0.102 0.736
-0.001 0.102 0.73699999
0 0.102 0.73799998
0.001 0.102 0.73900002
0.0020000001 0.102 0.741
0.003 0.103 0.74299997
0.0049999999 0.103 0.745
0.0060000001 0.103 0.74800003
0.0070000002 0.104 0.75300002
0.0080000004 0.105 0.759
0.0099999998 0.106 0.76499999
0.011 0.107 0.77200001
0.012 0.107 0.778
0.014 0.108 0.78500003
0.015 0.109 0.78899997
0.017000001 0.109 0.79299998
0.017999999 0.11 0.796
0.018999999 0.11 0.79900002
0.021 0.111 0.80199999
-0.064999998 0.106 0.75800002
-0.064000003 0.106 0.75800002
-0.063000001 0.106 0.75700003
-0.061000001 0.105 0.75400001
-0.059999999 0.105 0.75
-0.057999998 0.104 0.74599999
-0.057 0.104 0.74400002
-0.055 0.103 0.741
-0.029999999 0.101 0.72500002
-0.028000001 0.101 0.72500002
-0.027000001 0.101 0.72500002
-0.026000001 0.101 0.72500002
-0.025 0.101 0.72500002
-0.024 0.101 0.72600001
-0.023 0.101 0.72600001
-0.021 0.101 0.72600001
-0.02 0.102 0.727
-0.018999999 0.102 0.727
-0.017999999 0.102 0.72799999
-0.017000001 0.102 0.72799999
-0.016000001 0.102 0.72899997
-0.014 0.102 0.72899997
-0.013 0.102 0.73000002
-0.012 0.102 0.73000002
-0.011 0.102 0.73100001
-0.0099999998 0.102 0.73100001
-0.0080000004 0.102 0.73199999
-0.0070000002 0.102 0.73199999
-0.0060000001 0.102 0.73299998
-0.0049999999 0.102 0.73400003
-0.0040000002 0.103 0.73500001
-0.003 0.103 0.736
-0.001 0.103 0.73799998
0 0.103 0.73900002
0.001 0.103 0.74000001
0.0020000001 0.104 0.74199998
0.003 0.104 0.74400002
0.0049999999 0.104 0.74699998
0.0060000001 0.105 0.75
0.0070000002 0.105 0.755
0.0089999996 0.106 0.76099998
0.0099999998 0.107 0.76800001
0.011 0.108 0.77499998
0.013 0.109 0.78100002
0.014 0.11 0.78600001
0.015 0.11 0.79000002
0.017000001 0.111 0.79299998
0.017999999 0.111 0.796
0.018999999 0.111 0.79799998
0.021 0.112 0.80000001
0.022 0.112 0.80199999
-0.064999998 0.107 0.75800002
-0.064000003 0.107 0.759
-0.063000001 0.107 0.75800002
-0.061000001 0.107 0.75599998
-0.059999999 0.106 0.75199997
-0.057999998 0.106 0.74800003
-0.057 0.105 0.74599999
-0.056000002 0.105 0.74299997
-0.029999999 0.103 0.727
-0.028000001 0.103 0.727
-0.027000001 0.103 0.727
-0.026000001 0.103 0.727
-0.025 0.103 0.727
-0.024 0.103 0.727
-0.023 0.103 0.727
-0.021 0.103 0.727
-0.02 0.103 0.727
-0.018999999 0.103 0.72799999
-0.017999999 0.103 0.72899997
-0.017000001 0.103 0.72899997
-0.016000001 0.103 0.73000002
-0.014 0.103 0.73000002
-0.013 0.103 0.73100001
-0.012 0.103 0.73100001
-0.011 0.103 0.73199999
-0.0099999998 0.103 0.73199999
-0.0080000004 0.103 0.73199999
-0.0070000002 0.104 0.73299998
-0.0060000001 0.104 0.73400003
-0.0049999999 0.104 0.73500001
-0.0040000002 0.104 0.73500001
-0.003 0.104 0.73699999
-0.001 0.104 0.73799998
0 0.105 0.74000001
0.001 0.105 0.741
0.0020000001 0.105 0.74299997
0.003 0.105 0.74599999
0.0049999999 0.106 0.74900001
0.0060000001 0.106 0.75199997
0.0070000002 0.107 0.75800002
0.0089999996 0.108 0.764
0.0099999998 0.109 0.77100003
0.011 0.11 0.77700001
0.013 0.111 0.78299999
0.014 0.111 0.787
0.015 0.112 0.79000002
0.017000001 0.112 0.79299998
0.017999999 0.112 0.79500002
0.018999999 0.113 0.79699999
0.021 0.113 0.79900002
0.022 0.113 0.801
0.023 0.114 0.80400002
-0.067000002 0.108 0.75800002
-0.064999998 0.108 0.75999999
-0.064000003 0.109 0.76099998
-0.063000001 0.108 0.75999999
-0.061999999 0.108 0.75800002
-0.059999999 0.108 0.75400001
-0.059 0.107 0.75099999
-0.057 0.107 0.74699998
-0.056000002 0.106 0.745
-0.032000002 0.104 0.72899997
-0.030999999 0.104 0.72899997
-0.029999999 0.104 0.72799999
-0.028999999 0.104 0.72799999
-0.027000001 0.104 0.72799999
-0.026000001 0.104 0.72799999
-0.025 0.104 0.72799999
-0.024 0.104 0.72799999
-0.023 0.104 0.72799999
-0.021 0.104 0.72799999
-0.02 0.104 0.72899997
-0.018999999 0.104 0.72899997
-0.017999999 0.104 0.72899997
-0.017000001 0.104 0.73000002
-0.016000001 0.104 0.73000002
-0.014 0.104 0.73100001
-0.013 0.105 0.73199999
-0.012 0.105 0.73199999
-0.011 0.105 0.73199999
-0.0099999998 0.105 0.73299998
-0.0080000004 0.105 0.73299998
-0.0070000002 0.105 0.73400003
-0.0060000001 0.105 0.73400003
-0.0049999999 0.105 0.73500001
-0.0040000002 0.105 0.736
-0.003 0.105 0.73699999
-0.001 0.106 0.73900002
0 0.106 0.741
0.001 0.106 0.74199998
0.0020000001 0.106 0.74400002
0.003 0.107 0.74699998
0.0049999999 0.107 0.75099999
0.0060000001 0.108 0.755
0.0070000002 0.109 0.76099998
0.0089999996 0.11 0.76700002
0.0099999998 0.111 0.77399999
0.011 0.111 0.77899998
0.013 0.112 0.78399998
0.014 0.113 0.78799999
0.015 0.113 0.79000002
0.017000001 0.113 0.792
0.017999999 0.114 0.79500002
0.018999999 0.114 0.796
0.021 0.114 0.79799998
0.022 0.114 0.80000001
0.023 0.115 0.80199999
0.025 0.115 0.80500001
0.026000001 0.115 0.80599999
-0.078000002 0.111 0.77100003
-0.068000004 0.11 0.75999999
-0.067000002 0.11 0.76099998
-0.061999999 0.11 0.75999999
-0.059999999 0.109 0.75800002
-0.059 0.109 0.75300002
-0.057 0.108 0.75099999
-0.056000002 0.108 0.74800003
-0.032000002 0.105 0.73000002
-0.030999999 0.105 0.73000002
-0.029999999 0.105 0.73000002
-0.028999999 0.105 0.73000002
-0.027000001 0.105 0.73000002
-0.026000001 0.105 0.73000002
-0.025 0.105 0.73000002
-0.024 0.105 0.73000002
-0.023 0.105 0.73000002
-0.021 0.105 0.72899997
-0.02 0.105 0.72899997
-0.018999999 0.105 0.73000002
-0.017999999 0.105 0.73000002
-0.017000001 0.106 0.73100001
-0.016000001 0.106 0.73199999
-0.014 0.106 0.73199999
-0.013 0.106 0.73199999
-0.012 0.106 0.73299998
-0.011 0.106 0.73299998
-0.0099999998 0.106 0.73400003
-0.0080000004 0.106 0.73400003
-0.0070000002 0.106 0.73400003
-0.0060000001 0.106 0.73500001
-0.0049999999 0.106 0.736
-0.0040000002 0.106 0.73699999
-0.003 0.107 0.73799998
-0.001 0.107 0.74000001
0 0.107 0.741
0.001 0.107 0.74299997
0.0020000001 0.108 0.74599999
0.0040000002 0.108 0.74900001
0.0049999999 0.109 0.75199997
0.0060000001 0.11 0.75800002
0.0070000002 0.11 0.76300001
0.0089999996 0.111 0.76899999
0.0099999998 0.112 0.77600002
0.011 0.113 0.78100002
0.013 0.113 0.78500003
0.014 0.114 0.78799999
0.015 0.114 0.78899997
0.017000001 0.114 0.792
0.017999999 0.115 0.79400003
0.018999999 0.115 0.79500002
0.021 0.115 0.79699999
0.022 0.115 0.79900002
0.023 0.116 0.801
0.025 0.116 0.80299997
0.026000001 0.116 0.80500001
-0.078000002 0.113 0.77399999
-0.077 0.113 0.773
-0.075000003 0.113 0.773
-0.061000001 0.111 0.75999999
-0.059 0.111 0.75700003
-0.057999998 0.11 0.75300002
-0.056000002 0.11 0.75
-0.032000002 0.107 0.73100001
-0.030999999 0.107 0.73100001
-0.029999999 0.107 0.73100001
-0.028999999 0.107 0.73100001
-0.027000001 0.107 0.73100001
-0.026000001 0.107 0.73100001
-0.025 0.107 0.73100001
-0.024 0.107 0.73100001
-0.023 0.107 0.73000002
-0.021 0.107 0.73000002
-0.02 0.107 0.73100001
-0.018999999 0.107 0.73100001
-0.017999999 0.107 0.73100001
-0.017000001 0.107 0.73199999
-0.016000001 0.107 0.73199999
-0.014 0.107 0.73199999
-0.013 0.107 0.73299998
-0.012 0.107 0.73299998
-0.011 0.107 0.73299998
-0.0099999998 0.107 0.73400003
-0.0080000004 0.107 0.73400003
-0.0070000002 0.107 0.73500001
-0.0060000001 0.108 0.736
-0.0049999999 0.108 0.73699999
-0.0040000002 0.108 0.73799998
-0.003 0.108 0.73900002
-0.001 0.108 0.741
0 0.109 0.74299997
0.001 0.109 0.745
0.0020000001 0.109 0.74800003
0.0040000002 0.11 0.75099999
0.0049999999 0.11 0.755
0.0060000001 0.111 0.76099998
0.0070000002 0.112 0.76700002
0.0089999996 0.113 0.773
0.0099999998 0.114 0.77700001
0.011 0.114 0.78200001
0.013 0.115 0.78500003
0.014 0.115 0.78799999
0.015 0.115 0.78899997
0.017000001 0.116 0.79100001
0.017999999 0.116 0.79299998
0.018999999 0.116 0.79400003
0.021 0.116 0.796
0.022 0.116 0.79699999
0.023 0.117 0.79900002
0.025 0.117 0.80199999
0.026000001 0.117 0.80299997
-0.078000002 0.115 0.77600002
-0.077 0.115 0.77600002
-0.075999998 0.114 0.77499998
-0.074000001 0.114 0.77399999
-0.072999999 0.114 0.773
-0.059 0.112 0.75999999
-0.057999998 0.112 0.75599998
-0.056000002 0.111 0.75300002
-0.032000002 0.108 0.73199999
-0.030999999 0.108 0.73199999
-0.029999999 0.108 0.73199999
-0.028999999 0.108 0.73199999
-0.027000001 0.108 0.73199999
-0.026000001 0.108 0.73199999
-0.025 0.108 0.73199999
-0.024 0.108 0.73199999
-0.023 0.108 0.73199999
-0.022 0.108 0.73199999
-0.02 0.108 0.73199999
-0.018999999 0.108 0.73199999
-0.017999999 0.108 0.73199999
-0.017000001 0.108 0.73299998
-0.016000001 0.108 0.73299998
-0.014 0.108 0.73299998
-0.013 0.108 0.73400003
-0.012 0.108 0.73400003
-0.011 0.108 0.73400003
-0.0099999998 0.109 0.73500001
-0.0089999996 0.109 0.736
-0.0070000002 0.109 0.736
-0.0060000001 0.109 0.73699999
-0.0049999999 0.109 0.73799998
-0.0040000002 0.109 0.73900002
-0.003 0.109 0.741
-0.001 0.11 0.74199998
0 0.11 0.74400002
0.001 0.11 0.74599999
0.0020000001 0.111 0.75
0.0040000002 0.111 0.75300002
0.0049999999 0.112 0.75800002
0.0060000001 0.113 0.764
0.0070000002 0.114 0.76899999
0.0089999996 0.114 0.77499998
0.0099999998 0.115 0.77899998
0.011 0.116 0.78299999
0.013 0.116 0.78500003
0.014 0.116 0.78799999
0.015 0.117 0.78899997
0.017000001 0.117 0.79000002
0.017999999 0.117 0.792
0.018999999 0.117 0.792
0.021 0.117 0.79500002
0.022 0.118 0.796
0.023 0.118 0.79799998
0.025 0.118 0.80000001
0.026000001 0.118 0.80199999
0.027000001 0.119 0.80599999
-0.078000002 0.116 0.77700001
-0.077 0.116 0.77600002
-0.075999998 0.116 0.77600002
-0.074000001 0.116 0.77600002
-0.072999999 0.116 0.77499998
-0.071999997 0.115 0.77399999
-0.07 0.115 0.773
-0.068999998 0.115 0.773
-0.067000002 0.115 0.77200001
-0.064999998 0.115 0.77200001
-0.061000001 0.114 0.76599997
-0.059 0.114 0.76200002
-0.057999998 0.113 0.759
-0.056000002 0.113 0.755
-0.029999999 0.11 0.73400003
-0.028999999 0.11 0.73400003
-0.028000001 0.109 0.73299998
-0.026000001 0.109 0.73299998
-0.025 0.109 0.73299998
-0.024 0.109 0.73299998
-0.023 0.109 0.73299998
-0.022 0.109 0.73299998
-0.02 0.109 0.73299998
-0.018999999 0.109 0.73299998
-0.017999999 0.109 0.73299998
-0.017000001 0.11 0.73400003
-0.016000001 0.11 0.73400003
-0.014 0.11 0.73400003
-0.013 0.11 0.73400003
-0.012 0.11 0.73500001
-0.011 0.11 0.73500001
-0.0099999998 0.11 0.736
-0.0089999996 0.11 0.73699999
-0.0070000002 0.11 0.73699999
-0.0060000001 0.11 0.73799998
-0.0049999999 0.11 0.73900002
-0.0040000002 0.111 0.741
-0.003 0.111 0.74199998
-0.001 0.111 0.74400002
0 0.111 0.74599999
0.001 0.112 0.74800003
0.0020000001 0.112 0.75199997
0.0040000002 0.113 0.75599998
0.0049999999 0.114 0.76099998
0.0060000001 0.114 0.76599997
0.0070000002 0.115 0.77200001
0.0089999996 0.116 0.77700001
0.0099999998 0.117 0.78100002
0.011 0.117 0.78399998
0.013 0.117 0.78500003
0.014 0.118 0.787
0.015 0.118 0.78799999
0.017000001 0.118 0.78899997
0.017999999 0.118 0.79100001
0.018999999 0.118 0.79100001
0.02 0.119 0.79400003
0.022 0.119 0.79500002
0.023 0.119 0.79799998
0.025 0.119 0.80000001
0.026000001 0.12 0.80199999
0.027000001 0.12 0.80599999
-0.078000002 0.117 0.77700001
-0.077 0.117 0.77700001
-0.075999998 0.117 0.77700001
-0.074000001 0.117 0.77600002
-0.072999999 0.117 0.77600002
-0.071999997 0.117 0.77499998
-0.071000002 0.117 0.77499998
-0.068999998 0.117 0.77399999
-0.068000004 0.117 0.77399999
-0.067000002 0.117 0.773
-0.064999998 0.117 0.773
-0.064000003 0.116 0.77200001
-0.061000001 0.116 0.76800001
-0.059999999 0.115 0.76499999
-0.057999998 0.115 0.76200002
-0.057 0.114 0.75800002
-0.028000001 0.111 0.73500001
-0.026000001 0.111 0.73400003
-0.025 0.111 0.73400003
-0.024 0.111 0.73400003
-0.023 0.111 0.73400003
-0.022 0.111 0.73299998
-0.02 0.111 0.73299998
-0.018999999 0.111 0.73400003
-0.017999999 0.111 0.73400003
-0.017000001 0.111 0.73400003
-0.016000001 0.111 0.73400003
-0.014 0.111 0.73500001
-0.013 0.111 0.73500001
-0.012 0.111 0.736
-0.011 0.111 0.736
-0.0099999998 0.111 0.73699999
-0.0089999996 0.111 0.73799998
-0.0070000002 0.112 0.73900002
-0.0060000001 0.112 0.74000001
-0.0049999999 0.112 0.74000001
-0.0040000002 0.112 0.74199998
-0.003 0.112 0.74400002
-0.001 0.112 0.745
0 0.113 0.74800003
0.001 0.113 0.75
0.0020000001 0.114 0.75400001
0.0040000002 0.115 0.759
0.0049999999 0.115 0.76499999
0.0060000001 0.116 0.76999998
0.0070000002 0.117 0.77499998
0.0089999996 0.118 0.77899998
0.0099999998 0.118 0.78200001
0.011 0.118 0.78399998
0.013 0.119 0.78500003
0.014 0.119 0.78600001
0.015 0.119 0.787
0.016000001 0.119 0.78799999
0.017999999 0.119 0.79000002
0.018999999 0.119 0.79100001
0.02 0.12 0.79299998
0.022 0.12 0.79500002
0.023 0.12 0.79699999
0.025 0.121 0.80000001
0.026000001 0.121 0.80199999
0.027000001 0.122 0.80599999
-0.078000002 0.118 0.77600002
-0.077 0.118 0.77600002
-0.075999998 0.118 0.77600002
-0.074000001 0.118 0.77600002
-0.072999999 0.118 0.77600002
-0.071999997 0.118 0.77600002
-0.071000002 0.118 0.77499998
-0.068999998 0.118 0.77499998
-0.068000004 0.118 0.77399999
-0.067000002 0.118 0.77399999
-0.064999998 0.118 0.773
-0.064000003 0.118 0.773
-0.063000001 0.118 0.77200001
-0.061000001 0.117 0.76999998
-0.059999999 0.117 0.76700002
-0.057999998 0.117 0.76499999
-0.057 0.116 0.76099998
-0.055 0.116 0.75800002
-0.024 0.112 0.73500001
-0.023 0.112 0.73500001
-0.022 0.112 0.73500001
-0.02 0.112 0.73400003
-0.018999999 0.112 0.73400003
-0.017999999 0.112 0.73500001
-0.017000001 0.112 0.73500001
-0.016000001 0.112 0.736
-0.014 0.112 0.736
-0.013 0.112 0.736
-0.012 0.112 0.73699999
-0.011 0.113 0.73799998
-0.0099999998 0.113 0.73900002
-0.0089999996 0.113 0.73900002
-0.0070000002 0.113 0.74000001
-0.0060000001 0.113 0.741
-0.0049999999 0.113 0.74199998
-0.0040000002 0.113 0.74299997
-0.003 0.114 0.745
-0.001 0.114 0.74699998
0 0.114 0.75
0.001 0.115 0.75300002
0.0020000001 0.115 0.75700003
0.0040000002 0.116 0.76200002
0.0049999999 0.117 0.76700002
0.0060000001 0.118 0.773
0.0070000002 0.119 0.77700001
0.0089999996 0.119 0.77999997
0.0099999998 0.119 0.78299999
0.011 0.12 0.78500003
0.013 0.12 0.78500003
0.014 0.12 0.78600001
0.015 0.12 0.787
0.016000001 0.12 0.78799999
0.017999999 0.12 0.78899997
0.018999999 0.121 0.79100001
0.02 0.121 0.792
0.022 0.121 0.79400003
0.023 0.121 0.796
0.024 0.122 0.79900002
0.026000001 0.122 0.80199999
0.027000001 0.123 0.80500001
-0.078000002 0.119 0.77499998
-0.077 0.119 0.77499998
-0.075999998 0.119 0.77499998
-0.074000001 0.119 0.77499998
-0.072999999 0.119 0.77499998
-0.071999997 0.119 0.77499998
-0.071000002 0.119 0.77499998
-0.068999998 0.119 0.77399999
-0.068000004 0.119 0.77399999
-0.067000002 0.119 0.77399999
-0.064999998 0.119 0.77399999
-0.064000003 0.119 0.773
-0.063000001 0.119 0.77200001
-0.061000001 0.119 0.77200001
-0.059999999 0.119 0.76999998
-0.059 0.118 0.76700002
-0.057 0.118 0.764
-0.056000002 0.117 0.76099998
-0.023 0.113 0.736
-0.022 0.113 0.736
-0.02 0.113 0.736
-0.018999999 0.113 0.73500001
-0.017999999 0.113 0.736
-0.017000001 0.113 0.736
-0.016000001 0.113 0.736
-0.014 0.114 0.73699999
-0.013 0.114 0.73799998
-0.012 0.114 0.73900002
-0.011 0.114 0.73900002
-0.0099999998 0.114 0.74000001
-0.0089999996 0.114 0.741
-0.0070000002 0.114 0.74199998
-0.0060000001 0.114 0.74199998
-0.0049999999 0.115 0.74400002
-0.0040000002 0.115 0.745
-0.003 0.115 0.74699998
-0.001 0.116 0.75
0 0.116 0.75300002
0.001 0.117 0.75700003
0.0020000001 0.117 0.76099998
0.0040000002 0.118 0.76599997
0.0049999999 0.119 0.77100003
0.0060000001 0.119 0.77499998
0.0070000002 0.12 0.77899998
0.0089999996 0.12 0.78100002
0.0099999998 0.121 0.78299999
0.011 0.121 0.78399998
0.013 0.121 0.78500003
0.014 0.121 0.78600001
0.015 0.121 0.78600001
0.016000001 0.121 0.787
0.017999999 0.121 0.78799999
0.018999999 0.122 0.79000002
0.02 0.122 0.792
0.022 0.122 0.79299998
0.023 0.123 0.79500002
0.024 0.123 0.79799998
0.026000001 0.123 0.801
0.027000001 0.124 0.80500001
-0.078000002 0.121 0.77499998
-0.077 0.121 0.77499998
-0.075000003 0.12 0.77399999
-0.074000001 0.12 0.77399999
-0.072999999 0.12 0.77399999
-0.071999997 0.12 0.77399999
-0.07 0.12 0.77399999
-0.068999998 0.12 0.77399999
-0.068000004 0.12 0.773
-0.067000002 0.12 0.773
-0.064999998 0.12 0.773
-0.064000003 0.12 0.773
-0.063000001 0.12 0.773
-0.061000001 0.12 0.77200001
-0.059999999 0.12 0.77100003
-0.059 0.12 0.76899999
-0.057 0.119 0.76599997
-0.056000002 0.119 0.764
-0.02 0.115 0.73699999
-0.018999999 0.115 0.73699999
-0.017999999 0.115 0.73699999
-0.017000001 0.115 0.73699999
-0.016000001 0.115 0.73799998
-0.015 0.115 0.73799998
-0.013 0.115 0.73900002
-0.012 0.115 0.74000001
-0.011 0.115 0.741
-0.0099999998 0.115 0.741
-0.0089999996 0.116 0.74199998
-0.0070000002 0.116 0.74299997
-0.0060000001 0.116 0.74400002
-0.0049999999 0.116 0.745
-0.0040000002 0.116 0.74699998
-0.003 0.117 0.74900001
-0.001 0.117 0.75199997
0 0.118 0.755
0.001 0.118 0.75999999
0.0020000001 0.119 0.764
0.0040000002 0.12 0.76899999
0.0049999999 0.12 0.773
0.0060000001 0.121 0.77700001
0.0070000002 0.122 0.77999997
0.0089999996 0.122 0.78200001
0.0099999998 0.122 0.78299999
0.011 0.122 0.78500003
0.013 0.122 0.78500003
0.014 0.122 0.78600001
0.015 0.123 0.787
0.016000001 0.123 0.787
0.017999999 0.123 0.78799999
0.018999999 0.123 0.79000002
0.02 0.123 0.792
0.022 0.124 0.79299998
0.023 0.124 0.79500002
0.024 0.124 0.79699999
0.026000001 0.125 0.80000001
0.027000001 0.125 0.80400002
-0.078000002 0.122 0.77499998
-0.077 0.122 0.77399999
-0.075000003 0.122 0.77399999
-0.074000001 0.122 0.77399999
-0.072999999 0.122 0.77399999
-0.071999997 0.122 0.77399999
-0.07 0.122 0.77399999
-0.068999998 0.122 0.773
-0.068000004 0.122 0.773
-0.066 0.121 0.77200001
-0.064999998 0.121 0.77200001
-0.064000003 0.121 0.77200001
-0.063000001 0.121 0.77200001
-0.061000001 0.121 0.77200001
-0.059999999 0.121 0.77200001
-0.059 0.121 0.76999998
-0.057999998 0.121 0.76899999
-0.02 0.116 0.73799998
-0.018999999 0.116 0.73799998
-0.017999999 0.116 0.73799998
-0.017000001 0.116 0.73799998
-0.016000001 0.116 0.73900002
-0.015 0.116 0.74000001
-0.013 0.117 0.741
-0.012 0.117 0.74199998
-0.011 0.117 0.74199998
-0.0099999998 0.117 0.74299997
-0.0089999996 0.117 0.74400002
-0.0070000002 0.117 0.745
-0.0060000001 0.117 0.74599999
-0.0049999999 0.118 0.74699998
-0.0040000002 0.118 0.74900001
-0.003 0.118 0.75199997
-0.001 0.119 0.755
0 0.119 0.759
0.001 0.12 0.76200002
0.0020000001 0.121 0.76700002
0.0040000002 0.122 0.77200001
0.0049999999 0.122 0.77499998
0.0060000001 0.123 0.77899998
0.0070000002 0.123 0.78100002
0.0089999996 0.123 0.78299999
0.0099999998 0.123 0.78399998
0.011 0.123 0.78399998
0.013 0.124 0.78500003
0.014 0.124 0.78600001
0.015 0.124 0.787
0.016000001 0.124 0.78799999
0.017999999 0.124 0.78799999
0.018999999 0.124 0.79000002
0.02 0.125 0.79100001
0.022 0.125 0.79299998
0.023 0.125 0.79500002
0.024 0.125 0.79699999
0.026000001 0.126 0.80000001
0.027000001 0.126 0.80299997
0.028999999 0.127 0.80800003
-0.078000002 0.123 0.77399999
-0.077 0.123 0.77399999
-0.075000003 0.123 0.77399999
-0.074000001 0.123 0.773
-0.072999999 0.123 0.773
-0.071999997 0.123 0.773
-0.07 0.123 0.773
-0.068999998 0.123 0.773
-0.068000004 0.123 0.773
-0.066 0.123 0.77200001
-0.064999998 0.123 0.77200001
-0.064000003 0.123 0.77200001
-0.063000001 0.123 0.77200001
-0.061000001 0.123 0.77200001
-0.059999999 0.123 0.77200001
-0.059 0.123 0.77100003
-0.057999998 0.122 0.76999998
-0.018999999 0.118 0.73900002
-0.017999999 0.118 0.74000001
-0.017000001 0.118 0.74000001
-0.016000001 0.118 0.74000001
-0.015 0.118 0.741
-0.013 0.118 0.74199998
-0.012 0.118 0.74400002
-0.011 0.118 0.74400002
-0.0099999998 0.118 0.74400002
-0.0089999996 0.118 0.745
-0.0070000002 0.119 0.74599999
-0.0060000001 0.119 0.74800003
-0.0049999999 0.119 0.74900001
-0.0040000002 0.119 0.75099999
-0.003 0.12 0.75400001
-0.001 0.12 0.75700003
0 0.121 0.76200002
0.001 0.122 0.76599997
0.0020000001 0.122 0.76999998
0.0040000002 0.123 0.77399999
0.0049999999 0.124 0.77700001
0.0060000001 0.124 0.77899998
0.0070000002 0.124 0.78100002
0.0089999996 0.124 0.78200001
0.0099999998 0.125 0.78399998
0.011 0.125 0.78399998
0.013 0.125 0.78500003
0.014 0.125 0.78600001
0.015 0.125 0.787
0.016000001 0.125 0.787
0.017999999 0.125 0.78799999
0.018999999 0.125 0.78899997
0.02 0.126 0.79100001
0.022 0.126 0.792
0.023 0.126 0.79400003
0.024 0.127 0.796
0.026000001 0.127 0.79900002
0.027000001 0.12800001 0.80199999
0.028999999 0.12800001 0.80699998
-0.078000002 0.124 0.773
-0.077 0.124 0.773
-0.075000003 0.124 0.773
-0.074000001 0.124 0.77200001
-0.072999999 0.124 0.77200001
-0.071000002 0.124 0.77200001
-0.07 0.124 0.77200001
-0.068999998 0.124 0.77200001
-0.068000004 0.124 0.77200001
-0.066 0.124 0.77200001
-0.064999998 0.124 0.77100003
