ply
format ascii 1.0
comment PCL generated
element vertex 1389
property float x
property float y
property float z
property float nx
property float ny
property float nz
property float curvature
element camera 0
property float view_px
property float view_py
property float view_pz
property float x_axisx
property float x_axisy
property float x_axisz
property float y_axisx
property float y_axisy
property float y_axisz
property float z_axisx
property float z_axisy
property float z_axisz
property float focal
property float scalex
property float scaley
property float centerx
property float centery
property int viewportx
property int viewporty
property float k1
property float k2
end_header
-0.142 0.199 0.72899997 0 0 0 0
-0.141 0.2 0.73000002 0 0 0 0
-0.14 0.2 0.73100001 0 0 0 0
-0.139 0.20100001 0.73299998 0 0 0 0
-0.139 0.20100001 0.73500001 0 0 0 0
-0.138 0.20200001 0.73699999 0 0 0 0
-0.13699999 0.20200001 0.73799998 0 0 0 0
-0.13600001 0.20299999 0.74000001 0 0 0 0
-0.13500001 0.20299999 0.74299997 0 0 0 0
-0.134 0.204 0.745 0 0 0 0
-0.134 0.205 0.74800003 0 0 0 0
-0.133 0.205 0.75 0 0 0 0
-0.132 0.206 0.75199997 0 0 0 0
-0.131 0.206 0.75400001 0 0 0 0
-0.13 0.207 0.755 0 0 0 0
-0.12899999 0.207 0.75599998 0 0 0 0
-0.12800001 0.207 0.75700003 0 0 0 0
-0.127 0.207 0.75700003 0 0 0 0
-0.126 0.208 0.75800002 0 0 0 0
-0.125 0.208 0.75800002 0 0 0 0
-0.124 0.208 0.759 0 0 0 0
-0.122 0.208 0.759 0 0 0 0
-0.121 0.208 0.759 0 0 0 0
-0.12 0.208 0.759 0 0 0 0
-0.119 0.208 0.75999999 0 0 0 0
-0.118 0.208 0.75999999 0 0 0 0
-0.117 0.208 0.76099998 0 0 0 0
-0.208 0.207 0.755 0 0 0 0
-0.207 0.207 0.755 0 0 0 0
-0.206 0.207 0.75400001 0 0 0 0
-0.205 0.207 0.75400001 0 0 0 0
-0.20299999 0.207 0.75400001 0 0 0 0
-0.20200001 0.207 0.75400001 0 0 0 0
-0.20100001 0.207 0.75400001 0 0 0 0
-0.2 0.207 0.75400001 0 0 0 0
-0.199 0.207 0.75400001 0 0 0 0
-0.197 0.207 0.75400001 0 0 0 0
-0.19599999 0.207 0.75400001 0 0 0 0
-0.19499999 0.207 0.75300002 0 0 0 0
-0.19400001 0.207 0.75300002 0 0 0 0
-0.192 0.206 0.75199997 0 0 0 0
-0.191 0.206 0.75099999 0 0 0 0
-0.189 0.206 0.75 0 0 0 0
-0.18700001 0.205 0.74800003 0 0 0 0
-0.186 0.205 0.74599999 0 0 0 0
-0.184 0.204 0.74299997 0 0 0 0
-0.182 0.20299999 0.74000001 0 0 0 0
-0.18000001 0.20200001 0.73699999 0 0 0 0
-0.178 0.20200001 0.73400003 0 0 0 0
-0.176 0.20100001 0.73100001 0 0 0 0
-0.175 0.2 0.72899997 0 0 0 0
-0.17299999 0.2 0.727 0 0 0 0
-0.17200001 0.199 0.72600001 0 0 0 0
-0.17 0.199 0.72500002 0 0 0 0
-0.169 0.199 0.72399998 0 0 0 0
-0.167 0.199 0.72299999 0 0 0 0
-0.16599999 0.198 0.722 0 0 0 0
-0.16500001 0.198 0.722 0 0 0 0
-0.164 0.198 0.722 0 0 0 0
-0.162 0.198 0.72100002 0 0 0 0
-0.161 0.198 0.72100002 0 0 0 0
-0.16 0.198 0.72100002 0 0 0 0
-0.15899999 0.198 0.72100002 0 0 0 0
-0.15800001 0.198 0.72100002 0 0 0 0
-0.15700001 0.198 0.72100002 0 0 0 0
-0.155 0.198 0.72100002 0 0 0 0
-0.154 0.198 0.72100002 0 0 0 0
-0.153 0.198 0.72100002 0 0 0 0
-0.152 0.198 0.72100002 0 0 0 0
-0.15099999 0.199 0.722 0 0 0 0
-0.15000001 0.199 0.722 0 0 0 0
-0.149 0.199 0.72299999 0 0 0 0
-0.148 0.199 0.72399998 0 0 0 0
-0.147 0.199 0.72399998 0 0 0 0
-0.146 0.2 0.72600001 0 0 0 0
-0.145 0.2 0.72600001 0 0 0 0
-0.14399999 0.2 0.727 0 0 0 0
-0.14300001 0.2 0.72799999 0 0 0 0
-0.142 0.20100001 0.73000002 0 0 0 0
-0.141 0.20100001 0.73100001 0 0 0 0
-0.14 0.20200001 0.73299998 0 0 0 0
-0.139 0.20200001 0.73400003 0 0 0 0
-0.139 0.20299999 0.736 0 0 0 0
-0.138 0.20299999 0.73799998 0 0 0 0
-0.13699999 0.204 0.74000001 0 0 0 0
-0.13600001 0.204 0.74199998 0 0 0 0
-0.13600001 0.205 0.745 0 0 0 0
-0.13500001 0.206 0.74699998 0 0 0 0
-0.134 0.206 0.74900001 0 0 0 0
-0.133 0.207 0.75199997 0 0 0 0
-0.132 0.207 0.75300002 0 0 0 0
-0.131 0.208 0.755 0 0 0 0
-0.13 0.208 0.75599998 0 0 0 0
-0.12899999 0.208 0.75700003 0 0 0 0
-0.12800001 0.20900001 0.75800002 0 0 0 0
-0.127 0.20900001 0.75800002 0 0 0 0
-0.126 0.20900001 0.759 0 0 0 0
-0.125 0.20900001 0.759 0 0 0 0
-0.124 0.20900001 0.759 0 0 0 0
-0.123 0.20900001 0.75999999 0 0 0 0
-0.121 0.20900001 0.75999999 0 0 0 0
-0.12 0.20900001 0.75999999 0 0 0 0
-0.119 0.20900001 0.75999999 0 0 0 0
-0.118 0.20999999 0.76099998 0 0 0 0
-0.117 0.20999999 0.76200002 0 0 0 0
-0.20900001 0.208 0.75400001 0 0 0 0
-0.208 0.208 0.75400001 0 0 0 0
-0.207 0.208 0.75400001 0 0 0 0
-0.205 0.208 0.75300002 0 0 0 0
-0.204 0.208 0.75300002 0 0 0 0
-0.20299999 0.208 0.75300002 0 0 0 0
-0.20200001 0.208 0.75300002 0 0 0 0
-0.20100001 0.208 0.75300002 0 0 0 0
-0.2 0.208 0.75400001 0 0 0 0
-0.199 0.208 0.75400001 0 0 0 0
-0.197 0.208 0.75400001 0 0 0 0
-0.19599999 0.208 0.75400001 0 0 0 0
-0.19499999 0.208 0.75300002 0 0 0 0
-0.19400001 0.208 0.75300002 0 0 0 0
-0.192 0.208 0.75199997 0 0 0 0
-0.191 0.207 0.75099999 0 0 0 0
-0.189 0.207 0.75099999 0 0 0 0
-0.18799999 0.207 0.74900001 0 0 0 0
-0.186 0.207 0.74800003 0 0 0 0
-0.185 0.206 0.74599999 0 0 0 0
-0.183 0.205 0.74299997 0 0 0 0
-0.18099999 0.204 0.74000001 0 0 0 0
-0.17900001 0.204 0.73799998 0 0 0 0
-0.177 0.20299999 0.73500001 0 0 0 0
-0.175 0.20200001 0.73199999 0 0 0 0
-0.17299999 0.20100001 0.72899997 0 0 0 0
-0.17200001 0.20100001 0.72799999 0 0 0 0
-0.171 0.20100001 0.727 0 0 0 0
-0.169 0.20100001 0.72600001 0 0 0 0
-0.168 0.2 0.72500002 0 0 0 0
-0.16599999 0.2 0.72399998 0 0 0 0
-0.16500001 0.2 0.72399998 0 0 0 0
-0.164 0.2 0.72399998 0 0 0 0
-0.163 0.2 0.72299999 0 0 0 0
-0.161 0.2 0.722 0 0 0 0
-0.16 0.2 0.722 0 0 0 0
-0.15899999 0.2 0.722 0 0 0 0
-0.15800001 0.2 0.722 0 0 0 0
-0.15700001 0.2 0.722 0 0 0 0
-0.156 0.2 0.722 0 0 0 0
-0.155 0.2 0.72299999 0 0 0 0
-0.154 0.2 0.72299999 0 0 0 0
-0.152 0.2 0.72299999 0 0 0 0
-0.15099999 0.2 0.72399998 0 0 0 0
-0.15000001 0.2 0.72399998 0 0 0 0
-0.149 0.20100001 0.72500002 0 0 0 0
-0.148 0.20100001 0.72600001 0 0 0 0
-0.147 0.20100001 0.72600001 0 0 0 0
-0.146 0.20100001 0.727 0 0 0 0
-0.145 0.20100001 0.72799999 0 0 0 0
-0.14399999 0.20200001 0.72899997 0 0 0 0
-0.14300001 0.20200001 0.73000002 0 0 0 0
-0.14300001 0.20299999 0.73199999 0 0 0 0
-0.142 0.20299999 0.73299998 0 0 0 0
-0.141 0.20299999 0.73500001 0 0 0 0
-0.14 0.204 0.736 0 0 0 0
-0.139 0.204 0.73799998 0 0 0 0
-0.138 0.205 0.74000001 0 0 0 0
-0.13699999 0.205 0.74199998 0 0 0 0
-0.13699999 0.206 0.74400002 0 0 0 0
-0.13600001 0.207 0.74699998 0 0 0 0
-0.13500001 0.207 0.74900001 0 0 0 0
-0.134 0.208 0.75099999 0 0 0 0
-0.133 0.208 0.75300002 0 0 0 0
-0.133 0.20900001 0.755 0 0 0 0
-0.131 0.20900001 0.755 0 0 0 0
-0.13 0.20900001 0.75599998 0 0 0 0
-0.12899999 0.20999999 0.75700003 0 0 0 0
-0.12800001 0.20999999 0.75700003 0 0 0 0
-0.127 0.20999999 0.75800002 0 0 0 0
-0.126 0.20999999 0.759 0 0 0 0
-0.125 0.20999999 0.759 0 0 0 0
-0.124 0.20999999 0.759 0 0 0 0
-0.123 0.211 0.75999999 0 0 0 0
-0.121 0.211 0.75999999 0 0 0 0
-0.12 0.211 0.76099998 0 0 0 0
-0.119 0.211 0.76099998 0 0 0 0
-0.118 0.211 0.76099998 0 0 0 0
-0.117 0.211 0.76200002 0 0 0 0
-0.20900001 0.20900001 0.75400001 0 0 0 0
-0.208 0.20900001 0.75400001 0 0 0 0
-0.207 0.20900001 0.75400001 0 0 0 0
-0.205 0.20900001 0.75300002 0 0 0 0
-0.204 0.20900001 0.75300002 0 0 0 0
-0.20299999 0.20900001 0.75300002 0 0 0 0
-0.20200001 0.20900001 0.75300002 0 0 0 0
-0.20100001 0.20900001 0.75300002 0 0 0 0
-0.199 0.20900001 0.75300002 0 0 0 0
-0.199 0.20900001 0.75400001 0 0 0 0
-0.197 0.20900001 0.75400001 0 0 0 0
-0.19599999 0.20900001 0.75400001 0 0 0 0
-0.19499999 0.20900001 0.75300002 0 0 0 0
-0.193 0.20900001 0.75300002 0 0 0 0
-0.192 0.20900001 0.75199997 0 0 0 0
-0.191 0.20900001 0.75099999 0 0 0 0
-0.189 0.20900001 0.75099999 0 0 0 0
-0.18799999 0.208 0.75 0 0 0 0
-0.18700001 0.208 0.74900001 0 0 0 0
-0.185 0.208 0.74800003 0 0 0 0
-0.183 0.207 0.74599999 0 0 0 0
-0.18099999 0.206 0.74299997 0 0 0 0
-0.18000001 0.206 0.741 0 0 0 0
-0.178 0.205 0.73799998 0 0 0 0
-0.176 0.204 0.73500001 0 0 0 0
-0.17399999 0.20299999 0.73199999 0 0 0 0
-0.17299999 0.20299999 0.73100001 0 0 0 0
-0.171 0.20299999 0.72899997 0 0 0 0
-0.17 0.20200001 0.72799999 0 0 0 0
-0.168 0.20200001 0.727 0 0 0 0
-0.167 0.20200001 0.72600001 0 0 0 0
-0.16599999 0.20200001 0.72600001 0 0 0 0
-0.164 0.20200001 0.72500002 0 0 0 0
-0.163 0.20200001 0.72500002 0 0 0 0
-0.162 0.20100001 0.72399998 0 0 0 0
-0.161 0.20100001 0.72399998 0 0 0 0
-0.16 0.20100001 0.72399998 0 0 0 0
-0.15800001 0.20100001 0.72399998 0 0 0 0
-0.15700001 0.20100001 0.72399998 0 0 0 0
-0.156 0.20100001 0.72399998 0 0 0 0
-0.155 0.20100001 0.72399998 0 0 0 0
-0.154 0.20200001 0.72500002 0 0 0 0
-0.153 0.20200001 0.72500002 0 0 0 0
-0.152 0.20200001 0.72600001 0 0 0 0
-0.15099999 0.20200001 0.72600001 0 0 0 0
-0.15000001 0.20200001 0.72600001 0 0 0 0
-0.149 0.20200001 0.727 0 0 0 0
-0.148 0.20299999 0.72799999 0 0 0 0
-0.147 0.20299999 0.72899997 0 0 0 0
-0.146 0.20299999 0.73000002 0 0 0 0
-0.145 0.20299999 0.73100001 0 0 0 0
-0.14399999 0.204 0.73199999 0 0 0 0
-0.14300001 0.204 0.73400003 0 0 0 0
-0.142 0.205 0.73500001 0 0 0 0
-0.141 0.205 0.73699999 0 0 0 0
-0.14 0.205 0.73799998 0 0 0 0
-0.139 0.206 0.74000001 0 0 0 0
-0.139 0.207 0.74199998 0 0 0 0
-0.138 0.207 0.74400002 0 0 0 0
-0.13699999 0.208 0.74599999 0 0 0 0
-0.13600001 0.208 0.74800003 0 0 0 0
-0.13500001 0.20900001 0.75 0 0 0 0
-0.134 0.20900001 0.75199997 0 0 0 0
-0.133 0.20999999 0.75300002 0 0 0 0
-0.132 0.20999999 0.75400001 0 0 0 0
-0.131 0.20999999 0.755 0 0 0 0
-0.13 0.211 0.75599998 0 0 0 0
-0.12899999 0.211 0.75700003 0 0 0 0
-0.12800001 0.211 0.75700003 0 0 0 0
-0.127 0.211 0.75800002 0 0 0 0
-0.126 0.211 0.75800002 0 0 0 0
-0.125 0.211 0.759 0 0 0 0
-0.124 0.211 0.759 0 0 0 0
-0.123 0.212 0.75999999 0 0 0 0
-0.121 0.212 0.76099998 0 0 0 0
-0.12 0.212 0.76099998 0 0 0 0
-0.119 0.212 0.76099998 0 0 0 0
-0.118 0.212 0.76099998 0 0 0 0
-0.117 0.212 0.76200002 0 0 0 0
-0.20999999 0.20999999 0.75300002 0 0 0 0
-0.20900001 0.20999999 0.75300002 0 0 0 0
-0.208 0.20999999 0.75300002 0 0 0 0
-0.207 0.20999999 0.75300002 0 0 0 0
-0.205 0.20999999 0.75199997 0 0 0 0
-0.204 0.20999999 0.75099999 0 0 0 0
-0.20299999 0.20999999 0.75199997 0 0 0 0
-0.20200001 0.20999999 0.75199997 0 0 0 0
-0.2 0.20999999 0.75199997 0 0 0 0
-0.199 0.20999999 0.75199997 0 0 0 0
-0.198 0.20999999 0.75199997 0 0 0 0
-0.197 0.20999999 0.75199997 0 0 0 0
-0.19599999 0.20999999 0.75199997 0 0 0 0
-0.19400001 0.20999999 0.75199997 0 0 0 0
-0.193 0.20999999 0.75199997 0 0 0 0
-0.192 0.20999999 0.75099999 0 0 0 0
-0.19 0.20900001 0.75 0 0 0 0
-0.189 0.20999999 0.75 0 0 0 0
-0.18799999 0.20900001 0.74900001 0 0 0 0
-0.18700001 0.20900001 0.74900001 0 0 0 0
-0.185 0.20900001 0.74800003 0 0 0 0
-0.184 0.20900001 0.74699998 0 0 0 0
-0.182 0.208 0.745 0 0 0 0
-0.18000001 0.208 0.74299997 0 0 0 0
-0.17900001 0.207 0.741 0 0 0 0
-0.177 0.206 0.73799998 0 0 0 0
-0.175 0.206 0.736 0 0 0 0
-0.17299999 0.205 0.73400003 0 0 0 0
-0.17200001 0.205 0.73199999 0 0 0 0
-0.17 0.204 0.73100001 0 0 0 0
-0.169 0.204 0.73000002 0 0 0 0
-0.168 0.204 0.72899997 0 0 0 0
-0.16599999 0.204 0.72799999 0 0 0 0
-0.16500001 0.204 0.72799999 0 0 0 0
-0.164 0.20299999 0.727 0 0 0 0
-0.162 0.20299999 0.72600001 0 0 0 0
-0.161 0.20299999 0.72600001 0 0 0 0
-0.16 0.20299999 0.72600001 0 0 0 0
-0.15899999 0.20299999 0.72600001 0 0 0 0
-0.15800001 0.20299999 0.72600001 0 0 0 0
-0.156 0.20299999 0.72600001 0 0 0 0
-0.155 0.20299999 0.72600001 0 0 0 0
-0.154 0.20299999 0.72600001 0 0 0 0
-0.153 0.20299999 0.727 0 0 0 0
-0.152 0.204 0.72799999 0 0 0 0
-0.15099999 0.204 0.72799999 0 0 0 0
-0.15000001 0.204 0.72799999 0 0 0 0
-0.149 0.204 0.72899997 0 0 0 0
-0.148 0.204 0.73000002 0 0 0 0
-0.147 0.205 0.73100001 0 0 0 0
-0.146 0.205 0.73199999 0 0 0 0
-0.145 0.205 0.73299998 0 0 0 0
-0.14399999 0.205 0.73400003 0 0 0 0
-0.14300001 0.206 0.736 0 0 0 0
-0.142 0.206 0.73699999 0 0 0 0
-0.142 0.207 0.73900002 0 0 0 0
-0.141 0.207 0.74000001 0 0 0 0
-0.14 0.208 0.74199998 0 0 0 0
-0.139 0.208 0.74400002 0 0 0 0
-0.138 0.20900001 0.74599999 0 0 0 0
-0.13699999 0.20900001 0.74699998 0 0 0 0
-0.13699999 0.20999999 0.75 0 0 0 0
-0.13500001 0.20999999 0.75099999 0 0 0 0
-0.134 0.211 0.75199997 0 0 0 0
-0.134 0.211 0.75400001 0 0 0 0
-0.132 0.211 0.75400001 0 0 0 0
-0.131 0.211 0.755 0 0 0 0
-0.13 0.211 0.755 0 0 0 0
-0.12899999 0.212 0.75599998 0 0 0 0
-0.12800001 0.212 0.75700003 0 0 0 0
-0.127 0.212 0.75800002 0 0 0 0
-0.126 0.213 0.759 0 0 0 0
-0.125 0.213 0.759 0 0 0 0
-0.124 0.213 0.759 0 0 0 0
-0.123 0.213 0.75999999 0 0 0 0
-0.121 0.213 0.76099998 0 0 0 0
-0.12 0.213 0.76099998 0 0 0 0
-0.119 0.214 0.76200002 0 0 0 0
-0.118 0.214 0.76200002 0 0 0 0
-0.117 0.214 0.76300001 0 0 0 0
-0.20999999 0.211 0.75099999 0 0 0 0
-0.208 0.211 0.75099999 0 0 0 0
-0.207 0.20999999 0.75 0 0 0 0
-0.206 0.211 0.75 0 0 0 0
-0.205 0.211 0.75 0 0 0 0
-0.20299999 0.20999999 0.74900001 0 0 0 0
-0.20200001 0.20999999 0.74900001 0 0 0 0
-0.20100001 0.20999999 0.74900001 0 0 0 0
-0.2 0.20999999 0.74900001 0 0 0 0
-0.199 0.211 0.75 0 0 0 0
-0.197 0.211 0.75 0 0 0 0
-0.19599999 0.211 0.75 0 0 0 0
-0.19499999 0.211 0.75 0 0 0 0
-0.19400001 0.20999999 0.74900001 0 0 0 0
-0.192 0.20999999 0.74900001 0 0 0 0
-0.191 0.20999999 0.74900001 0 0 0 0
-0.19 0.20999999 0.74800003 0 0 0 0
-0.189 0.20999999 0.74800003 0 0 0 0
-0.18700001 0.20999999 0.74699998 0 0 0 0
-0.186 0.20999999 0.74699998 0 0 0 0
-0.185 0.20999999 0.74699998 0 0 0 0
-0.184 0.20999999 0.74699998 0 0 0 0
-0.182 0.20999999 0.74599999 0 0 0 0
-0.18099999 0.20900001 0.745 0 0 0 0
-0.17900001 0.20900001 0.74299997 0 0 0 0
-0.177 0.208 0.741 0 0 0 0
-0.176 0.208 0.73900002 0 0 0 0
-0.17399999 0.207 0.73699999 0 0 0 0
-0.17200001 0.207 0.73500001 0 0 0 0
-0.171 0.206 0.73400003 0 0 0 0
-0.17 0.206 0.73299998 0 0 0 0
-0.168 0.206 0.73199999 0 0 0 0
-0.167 0.206 0.73100001 0 0 0 0
-0.16500001 0.205 0.73000002 0 0 0 0
-0.164 0.205 0.73000002 0 0 0 0
-0.163 0.205 0.72899997 0 0 0 0
-0.162 0.205 0.72899997 0 0 0 0
-0.161 0.205 0.72899997 0 0 0 0
-0.15899999 0.205 0.72799999 0 0 0 0
-0.15800001 0.205 0.72899997 0 0 0 0
-0.15700001 0.205 0.72899997 0 0 0 0
-0.156 0.205 0.72899997 0 0 0 0
-0.155 0.205 0.72899997 0 0 0 0
-0.154 0.205 0.72899997 0 0 0 0
-0.153 0.205 0.73000002 0 0 0 0
-0.152 0.205 0.73000002 0 0 0 0
-0.15099999 0.206 0.73100001 0 0 0 0
-0.149 0.206 0.73100001 0 0 0 0
-0.148 0.206 0.73199999 0 0 0 0
-0.148 0.207 0.73400003 0 0 0 0
-0.147 0.207 0.73500001 0 0 0 0
-0.146 0.207 0.73500001 0 0 0 0
-0.145 0.207 0.73699999 0 0 0 0
-0.14399999 0.208 0.73900002 0 0 0 0
-0.14300001 0.208 0.74000001 0 0 0 0
-0.142 0.20900001 0.741 0 0 0 0
-0.141 0.20900001 0.74199998 0 0 0 0
-0.14 0.20900001 0.74400002 0 0 0 0
-0.139 0.20999999 0.74599999 0 0 0 0
-0.138 0.20999999 0.74699998 0 0 0 0
-0.13699999 0.211 0.74800003 0 0 0 0
-0.13600001 0.211 0.75 0 0 0 0
-0.13600001 0.212 0.75199997 0 0 0 0
-0.13500001 0.212 0.75300002 0 0 0 0
-0.134 0.212 0.75400001 0 0 0 0
-0.132 0.212 0.75400001 0 0 0 0
-0.131 0.213 0.755 0 0 0 0
-0.13 0.213 0.755 0 0 0 0
-0.12899999 0.213 0.755 0 0 0 0
-0.12800001 0.213 0.75700003 0 0 0 0
-0.127 0.214 0.75800002 0 0 0 0
-0.126 0.214 0.759 0 0 0 0
-0.125 0.214 0.759 0 0 0 0
-0.124 0.214 0.75999999 0 0 0 0
-0.123 0.214 0.76099998 0 0 0 0
-0.122 0.215 0.76200002 0 0 0 0
-0.12 0.215 0.76200002 0 0 0 0
-0.119 0.215 0.76300001 0 0 0 0
-0.118 0.215 0.76300001 0 0 0 0
-0.117 0.215 0.764 0 0 0 0
-0.20999999 0.211 0.74800003 0 0 0 0
-0.20900001 0.211 0.74800003 0 0 0 0
-0.208 0.211 0.74800003 0 0 0 0
-0.206 0.211 0.74800003 0 0 0 0
-0.205 0.211 0.74699998 0 0 0 0
-0.204 0.211 0.74699998 0 0 0 0
-0.20200001 0.211 0.74599999 0 0 0 0
-0.20100001 0.211 0.74599999 0 0 0 0
-0.2 0.211 0.74599999 0 0 0 0
-0.199 0.211 0.74599999 0 0 0 0
-0.198 0.211 0.74599999 0 0 0 0
-0.197 0.211 0.74699998 0 0 0 0
-0.19499999 0.211 0.74699998 0 0 0 0
-0.19400001 0.211 0.74699998 0 0 0 0
-0.193 0.211 0.74599999 0 0 0 0
-0.192 0.211 0.74599999 0 0 0 0
-0.19 0.211 0.74599999 0 0 0 0
-0.189 0.20999999 0.745 0 0 0 0
-0.18799999 0.20999999 0.745 0 0 0 0
-0.18700001 0.211 0.74599999 0 0 0 0
-0.185 0.20999999 0.745 0 0 0 0
-0.185 0.211 0.74599999 0 0 0 0
-0.183 0.211 0.74599999 0 0 0 0
-0.182 0.211 0.74599999 0 0 0 0
-0.18099999 0.211 0.74599999 0 0 0 0
-0.18000001 0.211 0.745 0 0 0 0
-0.178 0.20999999 0.74299997 0 0 0 0
-0.176 0.20900001 0.741 0 0 0 0
-0.175 0.20900001 0.73900002 0 0 0 0
-0.17299999 0.20900001 0.73799998 0 0 0 0
-0.17200001 0.208 0.73699999 0 0 0 0
-0.17 0.208 0.736 0 0 0 0
-0.169 0.208 0.73500001 0 0 0 0
-0.168 0.208 0.73400003 0 0 0 0
-0.16599999 0.207 0.73299998 0 0 0 0
-0.16500001 0.207 0.73299998 0 0 0 0
-0.164 0.207 0.73199999 0 0 0 0
-0.162 0.207 0.73199999 0 0 0 0
-0.161 0.207 0.73199999 0 0 0 0
-0.16 0.207 0.73100001 0 0 0 0
-0.15899999 0.207 0.73100001 0 0 0 0
-0.15800001 0.207 0.73100001 0 0 0 0
-0.15700001 0.207 0.73199999 0 0 0 0
-0.155 0.207 0.73199999 0 0 0 0
-0.154 0.207 0.73199999 0 0 0 0
-0.153 0.207 0.73299998 0 0 0 0
-0.152 0.207 0.73199999 0 0 0 0
-0.15099999 0.207 0.73299998 0 0 0 0
-0.15000001 0.207 0.73299998 0 0 0 0
-0.149 0.208 0.73500001 0 0 0 0
-0.148 0.208 0.736 0 0 0 0
-0.147 0.20900001 0.73699999 0 0 0 0
-0.146 0.20900001 0.73699999 0 0 0 0
-0.145 0.20900001 0.73900002 0 0 0 0
-0.14399999 0.20900001 0.74000001 0 0 0 0
-0.14300001 0.20999999 0.74199998 0 0 0 0
-0.142 0.20999999 0.74299997 0 0 0 0
-0.141 0.20999999 0.74299997 0 0 0 0
-0.14 0.211 0.745 0 0 0 0
-0.139 0.211 0.74599999 0 0 0 0
-0.139 0.212 0.74800003 0 0 0 0
-0.13699999 0.212 0.74900001 0 0 0 0
-0.13699999 0.213 0.75099999 0 0 0 0
-0.13600001 0.213 0.75199997 0 0 0 0
-0.13500001 0.213 0.75300002 0 0 0 0
-0.134 0.214 0.75400001 0 0 0 0
-0.133 0.214 0.755 0 0 0 0
-0.131 0.214 0.755 0 0 0 0
-0.13 0.214 0.755 0 0 0 0
-0.12899999 0.214 0.755 0 0 0 0
-0.12800001 0.214 0.75599998 0 0 0 0
-0.127 0.215 0.75800002 0 0 0 0
-0.126 0.215 0.75800002 0 0 0 0
-0.125 0.215 0.759 0 0 0 0
-0.124 0.215 0.75999999 0 0 0 0
-0.123 0.21600001 0.76200002 0 0 0 0
-0.122 0.21600001 0.76200002 0 0 0 0
-0.121 0.21600001 0.76300001 0 0 0 0
-0.119 0.21699999 0.764 0 0 0 0
-0.118 0.21699999 0.764 0 0 0 0
-0.117 0.21699999 0.764 0 0 0 0
-0.211 0.211 0.74400002 0 0 0 0
-0.20999999 0.211 0.745 0 0 0 0
-0.20900001 0.211 0.745 0 0 0 0
-0.208 0.211 0.745 0 0 0 0
-0.207 0.211 0.745 0 0 0 0
-0.205 0.211 0.74400002 0 0 0 0
-0.204 0.211 0.74400002 0 0 0 0
-0.20299999 0.211 0.74299997 0 0 0 0
-0.20100001 0.211 0.74199998 0 0 0 0
-0.2 0.211 0.74199998 0 0 0 0
-0.199 0.211 0.74199998 0 0 0 0
-0.198 0.211 0.74299997 0 0 0 0
-0.197 0.211 0.74299997 0 0 0 0
-0.19599999 0.211 0.74400002 0 0 0 0
-0.19499999 0.211 0.74400002 0 0 0 0
-0.193 0.211 0.74400002 0 0 0 0
-0.192 0.211 0.74400002 0 0 0 0
-0.191 0.211 0.74299997 0 0 0 0
-0.19 0.211 0.74299997 0 0 0 0
-0.189 0.211 0.74299997 0 0 0 0
-0.18700001 0.211 0.74299997 0 0 0 0
-0.186 0.211 0.74299997 0 0 0 0
-0.185 0.211 0.74400002 0 0 0 0
-0.184 0.211 0.74400002 0 0 0 0
-0.183 0.212 0.745 0 0 0 0
-0.182 0.212 0.745 0 0 0 0
-0.18099999 0.212 0.745 0 0 0 0
-0.17900001 0.211 0.74400002 0 0 0 0
-0.178 0.211 0.74299997 0 0 0 0
-0.176 0.211 0.74199998 0 0 0 0
-0.175 0.211 0.741 0 0 0 0
-0.17399999 0.20999999 0.74000001 0 0 0 0
-0.17200001 0.20999999 0.74000001 0 0 0 0
-0.171 0.20999999 0.73900002 0 0 0 0
-0.17 0.20999999 0.73799998 0 0 0 0
-0.168 0.20999999 0.73799998 0 0 0 0
-0.167 0.20999999 0.73699999 0 0 0 0
-0.16599999 0.20900001 0.736 0 0 0 0
-0.164 0.20900001 0.73500001 0 0 0 0
-0.163 0.20900001 0.73500001 0 0 0 0
-0.162 0.20900001 0.73400003 0 0 0 0
-0.161 0.20900001 0.73400003 0 0 0 0
-0.15899999 0.20900001 0.73400003 0 0 0 0
-0.15800001 0.20900001 0.73299998 0 0 0 0
-0.15700001 0.20900001 0.73400003 0 0 0 0
-0.156 0.20900001 0.73400003 0 0 0 0
-0.155 0.20900001 0.73400003 0 0 0 0
-0.154 0.20900001 0.73500001 0 0 0 0
-0.153 0.20900001 0.73500001 0 0 0 0
-0.15099999 0.20900001 0.73500001 0 0 0 0
-0.15000001 0.20900001 0.736 0 0 0 0
-0.149 0.20999999 0.73699999 0 0 0 0
-0.148 0.20999999 0.73799998 0 0 0 0
-0.147 0.20999999 0.73900002 0 0 0 0
-0.146 0.211 0.74000001 0 0 0 0
-0.145 0.211 0.741 0 0 0 0
-0.145 0.211 0.74199998 0 0 0 0
-0.14399999 0.212 0.74299997 0 0 0 0
-0.14300001 0.212 0.74400002 0 0 0 0
-0.142 0.212 0.745 0 0 0 0
-0.141 0.212 0.74599999 0 0 0 0
-0.14 0.213 0.74699998 0 0 0 0
-0.139 0.213 0.74800003 0 0 0 0
-0.13699999 0.213 0.74900001 0 0 0 0
-0.13600001 0.214 0.75 0 0 0 0
-0.13600001 0.214 0.75199997 0 0 0 0
-0.134 0.214 0.75199997 0 0 0 0
-0.133 0.214 0.75300002 0 0 0 0
-0.132 0.214 0.75300002 0 0 0 0
-0.131 0.215 0.75400001 0 0 0 0
-0.13 0.215 0.75400001 0 0 0 0
-0.12899999 0.215 0.75400001 0 0 0 0
-0.12800001 0.215 0.75599998 0 0 0 0
-0.127 0.21600001 0.75700003 0 0 0 0
-0.126 0.21600001 0.75800002 0 0 0 0
-0.125 0.21600001 0.759 0 0 0 0
-0.124 0.21699999 0.75999999 0 0 0 0
-0.123 0.21699999 0.76200002 0 0 0 0
-0.122 0.21699999 0.76200002 0 0 0 0
-0.121 0.21699999 0.76300001 0 0 0 0
-0.119 0.21799999 0.764 0 0 0 0
-0.118 0.21799999 0.764 0 0 0 0
-0.117 0.21799999 0.764 0 0 0 0
-0.211 0.211 0.74000001 0 0 0 0
-0.20999999 0.211 0.74000001 0 0 0 0
-0.20900001 0.211 0.741 0 0 0 0
-0.208 0.211 0.741 0 0 0 0
-0.207 0.211 0.741 0 0 0 0
-0.206 0.211 0.741 0 0 0 0
-0.204 0.211 0.74000001 0 0 0 0
-0.20299999 0.211 0.74000001 0 0 0 0
-0.20200001 0.211 0.73900002 0 0 0 0
-0.2 0.211 0.73900002 0 0 0 0
-0.199 0.211 0.73799998 0 0 0 0
-0.198 0.211 0.73799998 0 0 0 0
-0.197 0.211 0.73900002 0 0 0 0
-0.19599999 0.211 0.74000001 0 0 0 0
-0.19499999 0.212 0.741 0 0 0 0
-0.19400001 0.212 0.741 0 0 0 0
-0.193 0.212 0.74199998 0 0 0 0
-0.192 0.212 0.741 0 0 0 0
-0.19 0.211 0.74000001 0 0 0 0
-0.189 0.211 0.74000001 0 0 0 0
-0.18799999 0.212 0.741 0 0 0 0
-0.18700001 0.212 0.741 0 0 0 0
-0.186 0.212 0.74199998 0 0 0 0
-0.185 0.212 0.74299997 0 0 0 0
-0.184 0.213 0.74400002 0 0 0 0
-0.183 0.213 0.74400002 0 0 0 0
-0.182 0.213 0.745 0 0 0 0
-0.18099999 0.213 0.745 0 0 0 0
-0.17900001 0.213 0.74400002 0 0 0 0
-0.178 0.212 0.74299997 0 0 0 0
-0.177 0.212 0.74299997 0 0 0 0
-0.175 0.212 0.74199998 0 0 0 0
-0.17399999 0.212 0.741 0 0 0 0
-0.17299999 0.212 0.741 0 0 0 0
-0.171 0.212 0.74000001 0 0 0 0
-0.17 0.212 0.74000001 0 0 0 0
-0.169 0.211 0.73900002 0 0 0 0
-0.167 0.211 0.73900002 0 0 0 0
-0.16599999 0.211 0.73799998 0 0 0 0
-0.16500001 0.211 0.73799998 0 0 0 0
-0.164 0.211 0.73799998 0 0 0 0
-0.162 0.211 0.73699999 0 0 0 0
-0.161 0.211 0.73699999 0 0 0 0
-0.16 0.211 0.736 0 0 0 0
-0.15899999 0.211 0.736 0 0 0 0
-0.15700001 0.211 0.736 0 0 0 0
-0.156 0.211 0.736 0 0 0 0
-0.155 0.211 0.736 0 0 0 0
-0.154 0.211 0.73699999 0 0 0 0
-0.153 0.211 0.73699999 0 0 0 0
-0.152 0.211 0.73699999 0 0 0 0
-0.15099999 0.211 0.73799998 0 0 0 0
-0.15000001 0.212 0.74000001 0 0 0 0
-0.149 0.212 0.741 0 0 0 0
-0.148 0.212 0.741 0 0 0 0
-0.147 0.212 0.741 0 0 0 0
-0.146 0.212 0.74199998 0 0 0 0
-0.145 0.213 0.74400002 0 0 0 0
-0.14399999 0.213 0.74400002 0 0 0 0
-0.14300001 0.213 0.745 0 0 0 0
-0.142 0.213 0.745 0 0 0 0
-0.141 0.214 0.74599999 0 0 0 0
-0.14 0.214 0.74699998 0 0 0 0
-0.138 0.214 0.74800003 0 0 0 0
-0.13699999 0.214 0.74900001 0 0 0 0
-0.13600001 0.215 0.75 0 0 0 0
-0.13500001 0.215 0.75099999 0 0 0 0
-0.134 0.215 0.75099999 0 0 0 0
-0.133 0.215 0.75099999 0 0 0 0
-0.132 0.215 0.75199997 0 0 0 0
-0.131 0.21600001 0.75300002 0 0 0 0
-0.13 0.21600001 0.75300002 0 0 0 0
-0.12899999 0.21600001 0.75400001 0 0 0 0
-0.12800001 0.21600001 0.755 0 0 0 0
-0.127 0.21699999 0.75599998 0 0 0 0
-0.126 0.21699999 0.75700003 0 0 0 0
-0.125 0.21699999 0.759 0 0 0 0
-0.124 0.21799999 0.75999999 0 0 0 0
-0.123 0.21799999 0.76099998 0 0 0 0
-0.122 0.21799999 0.76200002 0 0 0 0
-0.12 0.21799999 0.76200002 0 0 0 0
-0.119 0.219 0.76300001 0 0 0 0
-0.118 0.219 0.764 0 0 0 0
-0.117 0.219 0.764 0 0 0 0
-0.20999999 0.211 0.73699999 0 0 0 0
-0.20900001 0.211 0.73699999 0 0 0 0
-0.208 0.212 0.73799998 0 0 0 0
-0.207 0.212 0.73799998 0 0 0 0
-0.206 0.212 0.73799998 0 0 0 0
-0.205 0.212 0.73799998 0 0 0 0
-0.20299999 0.212 0.73699999 0 0 0 0
-0.20200001 0.212 0.73699999 0 0 0 0
-0.20100001 0.211 0.736 0 0 0 0
-0.2 0.211 0.736 0 0 0 0
-0.198 0.211 0.736 0 0 0 0
-0.197 0.211 0.736 0 0 0 0
-0.19599999 0.211 0.736 0 0 0 0
-0.19499999 0.212 0.73699999 0 0 0 0
-0.19400001 0.212 0.73799998 0 0 0 0
-0.193 0.212 0.73900002 0 0 0 0
-0.192 0.212 0.73900002 0 0 0 0
-0.191 0.212 0.73799998 0 0 0 0
-0.189 0.212 0.73699999 0 0 0 0
-0.18799999 0.212 0.73799998 0 0 0 0
-0.18700001 0.212 0.73900002 0 0 0 0
-0.186 0.212 0.73900002 0 0 0 0
-0.186 0.213 0.741 0 0 0 0
-0.185 0.213 0.74199998 0 0 0 0
-0.184 0.214 0.74400002 0 0 0 0
-0.183 0.214 0.745 0 0 0 0
-0.182 0.214 0.745 0 0 0 0
-0.18099999 0.214 0.745 0 0 0 0
-0.17900001 0.214 0.74400002 0 0 0 0
-0.178 0.214 0.74400002 0 0 0 0
-0.177 0.214 0.74400002 0 0 0 0
-0.175 0.214 0.74299997 0 0 0 0
-0.17399999 0.213 0.74199998 0 0 0 0
-0.17299999 0.213 0.741 0 0 0 0
-0.171 0.213 0.741 0 0 0 0
-0.17 0.213 0.74000001 0 0 0 0
-0.169 0.213 0.74000001 0 0 0 0
-0.168 0.213 0.74000001 0 0 0 0
-0.167 0.213 0.74000001 0 0 0 0
-0.16500001 0.213 0.74000001 0 0 0 0
-0.164 0.213 0.73900002 0 0 0 0
-0.163 0.213 0.73900002 0 0 0 0
-0.162 0.213 0.73900002 0 0 0 0
-0.16 0.212 0.73799998 0 0 0 0
-0.15899999 0.212 0.73799998 0 0 0 0
-0.15800001 0.212 0.73799998 0 0 0 0
-0.15700001 0.212 0.73799998 0 0 0 0
-0.155 0.212 0.73799998 0 0 0 0
-0.155 0.213 0.73900002 0 0 0 0
-0.153 0.213 0.73900002 0 0 0 0
-0.152 0.213 0.73900002 0 0 0 0
-0.15099999 0.213 0.74000001 0 0 0 0
-0.15000001 0.213 0.74000001 0 0 0 0
-0.149 0.213 0.741 0 0 0 0
-0.148 0.214 0.74199998 0 0 0 0
-0.147 0.214 0.74199998 0 0 0 0
-0.146 0.214 0.74299997 0 0 0 0
-0.145 0.214 0.74400002 0 0 0 0
-0.14399999 0.214 0.745 0 0 0 0
-0.14300001 0.214 0.745 0 0 0 0
-0.141 0.214 0.745 0 0 0 0
-0.14 0.215 0.74599999 0 0 0 0
-0.139 0.215 0.74699998 0 0 0 0
-0.138 0.215 0.74800003 0 0 0 0
-0.13699999 0.215 0.74800003 0 0 0 0
-0.13600001 0.21600001 0.74900001 0 0 0 0
-0.13500001 0.21600001 0.75 0 0 0 0
-0.134 0.21600001 0.75 0 0 0 0
-0.133 0.21600001 0.75 0 0 0 0
-0.132 0.21600001 0.75099999 0 0 0 0
-0.131 0.21600001 0.75099999 0 0 0 0
-0.13 0.21699999 0.75199997 0 0 0 0
-0.12899999 0.21699999 0.75300002 0 0 0 0
-0.12800001 0.21699999 0.75400001 0 0 0 0
-0.126 0.21799999 0.755 0 0 0 0
-0.125 0.21799999 0.75599998 0 0 0 0
-0.125 0.21799999 0.75800002 0 0 0 0
-0.124 0.219 0.759 0 0 0 0
-0.122 0.219 0.75999999 0 0 0 0
-0.121 0.219 0.76099998 0 0 0 0
-0.12 0.219 0.76099998 0 0 0 0
-0.119 0.22 0.76200002 0 0 0 0
-0.118 0.22 0.76300001 0 0 0 0
-0.117 0.22 0.764 0 0 0 0
-0.212 0.212 0.73400003 0 0 0 0
-0.211 0.212 0.73500001 0 0 0 0
-0.20900001 0.212 0.73400003 0 0 0 0
-0.20900001 0.212 0.73500001 0 0 0 0
-0.207 0.212 0.73500001 0 0 0 0
-0.206 0.212 0.73500001 0 0 0 0
-0.205 0.212 0.736 0 0 0 0
-0.204 0.212 0.736 0 0 0 0
-0.20299999 0.212 0.73500001 0 0 0 0
-0.20200001 0.212 0.73500001 0 0 0 0
-0.2 0.212 0.73400003 0 0 0 0
-0.199 0.212 0.73400003 0 0 0 0
-0.198 0.212 0.73400003 0 0 0 0
-0.197 0.212 0.73400003 0 0 0 0
-0.19599999 0.212 0.73400003 0 0 0 0
-0.19499999 0.212 0.73500001 0 0 0 0
-0.19400001 0.213 0.736 0 0 0 0
-0.193 0.213 0.73699999 0 0 0 0
-0.192 0.213 0.73699999 0 0 0 0
-0.19 0.213 0.73699999 0 0 0 0
-0.189 0.213 0.736 0 0 0 0
-0.18799999 0.213 0.736 0 0 0 0
-0.18700001 0.213 0.73699999 0 0 0 0
-0.186 0.213 0.73799998 0 0 0 0
-0.185 0.213 0.73900002 0 0 0 0
-0.184 0.214 0.741 0 0 0 0
-0.184 0.215 0.74299997 0 0 0 0
-0.183 0.215 0.74400002 0 0 0 0
-0.182 0.215 0.74400002 0 0 0 0
-0.18000001 0.215 0.74400002 0 0 0 0
-0.17900001 0.215 0.74400002 0 0 0 0
-0.178 0.215 0.74400002 0 0 0 0
-0.177 0.215 0.74400002 0 0 0 0
-0.175 0.215 0.74299997 0 0 0 0
-0.17399999 0.214 0.74199998 0 0 0 0
-0.17299999 0.214 0.74199998 0 0 0 0
-0.17200001 0.214 0.74199998 0 0 0 0
-0.17 0.214 0.741 0 0 0 0
-0.169 0.214 0.741 0 0 0 0
-0.168 0.214 0.741 0 0 0 0
-0.167 0.214 0.741 0 0 0 0
-0.16599999 0.214 0.741 0 0 0 0
-0.164 0.214 0.74000001 0 0 0 0
-0.163 0.214 0.74000001 0 0 0 0
-0.162 0.214 0.74000001 0 0 0 0
-0.161 0.214 0.74000001 0 0 0 0
-0.15899999 0.214 0.74000001 0 0 0 0
-0.15800001 0.214 0.74000001 0 0 0 0
-0.15700001 0.214 0.74000001 0 0 0 0
-0.156 0.214 0.74000001 0 0 0 0
-0.155 0.214 0.74000001 0 0 0 0
-0.154 0.214 0.74000001 0 0 0 0
-0.152 0.214 0.74000001 0 0 0 0
-0.15099999 0.214 0.741 0 0 0 0
-0.15000001 0.214 0.741 0 0 0 0
-0.149 0.215 0.74199998 0 0 0 0
-0.148 0.215 0.74199998 0 0 0 0
-0.147 0.215 0.74199998 0 0 0 0
-0.146 0.215 0.74299997 0 0 0 0
-0.145 0.215 0.74400002 0 0 0 0
-0.14399999 0.21600001 0.745 0 0 0 0
-0.14300001 0.21600001 0.745 0 0 0 0
-0.141 0.21600001 0.745 0 0 0 0
-0.14 0.21600001 0.74599999 0 0 0 0
-0.139 0.21600001 0.74699998 0 0 0 0
-0.138 0.21600001 0.74699998 0 0 0 0
-0.13699999 0.21699999 0.74800003 0 0 0 0
-0.13600001 0.21699999 0.74800003 0 0 0 0
-0.13500001 0.21699999 0.74900001 0 0 0 0
-0.134 0.21699999 0.74900001 0 0 0 0
-0.133 0.21699999 0.74900001 0 0 0 0
-0.132 0.21699999 0.75 0 0 0 0
-0.131 0.21799999 0.75099999 0 0 0 0
-0.12899999 0.21799999 0.75099999 0 0 0 0
-0.12800001 0.21799999 0.75199997 0 0 0 0
-0.127 0.21799999 0.75300002 0 0 0 0
-0.126 0.21799999 0.75400001 0 0 0 0
-0.125 0.219 0.755 0 0 0 0
-0.124 0.219 0.75700003 0 0 0 0
-0.123 0.22 0.75800002 0 0 0 0
-0.122 0.22 0.759 0 0 0 0
-0.121 0.22 0.75999999 0 0 0 0
-0.12 0.22 0.75999999 0 0 0 0
-0.119 0.221 0.76099998 0 0 0 0
-0.118 0.221 0.76200002 0 0 0 0
-0.117 0.221 0.76300001 0 0 0 0
-0.212 0.212 0.73199999 0 0 0 0
-0.211 0.212 0.73199999 0 0 0 0
-0.20999999 0.212 0.73199999 0 0 0 0
-0.20900001 0.212 0.73100001 0 0 0 0
-0.208 0.212 0.73199999 0 0 0 0
-0.207 0.212 0.73199999 0 0 0 0
-0.205 0.212 0.73199999 0 0 0 0
-0.205 0.213 0.73299998 0 0 0 0
-0.204 0.213 0.73400003 0 0 0 0
-0.20200001 0.213 0.73400003 0 0 0 0
-0.20100001 0.213 0.73400003 0 0 0 0
-0.2 0.213 0.73299998 0 0 0 0
-0.199 0.213 0.73299998 0 0 0 0
-0.198 0.213 0.73299998 0 0 0 0
-0.19599999 0.212 0.73199999 0 0 0 0
-0.19499999 0.212 0.73199999 0 0 0 0
-0.19400001 0.213 0.73299998 0 0 0 0
-0.193 0.213 0.73400003 0 0 0 0
-0.192 0.213 0.73500001 0 0 0 0
-0.191 0.213 0.73500001 0 0 0 0
-0.19 0.213 0.73500001 0 0 0 0
-0.189 0.214 0.736 0 0 0 0
-0.18799999 0.214 0.736 0 0 0 0
-0.18700001 0.214 0.73699999 0 0 0 0
-0.186 0.214 0.73799998 0 0 0 0
-0.185 0.215 0.73900002 0 0 0 0
-0.184 0.215 0.741 0 0 0 0
-0.183 0.21600001 0.74199998 0 0 0 0
-0.183 0.21600001 0.74400002 0 0 0 0
-0.182 0.21600001 0.74400002 0 0 0 0
-0.18000001 0.21600001 0.74299997 0 0 0 0
-0.17900001 0.21600001 0.74299997 0 0 0 0
-0.178 0.21600001 0.74299997 0 0 0 0
-0.177 0.21600001 0.74299997 0 0 0 0
-0.175 0.21600001 0.74199998 0 0 0 0
-0.17399999 0.21600001 0.74199998 0 0 0 0
-0.17299999 0.21600001 0.74199998 0 0 0 0
-0.17200001 0.21600001 0.74199998 0 0 0 0
-0.17 0.215 0.741 0 0 0 0
-0.169 0.215 0.741 0 0 0 0
-0.168 0.215 0.741 0 0 0 0
-0.167 0.215 0.741 0 0 0 0
-0.16599999 0.215 0.741 0 0 0 0
-0.164 0.215 0.741 0 0 0 0
-0.163 0.215 0.741 0 0 0 0
-0.162 0.215 0.741 0 0 0 0
-0.161 0.215 0.741 0 0 0 0
-0.16 0.21600001 0.741 0 0 0 0
-0.15800001 0.21600001 0.741 0 0 0 0
-0.15700001 0.21600001 0.741 0 0 0 0
-0.156 0.21600001 0.741 0 0 0 0
-0.155 0.21600001 0.741 0 0 0 0
-0.154 0.21600001 0.741 0 0 0 0
-0.153 0.21600001 0.741 0 0 0 0
-0.152 0.21600001 0.74199998 0 0 0 0
-0.15000001 0.21600001 0.74199998 0 0 0 0
-0.149 0.21600001 0.74199998 0 0 0 0
-0.148 0.21600001 0.74299997 0 0 0 0
-0.147 0.21600001 0.74299997 0 0 0 0
-0.146 0.21600001 0.74299997 0 0 0 0
-0.145 0.21699999 0.74400002 0 0 0 0
-0.14399999 0.21699999 0.74400002 0 0 0 0
-0.14300001 0.21699999 0.745 0 0 0 0
-0.141 0.21699999 0.745 0 0 0 0
-0.14 0.21699999 0.74599999 0 0 0 0
-0.139 0.21699999 0.74599999 0 0 0 0
-0.138 0.21699999 0.74699998 0 0 0 0
-0.13699999 0.21699999 0.74699998 0 0 0 0
-0.13600001 0.21799999 0.74800003 0 0 0 0
-0.13500001 0.21799999 0.74800003 0 0 0 0
-0.134 0.21799999 0.74900001 0 0 0 0
-0.133 0.21799999 0.74900001 0 0 0 0
-0.131 0.21799999 0.74900001 0 0 0 0
-0.13 0.21799999 0.75 0 0 0 0
-0.12899999 0.219 0.75099999 0 0 0 0
-0.12800001 0.219 0.75099999 0 0 0 0
-0.127 0.219 0.75199997 0 0 0 0
-0.126 0.22 0.75400001 0 0 0 0
-0.125 0.22 0.75400001 0 0 0 0
-0.124 0.221 0.75700003 0 0 0 0
-0.123 0.221 0.75800002 0 0 0 0
-0.122 0.221 0.75800002 0 0 0 0
-0.121 0.221 0.759 0 0 0 0
-0.12 0.221 0.759 0 0 0 0
-0.119 0.221 0.75999999 0 0 0 0
-0.118 0.222 0.76099998 0 0 0 0
-0.212 0.213 0.73000002 0 0 0 0
-0.211 0.213 0.73000002 0 0 0 0
-0.20900001 0.213 0.73000002 0 0 0 0
-0.208 0.213 0.73000002 0 0 0 0
-0.207 0.213 0.73100001 0 0 0 0
-0.206 0.213 0.73100001 0 0 0 0
-0.205 0.213 0.73100001 0 0 0 0
-0.204 0.214 0.73199999 0 0 0 0
-0.20299999 0.214 0.73199999 0 0 0 0
-0.20200001 0.214 0.73199999 0 0 0 0
-0.20100001 0.214 0.73199999 0 0 0 0
-0.199 0.213 0.73100001 0 0 0 0
-0.198 0.213 0.73100001 0 0 0 0
-0.197 0.213 0.73100001 0 0 0 0
-0.19599999 0.213 0.73000002 0 0 0 0
-0.19499999 0.213 0.73100001 0 0 0 0
-0.19400001 0.213 0.73100001 0 0 0 0
-0.193 0.214 0.73199999 0 0 0 0
-0.192 0.214 0.73299998 0 0 0 0
-0.191 0.214 0.73299998 0 0 0 0
-0.19 0.214 0.73400003 0 0 0 0
-0.189 0.215 0.73500001 0 0 0 0
-0.18799999 0.215 0.736 0 0 0 0
-0.18700001 0.215 0.73799998 0 0 0 0
-0.186 0.21600001 0.73900002 0 0 0 0
-0.185 0.21600001 0.73900002 0 0 0 0
-0.184 0.21600001 0.741 0 0 0 0
-0.183 0.21699999 0.74199998 0 0 0 0
-0.183 0.21699999 0.74299997 0 0 0 0
-0.18099999 0.21699999 0.74299997 0 0 0 0
-0.18000001 0.21699999 0.74299997 0 0 0 0
-0.17900001 0.21699999 0.74199998 0 0 0 0
-0.178 0.21699999 0.74199998 0 0 0 0
-0.176 0.21699999 0.74199998 0 0 0 0
-0.175 0.21699999 0.741 0 0 0 0
-0.17399999 0.21699999 0.741 0 0 0 0
-0.17299999 0.21699999 0.741 0 0 0 0
-0.171 0.21699999 0.741 0 0 0 0
-0.17 0.21600001 0.74000001 0 0 0 0
-0.169 0.21600001 0.74000001 0 0 0 0
-0.168 0.21600001 0.74000001 0 0 0 0
-0.16599999 0.21600001 0.74000001 0 0 0 0
-0.16599999 0.21699999 0.741 0 0 0 0
-0.164 0.21699999 0.741 0 0 0 0
-0.163 0.21600001 0.74000001 0 0 0 0
-0.162 0.21600001 0.74000001 0 0 0 0
-0.161 0.21600001 0.74000001 0 0 0 0
-0.16 0.21699999 0.741 0 0 0 0
-0.15800001 0.21699999 0.741 0 0 0 0
-0.15700001 0.21699999 0.741 0 0 0 0
-0.156 0.21699999 0.741 0 0 0 0
-0.155 0.21699999 0.741 0 0 0 0
-0.154 0.21699999 0.741 0 0 0 0
-0.153 0.21699999 0.741 0 0 0 0
-0.15099999 0.21699999 0.741 0 0 0 0
-0.15000001 0.21699999 0.741 0 0 0 0
-0.149 0.21699999 0.74199998 0 0 0 0
-0.148 0.21699999 0.74199998 0 0 0 0
-0.147 0.21699999 0.74199998 0 0 0 0
-0.146 0.21699999 0.74299997 0 0 0 0
-0.145 0.21799999 0.74400002 0 0 0 0
-0.14399999 0.21799999 0.745 0 0 0 0
-0.14300001 0.21799999 0.745 0 0 0 0
-0.141 0.21799999 0.745 0 0 0 0
-0.14 0.21799999 0.74599999 0 0 0 0
-0.139 0.21799999 0.74599999 0 0 0 0
-0.138 0.21799999 0.74599999 0 0 0 0
-0.13699999 0.219 0.74699998 0 0 0 0
-0.13600001 0.219 0.74699998 0 0 0 0
-0.13500001 0.219 0.74699998 0 0 0 0
-0.134 0.219 0.74800003 0 0 0 0
-0.132 0.219 0.74800003 0 0 0 0
-0.131 0.219 0.74800003 0 0 0 0
-0.13 0.219 0.74900001 0 0 0 0
-0.12899999 0.22 0.75 0 0 0 0
-0.12800001 0.22 0.75 0 0 0 0
-0.127 0.22 0.75199997 0 0 0 0
-0.126 0.221 0.75300002 0 0 0 0
-0.125 0.221 0.75400001 0 0 0 0
-0.124 0.221 0.75599998 0 0 0 0
-0.123 0.222 0.75700003 0 0 0 0
-0.122 0.222 0.75700003 0 0 0 0
-0.121 0.222 0.75800002 0 0 0 0
-0.12 0.222 0.75800002 0 0 0 0
-0.119 0.222 0.759 0 0 0 0
-0.117 0.222 0.759 0 0 0 0
-0.211 0.214 0.72899997 0 0 0 0
-0.20999999 0.214 0.72899997 0 0 0 0
-0.20900001 0.214 0.72899997 0 0 0 0
-0.208 0.214 0.72899997 0 0 0 0
-0.207 0.214 0.73000002 0 0 0 0
-0.206 0.214 0.73000002 0 0 0 0
-0.205 0.214 0.73000002 0 0 0 0
-0.204 0.214 0.73100001 0 0 0 0
-0.20299999 0.214 0.73100001 0 0 0 0
-0.20200001 0.214 0.73100001 0 0 0 0
-0.2 0.214 0.73000002 0 0 0 0
-0.199 0.214 0.73000002 0 0 0 0
-0.198 0.214 0.73000002 0 0 0 0
-0.197 0.214 0.73000002 0 0 0 0
-0.19499999 0.214 0.72899997 0 0 0 0
-0.19400001 0.214 0.72899997 0 0 0 0
-0.193 0.214 0.73000002 0 0 0 0
-0.192 0.215 0.73100001 0 0 0 0
-0.191 0.215 0.73100001 0 0 0 0
-0.191 0.215 0.73299998 0 0 0 0
-0.189 0.215 0.73299998 0 0 0 0
-0.18799999 0.215 0.73400003 0 0 0 0
-0.18799999 0.21600001 0.736 0 0 0 0
-0.18700001 0.21600001 0.736 0 0 0 0
-0.186 0.21600001 0.73699999 0 0 0 0
-0.185 0.21699999 0.73799998 0 0 0 0
-0.184 0.21699999 0.73900002 0 0 0 0
-0.183 0.21799999 0.741 0 0 0 0
-0.182 0.21799999 0.741 0 0 0 0
-0.18099999 0.21799999 0.741 0 0 0 0
-0.18000001 0.21799999 0.74199998 0 0 0 0
-0.17900001 0.21799999 0.74199998 0 0 0 0
-0.178 0.21799999 0.74199998 0 0 0 0
-0.176 0.21799999 0.74199998 0 0 0 0
-0.175 0.21799999 0.741 0 0 0 0
-0.17399999 0.21699999 0.74000001 0 0 0 0
-0.17200001 0.21699999 0.74000001 0 0 0 0
-0.171 0.21699999 0.74000001 0 0 0 0
-0.17 0.21699999 0.73900002 0 0 0 0
-0.169 0.21699999 0.73900002 0 0 0 0
-0.167 0.21699999 0.73900002 0 0 0 0
-0.16599999 0.21699999 0.74000001 0 0 0 0
-0.16500001 0.21699999 0.74000001 0 0 0 0
-0.164 0.21799999 0.74000001 0 0 0 0
-0.163 0.21799999 0.74000001 0 0 0 0
-0.162 0.21799999 0.74000001 0 0 0 0
-0.161 0.21799999 0.74000001 0 0 0 0
-0.16 0.21799999 0.741 0 0 0 0
-0.15800001 0.21799999 0.741 0 0 0 0
-0.15700001 0.21799999 0.741 0 0 0 0
-0.156 0.21799999 0.741 0 0 0 0
-0.155 0.21799999 0.741 0 0 0 0
-0.154 0.21799999 0.741 0 0 0 0
-0.153 0.21799999 0.741 0 0 0 0
-0.15099999 0.21799999 0.741 0 0 0 0
-0.15000001 0.21799999 0.741 0 0 0 0
-0.149 0.21799999 0.741 0 0 0 0
-0.148 0.21799999 0.74199998 0 0 0 0
-0.147 0.21799999 0.74199998 0 0 0 0
-0.146 0.219 0.74299997 0 0 0 0
-0.145 0.219 0.74400002 0 0 0 0
-0.14399999 0.219 0.745 0 0 0 0
-0.14300001 0.219 0.745 0 0 0 0
-0.141 0.219 0.745 0 0 0 0
-0.14 0.22 0.74599999 0 0 0 0
-0.139 0.22 0.74599999 0 0 0 0
-0.138 0.22 0.74599999 0 0 0 0
-0.13699999 0.22 0.74599999 0 0 0 0
-0.13600001 0.22 0.74599999 0 0 0 0
-0.134 0.22 0.74599999 0 0 0 0
-0.133 0.22 0.74699998 0 0 0 0
-0.132 0.22 0.74699998 0 0 0 0
-0.131 0.22 0.74699998 0 0 0 0
-0.13 0.22 0.74699998 0 0 0 0
-0.12899999 0.221 0.74900001 0 0 0 0
-0.12800001 0.221 0.75 0 0 0 0
-0.127 0.221 0.75099999 0 0 0 0
-0.126 0.221 0.75199997 0 0 0 0
-0.125 0.222 0.75400001 0 0 0 0
-0.124 0.222 0.755 0 0 0 0
-0.123 0.223 0.75599998 0 0 0 0
-0.122 0.223 0.75599998 0 0 0 0
-0.121 0.223 0.75700003 0 0 0 0
-0.12 0.223 0.75700003 0 0 0 0
-0.118 0.223 0.75800002 0 0 0 0
-0.117 0.223 0.75800002 0 0 0 0
-0.212 0.215 0.72799999 0 0 0 0
-0.211 0.215 0.72799999 0 0 0 0
-0.20999999 0.215 0.72799999 0 0 0 0
-0.20900001 0.215 0.72799999 0 0 0 0
-0.208 0.215 0.72799999 0 0 0 0
-0.207 0.215 0.72799999 0 0 0 0
-0.205 0.215 0.72799999 0 0 0 0
-0.204 0.215 0.72799999 0 0 0 0
-0.20299999 0.215 0.72899997 0 0 0 0
-0.20200001 0.215 0.72899997 0 0 0 0
-0.20100001 0.215 0.72899997 0 0 0 0
-0.2 0.215 0.72899997 0 0 0 0
-0.198 0.215 0.72799999 0 0 0 0
-0.198 0.215 0.72899997 0 0 0 0
-0.19599999 0.215 0.72899997 0 0 0 0
-0.19499999 0.215 0.72899997 0 0 0 0
-0.19400001 0.215 0.72899997 0 0 0 0
-0.193 0.215 0.72899997 0 0 0 0
-0.192 0.215 0.72899997 0 0 0 0
-0.191 0.215 0.73000002 0 0 0 0
-0.19 0.21600001 0.73100001 0 0 0 0
-0.189 0.21600001 0.73299998 0 0 0 0
-0.18799999 0.21600001 0.73299998 0 0 0 0
-0.18700001 0.21699999 0.73400003 0 0 0 0
-0.18700001 0.21699999 0.736 0 0 0 0
-0.186 0.21799999 0.73699999 0 0 0 0
-0.185 0.21799999 0.73799998 0 0 0 0
-0.184 0.21799999 0.73900002 0 0 0 0
-0.183 0.21799999 0.73900002 0 0 0 0
-0.182 0.21799999 0.74000001 0 0 0 0
-0.18099999 0.219 0.74000001 0 0 0 0
-0.18000001 0.219 0.741 0 0 0 0
-0.178 0.219 0.74000001 0 0 0 0
-0.177 0.219 0.74000001 0 0 0 0
-0.176 0.219 0.74000001 0 0 0 0
-0.175 0.219 0.74000001 0 0 0 0
-0.17399999 0.219 0.74000001 0 0 0 0
-0.17200001 0.21799999 0.73900002 0 0 0 0
-0.171 0.21799999 0.73900002 0 0 0 0
-0.17 0.21799999 0.73900002 0 0 0 0
-0.169 0.21799999 0.73900002 0 0 0 0
-0.167 0.21799999 0.73900002 0 0 0 0
-0.16599999 0.21799999 0.73900002 0 0 0 0
-0.16500001 0.219 0.74000001 0 0 0 0
-0.164 0.21799999 0.73900002 0 0 0 0
-0.163 0.219 0.74000001 0 0 0 0
-0.162 0.219 0.74000001 0 0 0 0
-0.161 0.219 0.74000001 0 0 0 0
-0.16 0.219 0.741 0 0 0 0
-0.15800001 0.219 0.741 0 0 0 0
-0.15700001 0.219 0.74000001 0 0 0 0
-0.156 0.219 0.74000001 0 0 0 0
-0.155 0.219 0.741 0 0 0 0
-0.154 0.219 0.741 0 0 0 0
-0.152 0.219 0.74000001 0 0 0 0
-0.15099999 0.219 0.74000001 0 0 0 0
-0.15000001 0.219 0.74000001 0 0 0 0
-0.149 0.219 0.741 0 0 0 0
-0.148 0.219 0.741 0 0 0 0
-0.147 0.219 0.74199998 0 0 0 0
-0.146 0.22 0.74299997 0 0 0 0
-0.145 0.22 0.74299997 0 0 0 0
-0.14399999 0.22 0.74400002 0 0 0 0
-0.142 0.22 0.74400002 0 0 0 0
-0.141 0.22 0.745 0 0 0 0
-0.14 0.22 0.745 0 0 0 0
-0.139 0.221 0.74599999 0 0 0 0
-0.138 0.221 0.74599999 0 0 0 0
-0.13699999 0.221 0.74599999 0 0 0 0
-0.13600001 0.221 0.74599999 0 0 0 0
-0.134 0.221 0.74599999 0 0 0 0
-0.133 0.221 0.74599999 0 0 0 0
-0.132 0.221 0.74599999 0 0 0 0
-0.131 0.221 0.74599999 0 0 0 0
-0.13 0.221 0.74599999 0 0 0 0
-0.12899999 0.221 0.74699998 0 0 0 0
-0.12800001 0.222 0.74900001 0 0 0 0
-0.127 0.222 0.75 0 0 0 0
-0.126 0.223 0.75199997 0 0 0 0
-0.125 0.223 0.75300002 0 0 0 0
-0.124 0.223 0.75400001 0 0 0 0
-0.123 0.22400001 0.755 0 0 0 0
-0.122 0.22400001 0.75599998 0 0 0 0
-0.121 0.22400001 0.75599998 0 0 0 0
-0.119 0.22400001 0.75599998 0 0 0 0
-0.118 0.22400001 0.75700003 0 0 0 0
-0.117 0.22400001 0.75700003 0 0 0 0
-0.213 0.215 0.72600001 0 0 0 0
-0.212 0.215 0.72600001 0 0 0 0
-0.211 0.215 0.72600001 0 0 0 0
-0.20900001 0.215 0.72600001 0 0 0 0
-0.208 0.215 0.72500002 0 0 0 0
-0.207 0.215 0.72600001 0 0 0 0
-0.206 0.215 0.72600001 0 0 0 0
-0.205 0.215 0.727 0 0 0 0
-0.204 0.21600001 0.727 0 0 0 0
-0.20299999 0.21600001 0.727 0 0 0 0
-0.20200001 0.21600001 0.72799999 0 0 0 0
-0.20100001 0.21600001 0.72799999 0 0 0 0
-0.2 0.21600001 0.72799999 0 0 0 0
-0.198 0.21600001 0.72799999 0 0 0 0
-0.197 0.21600001 0.72799999 0 0 0 0
-0.19599999 0.21600001 0.72799999 0 0 0 0
-0.19499999 0.21600001 0.72799999 0 0 0 0
-0.19400001 0.21600001 0.72799999 0 0 0 0
-0.193 0.21600001 0.72799999 0 0 0 0
-0.192 0.21600001 0.72799999 0 0 0 0
-0.191 0.21600001 0.72899997 0 0 0 0
-0.19 0.21699999 0.73000002 0 0 0 0
-0.189 0.21699999 0.73100001 0 0 0 0
-0.18799999 0.21699999 0.73299998 0 0 0 0
-0.18700001 0.21799999 0.73299998 0 0 0 0
-0.186 0.21799999 0.73500001 0 0 0 0
-0.185 0.21799999 0.736 0 0 0 0
-0.184 0.21799999 0.736 0 0 0 0
-0.183 0.219 0.73699999 0 0 0 0
-0.182 0.219 0.73799998 0 0 0 0
-0.18099999 0.219 0.73799998 0 0 0 0
-0.18000001 0.219 0.73799998 0 0 0 0
-0.17900001 0.219 0.73799998 0 0 0 0
-0.178 0.219 0.73900002 0 0 0 0
-0.177 0.219 0.73900002 0 0 0 0
-0.176 0.219 0.73900002 0 0 0 0
-0.17399999 0.219 0.73900002 0 0 0 0
-0.17299999 0.219 0.73900002 0 0 0 0
-0.17200001 0.219 0.73900002 0 0 0 0
-0.171 0.219 0.73900002 0 0 0 0
-0.17 0.219 0.73900002 0 0 0 0
-0.168 0.219 0.73799998 0 0 0 0
-0.167 0.219 0.73799998 0 0 0 0
-0.16599999 0.22 0.73900002 0 0 0 0
-0.16500001 0.22 0.73900002 0 0 0 0
-0.164 0.22 0.73900002 0 0 0 0
-0.163 0.22 0.73900002 0 0 0 0
-0.162 0.22 0.73900002 0 0 0 0
-0.161 0.22 0.74000001 0 0 0 0
-0.15899999 0.22 0.74000001 0 0 0 0
-0.15800001 0.22 0.74000001 0 0 0 0
-0.15700001 0.22 0.74000001 0 0 0 0
-0.156 0.22 0.74000001 0 0 0 0
-0.155 0.22 0.74000001 0 0 0 0
-0.153 0.22 0.74000001 0 0 0 0
-0.152 0.22 0.74000001 0 0 0 0
-0.15099999 0.22 0.73900002 0 0 0 0
-0.15000001 0.22 0.74000001 0 0 0 0
-0.149 0.22 0.74000001 0 0 0 0
-0.148 0.22 0.74000001 0 0 0 0
-0.147 0.22 0.741 0 0 0 0
-0.146 0.221 0.74199998 0 0 0 0
-0.145 0.221 0.74299997 0 0 0 0
-0.14300001 0.221 0.74299997 0 0 0 0
-0.142 0.221 0.74400002 0 0 0 0
-0.141 0.221 0.74400002 0 0 0 0
-0.14 0.221 0.74400002 0 0 0 0
-0.139 0.221 0.74400002 0 0 0 0
-0.138 0.222 0.745 0 0 0 0
-0.13699999 0.222 0.745 0 0 0 0
-0.13500001 0.222 0.745 0 0 0 0
-0.134 0.222 0.745 0 0 0 0
-0.133 0.222 0.745 0 0 0 0
-0.132 0.222 0.745 0 0 0 0
-0.131 0.222 0.745 0 0 0 0
-0.13 0.222 0.74599999 0 0 0 0
-0.12899999 0.222 0.74699998 0 0 0 0
-0.12800001 0.223 0.74800003 0 0 0 0
-0.127 0.223 0.74900001 0 0 0 0
-0.126 0.223 0.75 0 0 0 0
-0.125 0.22400001 0.75199997 0 0 0 0
-0.124 0.22400001 0.75300002 0 0 0 0
-0.123 0.22400001 0.75400001 0 0 0 0
-0.121 0.22400001 0.75400001 0 0 0 0
-0.12 0.22499999 0.755 0 0 0 0
-0.119 0.22499999 0.755 0 0 0 0
-0.118 0.22499999 0.755 0 0 0 0
-0.117 0.22499999 0.75599998 0 0 0 0
-0.213 0.21600001 0.72399998 0 0 0 0
-0.212 0.21600001 0.72399998 0 0 0 0
-0.211 0.21600001 0.72399998 0 0 0 0
-0.20999999 0.21600001 0.72399998 0 0 0 0
-0.20900001 0.21600001 0.72399998 0 0 0 0
-0.208 0.21600001 0.72399998 0 0 0 0
-0.207 0.21600001 0.72399998 0 0 0 0
-0.206 0.21600001 0.72500002 0 0 0 0
-0.205 0.21600001 0.72500002 0 0 0 0
-0.20299999 0.21600001 0.72500002 0 0 0 0
-0.20200001 0.21600001 0.72500002 0 0 0 0
-0.20100001 0.21600001 0.72600001 0 0 0 0
-0.2 0.21600001 0.72600001 0 0 0 0
-0.199 0.21699999 0.727 0 0 0 0
-0.198 0.21699999 0.727 0 0 0 0
-0.197 0.21699999 0.727 0 0 0 0
-0.19599999 0.21699999 0.727 0 0 0 0
-0.19499999 0.21699999 0.72799999 0 0 0 0
-0.19400001 0.21699999 0.72799999 0 0 0 0
-0.192 0.21699999 0.727 0 0 0 0
-0.192 0.21699999 0.72799999 0 0 0 0
-0.191 0.21699999 0.72899997 0 0 0 0
-0.189 0.21699999 0.72899997 0 0 0 0
-0.189 0.21799999 0.73000002 0 0 0 0
-0.18799999 0.21799999 0.73100001 0 0 0 0
-0.18700001 0.219 0.73299998 0 0 0 0
-0.186 0.219 0.73400003 0 0 0 0
-0.185 0.219 0.73500001 0 0 0 0
-0.184 0.219 0.73500001 0 0 0 0
-0.183 0.219 0.73500001 0 0 0 0
-0.182 0.22 0.736 0 0 0 0
-0.18099999 0.22 0.736 0 0 0 0
-0.18000001 0.22 0.736 0 0 0 0
-0.178 0.22 0.736 0 0 0 0
-0.177 0.22 0.73699999 0 0 0 0
-0.177 0.22 0.73799998 0 0 0 0
-0.175 0.22 0.73799998 0 0 0 0
-0.17399999 0.22 0.73799998 0 0 0 0
-0.17299999 0.22 0.73799998 0 0 0 0
-0.17200001 0.22 0.73799998 0 0 0 0
-0.171 0.22 0.73799998 0 0 0 0
-0.17 0.22 0.73799998 0 0 0 0
-0.168 0.22 0.73699999 0 0 0 0
-0.167 0.22 0.73699999 0 0 0 0
-0.16599999 0.22 0.73799998 0 0 0 0
-0.16500001 0.22 0.73799998 0 0 0 0
-0.164 0.22 0.73799998 0 0 0 0
-0.162 0.22 0.73799998 0 0 0 0
-0.162 0.221 0.73900002 0 0 0 0
-0.16 0.221 0.73900002 0 0 0 0
-0.15899999 0.221 0.73900002 0 0 0 0
-0.15800001 0.221 0.73900002 0 0 0 0
-0.15700001 0.221 0.73900002 0 0 0 0
-0.156 0.221 0.73900002 0 0 0 0
-0.154 0.221 0.73900002 0 0 0 0
-0.153 0.221 0.73900002 0 0 0 0
-0.152 0.221 0.73900002 0 0 0 0
-0.15099999 0.221 0.73900002 0 0 0 0
-0.15000001 0.221 0.73900002 0 0 0 0
-0.149 0.221 0.73900002 0 0 0 0
-0.148 0.221 0.74000001 0 0 0 0
-0.147 0.222 0.741 0 0 0 0
-0.145 0.222 0.741 0 0 0 0
-0.14399999 0.222 0.741 0 0 0 0
-0.14300001 0.222 0.74199998 0 0 0 0
-0.142 0.222 0.74199998 0 0 0 0
-0.141 0.222 0.74299997 0 0 0 0
-0.14 0.222 0.74299997 0 0 0 0
-0.139 0.222 0.74299997 0 0 0 0
-0.13699999 0.222 0.74299997 0 0 0 0
-0.13600001 0.222 0.74400002 0 0 0 0
-0.13500001 0.222 0.74299997 0 0 0 0
-0.134 0.222 0.74299997 0 0 0 0
-0.133 0.223 0.74400002 0 0 0 0
-0.132 0.223 0.74400002 0 0 0 0
-0.131 0.223 0.74400002 0 0 0 0
-0.12899999 0.223 0.74400002 0 0 0 0
-0.12800001 0.223 0.745 0 0 0 0
-0.127 0.223 0.74699998 0 0 0 0
-0.126 0.22400001 0.74800003 0 0 0 0
-0.125 0.22400001 0.74900001 0 0 0 0
-0.124 0.22400001 0.75 0 0 0 0
-0.123 0.22499999 0.75099999 0 0 0 0
-0.122 0.22499999 0.75099999 0 0 0 0
-0.121 0.22499999 0.75199997 0 0 0 0
-0.12 0.22499999 0.75199997 0 0 0 0
-0.119 0.22499999 0.75300002 0 0 0 0
-0.118 0.22499999 0.75300002 0 0 0 0
-0.213 0.21699999 0.72399998 0 0 0 0
-0.212 0.21699999 0.72399998 0 0 0 0
-0.211 0.21699999 0.72399998 0 0 0 0
-0.20999999 0.21699999 0.72299999 0 0 0 0
-0.20900001 0.21699999 0.72299999 0 0 0 0
-0.207 0.21600001 0.722 0 0 0 0
-0.206 0.21699999 0.72299999 0 0 0 0
-0.205 0.21699999 0.72299999 0 0 0 0
-0.204 0.21699999 0.72399998 0 0 0 0
-0.20299999 0.21699999 0.72299999 0 0 0 0
-0.20200001 0.21699999 0.72399998 0 0 0 0
-0.20100001 0.21699999 0.72399998 0 0 0 0
-0.2 0.21699999 0.72399998 0 0 0 0
-0.199 0.21699999 0.72500002 0 0 0 0
-0.198 0.21699999 0.72500002 0 0 0 0
-0.197 0.21799999 0.72600001 0 0 0 0
-0.19599999 0.21799999 0.72600001 0 0 0 0
-0.19400001 0.21799999 0.72600001 0 0 0 0
-0.193 0.21799999 0.72600001 0 0 0 0
-0.192 0.21799999 0.72600001 0 0 0 0
-0.191 0.21799999 0.727 0 0 0 0
-0.19 0.21799999 0.72799999 0 0 0 0
-0.189 0.219 0.72899997 0 0 0 0
-0.18799999 0.219 0.72899997 0 0 0 0
-0.18799999 0.219 0.73100001 0 0 0 0
-0.18700001 0.22 0.73199999 0 0 0 0
-0.186 0.22 0.73199999 0 0 0 0
