ply
format ascii 1.0
comment VCGLIB generated
element vertex 3415
property float x
property float y
property float z
element face 0
property list uchar int vertex_indices
end_header
-183 159 711 
-182 159 710 
-180 159 709 
-179 159 709 
-178 158 708 
-176 158 707 
-175 158 706 
-174 158 705 
-173 158 705 
-171 158 705 
-170 158 704 
-169 158 704 
-168 158 704 
-167 158 704 
-166 158 704 
-164 157 703 
-163 157 703 
-162 157 703 
-161 157 703 
-160 157 703 
-159 157 703 
-158 157 703 
-156 157 703 
-155 157 703 
-154 157 703 
-153 157 703 
-152 157 703 
-151 157 703 
-150 158 704 
-149 158 704 
-148 158 704 
-147 158 705 
-146 158 705 
-145 158 706 
-144 158 707 
-143 159 708 
-142 159 708 
-141 159 709 
-140 159 710 
-139 160 712 
-138 160 712 
-137 160 713 
-136 160 714 
-135 160 715 
-134 161 716 
-133 161 718 
-132 161 719 
-131 161 720 
-130 162 721 
-130 162 723 
-129 162 724 
-128 163 726 
-127 163 727 
-126 163 728 
-125 164 730 
-124 164 732 
-123 165 735 
-123 166 738 
-122 166 741 
-121 167 744 
-121 168 748 
-120 169 752 
-120 170 756 
-119 171 760 
-119 171 764 
-118 172 768 
-117 173 770 
-116 173 771 
-202 168 748 
-197 165 735 
-194 164 728 
-192 163 723 
-189 162 718 
-188 161 716 
-186 161 714 
-184 160 712 
-183 160 711 
-182 160 710 
-180 160 709 
-179 159 708 
-178 159 708 
-176 159 706 
-175 159 705 
-174 159 705 
-173 159 705 
-171 159 704 
-170 158 703 
-169 158 703 
-168 158 703 
-166 158 703 
-165 158 703 
-164 158 703 
-163 158 703 
-162 158 703 
-161 158 703 
-160 158 702 
-158 158 702 
-157 158 702 
-156 158 702 
-155 158 702 
-154 158 702 
-153 158 702 
-152 158 702 
-151 159 703 
-150 159 703 
-149 159 703 
-148 159 704 
-147 159 705 
-146 159 705 
-145 159 706 
-144 160 707 
-143 160 708 
-142 160 708 
-141 160 710 
-140 160 711 
-139 160 711 
-138 161 712 
-137 161 713 
-136 161 714 
-135 161 715 
-134 162 716 
-133 162 718 
-132 162 719 
-131 163 720 
-131 163 722 
-130 163 723 
-129 164 724 
-128 164 725 
-127 164 727 
-126 164 728 
-125 165 730 
-124 165 732 
-123 166 735 
-123 167 737 
-122 167 741 
-121 168 744 
-121 169 748 
-120 170 752 
-120 171 756 
-119 172 760 
-119 173 764 
-118 174 768 
-117 174 770 
-116 175 772 
-202 169 747 
-197 167 735 
-194 165 728 
-192 164 722 
-189 163 718 
-188 162 716 
-186 162 713 
-184 161 712 
-183 161 711 
-182 161 710 
-180 161 709 
-179 161 708 
-178 160 707 
-176 160 706 
-175 160 705 
-173 160 704 
-172 160 704 
-171 160 704 
-170 160 703 
-168 159 702 
-167 159 702 
-166 159 702 
-165 159 702 
-164 159 702 
-163 159 702 
-162 159 702 
-161 159 702 
-160 159 702 
-158 159 701 
-157 159 701 
-156 159 701 
-155 159 701 
-154 159 701 
-153 159 701 
-152 159 702 
-151 160 703 
-150 160 703 
-149 160 704 
-148 160 704 
-147 160 705 
-146 160 705 
-145 160 706 
-144 161 707 
-143 161 707 
-142 161 708 
-141 161 710 
-140 162 711 
-139 162 711 
-138 162 712 
-137 162 713 
-136 162 714 
-135 163 716 
-134 163 717 
-133 163 718 
-132 164 719 
-131 164 720 
-131 164 722 
-130 164 723 
-129 165 724 
-128 165 725 
-127 165 727 
-126 166 728 
-125 166 730 
-124 167 732 
-123 167 735 
-123 168 738 
-122 169 741 
-122 170 745 
-121 170 749 
-120 171 752 
-120 172 756 
-119 173 760 
-118 174 763 
-118 175 767 
-117 175 770 
-116 176 772 
-207 174 763 
-202 170 746 
-197 168 734 
-194 166 727 
-192 165 722 
-189 164 718 
-188 163 715 
-186 163 713 
-184 163 712 
-183 162 710 
-182 162 710 
-180 162 709 
-179 162 708 
-178 162 707 
-176 161 706 
-175 161 705 
-173 161 704 
-172 161 703 
-171 161 703 
-170 160 702 
-168 160 702 
-167 160 702 
-166 160 702 
-165 160 702 
-164 160 702 
-163 160 702 
-162 160 702 
-161 161 702 
-159 160 701 
-158 160 700 
-157 160 700 
-156 160 700 
-155 160 700 
-153 160 700 
-153 160 701 
-152 161 702 
-151 161 702 
-150 161 703 
-149 161 704 
-148 161 704 
-147 161 705 
-146 161 705 
-145 162 707 
-144 162 707 
-143 162 707 
-142 162 708 
-141 163 710 
-140 163 711 
-139 163 711 
-138 163 712 
-137 163 714 
-136 163 714 
-135 164 716 
-134 164 717 
-133 164 718 
-132 165 719 
-131 165 720 
-131 165 722 
-130 166 723 
-129 166 724 
-128 166 725 
-127 167 727 
-126 167 728 
-125 167 730 
-124 168 732 
-123 168 735 
-123 169 738 
-122 170 742 
-122 171 745 
-121 172 749 
-120 173 753 
-120 173 756 
-119 174 760 
-118 175 763 
-118 176 767 
-117 177 770 
-116 177 773 
-202 172 748 
-197 169 734 
-194 167 726 
-191 166 721 
-189 165 718 
-187 164 715 
-186 164 713 
-184 164 712 
-183 164 711 
-182 163 710 
-180 163 709 
-179 163 707 
-177 162 706 
-176 162 706 
-175 162 705 
-173 162 704 
-172 162 703 
-171 162 703 
-170 162 702 
-168 162 702 
-167 162 702 
-166 162 702 
-165 162 702 
-164 162 702 
-163 162 702 
-162 162 702 
-160 161 701 
-159 161 701 
-158 161 700 
-157 161 700 
-156 161 700 
-155 161 700 
-153 161 700 
-153 161 701 
-152 162 702 
-151 162 702 
-150 162 703 
-149 162 704 
-148 162 705 
-147 162 705 
-146 163 706 
-145 163 707 
-144 163 707 
-143 163 707 
-142 163 708 
-141 164 710 
-140 164 710 
-139 164 711 
-138 164 712 
-137 165 714 
-136 165 714 
-135 165 715 
-134 165 717 
-133 166 718 
-132 166 719 
-131 166 720 
-131 167 722 
-129 167 722 
-129 167 724 
-128 167 725 
-127 168 727 
-126 168 728 
-125 168 730 
-124 169 733 
-124 170 736 
-123 171 739 
-122 171 743 
-122 172 746 
-121 173 750 
-120 174 753 
-120 175 757 
-119 175 760 
-118 176 763 
-118 177 767 
-117 178 771 
-116 178 773 
-203 174 752 
-198 171 738 
-194 169 728 
-192 167 722 
-189 166 718 
-187 166 715 
-186 165 713 
-184 165 712 
-183 165 711 
-182 164 710 
-180 164 709 
-179 164 708 
-178 164 707 
-176 164 706 
-175 163 705 
-174 163 705 
-172 163 704 
-171 163 703 
-170 163 703 
-169 163 703 
-167 163 702 
-166 163 702 
-165 163 702 
-164 163 702 
-163 163 702 
-162 163 702 
-160 163 701 
-159 162 700 
-158 162 700 
-157 162 700 
-156 162 700 
-155 162 700 
-153 162 700 
-153 163 701 
-152 163 702 
-151 163 702 
-150 163 703 
-149 163 704 
-148 163 704 
-147 164 705 
-146 164 706 
-145 164 707 
-144 164 707 
-143 164 707 
-142 164 708 
-141 165 710 
-140 165 710 
-139 165 711 
-138 165 712 
-137 166 714 
-136 166 714 
-135 166 715 
-134 166 716 
-133 166 717 
-132 167 719 
-131 167 720 
-131 168 722 
-129 168 722 
-129 168 724 
-128 168 725 
-127 169 727 
-126 169 728 
-125 170 731 
-124 170 733 
-124 171 736 
-123 172 740 
-122 173 743 
-122 174 747 
-121 175 751 
-121 175 754 
-120 176 757 
-119 177 761 
-119 178 764 
-118 178 767 
-117 179 771 
-116 180 774 
-205 177 758 
-199 173 741 
-195 170 730 
-192 169 723 
-190 168 719 
-188 167 716 
-186 166 714 
-185 166 713 
-183 166 712 
-182 166 710 
-180 165 709 
-179 165 708 
-178 165 707 
-176 165 706 
-175 164 705 
-174 164 705 
-172 164 704 
-171 164 704 
-170 164 703 
-169 164 703 
-168 164 703 
-166 164 702 
-165 164 702 
-164 164 703 
-163 164 702 
-162 164 702 
-160 164 701 
-159 164 701 
-158 163 700 
-157 163 700 
-156 163 700 
-155 163 700 
-153 163 700 
-153 164 701 
-152 164 702 
-151 164 703 
-150 164 703 
-149 165 705 
-148 165 705 
-147 165 706 
-146 165 706 
-145 165 707 
-144 165 707 
-143 165 707 
-142 165 708 
-141 166 709 
-140 166 710 
-139 166 711 
-138 166 712 
-137 167 713 
-136 167 714 
-135 167 715 
-134 167 716 
-133 168 717 
-132 168 719 
-131 168 720 
-130 169 721 
-129 169 722 
-129 169 724 
-128 170 725 
-127 170 727 
-126 171 729 
-125 171 731 
-124 172 734 
-124 172 737 
-123 173 741 
-123 174 744 
-122 175 748 
-121 176 752 
-121 177 755 
-120 177 758 
-119 178 761 
-119 179 765 
-118 180 768 
-117 180 771 
-116 181 774 
-116 182 777 
-206 179 764 
-201 175 747 
-196 172 733 
-192 170 725 
-190 169 720 
-188 168 717 
-186 168 715 
-185 168 714 
-184 167 713 
-182 167 711 
-181 167 710 
-179 166 709 
-177 166 707 
-176 166 707 
-175 166 706 
-174 166 705 
-172 165 704 
-171 165 704 
-170 165 704 
-169 165 703 
-168 165 703 
-166 165 703 
-165 165 702 
-164 165 703 
-163 165 702 
-162 165 702 
-161 165 702 
-159 165 701 
-158 165 701 
-157 165 701 
-156 165 701 
-155 165 701 
-154 165 701 
-153 165 702 
-152 165 702 
-151 165 703 
-150 166 704 
-149 166 705 
-148 166 705 
-147 166 706 
-146 166 707 
-145 166 707 
-144 166 707 
-143 166 707 
-142 167 708 
-141 167 709 
-140 167 710 
-139 167 711 
-138 168 712 
-137 168 713 
-136 168 714 
-135 168 715 
-134 169 717 
-133 169 718 
-132 169 719 
-131 170 720 
-131 170 722 
-130 170 723 
-129 170 724 
-128 171 726 
-127 171 727 
-126 172 729 
-125 172 732 
-125 173 735 
-124 174 738 
-123 175 741 
-123 175 745 
-122 176 749 
-122 177 753 
-121 178 756 
-120 179 759 
-119 180 762 
-119 180 766 
-118 181 769 
-117 182 772 
-117 183 776 
-116 183 778 
-207 181 768 
-202 178 753 
-197 174 737 
-193 172 727 
-190 170 721 
-188 170 718 
-187 169 716 
-185 169 715 
-184 169 713 
-182 168 712 
-180 168 710 
-179 168 710 
-178 167 708 
-176 167 707 
-175 167 706 
-174 167 706 
-172 167 705 
-171 166 704 
-170 166 704 
-169 167 704 
-168 167 704 
-166 166 703 
-165 166 703 
-164 166 703 
-163 166 703 
-162 166 702 
-161 166 702 
-159 166 702 
-158 166 701 
-157 166 701 
-156 166 701 
-155 166 701 
-154 166 702 
-153 166 702 
-152 166 703 
-151 167 704 
-150 167 705 
-149 167 705 
-148 167 706 
-147 167 706 
-146 167 707 
-145 167 707 
-144 167 707 
-143 167 707 
-142 168 708 
-141 168 709 
-140 168 710 
-139 168 711 
-138 169 712 
-137 169 713 
-136 169 714 
-135 169 715 
-134 170 717 
-133 170 718 
-132 171 720 
-131 171 721 
-131 171 722 
-130 171 723 
-129 172 725 
-128 172 726 
-127 173 728 
-126 173 729 
-125 174 732 
-125 175 736 
-124 175 739 
-123 176 742 
-123 177 746 
-122 178 750 
-122 179 753 
-121 179 756 
-120 180 759 
-120 181 763 
-119 182 767 
-118 183 770 
-118 184 774 
-117 184 777 
-116 185 780 
-204 180 758 
-198 176 740 
-193 173 729 
-191 172 723 
-188 171 719 
-187 171 717 
-185 170 715 
-184 170 714 
-182 170 713 
-181 169 711 
-179 169 710 
-178 169 709 
-177 169 708 
-175 168 707 
-174 168 706 
-173 168 706 
-171 168 705 
-170 168 705 
-169 168 705 
-168 168 705 
-167 168 704 
-166 168 704 
-164 168 704 
-163 168 704 
-162 167 703 
-161 167 702 
-159 167 702 
-158 167 702 
-157 167 702 
-156 167 702 
-155 167 702 
-154 167 702 
-153 168 703 
-152 168 703 
-151 168 704 
-150 168 705 
-149 168 705 
-148 168 706 
-147 168 706 
-146 169 707 
-145 169 707 
-144 169 707 
-143 169 708 
-142 169 708 
-141 169 709 
-140 169 710 
-139 170 711 
-138 170 712 
-137 170 713 
-136 171 715 
-135 171 716 
-134 171 717 
-133 171 718 
-132 172 720 
-131 172 721 
-130 172 722 
-130 173 724 
-129 173 725 
-128 174 727 
-127 174 728 
-126 174 731 
-125 175 733 
-125 176 736 
-124 177 740 
-124 178 744 
-123 179 748 
-123 180 752 
-122 180 754 
-121 181 757 
-120 181 760 
-120 182 764 
-119 183 768 
-118 184 771 
-118 185 776 
-117 186 779 
-116 187 782 
-205 182 762 
-199 178 745 
-194 175 731 
-191 173 724 
-189 172 720 
-187 172 718 
-185 171 716 
-184 171 715 
-182 171 713 
-181 171 712 
-180 170 711 
-178 170 709 
-177 170 708 
-175 169 707 
-174 169 706 
-173 169 706 
-171 169 705 
-170 169 705 
-169 169 705 
-168 169 705 
-167 169 704 
-165 169 704 
-164 169 704 
-163 169 704 
-162 169 703 
-161 169 703 
-159 168 702 
-158 168 702 
-157 168 702 
-156 169 703 
-155 169 703 
-154 169 703 
-153 169 704 
-152 169 704 
-151 169 704 
-150 169 705 
-149 169 705 
-148 169 706 
-147 170 707 
-146 170 707 
-145 170 707 
-144 170 708 
-143 170 708 
-142 170 708 
-141 170 709 
-140 170 710 
-139 171 711 
-138 171 712 
-137 171 713 
-136 172 715 
-135 172 716 
-134 172 717 
-133 173 719 
-132 173 720 
-132 173 722 
-131 174 723 
-130 174 725 
-129 174 726 
-128 175 727 
-127 175 729 
-126 176 731 
-126 176 734 
-125 177 738 
-124 178 741 
-124 179 745 
-123 180 749 
-123 181 752 
-122 182 756 
-121 182 759 
-121 183 762 
-120 184 766 
-119 185 769 
-119 186 773 
-118 187 777 
-117 188 781 
-117 189 784 
-205 184 764 
-200 181 749 
-195 177 734 
-191 175 726 
-189 174 721 
-187 173 719 
-186 173 717 
-184 173 716 
-183 172 714 
-181 172 712 
-180 171 711 
-178 171 710 
-177 171 709 
-175 171 708 
-174 171 707 
-173 170 706 
-172 170 706 
-170 170 706 
-169 170 706 
-168 170 706 
-167 170 705 
-166 170 705 
-165 170 705 
-163 170 705 
-162 170 704 
-161 170 703 
-160 170 703 
-159 170 703 
-157 169 702 
-156 170 703 
-155 170 703 
-154 170 703 
-153 170 704 
-152 170 704 
-151 170 705 
-150 170 705 
-149 170 705 
-148 171 706 
-147 171 707 
-146 171 707 
-145 171 707 
-144 171 708 
-143 171 708 
-142 171 709 
-141 171 709 
-140 172 710 
-139 172 711 
-138 172 713 
-137 172 713 
-136 173 715 
-135 173 716 
-134 173 717 
-133 174 719 
-132 174 720 
-132 175 722 
-131 175 723 
-130 175 725 
-129 176 727 
-128 176 728 
-127 177 730 
-126 177 732 
-126 178 735 
-125 179 738 
-125 180 742 
-124 180 746 
-124 181 750 
-123 182 753 
-122 183 756 
-122 184 760 
-121 185 763 
-120 185 766 
-119 186 770 
-119 187 773 
-118 188 777 
-117 189 781 
-117 190 784 
-206 186 766 
-200 182 749 
-195 178 735 
-191 176 726 
-189 175 722 
-188 175 720 
-186 174 718 
-184 174 716 
-183 174 715 
-181 173 714 
-180 173 712 
-178 173 711 
-177 172 710 
-176 172 709 
-174 172 707 
-173 171 706 
-172 171 706 
-170 171 706 
-169 171 706 
-168 171 706 
-167 172 706 
-166 172 706 
-165 171 705 
-163 171 705 
-162 171 705 
-161 171 704 
-160 171 703 
-159 171 703 
-157 171 703 
-156 171 704 
-155 171 704 
-154 171 704 
-153 171 705 
-152 171 705 
-151 171 705 
-150 172 706 
-149 172 706 
-148 172 707 
-147 172 707 
-146 172 708 
-145 172 708 
-144 172 708 
-143 172 709 
-142 172 709 
-141 173 710 
-140 173 711 
-139 173 712 
-138 173 713 
-137 174 714 
-136 174 715 
-135 174 716 
-134 174 717 
-133 175 719 
-133 175 721 
-132 176 722 
-131 176 723 
-130 176 725 
-129 177 727 
-128 177 729 
-127 178 731 
-127 178 733 
-126 179 736 
-125 180 740 
-125 181 743 
-124 182 747 
-124 183 750 
-123 184 754 
-122 184 757 
-121 185 760 
-121 186 763 
-120 187 767 
-119 188 770 
-119 189 774 
-118 190 778 
-117 191 782 
-117 191 784 
-206 187 766 
-200 183 750 
-195 180 735 
-192 178 727 
-189 176 722 
-187 176 719 
-186 175 718 
-184 175 716 
-183 175 715 
-181 174 714 
-180 174 713 
-179 174 712 
-177 174 711 
-176 173 709 
-175 173 709 
-173 173 707 
-172 173 707 
-171 173 707 
-169 173 706 
-168 173 706 
-167 173 706 
-166 173 706 
-165 173 706 
-163 172 705 
-162 172 705 
-161 172 704 
-160 172 704 
-159 172 703 
-157 172 703 
-156 172 704 
-155 172 704 
-154 172 704 
-153 173 705 
-152 173 705 
-151 173 705 
-150 173 706 
-149 173 707 
-148 173 707 
-147 173 708 
-146 173 708 
-145 174 709 
-144 174 709 
-143 174 709 
-142 174 710 
-141 174 711 
-140 174 711 
-139 174 712 
-138 175 713 
-137 175 714 
-136 175 715 
-135 175 716 
-134 176 717 
-133 176 719 
-133 177 721 
-132 177 723 
-131 177 724 
-130 178 726 
-129 178 728 
-128 179 729 
-127 179 731 
-127 180 734 
-126 181 737 
-126 182 741 
-125 183 745 
-124 183 748 
-124 184 752 
-123 185 755 
-122 186 758 
-122 187 761 
-121 187 763 
-120 188 767 
-119 189 770 
-119 190 773 
-118 191 777 
-117 192 781 
-117 192 784 
-205 188 764 
-200 184 750 
-195 181 735 
-192 179 727 
-189 178 722 
-188 177 720 
-186 177 718 
-184 176 717 
-183 176 716 
-182 176 715 
-180 175 713 
-179 175 713 
-177 175 711 
-176 175 710 
-175 174 709 
-173 174 709 
-172 174 708 
-171 174 707 
-170 174 707 
-168 174 707 
-167 174 707 
-166 174 707 
-165 174 706 
-164 174 706 
-162 174 705 
-161 173 704 
-160 173 704 
-159 173 704 
-158 173 704 
-156 173 704 
-156 174 705 
-154 174 705 
-153 174 705 
-152 174 705 
-151 174 706 
-150 174 706 
-149 174 707 
-148 174 708 
-147 174 708 
-146 174 708 
-145 175 709 
-144 175 709 
-143 175 710 
-142 175 710 
-141 175 711 
-140 175 711 
-139 176 713 
-138 176 714 
-137 176 714 
-136 176 715 
-135 177 717 
-134 177 718 
-133 177 719 
-133 178 721 
-132 178 723 
-131 179 725 
-130 179 726 
-129 180 728 
-128 180 730 
-128 181 733 
-127 181 735 
-126 182 738 
-126 183 742 
-125 184 746 
-125 185 750 
-124 186 753 
-123 187 756 
-122 187 758 
-122 188 761 
-121 189 764 
-120 189 767 
-119 190 770 
-119 191 773 
-118 192 777 
-117 193 780 
-204 188 761 
-200 185 748 
-195 182 736 
-192 180 728 
-189 179 723 
-188 178 721 
-186 178 719 
-184 177 717 
-183 177 716 
-182 177 715 
-180 177 714 
-179 177 713 
-178 176 712 
-176 176 711 
-175 176 710 
-173 176 709 
-172 175 708 
-171 175 708 
-170 175 707 
-168 175 707 
-167 175 707 
-166 175 707 
-165 175 706 
-164 175 706 
-163 175 706 
-161 175 705 
-160 175 705 
-159 175 705 
-158 175 705 
-157 175 705 
-156 175 705 
-155 175 706 
-154 175 706 
-152 175 706 
-151 175 706 
-150 175 707 
-149 176 708 
-148 176 708 
-147 176 708 
-146 176 709 
-145 176 709 
-144 176 710 
-143 176 710 
-142 176 711 
-141 176 711 
-140 177 712 
-139 177 713 
-138 177 714 
-137 177 715 
-136 178 716 
-135 178 717 
-135 178 719 
-134 179 720 
-133 179 721 
-132 179 723 
-131 180 725 
-130 180 727 
-129 181 729 
-129 181 731 
-128 182 734 
-127 183 737 
-127 184 740 
-126 184 743 
-125 185 747 
-125 186 750 
-124 187 754 
-123 188 757 
-123 188 759 
-122 189 762 
-121 190 765 
-120 191 767 
-119 191 770 
-119 192 773 
-118 193 776 
-117 193 778 
-207 191 767 
-204 189 759 
-199 186 747 
-195 183 736 
-192 182 729 
-190 181 725 
-188 180 722 
-187 180 721 
-185 179 718 
-183 179 717 
-182 178 716 
-181 178 715 
-179 178 714 
-178 178 713 
-176 177 712 
-175 177 711 
-174 177 710 
-172 177 709 
-171 176 708 
-170 176 708 
-168 176 707 
-167 176 707 
-166 176 707 
-165 176 707 
-164 176 706 
-163 176 706 
-161 176 706 
-160 176 706 
-159 176 706 
-158 176 705 
-157 176 706 
-156 176 706 
-155 176 706 
-154 176 706 
-152 176 706 
-151 176 707 
-151 177 708 
-149 177 708 
-148 177 708 
-147 177 709 
-146 177 710 
-145 177 710 
-144 177 710 
-143 177 711 
-142 178 712 
-141 178 712 
-140 178 713 
-139 178 713 
-138 178 714 
-137 179 715 
-136 179 717 
-135 179 718 
-134 180 719 
-134 180 721 
-133 180 722 
-132 181 724 
-131 181 726 
-130 182 727 
-130 182 730 
-129 183 732 
-128 184 735 
-127 184 738 
-127 185 741 
-126 186 744 
-126 187 748 
-125 188 751 
-124 188 754 
-124 189 758 
-123 190 760 
-122 191 763 
-121 191 766 
-120 192 768 
-120 193 771 
-119 193 773 
-118 194 776 
-117 194 777 
-207 192 765 
-204 190 759 
-200 188 750 
-196 185 740 
-193 184 733 
-190 182 727 
-189 181 724 
-187 181 722 
-185 180 720 
-184 180 719 
-182 180 717 
-181 180 716 
-179 179 715 
-178 179 714 
-177 179 713 
-175 179 712 
-174 178 710 
-172 178 710 
-171 178 709 
-170 178 708 
-168 177 707 
-167 177 707 
-166 177 707 
-165 177 707 
-164 177 707 
-163 177 707 
-162 177 707 
-160 177 707 
-159 177 707 
-158 177 706 
-157 177 707 
-156 177 707 
-155 177 707 
-154 178 707 
-153 178 707 
-152 178 708 
-151 178 708 
-149 178 708 
-148 178 709 
-148 178 710 
-146 178 710 
-146 179 711 
-144 179 711 
-143 179 712 
-142 179 712 
-141 179 713 
-140 179 714 
-139 180 715 
-138 180 715 
-137 180 716 
-137 180 718 
-136 181 719 
-135 181 720 
-134 181 721 
-133 182 723 
-132 182 725 
-131 183 727 
-130 183 728 
-130 184 730 
-129 184 733 
-128 185 736 
-128 186 739 
-127 187 742 
-126 187 745 
-126 188 749 
-125 189 752 
-124 190 755 
-124 191 758 
-123 191 761 
-122 192 764 
-121 193 766 
-120 193 768 
-119 194 771 
-119 194 773 
-118 195 775 
-208 193 765 
-206 192 763 
-204 191 759 
-201 190 753 
-197 188 744 
-194 186 737 
-192 184 731 
-189 183 727 
-187 183 724 
-185 182 721 
-184 181 719 
-182 181 718 
-181 181 717 
-179 180 715 
-178 180 714 
-177 180 713 
-175 180 712 
-174 179 711 
-172 179 710 
-171 179 709 
-170 179 708 
-169 179 708 
-167 179 707 
-166 179 707 
-165 179 707 
-164 179 707 
-163 179 707 
-162 179 707 
-160 179 707 
-159 179 707 
-158 179 707 
-157 179 707 
-156 179 708 
-155 179 708 
-154 179 708 
-153 179 708 
-152 179 708 
-151 179 709 
-150 179 709 
-149 179 710 
-148 179 710 
-147 180 711 
-145 180 711 
-145 180 712 
-143 180 712 
-142 180 713 
-142 181 714 
-141 181 715 
-139 181 715 
-139 181 717 
-138 182 718 
-137 182 718 
-136 182 719 
-135 182 720 
-134 183 722 
-133 183 723 
-132 183 725 
-131 184 727 
-131 184 729 
-130 185 731 
-129 186 734 
-128 186 737 
-128 187 740 
-127 188 743 
-126 189 746 
-126 190 750 
-125 191 753 
-124 191 755 
-124 192 758 
-123 193 761 
-122 193 764 
-121 194 766 
-120 194 768 
-119 195 770 
-118 195 771 
-117 195 772 
-116 195 772 
-207 194 763 
-206 193 762 
-204 193 759 
-201 192 755 
-199 190 749 
-195 188 741 
-193 187 735 
-190 185 729 
-188 184 726 
-186 184 723 
-184 183 721 
-183 183 719 
-181 182 718 
-180 182 716 
-178 182 715 
-177 181 714 
-175 181 713 
-174 181 712 
-173 181 711 
-171 180 710 
-170 180 709 
-169 180 709 
-168 180 709 
-167 180 709 
-165 180 708 
-164 180 708 
-163 180 708 
-162 180 708 
-161 180 708 
-160 180 708 
-158 180 708 
-157 180 708 
-156 180 708 
-155 180 708 
-154 180 708 
-153 180 708 
-152 180 709 
-151 180 709 
-150 180 709 
-149 181 710 
-148 181 711 
-147 181 711 
-145 181 711 
-145 181 712 
-144 181 713 
-143 182 714 
-142 182 715 
-141 182 715 
-140 182 716 
-139 182 717 
-138 183 718 
-137 183 719 
-136 183 720 
-135 184 722 
-134 184 723 
-133 185 725 
-132 185 727 
-131 185 728 
-131 186 730 
-130 187 733 
-129 187 735 
-129 188 738 
-128 189 741 
-127 189 744 
-127 190 747 
-126 191 750 
-125 192 753 
-124 193 756 
-124 193 759 
-123 194 762 
-122 195 765 
-121 196 768 
-120 196 769 
-119 196 770 
-118 196 771 
-117 197 772 
-207 195 763 
-206 195 762 
-204 194 760 
-202 193 756 
-199 192 751 
-196 190 745 
-193 188 738 
-191 187 732 
-188 186 728 
-186 185 725 
-185 184 722 
-183 184 721 
-182 184 719 
-180 183 718 
-178 183 716 
-177 183 715 
-176 182 714 
-174 182 712 
-173 182 711 
-172 182 711 
-170 182 710 
-169 181 709 
-168 181 709 
-167 181 709 
-165 181 709 
-164 181 709 
-163 181 709 
-162 181 709 
-161 181 709 
-160 181 709 
-159 181 709 
-158 181 709 
-156 181 709 
-155 181 709 
-154 181 709 
-153 181 709 
-152 182 710 
-151 182 710 
-150 182 710 
-149 182 711 
-148 182 712 
-147 182 712 
-146 182 712 
-145 183 713 
-144 183 714 
-143 183 714 
-142 183 715 
-141 183 716 
-140 184 717 
-139 184 718 
-138 184 719 
-137 184 720 
-136 185 721 
-135 185 723 
-134 185 724 
-133 186 726 
-133 186 728 
-132 187 730 
-131 187 731 
-130 188 734 
-129 189 736 
-129 189 739 
-128 190 742 
-127 191 745 
-127 192 748 
-126 192 751 
-125 193 754 
-125 194 757 
-124 195 759 
-123 196 763 
-122 196 765 
-121 197 768 
-120 197 769 
-119 197 770 
-118 198 771 
-117 198 772 
-208 196 763 
-207 196 763 
-206 196 762 
-204 196 761 
-202 195 758 
-200 193 753 
-197 192 748 
-194 190 741 
-191 189 735 
-189 188 731 
-187 187 727 
-185 186 724 
-183 186 722 
-182 185 720 
-180 185 719 
-179 184 717 
-177 184 716 
-176 184 714 
-174 183 713 
-173 183 712 
-172 183 711 
-170 183 711 
-169 183 710 
-168 182 709 
-167 182 709 
-165 182 709 
-164 182 709 
-163 182 709 
-162 182 709 
-161 182 709 
-160 182 709 
-159 182 709 
-158 182 709 
-156 183 709 
-155 183 709 
-154 183 710 
-153 183 710 
-152 183 710 
-151 183 711 
-150 183 711 
-149 183 711 
-148 183 712 
-147 184 713 
-146 184 713 
-145 184 714 
-144 184 714 
-143 184 715 
-142 184 716 
-141 185 717 
-140 185 718 
-139 185 719 
-138 186 720 
-137 186 721 
-136 186 722 
-135 186 723 
-134 187 725 
-133 187 726 
-133 188 728 
-132 188 730 
-131 189 732 
-130 189 735 
-130 190 738 
-129 191 740 
-128 192 743 
-128 192 746 
-127 193 748 
-126 194 752 
-125 194 754 
-125 195 757 
-124 196 760 
-123 197 763 
-122 198 766 
-121 198 768 
-121 199 770 
-119 199 770 
-118 199 771 
-117 199 772 
-208 197 762 
-207 197 762 
-206 197 762 
-204 196 760 
-202 196 758 
-200 195 755 
-198 194 750 
-195 192 743 
-192 190 736 
-189 189 732 
-187 188 728 
-185 188 725 
-184 187 723 
-182 187 721 
-180 186 719 
-179 186 718 
-177 185 716 
-176 185 715 
-174 185 713 
-173 185 713 
-172 184 712 
-170 184 711 
-169 184 710 
-168 184 710 
-167 184 710 
-166 184 710 
-165 184 710 
-163 184 710 
-162 184 710 
-161 184 710 
-160 184 710 
-159 184 710 
-158 184 710 
-157 184 710 
-155 184 710 
-154 184 710 
-153 184 711 
-152 184 712 
-151 184 712 
-150 184 712 
-149 184 712 
-148 185 713 
-147 185 714 
-146 185 714 
-145 185 714 
-144 185 715 
-143 186 716 
-142 186 717 
-141 186 718 
-140 186 719 
-139 187 720 
-138 187 721 
-137 187 722 
-136 187 723 
-135 188 724 
-135 188 726 
-134 189 728 
-133 189 729 
-132 190 731 
-131 190 734 
-131 191 737 
-130 192 739 
-129 192 741 
-128 193 744 
-128 194 747 
-127 194 749 
-126 195 752 
-125 196 755 
-125 197 758 
-124 197 761 
-123 198 764 
-123 199 767 
-122 200 769 
-121 200 770 
-119 200 771 
-118 200 771 
-117 200 771 
-208 198 762 
-207 198 761 
-205 198 761 
-204 198 760 
-202 197 758 
-200 196 755 
-198 195 751 
-195 194 745 
-192 192 738 
-190 191 734 
-188 190 730 
-186 189 727 
-184 188 724 
-182 188 722 
-181 188 721 
-179 187 719 
-178 187 718 
-176 186 716 
-175 186 715 
-173 186 714 
-172 186 713 
-171 185 712 
-169 185 711 
-168 185 710 
-167 185 710 
-166 185 710 
-165 185 710 
-163 185 710 
-162 185 711 
-161 185 711 
-160 185 711 
-159 185 711 
-158 185 711 
-157 185 711 
-156 185 711 
-155 185 711 
-154 186 712 
-152 186 712 
-152 186 713 
-150 186 713 
-149 186 713 
-148 186 713 
-147 186 714 
-146 186 715 
-145 186 715 
-144 187 716 
-143 187 717 
-142 187 718 
-141 188 719 
-140 188 720 
-139 188 721 
-138 188 722 
-137 189 723 
-137 189 724 
-136 189 725 
-135 190 727 
-134 190 728 
-133 190 730 
-132 191 732 
-132 192 735 
-131 192 737 
-130 193 740 
-129 194 742 
-129 194 745 
-128 195 747 
-127 196 750 
-126 197 753 
-126 197 756 
-125 198 758 
-124 199 761 
-123 199 764 
-123 200 767 
-121 201 768 
-120 201 769 
-119 201 769 
-118 201 770 
-117 201 771 
-207 199 760 
-206 199 760 
-205 199 759 
-203 198 758 
-202 198 756 
-200 197 754 
-198 197 751 
-195 195 745 
-192 193 739 
-190 192 735 
-188 192 732 
-186 191 729 
-184 190 726 
-183 190 724 
-181 189 723 
-180 189 721 
-178 188 719 
-176 188 717 
-175 188 716 
-174 187 715 
-172 187 714 
-171 187 713 
-169 187 712 
-168 187 712 
-167 186 711 
-166 186 711 
-165 186 711 
-164 186 711 
-162 186 711 
-161 186 711 
-160 186 711 
-159 186 711 
-158 186 711 
-157 187 712 
-156 187 712 
-155 187 712 
-154 187 713 
-153 187 713 
-152 187 714 
-151 187 714 
-149 187 714 
-148 187 714 
-147 188 715 
-146 188 715 
-145 188 715 
-144 188 717 
-143 188 718 
-142 189 719 
-141 189 719 
-141 189 721 
-140 189 722 
-139 190 723 
-138 190 724 
-137 190 725 
-136 191 726 
-135 191 728 
-134 191 729 
-133 192 731 
-133 193 734 
-132 193 736 
-131 194 739 
-130 195 741 
-129 195 743 
-129 196 746 
-128 196 748 
-127 197 751 
-126 198 754 
-126 199 756 
-125 199 759 
-124 200 762 
-123 201 765 
-123 201 767 
-122 202 769 
-121 202 770 
-119 202 770 
-118 203 771 
-117 203 772 
-208 200 759 
-207 200 759 
-206 200 758 
-204 199 757 
-203 199 756 
-201 199 755 
-200 198 753 
-198 198 750 
-195 196 746 
-193 195 741 
-191 194 738 
-189 193 734 
-187 193 731 
-185 192 728 
-183 191 726 
-182 191 724 
-180 190 722 
-178 190 720 
-177 189 719 
-175 189 717 
-174 189 716 
-172 188 715 
-171 188 714 
-170 188 714 
-169 188 713 
-167 188 712 
-166 188 712 
-165 188 712 
-164 188 712 
-163 188 712 
-162 188 712 
-160 188 712 
-159 188 712 
-158 188 712 
-157 188 713 
-156 188 713 
-155 188 713 
-154 188 714 
-153 189 715 
-152 189 715 
-151 189 715 
-150 189 716 
-149 189 716 
-148 189 716 
-146 189 716 
-146 189 717 
-145 190 718 
-144 190 719 
-143 190 720 
-142 190 721 
-141 191 722 
-140 191 723 
-139 191 724 
-138 191 725 
-137 192 726 
-136 192 728 
-135 193 729 
-134 193 731 
-134 194 733 
-133 194 735 
-132 195 738 
-131 195 740 
-130 196 742 
-130 197 744 
-129 197 747 
-128 198 750 
-127 199 752 
-126 199 754 
-126 200 757 
-125 201 759 
-124 201 762 
-123 202 764 
-122 202 766 
-121 203 768 
-120 203 769 
-119 204 770 
-118 204 771 
-117 204 772 
-209 201 758 
-208 201 758 
-207 200 757 
-205 200 757 
-204 200 755 
-202 200 754 
-201 199 753 
-199 199 752 
-198 199 750 
-196 198 747 
-194 197 744 
-192 196 741 
-190 196 738 
-188 195 734 
-186 194 731 
-184 193 728 
-182 192 726 
-180 192 723 
-179 191 722 
-177 191 720 
-176 191 719 
-174 190 717 
-173 190 716 
-172 190 716 
-170 190 715 
-169 189 714 
-168 189 714 
-166 189 713 
-165 189 713 
-164 189 713 
-163 189 713 
-162 189 713 
-161 189 713 
-159 189 713 
-158 189 713 
-157 189 713 
-156 189 714 
-155 189 714 
-154 190 714 
-153 190 715 
-152 190 716 
-151 190 716 
-150 190 716 
-149 190 717 
-148 190 717 
-147 190 717 
-146 191 718 
-145 191 719 
-144 191 720 
-143 191 721 
-142 192 722 
-141 192 723 
-140 192 724 
-139 193 725 
-138 193 726 
-137 193 728 
-136 194 729 
-135 194 730 
-134 194 732 
-134 195 734 
-133 196 736 
-132 196 739 
-132 197 742 
-131 198 744 
-130 198 746 
-129 199 748 
-128 200 751 
-127 200 753 
-127 201 755 
-126 201 756 
-125 202 759 
-124 202 761 
-123 203 763 
-122 203 764 
-121 203 765 
-120 204 766 
-119 204 767 
-118 204 768 
-117 205 769 
-208 201 755 
-207 201 755 
-206 201 755 
-205 201 754 
-203 201 753 
-202 200 752 
-200 200 752 
-199 200 750 
-197 200 749 
-196 199 748 
-194 199 747 
-192 198 744 
-191 198 741 
-188 196 737 
-186 196 734 
-184 195 731 
-183 194 729 
-181 194 726 
-179 193 724 
-178 193 722 
-176 192 721 
-175 192 719 
-173 192 718 
-172 191 717 
-170 191 716 
-169 191 716 
-168 191 716 
-167 191 715 
-166 191 715 
-164 191 715 
-163 191 714 
-162 191 715 
-161 191 715 
-160 191 714 
-159 191 715 
-158 191 715 
-156 191 715 
-155 191 715 
-154 191 715 
-153 191 716 
-152 191 716 
-151 191 716 
-150 191 717 
-149 191 717 
-148 192 718 
-147 192 718 
-146 192 719 
-145 192 720 
-144 193 721 
-143 193 722 
-142 193 723 
-141 193 724 
-140 194 725 
-139 194 727 
-138 195 728 
-137 195 729 
-136 195 730 
-136 196 732 
-135 196 734 
-134 197 736 
-133 197 738 
-132 198 740 
-132 199 743 
-131 199 745 
-130 200 748 
-129 201 750 
-129 201 752 
-128 202 754 
-127 202 756 
-126 203 758 
-125 203 759 
-124 204 761 
-123 204 763 
-122 204 763 
-121 204 764 
-120 205 765 
-118 205 765 
-117 205 766 
-208 202 755 
-207 202 755 
-206 202 754 
-205 202 754 
-203 202 753 
-202 202 752 
-200 202 752 
-199 201 751 
-198 201 751 
-196 201 750 
-195 201 749 
-193 200 747 
-192 200 745 
-189 199 741 
-187 198 738 
-185 197 735 
-184 196 732 
-182 196 729 
-180 195 726 
-178 194 724 
-177 194 723 
-175 193 721 
-174 193 720 
-172 193 719 
-171 193 718 
-169 192 717 
-168 192 717 
-167 192 716 
-166 192 716 
-165 192 716 
-164 192 716 
-162 192 715 
-161 192 716 
-160 192 715 
-159 192 716 
-158 192 716 
-157 192 716 
-156 192 716 
-155 193 717 
-153 193 717 
-152 193 717 
-151 193 717 
-150 193 718 
-149 193 718 
-148 193 719 
-147 193 720 
-146 193 720 
-145 194 721 
-144 194 722 
-143 194 723 
-142 195 725 
-141 195 725 
-141 195 727 
-140 196 728 
-139 196 729 
-138 196 730 
-137 197 732 
-136 197 733 
-135 198 735 
-134 198 737 
-134 199 740 
-133 200 742 
-132 200 745 
-131 201 747 
-130 201 749 
-130 202 752 
-129 203 754 
-128 203 756 
-127 204 757 
-126 204 758 
-125 204 759 
-124 205 761 
-123 205 762 
-122 205 762 
-121 205 763 
-120 206 764 
-118 206 764 
-117 206 765 
-208 204 755 
-207 204 755 
-206 203 754 
-205 203 754 
-203 203 753 
-202 203 753 
-201 203 753 
-200 203 753 
-198 203 752 
-197 203 751 
-195 203 751 
-194 203 751 
-193 202 749 
-191 201 746 
-189 200 743 
-187 200 740 
-185 199 737 
-183 198 733 
-181 197 730 
-179 196 727 
-177 196 725 
-176 195 723 
-174 195 722 
-173 195 721 
-171 194 720 
-170 194 719 
-169 194 719 
-167 194 718 
-166 194 717 
-165 194 717 
-164 194 718 
-163 194 717 
-161 194 717 
-160 194 717 
-159 194 717 
-158 194 717 
-157 194 717 
-156 194 717 
-155 194 717 
-153 194 717 
-153 194 718 
-151 194 718 
-150 194 718 
-149 194 719 
-148 195 720 
-147 195 721 
-146 195 721 
-145 195 722 
-144 195 723 
-143 196 724 
-142 196 725 
-141 196 726 
-141 197 727 
-140 197 729 
-139 197 730 
-138 198 731 
-137 198 733 
-136 199 734 
-135 199 737 
-135 200 739 
-134 200 741 
-133 201 744 
-132 202 746 
-132 203 749 
-131 203 751 
-130 204 753 
-129 204 755 
-128 205 756 
-127 205 758 
-126 205 758 
-125 205 759 
-124 206 760 
-123 206 761 
-121 206 761 
-120 206 761 
-119 206 762 
-118 206 762 
-117 207 763 
-209 205 756 
-207 205 755 
-206 204 754 
-205 204 754 
-203 204 754 
-202 205 754 
-201 205 754 
-200 204 753 
-198 204 753 
-197 204 753 
-196 204 753 
-194 204 752 
-193 204 751 
-191 203 749 
-190 203 747 
-188 202 745 
-186 201 742 
-184 200 738 
-182 199 734 
-180 198 731 
-178 198 729 
-176 197 726 
-175 197 724 
-173 196 723 
-172 196 722 
-170 196 721 
-169 196 720 
-168 196 720 
-167 196 720 
-165 195 719 
-164 195 719 
-163 195 718 
-162 195 718 
-161 195 718 
-159 195 718 
-158 195 718 
-157 195 718 
-156 195 718 
-155 195 718 
-154 195 718 
-153 195 718 
-152 195 719 
-150 195 719 
-150 196 720 
-149 196 721 
-148 196 722 
-146 196 722 
-146 197 723 
-145 197 724 
-144 197 725 
-143 197 726 
-142 198 727 
-141 198 728 
-140 199 730 
-139 199 731 
-138 199 733 
-137 200 735 
-136 200 736 
-136 201 739 
-135 202 741 
-134 202 743 
-133 203 746 
-133 204 748 
-132 204 750 
-131 205 752 
-130 205 754 
-129 205 755 
-128 206 757 
-127 206 757 
-126 206 758 
-125 207 759 
-124 207 759 
-123 207 760 
-121 207 760 
-120 207 760 
-119 207 761 
-118 207 761 
-117 207 761 
-208 206 755 
-207 206 755 
-206 206 755 
-205 206 754 
-203 206 754 
-202 206 754 
-201 206 754 
-200 206 754 
-199 206 754 
-197 206 754 
-196 206 754 
-195 206 753 
-193 205 752 
-192 205 751 
-190 205 750 
-189 204 748 
-187 204 746 
-185 203 743 
-183 202 739 
-181 201 736 
-179 200 733 
-177 199 730 
-176 199 728 
-174 198 726 
-172 198 724 
-171 197 723 
-170 198 723 
-168 197 722 
-167 197 722 
-166 197 721 
-164 197 720 
-163 197 720 
-162 197 720 
-161 196 719 
-160 197 719 
-158 197 719 
-157 197 719 
-156 197 720 
-155 197 720 
-154 197 720 
-153 197 720 
-152 197 720 
-151 197 721 
-150 197 721 
-149 197 722 
-148 198 723 
-147 198 724 
-146 198 725 
-145 198 725 
-144 199 726 
-143 199 727 
-142 199 729 
-141 200 730 
-140 200 731 
-139 201 733 
-139 201 735 
-138 202 737 
-137 202 738 
-136 203 740 
-135 203 743 
-134 204 745 
-134 205 748 
-133 205 750 
-132 206 752 
-131 206 754 
-130 207 755 
-129 207 756 
-128 207 757 
-127 207 757 
-126 208 758 
-125 208 758 
-124 208 759 
-122 208 759 
-121 208 759 
-120 208 759 
-119 208 760 
-118 208 760 
-117 208 761 
-208 207 755 
-207 207 755 
-206 207 754 
-205 207 754 
-203 207 754 
-202 207 754 
-201 207 754 
-200 207 754 
-199 207 754 
-197 207 754 
-196 207 754 
-195 207 753 
-194 207 753 
-192 206 752 
-191 206 751 
-189 206 750 
-187 205 748 
-186 205 746 
-184 204 743 
-182 203 740 
-180 202 737 
-178 202 734 
-176 201 731 
-175 200 729 
-173 200 727 
-172 199 726 
-170 199 725 
-169 199 724 
-167 199 723 
-166 198 722 
-165 198 722 
-164 198 722 
-162 198 721 
-161 198 721 
-160 198 721 
-159 198 721 
-158 198 721 
-157 198 721 
-155 198 721 
-154 198 721 
-153 198 721 
-152 198 721 
-151 199 722 
-150 199 722 
-149 199 723 
-148 199 724 
-147 199 724 
-146 200 726 
-145 200 726 
-144 200 727 
-143 200 728 
-142 201 730 
-141 201 731 
-140 202 733 
-139 202 734 
-139 203 736 
-138 203 738 
-137 204 740 
-136 204 742 
-136 205 745 
-135 206 747 
-134 206 749 
-133 207 752 
-132 207 753 
-131 208 755 
-130 208 756 
-129 208 757 
-128 209 758 
-127 209 758 
-126 209 759 
-125 209 759 
-124 209 759 
-123 209 760 
-121 209 760 
-120 209 760 
-119 209 760 
-118 210 761 
-117 210 762 
-209 208 754 
-208 208 754 
-207 208 754 
-205 208 753 
-204 208 753 
-203 208 753 
-202 208 753 
-201 208 753 
-200 208 754 
-199 208 754 
-197 208 754 
-196 208 754 
-195 208 753 
-194 208 753 
-192 208 752 
-191 207 751 
-189 207 751 
-188 207 749 
-186 207 748 
-185 206 746 
-183 205 743 
-181 204 740 
-179 204 738 
-177 203 735 
-175 202 732 
-173 201 729 
-172 201 728 
-171 201 727 
-169 201 726 
-168 200 725 
-166 200 724 
-165 200 724 
-164 200 724 
-163 200 723 
-161 200 722 
-160 200 722 
-159 200 722 
-158 200 722 
-157 200 722 
-156 200 722 
-155 200 723 
-154 200 723 
-152 200 723 
-151 200 724 
-150 200 724 
-149 201 725 
-148 201 726 
-147 201 726 
-146 201 727 
-145 201 728 
-144 202 729 
-143 202 730 
-143 203 732 
-142 203 733 
-141 203 735 
-140 204 736 
-139 204 738 
-138 205 740 
-137 205 742 
-137 206 744 
-136 207 747 
-135 207 749 
-134 208 751 
-133 208 753 
-133 209 755 
-131 209 755 
-130 209 756 
-129 210 757 
-128 210 757 
-127 210 758 
-126 210 759 
-125 210 759 
-124 210 759 
-123 211 760 
-121 211 760 
-120 211 761 
-119 211 761 
-118 211 761 
-117 211 762 
-209 209 754 
-208 209 754 
-207 209 754 
-205 209 753 
-204 209 753 
-203 209 753 
-202 209 753 
-201 209 753 
-199 209 753 
-199 209 754 
-197 209 754 
-196 209 754 
-195 209 753 
-193 209 753 
-192 209 752 
-191 209 751 
-189 209 751 
-188 208 750 
-187 208 749 
-185 208 748 
-183 207 746 
-181 206 743 
-180 206 741 
-178 205 738 
-176 204 735 
-174 203 732 
-173 203 731 
-171 203 729 
-170 202 728 
-168 202 727 
-167 202 726 
-166 202 726 
-164 202 725 
-163 202 725 
-162 201 724 
-161 201 724 
-160 201 724 
-158 201 724 
-157 201 724 
-156 201 724 
-155 201 724 
-154 202 725 
-153 202 725 
-152 202 726 
-151 202 726 
-150 202 726 
-149 202 727 
-148 203 728 
-147 203 729 
-146 203 730 
-145 203 731 
-144 204 732 
-143 204 734 
-142 205 735 
-141 205 737 
-140 205 738 
-139 206 740 
-139 207 742 
-138 207 744 
-137 208 746 
-136 208 748 
-135 209 750 
-134 209 752 
-133 210 753 
-132 210 754 
-131 210 755 
-130 211 756 
-129 211 757 
-128 211 757 
-127 211 758 
-126 211 758 
-125 211 759 
-124 211 759 
-123 212 760 
-121 212 761 
-120 212 761 
-119 212 761 
-118 212 761 
-117 212 762 
-210 210 753 
-209 210 753 
-208 210 753 
-207 210 753 
-205 210 752 
-204 210 751 
-203 210 752 
-202 210 752 
-200 210 752 
-199 210 752 
-198 210 752 
-197 210 752 
-196 210 752 
-194 210 752 
-193 210 752 
-192 210 751 
-190 209 750 
-189 210 750 
-188 209 749 
-187 209 749 
-185 209 748 
-184 209 747 
-182 208 745 
-180 208 743 
-179 207 741 
-177 206 738 
-175 206 736 
-173 205 734 
-172 205 732 
-170 204 731 
-169 204 730 
-168 204 729 
-166 204 728 
-165 204 728 
-164 203 727 
-162 203 726 
-161 203 726 
-160 203 726 
-159 203 726 
-158 203 726 
-156 203 726 
-155 203 726 
-154 203 726 
-153 203 727 
-152 204 728 
-151 204 728 
-150 204 728 
-149 204 729 
-148 204 730 
-147 205 731 
-146 205 732 
-145 205 733 
-144 205 734 
-143 206 736 
-142 206 737 
-142 207 739 
-141 207 740 
-140 208 742 
-139 208 744 
-138 209 746 
-137 209 747 
-137 210 750 
-135 210 751 
-134 211 752 
-134 211 754 
-132 211 754 
-131 211 755 
-130 211 755 
-129 212 756 
-128 212 757 
-127 212 758 
-126 213 759 
-125 213 759 
-124 213 759 
-123 213 760 
-121 213 761 
-120 213 761 
-119 214 762 
-118 214 762 
-117 214 763 
-210 211 751 
-208 211 751 
-207 210 750 
-206 211 750 
-205 211 750 
-203 210 749 
-202 210 749 
-201 210 749 
-200 210 749 
-199 211 750 
-197 211 750 
-196 211 750 
-195 211 750 
-194 210 749 
-192 210 749 
-191 210 749 
-190 210 748 
-189 210 748 
-187 210 747 
-186 210 747 
-185 210 747 
-184 210 747 
-182 210 746 
-181 209 745 
-179 209 743 
-177 208 741 
-176 208 739 
-174 207 737 
-172 207 735 
-171 206 734 
-170 206 733 
-168 206 732 
-167 206 731 
-165 205 730 
-164 205 730 
-163 205 729 
-162 205 729 
-161 205 729 
-159 205 728 
-158 205 729 
-157 205 729 
-156 205 729 
-155 205 729 
-154 205 729 
-153 205 730 
-152 205 730 
-151 206 731 
-149 206 731 
-148 206 732 
-148 207 734 
-147 207 735 
-146 207 735 
-145 207 737 
-144 208 739 
-143 208 740 
-142 209 741 
-141 209 742 
-140 209 744 
-139 210 746 
-138 210 747 
-137 211 748 
-136 211 750 
-136 212 752 
-135 212 753 
-134 212 754 
-132 212 754 
-131 213 755 
-130 213 755 
-129 213 755 
-128 213 757 
-127 214 758 
-126 214 759 
-125 214 759 
-124 214 760 
-123 214 761 
-122 215 762 
-120 215 762 
-119 215 763 
-118 215 763 
-117 215 764 
-210 211 748 
-209 211 748 
-208 211 748 
-206 211 748 
-205 211 747 
-204 211 747 
-202 211 746 
-201 211 746 
-200 211 746 
-199 211 746 
-198 211 746 
-197 211 747 
-195 211 747 
-194 211 747 
-193 211 746 
-192 211 746 
-190 211 746 
-189 210 745 
-188 210 745 
-187 211 746 
-185 210 745 
-185 211 746 
-183 211 746 
-182 211 746 
-181 211 746 
-180 211 745 
-178 210 743 
-176 209 741 
-175 209 739 
-173 209 738 
-172 208 737 
-170 208 736 
-169 208 735 
-168 208 734 
-166 207 733 
-165 207 733 
-164 207 732 
-162 207 732 
-161 207 732 
-160 207 731 
-159 207 731 
-158 207 731 
-157 207 732 
-155 207 732 
-154 207 732 
-153 207 733 
-152 207 732 
-151 207 733 
-150 207 733 
-149 208 735 
-148 208 736 
-147 209 737 
-146 209 737 
-145 209 739 
-144 209 740 
-143 210 742 
-142 210 743 
-141 210 743 
-140 211 745 
-139 211 746 
-139 212 748 
-137 212 749 
-137 213 751 
-136 213 752 
-135 213 753 
-134 214 754 
-133 214 755 
-131 214 755 
-130 214 755 
-129 214 755 
-128 214 756 
-127 215 758 
-126 215 758 
-125 215 759 
-124 215 760 
-123 216 762 
-122 216 762 
-121 216 763 
-119 217 764 
-118 217 764 
-117 217 764 
-211 211 744 
-210 211 745 
-209 211 745 
-208 211 745 
-207 211 745 
-205 211 744 
-204 211 744 
-203 211 743 
-201 211 742 
-200 211 742 
-199 211 742 
-198 211 743 
-197 211 743 
-196 211 744 
-195 211 744 
-193 211 744 
-192 211 744 
-191 211 743 
-190 211 743 
-189 211 743 
-187 211 743 
-186 211 743 
-185 211 744 
-184 211 744 
-183 212 745 
-182 212 745 
-181 212 745 
-179 211 744 
-178 211 743 
-176 211 742 
-175 211 741 
-174 210 740 
-172 210 740 
-171 210 739 
-170 210 738 
-168 210 738 
-167 210 737 
-166 209 736 
-164 209 735 
-163 209 735 
-162 209 734 
-161 209 734 
-159 209 734 
-158 209 733 
-157 209 734 
-156 209 734 
-155 209 734 
-154 209 735 
-153 209 735 
-151 209 735 
-150 209 736 
-149 210 737 
-148 210 738 
-147 210 739 
-146 211 740 
-145 211 741 
-145 211 742 
-144 212 743 
-143 212 744 
-142 212 745 
-141 212 746 
-140 213 747 
-139 213 748 
-137 213 749 
-136 214 750 
-136 214 752 
-134 214 752 
-133 214 753 
-132 214 753 
-131 215 754 
-130 215 754 
-129 215 754 
-128 215 756 
-127 216 757 
-126 216 758 
-125 216 759 
-124 217 760 
-123 217 762 
-122 217 762 
-121 217 763 
-119 218 764 
-118 218 764 
-117 218 764 
-211 211 740 
-210 211 740 
-209 211 741 
-208 211 741 
-207 211 741 
-206 211 741 
-204 211 740 
-203 211 740 
-202 211 739 
-200 211 739 
-199 211 738 
-198 211 738 
-197 211 739 
-196 211 740 
-195 212 741 
-194 212 741 
-193 212 742 
-192 212 741 
-190 211 740 
-189 211 740 
-188 212 741 
-187 212 741 
-186 212 742 
-185 212 743 
-184 213 744 
-183 213 744 
-182 213 745 
-181 213 745 
-179 213 744 
-178 212 743 
-177 212 743 
-175 212 742 
-174 212 741 
-173 212 741 
-171 212 740 
-170 212 740 
-169 211 739 
-167 211 739 
-166 211 738 
-165 211 738 
-164 211 738 
-162 211 737 
-161 211 737 
-160 211 736 
-159 211 736 
-157 211 736 
-156 211 736 
-155 211 736 
-154 211 737 
-153 211 737 
-152 211 737 
-151 211 738 
-150 212 740 
-149 212 741 
-148 212 741 
-147 212 741 
-146 212 742 
-145 213 744 
-144 213 744 
-143 213 745 
-142 213 745 
-141 214 746 
-140 214 747 
-138 214 748 
-137 214 749 
-136 215 750 
-135 215 751 
-134 215 751 
-133 215 751 
-132 215 752 
-131 216 753 
-130 216 753 
-129 216 754 
-128 216 755 
-127 217 756 
-126 217 757 
-125 217 759 
-124 218 760 
-123 218 761 
-122 218 762 
-120 218 762 
-119 219 763 
-118 219 764 
-117 219 764 
-210 211 737 
-209 211 737 
-208 212 738 
-207 212 738 
-206 212 738 
-205 212 738 
-203 212 737 
-202 212 737 
-201 211 736 
-200 211 736 
-198 211 736 
-197 211 736 
-196 211 736 
-195 212 737 
-194 212 738 
-193 212 739 
-192 212 739 
-191 212 738 
-189 212 737 
-188 212 738 
-187 212 739 
-186 212 739 
-186 213 741 
-185 213 742 
-184 214 744 
-183 214 745 
-182 214 745 
-181 214 745 
-179 214 744 
-178 214 744 
-177 214 744 
-175 214 743 
-174 213 742 
-173 213 741 
-171 213 741 
-170 213 740 
-169 213 740 
-168 213 740 
-167 213 740 
-165 213 740 
-164 213 739 
-163 213 739 
-162 213 739 
-160 212 738 
-159 212 738 
-158 212 738 
-157 212 738 
-155 212 738 
-155 213 739 
-153 213 739 
-152 213 739 
-151 213 740 
-150 213 740 
-149 213 741 
-148 214 742 
-147 214 742 
-146 214 743 
-145 214 744 
-144 214 745 
-143 214 745 
-141 214 745 
-140 215 746 
-139 215 747 
-138 215 748 
-137 215 748 
-136 216 749 
-135 216 750 
-134 216 750 
-133 216 750 
-132 216 751 
-131 216 751 
-130 217 752 
-129 217 753 
-128 217 754 
-126 218 755 
-125 218 756 
-125 218 758 
-124 219 759 
-122 219 760 
-121 219 761 
-120 219 761 
-119 220 762 
-118 220 763 
-117 220 764 
-212 212 734 
-211 212 735 
-209 212 734 
-209 212 735 
-207 212 735 
-206 212 735 
-205 212 736 
-204 212 736 
-203 212 735 
-202 212 735 
-200 212 734 
-199 212 734 
-198 212 734 
-197 212 734 
-196 212 734 
-195 212 735 
-194 213 736 
-193 213 737 
-192 213 737 
-190 213 737 
-189 213 736 
-188 213 736 
-187 213 737 
-186 213 738 
-185 213 739 
-184 214 741 
-184 215 743 
-183 215 744 
-182 215 744 
-180 215 744 
-179 215 744 
-178 215 744 
-177 215 744 
-175 215 743 
-174 214 742 
-173 214 742 
-172 214 742 
-170 214 741 
-169 214 741 
-168 214 741 
-167 214 741 
-166 214 741 
-164 214 740 
-163 214 740 
-162 214 740 
-161 214 740 
-159 214 740 
-158 214 740 
-157 214 740 
-156 214 740 
-155 214 740 
-154 214 740 
-152 214 740 
-151 214 741 
-150 214 741 
-149 215 742 
-148 215 742 
-147 215 742 
-146 215 743 
-145 215 744 
-144 216 745 
-143 216 745 
-141 216 745 
-140 216 746 
-139 216 747 
-138 216 747 
-137 217 748 
-136 217 748 
-135 217 749 
-134 217 749 
-133 217 749 
-132 217 750 
-131 218 751 
-129 218 751 
-128 218 752 
-127 218 753 
-126 218 754 
-125 219 755 
-124 219 757 
-123 220 758 
-122 220 759 
-121 220 760 
-120 220 760 
-119 221 761 
-118 221 762 
-117 221 763 
-212 212 732 
-211 212 732 
-210 212 732 
-209 212 731 
-208 212 732 
-207 212 732 
-205 212 732 
-205 213 733 
-204 213 734 
-202 213 734 
-201 213 734 
-200 213 733 
-199 213 733 
-198 213 733 
-196 212 732 
-195 212 732 
-194 213 733 
-193 213 734 
-192 213 735 
-191 213 735 
-190 213 735 
-189 214 736 
-188 214 736 
-187 214 737 
-186 214 738 
-185 215 739 
-184 215 741 
-183 216 742 
-183 216 744 
-182 216 744 
-180 216 743 
-179 216 743 
-178 216 743 
-177 216 743 
-175 216 742 
-174 216 742 
-173 216 742 
-172 216 742 
-170 215 741 
-169 215 741 
-168 215 741 
-167 215 741 
-166 215 741 
-164 215 741 
-163 215 741 
-162 215 741 
-161 215 741 
-160 216 741 
-158 216 741 
-157 216 741 
-156 216 741 
-155 216 741 
-154 216 741 
-153 216 741 
-152 216 742 
-150 216 742 
-149 216 742 
-148 216 743 
-147 216 743 
-146 216 743 
-145 217 744 
-144 217 744 
-143 217 745 
-141 217 745 
-140 217 746 
-139 217 746 
-138 217 747 
-137 217 747 
-136 218 748 
-135 218 748 
-134 218 749 
-133 218 749 
-131 218 749 
-130 218 750 
-129 219 751 
-128 219 751 
-127 219 752 
-126 220 754 
-125 220 754 
-124 221 757 
-123 221 758 
-122 221 758 
-121 221 759 
-120 221 759 
-119 221 760 
-118 222 761 
-212 213 730 
-211 213 730 
-209 213 730 
-208 213 730 
-207 213 731 
-206 213 731 
-205 213 731 
-204 214 732 
-203 214 732 
-202 214 732 
-201 214 732 
-199 213 731 
-198 213 731 
-197 213 731 
-196 213 730 
-195 213 731 
-194 213 731 
-193 214 732 
-192 214 733 
-191 214 733 
-190 214 734 
-189 215 735 
-188 215 736 
-187 215 738 
-186 216 739 
-185 216 739 
-184 216 741 
-183 217 742 
-183 217 743 
-181 217 743 
-180 217 743 
-179 217 742 
-178 217 742 
-176 217 742 
-175 217 741 
-174 217 741 
-173 217 741 
-171 217 741 
-170 216 740 
-169 216 740 
-168 216 740 
-166 216 740 
-166 217 741 
-164 217 741 
-163 216 740 
-162 216 740 
-161 216 740 
-160 217 741 
-158 217 741 
-157 217 741 
-156 217 741 
-155 217 741 
-154 217 741 
-153 217 741 
-151 217 741 
-150 217 741 
-149 217 742 
-148 217 742 
-147 217 742 
-146 217 743 
-145 218 744 
-144 218 745 
-143 218 745 
-141 218 745 
-140 218 746 
-139 218 746 
-138 218 746 
-137 219 747 
-136 219 747 
-135 219 747 
