ply
format ascii 1.0
comment VCGLIB generated
element vertex 3954
property float x
property float y
property float z
element face 0
property list uchar int vertex_indices
end_header
-34 67 747 
-33 67 747 
-32 67 747 
-31 67 747 
-29 67 747 
-28 67 747 
-27 67 747 
-26 67 746 
-24 67 745 
-23 66 742 
-22 66 738 
-20 66 735 
-19 66 733 
-18 65 731 
-17 65 730 
-16 65 729 
-14 65 729 
-13 65 728 
-12 65 728 
-11 65 728 
-10 65 729 
-8 65 729 
-7 65 729 
-6 65 729 
-5 65 730 
-4 65 731 
-3 65 732 
-1 65 732 
0 66 733 
1 66 734 
2 66 735 
3 66 736 
5 66 738 
6 66 739 
7 66 742 
-63 68 745 
-62 67 742 
-60 67 740 
-59 67 740 
-58 67 739 
-57 67 739 
-55 67 738 
-54 67 738 
-53 67 737 
-52 67 737 
-50 67 736 
-49 67 737 
-48 67 737 
-47 67 737 
-46 67 738 
-45 67 739 
-43 67 740 
-42 67 741 
-41 68 742 
-40 68 743 
-39 68 744 
-38 68 745 
-37 68 746 
-35 68 746 
-34 68 747 
-33 68 747 
-32 68 747 
-31 68 747 
-29 68 747 
-28 68 747 
-27 68 746 
-26 68 745 
-24 68 744 
-23 67 741 
-22 67 737 
-20 67 734 
-19 67 732 
-18 66 730 
-17 66 728 
-16 66 728 
-14 66 727 
-13 66 727 
-12 66 727 
-11 66 727 
-10 66 728 
-8 66 728 
-7 66 728 
-6 66 728 
-5 66 729 
-4 66 730 
-3 67 731 
-1 67 732 
0 67 733 
1 67 734 
2 67 735 
3 67 736 
5 67 738 
6 67 739 
7 67 741 
8 68 744 
-63 69 742 
-61 69 740 
-60 68 739 
-59 68 738 
-58 68 737 
-56 68 737 
-55 68 736 
-54 68 736 
-53 68 736 
-51 68 735 
-50 68 734 
-49 68 735 
-48 68 735 
-47 68 736 
-46 68 737 
-44 68 737 
-43 68 738 
-42 68 739 
-41 69 740 
-40 69 742 
-39 69 743 
-38 69 744 
-36 69 745 
-35 69 745 
-34 69 746 
-33 69 747 
-32 69 747 
-31 69 747 
-29 69 747 
-28 69 747 
-27 69 746 
-26 69 744 
-24 69 743 
-23 68 739 
-22 68 735 
-20 68 732 
-19 68 730 
-18 67 728 
-17 67 727 
-15 67 726 
-14 67 726 
-13 67 726 
-12 67 726 
-11 67 726 
-10 67 727 
-8 67 727 
-7 67 728 
-6 67 728 
-5 68 729 
-4 68 730 
-3 68 730 
-1 68 732 
0 68 732 
1 68 733 
2 68 734 
3 68 735 
5 68 737 
6 68 738 
7 69 740 
8 69 743 
10 69 744 
-64 70 743 
-63 70 740 
-61 70 738 
-60 69 737 
-59 69 736 
-57 69 735 
-56 69 735 
-55 69 734 
-54 69 734 
-53 69 734 
-51 69 733 
-50 69 732 
-49 69 733 
-48 69 733 
-47 69 733 
-45 69 734 
-44 69 735 
-43 69 736 
-42 69 737 
-41 70 739 
-40 70 740 
-39 70 741 
-38 70 742 
-36 70 744 
-35 70 744 
-34 70 745 
-33 70 746 
-32 70 746 
-31 70 747 
-29 70 747 
-28 70 746 
-27 70 745 
-26 70 743 
-24 70 741 
-23 69 736 
-22 69 732 
-20 69 730 
-19 69 728 
-18 68 726 
-17 68 726 
-15 68 726 
-14 68 726 
-13 68 725 
-12 68 725 
-11 68 725 
-10 68 726 
-8 68 726 
-7 68 726 
-6 69 727 
-5 69 728 
-4 69 729 
-3 69 729 
-1 69 730 
0 69 731 
1 69 732 
2 69 733 
3 69 734 
5 69 736 
6 70 738 
7 70 740 
8 70 742 
10 70 745 
-65 71 744 
-64 71 742 
-62 71 738 
-61 71 737 
-60 70 735 
-59 70 735 
-57 70 734 
-56 70 733 
-55 70 733 
-54 70 732 
-52 70 732 
-51 70 732 
-50 70 731 
-49 70 731 
-48 70 731 
-46 70 731 
-45 70 731 
-44 70 731 
-43 70 733 
-42 70 734 
-41 71 736 
-40 71 737 
-39 71 739 
-37 71 740 
-36 71 741 
-35 71 742 
-34 71 743 
-33 71 744 
-32 71 744 
-30 71 744 
-29 71 744 
-28 71 744 
-27 71 742 
-25 71 740 
-24 71 737 
-23 70 733 
-22 70 730 
-20 70 727 
-19 70 726 
-18 70 725 
-17 70 725 
-15 70 725 
-14 70 725 
-13 70 725 
-12 70 725 
-11 70 725 
-10 70 725 
-8 70 725 
-7 70 725 
-6 70 726 
-5 70 726 
-4 70 728 
-3 70 728 
-1 70 729 
0 70 730 
1 70 732 
2 70 733 
3 70 734 
5 71 736 
6 71 738 
7 71 740 
8 71 742 
10 71 745 
11 72 752 
-65 72 743 
-64 72 740 
-62 72 737 
-61 72 736 
-60 72 734 
-58 71 733 
-57 71 733 
-56 71 732 
-55 71 732 
-54 71 731 
-52 71 731 
-51 71 730 
-50 71 730 
-49 71 730 
-48 71 730 
-46 71 730 
-45 71 729 
-44 71 729 
-43 71 730 
-42 71 731 
-41 71 732 
-39 71 733 
-38 72 735 
-37 72 736 
-36 72 738 
-35 72 738 
-34 72 739 
-33 72 740 
-31 72 741 
-30 72 741 
-29 72 740 
-28 72 740 
-27 72 738 
-25 72 736 
-24 72 734 
-23 71 730 
-21 71 727 
-20 71 726 
-19 71 725 
-18 71 724 
-17 71 724 
-15 71 724 
-14 71 724 
-13 71 724 
-12 71 724 
-11 71 724 
-10 71 724 
-8 71 724 
-7 71 724 
-6 71 725 
-5 71 726 
-4 71 727 
-3 71 728 
-1 71 728 
0 71 730 
1 71 731 
2 71 733 
3 72 734 
5 72 736 
6 72 738 
7 72 740 
8 72 742 
10 73 745 
11 73 751 
-65 74 742 
-64 73 739 
-62 73 736 
-61 73 735 
-60 73 733 
-58 73 732 
-57 72 731 
-56 72 731 
-55 72 730 
-54 72 730 
-52 72 729 
-51 72 729 
-50 72 728 
-49 72 728 
-47 72 728 
-46 72 727 
-45 72 727 
-44 72 727 
-43 72 727 
-42 72 728 
-40 72 729 
-39 72 730 
-38 72 731 
-37 73 732 
-36 73 734 
-35 73 734 
-34 73 735 
-32 73 736 
-31 73 736 
-30 73 736 
-29 73 735 
-28 73 734 
-26 73 733 
-25 72 731 
-24 72 729 
-23 72 727 
-21 72 725 
-20 72 724 
-19 72 723 
-18 72 723 
-17 72 723 
-15 72 723 
-14 72 723 
-13 72 723 
-12 72 723 
-11 72 723 
-10 72 723 
-8 72 724 
-7 72 724 
-6 72 725 
-5 72 726 
-4 72 727 
-3 72 727 
-1 72 728 
0 72 730 
1 72 731 
2 73 732 
3 73 733 
5 73 735 
6 73 737 
7 73 739 
8 74 742 
10 74 745 
11 74 750 
-65 75 742 
-64 74 738 
-62 74 735 
-61 74 734 
-60 74 732 
-58 74 731 
-57 74 730 
-56 73 729 
-55 73 728 
-53 73 728 
-52 73 728 
-51 73 727 
-50 73 726 
-49 73 726 
-47 73 726 
-46 73 726 
-45 73 725 
-44 73 725 
-43 73 725 
-41 73 726 
-40 73 726 
-39 73 726 
-38 73 727 
-37 73 728 
-36 73 729 
-35 74 730 
-33 74 730 
-32 74 731 
-31 74 731 
-30 74 730 
-29 74 730 
-27 73 729 
-26 73 727 
-25 73 726 
-24 73 725 
-22 73 724 
-21 73 723 
-20 73 722 
-19 73 722 
-18 73 722 
-17 73 722 
-15 73 722 
-14 73 722 
-13 73 722 
-12 73 722 
-11 73 723 
-10 73 723 
-8 73 723 
-7 73 724 
-6 73 724 
-5 73 725 
-4 73 726 
-3 73 727 
-1 73 728 
0 73 729 
1 74 730 
2 74 731 
3 74 733 
5 74 735 
6 74 737 
7 74 739 
8 75 742 
10 75 744 
11 75 749 
-67 76 747 
-65 76 742 
-64 75 737 
-62 75 734 
-61 75 733 
-60 75 731 
-58 75 730 
-57 75 729 
-56 74 728 
-54 74 727 
-53 74 726 
-52 74 726 
-51 74 726 
-50 74 725 
-48 74 725 
-47 74 725 
-46 74 725 
-45 74 725 
-44 74 724 
-42 74 724 
-41 74 724 
-40 74 724 
-39 74 724 
-38 74 724 
-37 74 725 
-35 74 725 
-34 74 726 
-33 74 726 
-32 74 726 
-31 74 726 
-30 74 726 
-28 74 726 
-27 74 725 
-26 74 724 
-25 74 724 
-24 74 723 
-22 74 722 
-21 74 721 
-20 74 721 
-19 74 721 
-18 74 721 
-17 74 721 
-15 74 721 
-14 74 721 
-13 74 721 
-12 74 722 
-11 74 722 
-10 74 723 
-8 74 723 
-7 74 723 
-6 74 724 
-5 74 725 
-4 74 726 
-3 74 727 
-1 75 728 
0 75 729 
1 75 730 
2 75 731 
3 75 732 
5 75 735 
6 75 736 
7 76 739 
8 76 741 
10 76 744 
11 77 748 
-67 78 746 
-65 77 741 
-64 77 737 
-62 76 734 
-61 76 732 
-59 76 730 
-58 76 729 
-57 76 728 
-56 76 728 
-54 76 727 
-53 75 726 
-52 75 725 
-51 75 725 
-50 75 724 
-48 75 723 
-47 75 723 
-46 75 723 
-45 75 723 
-44 75 723 
-42 75 723 
-41 75 723 
-40 75 722 
-39 75 722 
-38 75 722 
-37 75 723 
-35 75 723 
-34 75 723 
-33 75 723 
-32 75 723 
-31 75 722 
-29 75 722 
-28 75 722 
-27 75 722 
-26 75 721 
-25 75 721 
-24 75 721 
-22 75 721 
-21 75 720 
-20 75 720 
-19 75 720 
-18 75 720 
-17 75 720 
-15 75 720 
-14 75 720 
-13 75 721 
-12 75 721 
-11 75 722 
-10 75 722 
-8 75 722 
-7 75 723 
-6 75 724 
-5 75 725 
-4 76 726 
-3 76 727 
-1 76 728 
0 76 729 
1 76 730 
2 76 732 
3 76 733 
5 76 735 
6 77 736 
7 77 739 
8 77 741 
10 77 744 
11 78 748 
12 78 753 
-67 79 745 
-65 78 741 
-63 78 736 
-62 77 734 
-61 77 732 
-59 77 730 
-58 77 729 
-57 77 728 
-56 77 727 
-54 77 726 
-53 77 725 
-52 76 724 
-51 76 723 
-49 76 723 
-48 76 722 
-47 76 721 
-46 76 721 
-45 76 721 
-43 76 721 
-42 76 721 
-41 76 721 
-40 76 721 
-39 76 721 
-38 76 721 
-36 76 721 
-35 76 721 
-34 76 721 
-33 76 721 
-32 76 721 
-31 76 721 
-29 76 720 
-28 76 720 
-27 76 720 
-26 76 719 
-25 76 719 
-24 76 719 
-22 76 719 
-21 76 719 
-20 76 719 
-19 76 719 
-18 76 720 
-17 76 720 
-15 76 720 
-14 76 720 
-13 76 720 
-12 76 721 
-11 76 721 
-10 76 722 
-8 76 722 
-7 76 723 
-6 76 724 
-5 76 724 
-4 77 726 
-3 77 727 
-1 77 728 
0 77 729 
1 77 730 
2 77 731 
3 77 733 
5 78 734 
6 78 736 
7 78 738 
8 78 741 
10 79 744 
11 79 748 
12 80 753 
13 80 760 
-67 80 745 
-65 79 740 
-63 79 736 
-62 79 734 
-61 78 732 
-59 78 730 
-58 78 728 
-57 78 727 
-56 78 726 
-54 78 725 
-53 78 724 
-52 77 723 
-51 77 722 
-49 77 722 
-48 77 721 
-47 77 721 
-46 77 721 
-45 77 721 
-43 77 721 
-42 77 720 
-41 77 720 
-40 77 720 
-39 77 720 
-38 77 720 
-36 77 719 
-35 77 719 
-34 77 719 
-33 77 719 
-32 77 719 
-31 77 719 
-29 77 719 
-28 77 719 
-27 77 719 
-26 77 719 
-25 77 718 
-24 77 719 
-22 77 719 
-21 77 719 
-20 77 719 
-19 77 719 
-18 77 719 
-16 77 719 
-15 77 720 
-14 77 720 
-13 77 720 
-12 77 720 
-11 77 721 
-10 77 721 
-8 77 722 
-7 78 723 
-6 78 724 
-5 78 724 
-4 78 726 
-3 78 727 
-1 78 728 
0 78 729 
1 78 730 
2 78 731 
3 79 733 
5 79 734 
6 79 736 
7 79 738 
8 79 741 
10 80 744 
11 80 748 
12 81 753 
13 82 760 
-69 82 758 
-67 81 745 
-65 81 741 
-63 80 736 
-62 80 734 
-61 80 733 
-59 80 731 
-58 79 729 
-57 79 727 
-56 79 726 
-54 79 725 
-53 79 723 
-52 79 723 
-51 79 722 
-49 78 721 
-48 78 721 
-47 78 721 
-46 78 720 
-45 78 720 
-43 78 720 
-42 78 720 
-41 78 720 
-40 78 720 
-39 78 720 
-38 78 719 
-36 78 719 
-35 78 719 
-34 78 719 
-33 78 719 
-32 78 719 
-30 78 718 
-29 78 718 
-28 78 718 
-27 78 718 
-26 78 718 
-25 78 718 
-23 78 718 
-22 78 718 
-21 78 719 
-20 78 718 
-19 78 718 
-18 78 719 
-16 78 719 
-15 78 719 
-14 78 720 
-13 78 720 
-12 78 720 
-11 78 720 
-10 79 721 
-8 79 722 
-7 79 723 
-6 79 723 
-5 79 724 
-4 79 725 
-3 79 727 
-1 79 728 
0 79 729 
1 79 730 
2 80 731 
3 80 733 
5 80 734 
6 80 735 
7 80 738 
8 81 741 
10 81 744 
11 81 748 
12 82 753 
13 83 760 
-69 83 756 
-67 82 745 
-65 82 741 
-64 81 737 
-62 81 734 
-61 81 733 
-59 81 731 
-58 80 729 
-57 80 728 
-56 80 726 
-54 80 725 
-53 80 723 
-52 80 723 
-51 80 722 
-49 80 721 
-48 80 720 
-47 80 720 
-46 80 720 
-45 79 719 
-43 79 719 
-42 79 719 
-41 79 719 
-40 79 719 
-39 79 719 
-38 79 719 
-36 79 718 
-35 79 718 
-34 79 718 
-33 79 718 
-32 79 718 
-30 79 718 
-29 79 718 
-28 79 718 
-27 79 717 
-26 79 718 
-25 79 718 
-23 79 718 
-22 79 718 
-21 79 718 
-20 79 718 
-19 79 718 
-18 79 718 
-16 79 718 
-15 79 718 
-14 79 719 
-13 79 719 
-12 79 719 
-11 80 720 
-10 80 721 
-8 80 722 
-7 80 722 
-6 80 723 
-5 80 724 
-4 80 725 
-3 80 727 
-1 80 728 
0 81 729 
1 81 730 
2 81 731 
3 81 733 
5 81 734 
6 81 736 
7 82 738 
8 82 740 
10 82 744 
11 83 747 
12 83 752 
13 84 758 
-69 84 754 
-67 83 745 
-65 83 741 
-64 83 737 
-62 82 734 
-61 82 733 
-59 82 731 
-58 82 729 
-57 82 728 
-56 81 727 
-54 81 725 
-53 81 723 
-52 81 722 
-51 81 722 
-49 81 721 
-48 81 720 
-47 81 719 
-46 81 719 
-44 80 718 
-43 80 718 
-42 80 718 
-41 80 718 
-40 80 718 
-39 80 718 
-37 80 717 
-36 80 717 
-35 80 717 
-34 80 717 
-33 80 718 
-32 80 718 
-30 80 717 
-29 80 717 
-28 80 717 
-27 80 717 
-26 80 717 
-25 80 717 
-23 80 717 
-22 80 718 
-21 80 717 
-20 80 718 
-19 80 717 
-18 80 718 
-16 80 718 
-15 80 718 
-14 81 719 
-13 81 719 
-12 81 719 
-11 81 720 
-10 81 721 
-8 81 722 
-7 81 722 
-6 81 723 
-5 81 725 
-4 81 726 
-3 82 727 
-1 82 728 
0 82 729 
1 82 730 
2 82 732 
3 82 733 
5 82 734 
6 83 736 
7 83 738 
8 83 741 
10 83 743 
11 84 747 
12 84 751 
13 85 756 
15 85 762 
-68 85 750 
-67 85 745 
-65 84 741 
-64 84 737 
-62 83 734 
-61 83 733 
-59 83 731 
-58 83 729 
-57 83 728 
-56 83 726 
-54 82 725 
-53 82 723 
-52 82 722 
-50 82 721 
-49 82 721 
-48 82 720 
-47 82 719 
-46 82 719 
-45 82 719 
-43 82 718 
-42 82 718 
-41 82 717 
-40 82 717 
-39 82 717 
-37 81 716 
-36 81 716 
-35 81 716 
-34 82 717 
-33 82 717 
-32 82 717 
-30 81 716 
-29 81 716 
-28 82 717 
-27 81 716 
-26 81 716 
-25 81 716 
-23 82 717 
-22 82 717 
-21 82 717 
-20 82 717 
-19 82 717 
-18 82 717 
-16 82 718 
-15 82 718 
-14 82 718 
-13 82 719 
-12 82 719 
-11 82 720 
-10 82 721 
-8 82 721 
-7 82 722 
-6 82 724 
-5 82 724 
-4 83 726 
-3 83 727 
-1 83 728 
0 83 729 
1 83 730 
2 83 732 
3 83 733 
5 83 734 
6 84 736 
7 84 738 
8 84 741 
10 85 743 
11 85 746 
12 85 749 
13 86 753 
15 86 758 
-68 86 748 
-67 86 744 
-65 85 741 
-64 85 738 
-62 85 735 
-61 84 733 
-59 84 731 
-58 84 729 
-57 84 728 
-56 84 727 
-54 84 725 
-53 83 723 
-52 83 722 
-51 83 722 
-49 83 721 
-48 83 720 
-47 83 720 
-46 83 719 
-45 83 719 
-43 83 718 
-42 83 717 
-41 83 717 
-40 83 717 
-39 83 716 
-37 83 716 
-36 83 716 
-35 83 716 
-34 83 716 
-33 83 716 
-32 83 716 
-30 83 716 
-29 83 716 
-28 83 716 
-27 83 716 
-26 83 716 
-25 83 716 
-23 83 716 
-22 83 717 
-21 83 717 
-20 83 717 
-19 83 717 
-18 83 717 
-16 83 717 
-15 83 718 
-14 83 718 
-13 83 719 
-12 83 719 
-11 83 720 
-10 83 721 
-8 83 722 
-7 83 723 
-6 84 724 
-5 84 725 
-4 84 725 
-2 84 726 
-1 84 728 
0 84 729 
1 84 730 
2 84 732 
3 85 733 
5 85 734 
6 85 736 
7 85 738 
8 85 741 
10 86 743 
11 86 746 
12 86 748 
13 87 752 
15 87 755 
-68 87 747 
-67 87 744 
-65 87 741 
-64 86 738 
-62 86 736 
-61 86 733 
-59 85 731 
-58 85 730 
-57 85 728 
-56 85 727 
-54 85 726 
-53 85 724 
-52 85 723 
-51 84 722 
-49 84 721 
-48 84 721 
-47 84 720 
-46 84 719 
-45 84 719 
-43 84 718 
-42 84 717 
-41 84 717 
-40 84 717 
-39 84 716 
-37 84 716 
-36 84 716 
-35 84 716 
-34 84 716 
-33 84 715 
-31 84 715 
-30 84 715 
-29 84 715 
-28 84 715 
-27 84 715 
-26 84 716 
-25 84 716 
-23 84 716 
-22 84 716 
-21 84 716 
-20 84 717 
-19 84 717 
-18 84 717 
-16 84 717 
-15 84 717 
-14 84 718 
-13 84 719 
-12 84 720 
-11 84 721 
-10 84 721 
-8 84 722 
-7 85 723 
-6 85 724 
-5 85 725 
-4 85 726 
-2 85 726 
-1 85 728 
0 85 729 
1 86 731 
2 86 732 
3 86 733 
5 86 735 
6 86 737 
7 86 739 
8 87 741 
10 87 743 
11 87 746 
12 88 748 
13 88 751 
15 88 753 
-68 88 746 
-67 88 744 
-65 88 742 
-64 88 739 
-62 87 737 
-61 87 735 
-60 87 732 
-58 87 730 
-57 86 729 
-56 86 727 
-54 86 725 
-53 86 724 
-52 86 723 
-50 85 721 
-49 85 720 
-48 85 720 
-47 85 720 
-46 85 719 
-45 85 719 
-43 85 718 
-42 85 717 
-41 85 717 
-40 85 717 
-39 85 716 
-37 85 716 
-36 85 715 
-35 85 715 
-34 85 715 
-33 85 715 
-31 85 715 
-30 85 714 
-29 85 715 
-28 85 714 
-27 85 714 
-26 85 715 
-25 85 716 
-23 85 716 
-22 85 716 
-21 85 716 
-20 85 717 
-19 85 717 
-18 85 718 
-16 85 718 
-15 85 718 
-14 85 718 
-13 85 719 
-12 85 720 
-11 85 720 
-10 86 721 
-8 86 722 
-7 86 723 
-6 86 724 
-5 86 724 
-4 86 726 
-3 86 727 
-1 86 728 
0 86 729 
1 87 730 
2 87 731 
3 87 733 
5 87 734 
6 87 737 
7 88 739 
8 88 741 
10 88 743 
11 88 746 
12 89 748 
13 89 750 
15 89 753 
-68 90 747 
-67 89 745 
-65 89 743 
-64 89 741 
-62 89 738 
-61 88 736 
-60 88 733 
-58 88 731 
-57 88 729 
-56 87 728 
-54 87 726 
-53 87 724 
-52 87 723 
-51 87 723 
-49 87 721 
-48 87 720 
-47 87 720 
-46 86 719 
-45 86 719 
-43 86 718 
-42 86 718 
-41 86 717 
-40 86 717 
-39 86 716 
-37 86 716 
-36 86 716 
-35 86 716 
-34 86 715 
-33 86 715 
-31 86 714 
-30 86 714 
-29 86 714 
-28 86 714 
-27 86 714 
-26 86 715 
-25 86 715 
-23 86 716 
-22 86 716 
-21 86 716 
-20 86 717 
-19 86 718 
-18 86 718 
-16 86 718 
-15 86 718 
-14 86 719 
-13 87 720 
-12 87 720 
-11 87 720 
-10 87 722 
-8 87 723 
-7 87 723 
-6 87 724 
-5 87 725 
-4 87 726 
-3 87 727 
-1 88 728 
0 88 729 
1 88 731 
2 88 732 
3 88 734 
5 88 735 
6 89 737 
7 89 739 
8 89 742 
10 90 745 
11 90 747 
12 90 749 
13 90 751 
15 91 755 
-68 91 749 
-67 91 747 
-65 91 745 
-64 90 742 
-63 90 739 
-61 90 737 
-60 89 734 
-58 89 732 
-57 89 731 
-56 89 729 
-54 89 727 
-53 88 725 
-52 88 724 
-51 88 723 
-49 88 722 
-48 88 721 
-47 88 720 
-46 88 720 
-45 88 719 
-43 87 718 
-42 87 718 
-41 87 718 
-40 87 717 
-39 87 717 
-37 87 716 
-36 87 716 
-35 87 716 
-34 87 715 
-33 87 715 
-31 87 714 
-30 87 714 
-29 87 714 
-28 87 714 
-27 87 714 
-26 87 714 
-25 87 715 
-23 87 715 
-22 87 716 
-21 87 717 
-20 87 717 
-19 87 718 
-18 87 718 
-16 87 718 
-15 88 719 
-14 88 719 
-13 88 720 
-12 88 720 
-11 88 721 
-10 88 722 
-8 88 723 
-7 88 723 
-6 88 724 
-5 88 726 
-4 89 727 
-3 89 727 
-1 89 728 
0 89 730 
1 89 731 
2 89 732 
3 89 734 
5 90 736 
6 90 737 
7 90 740 
8 90 742 
10 91 746 
11 91 749 
12 92 751 
13 92 753 
15 92 756 
-68 93 752 
-67 92 749 
-66 92 747 
-64 92 743 
-63 91 740 
-61 91 738 
-60 91 736 
-59 91 734 
-57 90 732 
-56 90 730 
-55 90 729 
-53 90 727 
-52 89 725 
-51 89 724 
-49 89 723 
-48 89 722 
-47 89 721 
-46 89 720 
-45 89 720 
-43 89 719 
-42 89 719 
-41 89 718 
-40 89 718 
-39 88 717 
-37 88 717 
-36 88 717 
-35 88 716 
-34 88 715 
-33 88 715 
-31 88 715 
-30 88 714 
-29 88 714 
-28 88 714 
-27 88 714 
-26 88 714 
-25 88 715 
-23 88 715 
-22 88 716 
-21 89 717 
-20 89 718 
-19 89 718 
-18 89 718 
-16 89 719 
-15 89 719 
-14 89 720 
-13 89 720 
-12 89 720 
-11 89 722 
-10 89 722 
-8 89 723 
-7 89 724 
-6 90 725 
-5 90 726 
-4 90 727 
-3 90 728 
-1 90 729 
0 90 730 
1 90 731 
2 90 733 
3 91 735 
5 91 736 
6 91 738 
7 91 740 
8 92 743 
10 92 746 
11 93 750 
12 93 753 
13 93 756 
15 94 761 
-69 95 762 
-68 94 755 
-66 94 751 
-64 93 745 
-63 93 743 
-61 92 739 
-60 92 736 
-59 92 734 
-57 92 733 
-56 91 731 
-55 91 729 
-53 91 728 
-52 91 727 
-51 91 725 
-50 91 724 
-48 90 723 
-47 90 721 
-46 90 720 
-45 90 720 
-43 90 719 
-42 90 719 
-41 90 718 
-40 90 718 
-39 90 717 
-37 90 717 
-36 90 717 
-35 90 717 
-34 90 716 
-33 89 715 
-31 89 715 
-30 89 715 
-29 89 715 
-28 89 714 
-27 89 714 
-26 89 715 
-25 90 716 
-23 90 716 
-22 90 716 
-21 90 717 
-20 90 718 
-19 90 719 
-18 90 719 
-16 90 719 
-15 90 720 
-14 90 720 
-13 90 721 
-12 90 721 
-11 90 722 
-10 90 723 
-8 91 724 
-7 91 725 
-6 91 726 
-5 91 727 
-4 91 728 
-3 91 729 
-1 91 729 
0 91 731 
1 92 732 
2 92 733 
3 92 735 
5 92 737 
6 92 739 
7 93 741 
8 93 744 
10 93 747 
11 94 751 
12 94 755 
13 95 760 
15 96 767 
16 97 773 
-68 96 761 
-66 95 754 
-64 95 748 
-63 94 744 
-61 94 741 
-60 93 738 
-59 93 735 
-57 93 733 
-56 93 732 
-55 92 730 
-53 92 729 
-52 92 728 
-51 92 726 
-50 92 725 
-48 92 724 
-47 92 723 
-46 91 721 
-45 91 720 
-43 91 719 
-42 91 719 
-41 91 719 
-40 91 718 
-39 91 718 
-37 91 717 
-36 91 717 
-35 91 717 
-34 91 717 
-33 91 716 
-31 91 715 
-30 91 715 
-29 91 715 
-28 91 715 
-27 91 715 
-26 91 715 
-25 91 716 
-23 91 716 
-22 91 717 
-21 91 718 
-20 91 718 
-19 91 719 
-18 91 719 
-17 91 720 
-15 91 720 
-14 91 720 
-13 91 721 
-12 91 721 
-11 91 722 
-10 92 724 
-8 92 724 
-7 92 725 
-6 92 727 
-5 92 728 
-4 92 729 
-3 92 729 
-1 92 730 
0 93 731 
1 93 733 
2 93 734 
3 93 736 
5 94 738 
6 94 740 
7 94 742 
8 94 745 
10 95 749 
11 95 753 
12 96 757 
14 97 764 
15 98 772 
16 99 781 
-67 97 759 
-65 96 751 
-63 96 746 
-62 95 743 
-60 95 740 
-59 94 737 
-57 94 735 
-56 94 733 
-55 94 731 
-53 94 730 
-52 93 729 
-51 93 727 
-50 93 726 
-48 93 725 
-47 93 724 
-46 93 722 
-45 92 721 
-43 92 721 
-42 92 720 
-41 92 720 
-40 92 719 
-39 92 719 
-37 92 719 
-36 92 719 
-35 92 718 
-34 92 718 
-33 92 718 
-32 92 717 
-30 92 717 
-29 92 717 
-28 92 716 
-27 92 716 
-26 92 716 
-25 92 717 
-23 92 717 
-22 92 717 
-21 92 718 
-20 92 719 
-19 92 720 
-18 92 720 
-17 92 720 
-15 93 721 
-14 93 722 
-13 93 722 
-12 93 723 
-11 93 723 
-10 93 724 
-8 93 725 
-7 93 726 
-6 93 727 
-5 93 728 
-4 94 729 
-3 94 730 
-1 94 731 
0 94 732 
1 94 734 
2 94 735 
3 95 737 
5 95 739 
6 95 741 
7 95 743 
8 96 747 
10 96 751 
11 97 755 
12 98 761 
14 99 768 
15 100 776 
16 101 785 
-67 99 765 
-65 98 755 
-63 97 748 
-62 97 744 
-60 96 741 
-59 96 739 
-57 96 736 
-56 95 734 
-55 95 732 
-54 95 731 
-52 95 730 
-51 95 728 
-50 94 727 
-48 94 726 
-47 94 724 
-46 94 723 
-45 94 722 
-44 94 722 
-42 94 722 
-41 94 721 
-40 94 721 
-39 94 720 
-38 94 720 
-36 94 720 
-35 94 720 
-34 93 719 
-33 93 719 
-32 93 718 
-30 93 718 
-29 93 718 
-28 93 718 
-27 93 717 
-26 93 717 
-25 93 718 
-23 93 718 
-22 93 719 
-21 94 720 
-20 94 720 
-19 94 721 
-18 94 721 
-17 94 721 
-15 94 722 
-14 94 723 
-13 94 723 
-12 94 723 
-11 94 724 
-10 94 725 
-8 94 726 
-7 94 727 
-6 95 729 
-5 95 730 
-4 95 730 
-3 95 731 
-1 95 733 
0 95 734 
1 96 735 
2 96 736 
3 96 738 
5 96 740 
6 96 742 
7 97 745 
8 97 748 
10 98 753 
11 98 758 
12 99 765 
14 100 772 
15 101 781 
17 103 789 
18 104 798 
-68 101 769 
-65 99 757 
-64 99 751 
-62 98 746 
-60 98 743 
-59 97 740 
-58 97 738 
-56 97 735 
-55 96 733 
-54 96 732 
-52 96 731 
-51 96 729 
-50 96 728 
-49 96 727 
-47 95 725 
-46 95 725 
-45 95 724 
-44 95 723 
-42 95 722 
-41 95 722 
-40 95 722 
-39 95 721 
-38 95 720 
-36 95 720 
-35 95 720 
-34 95 720 
-33 95 720 
-32 95 720 
-31 95 720 
-29 95 720 
-28 95 719 
-27 95 719 
-26 95 719 
-25 95 720 
-24 95 720 
-22 95 720 
-21 95 721 
-20 95 721 
-19 95 722 
-18 95 722 
-17 95 722 
-15 95 723 
-14 95 723 
-13 95 724 
-12 95 724 
-11 95 725 
-10 96 726 
-8 96 727 
-7 96 728 
-6 96 729 
-5 96 731 
-4 96 731 
-3 96 732 
-1 97 734 
0 97 735 
1 97 736 
2 97 737 
3 97 739 
5 97 741 
6 98 743 
7 98 746 
8 99 750 
10 99 755 
11 100 760 
12 101 768 
14 102 776 
15 103 784 
17 104 791 
18 105 799 
-68 103 772 
-65 101 759 
-64 100 753 
-62 100 749 
-61 99 745 
-59 99 742 
-58 98 739 
-56 98 737 
-55 98 735 
-54 98 733 
-52 97 732 
-51 97 731 
-50 97 729 
-49 97 728 
-47 97 727 
-46 97 726 
-45 97 725 
-44 96 724 
-42 96 724 
-41 96 723 
-40 96 723 
-39 96 722 
-38 96 721 
-36 96 721 
-35 96 721 
-34 96 721 
-33 96 721 
-32 96 721 
-31 96 721 
-29 96 721 
-28 96 721 
-27 96 720 
-26 96 721 
-25 96 721 
-24 96 721 
-22 96 721 
-21 96 722 
-20 96 722 
-19 96 723 
-18 96 723 
-17 96 724 
-15 96 724 
-14 96 724 
-13 97 725 
-12 97 726 
-11 97 727 
-10 97 727 
-8 97 728 
-7 97 729 
-6 97 730 
-5 97 732 
-4 97 732 
-3 98 733 
-1 98 734 
0 98 736 
1 98 736 
2 98 738 
3 99 740 
5 99 742 
6 99 744 
7 99 747 
8 100 752 
10 101 758 
11 102 763 
12 103 771 
14 104 778 
15 105 786 
17 105 792 
18 106 799 
-67 103 768 
-66 102 760 
-64 102 755 
-62 101 751 
-61 101 747 
-59 100 744 
-58 100 741 
-56 99 738 
-55 99 736 
-54 99 735 
-52 99 733 
-51 99 732 
-50 98 730 
-49 98 729 
-47 98 728 
-46 98 728 
-45 98 727 
-44 98 726 
-43 98 725 
-41 98 724 
-40 98 724 
-39 98 724 
-38 97 723 
-37 97 723 
-35 97 723 
-34 97 723 
-33 97 723 
-32 97 722 
-31 97 722 
-29 97 722 
-28 97 722 
-27 97 722 
-26 97 722 
-25 97 722 
-24 97 723 
-22 97 723 
-21 97 723 
-20 98 724 
-19 98 724 
-18 98 725 
-17 98 725 
-15 98 726 
-14 98 726 
-13 98 727 
-12 98 727 
-11 98 728 
-10 98 729 
-8 98 730 
-7 98 730 
-6 99 731 
-5 99 732 
-4 99 734 
-3 99 734 
-1 99 735 
0 99 736 
1 99 738 
2 100 739 
3 100 741 
5 100 743 
6 101 746 
7 101 749 
8 102 754 
10 102 760 
11 103 767 
12 104 775 
14 105 782 
15 106 788 
17 107 794 
18 108 799 
-67 104 763 
-66 104 760 
-64 103 756 
-62 103 753 
-61 102 749 
-59 102 746 
-58 101 742 
-57 101 740 
-55 100 737 
-54 100 735 
-53 100 735 
-51 100 733 
-50 100 732 
-49 100 731 
-47 99 729 
-46 99 728 
-45 99 728 
-44 99 727 
-43 99 727 
-41 99 726 
-40 99 725 
-39 99 725 
-38 99 724 
-37 99 724 
-35 99 724 
-34 99 724 
-33 99 723 
-32 99 723 
-31 99 723 
-29 99 723 
-28 98 722 
-27 98 722 
-26 98 722 
-25 99 723 
-24 99 723 
-22 99 724 
-21 99 724 
-20 99 725 
-19 99 725 
-18 99 726 
-17 99 727 
-15 99 727 
-14 99 727 
-13 99 728 
-12 99 729 
-11 99 729 
-10 99 729 
-8 100 730 
-7 100 731 
-6 100 732 
-5 100 733 
-4 100 733 
-3 100 735 
-1 100 736 
0 101 737 
1 101 738 
2 101 739 
3 101 741 
5 101 744 
6 102 747 
7 102 750 
8 103 756 
10 104 762 
11 105 769 
12 106 776 
14 107 783 
15 108 789 
17 108 794 
18 109 798 
19 109 801 
21 110 804 
-67 105 759 
-65 105 759 
-64 104 757 
-63 104 755 
-61 104 752 
-60 103 748 
-58 103 744 
-57 102 742 
-55 102 739 
-54 102 737 
-53 102 736 
-51 101 735 
-50 101 733 
-49 101 732 
-48 101 731 
-46 101 730 
-45 101 729 
-44 100 728 
-43 100 728 
-41 100 727 
-40 100 727 
-39 100 727 
-38 100 726 
-37 100 726 
-35 100 725 
-34 100 725 
-33 100 725 
-32 100 725 
-31 100 724 
-30 100 724 
-28 100 724 
-27 100 724 
-26 100 724 
-25 100 724 
-24 100 725 
-23 100 725 
-21 100 725 
-20 100 726 
-19 100 727 
-18 100 727 
-17 100 727 
-16 100 728 
-14 101 729 
-13 101 729 
-12 101 729 
-11 101 730 
-10 101 730 
-8 101 731 
-7 101 732 
-6 101 732 
-5 101 733 
-4 101 735 
-3 102 736 
-1 102 737 
0 102 738 
1 102 739 
2 102 741 
3 103 743 
5 103 745 
6 103 748 
7 104 753 
8 105 759 
10 106 765 
11 107 772 
12 107 778 
14 108 785 
15 109 789 
17 109 793 
18 110 796 
19 110 799 
21 111 802 
-65 106 758 
-64 106 758 
-63 106 757 
-61 105 754 
-60 105 750 
-58 104 746 
-57 104 744 
-55 103 741 
-54 103 739 
-53 103 738 
-52 103 737 
-50 103 735 
-49 102 734 
-48 102 733 
-46 102 731 
-45 102 730 
-44 102 730 
-43 102 730 
-42 102 729 
-40 102 728 
-39 102 728 
-38 101 727 
-37 101 727 
-36 101 727 
-34 101 726 
-33 101 726 
-32 101 726 
-31 101 726 
-30 101 725 
-28 101 725 
-27 101 725 
-26 101 725 
-25 101 725 
-24 101 726 
-23 101 726 
-21 101 726 
-20 102 727 
-19 102 727 
-18 102 728 
-17 102 728 
-16 102 729 
-14 102 729 
-13 102 730 
-12 102 730 
-11 102 731 
-10 102 731 
-8 102 732 
-7 102 732 
-6 102 733 
-5 102 734 
-4 103 735 
-3 103 736 
-1 103 738 
0 103 739 
1 103 740 
2 104 742 
3 104 744 
5 104 747 
6 105 750 
7 105 755 
9 106 761 
10 107 768 
11 108 775 
13 109 781 
14 110 786 
15 110 790 
17 111 793 
18 111 796 
19 111 798 
21 112 800 
22 112 802 
-65 107 758 
-64 107 759 
-63 107 758 
-61 107 756 
-60 106 752 
-58 106 748 
-57 105 746 
-56 105 743 
-54 105 741 
-53 104 740 
-52 104 739 
-50 104 737 
-49 104 735 
-48 104 734 
-47 103 733 
-45 103 732 
-44 103 731 
-43 103 730 
-42 103 730 
-40 103 730 
-39 103 729 
-38 103 729 
-37 103 728 
-36 103 728 
-34 103 728 
-33 103 728 
-32 103 727 
-31 103 727 
-30 103 727 
-28 103 727 
-27 103 727 
-26 103 727 
-25 103 727 
-24 103 727 
-23 103 727 
-21 103 727 
-20 103 727 
-19 103 728 
-18 103 729 
-17 103 729 
-16 103 730 
-14 103 730 
-13 103 731 
-12 103 731 
-11 103 732 
-10 103 732 
-8 103 732 
-7 104 733 
-6 104 734 
-5 104 735 
-4 104 735 
-3 104 737 
-1 104 738 
0 105 740 
1 105 741 
2 105 743 
3 105 746 
5 106 749 
6 106 752 
7 107 758 
9 108 764 
10 109 771 
11 110 777 
13 111 783 
14 111 787 
15 112 790 
17 112 793 
18 112 795 
19 113 797 
21 113 799 
22 113 801 
23 114 804 
-67 108 758 
-65 108 760 
-64 109 761 
-63 108 760 
-62 108 758 
-60 108 754 
-59 107 751 
-57 107 747 
-56 106 745 
-54 106 743 
-53 106 742 
-52 106 740 
-51 106 739 
-49 105 737 
-48 105 736 
-47 105 735 
-45 105 734 
-44 105 733 
-43 105 733 
-42 105 732 
-40 104 731 
-39 104 731 
-38 104 730 
-37 104 730 
-36 104 730 
-34 104 729 
-33 104 729 
-32 104 729 
-31 104 729 
-30 104 728 
-29 104 728 
-27 104 728 
-26 104 728 
-25 104 728 
-24 104 728 
-23 104 728 
-21 104 728 
-20 104 729 
-19 104 729 
-18 104 729 
-17 104 730 
-16 104 730 
-14 104 731 
-13 105 732 
-12 105 732 
-11 105 732 
-10 105 733 
-8 105 733 
-7 105 734 
-6 105 734 
-5 105 735 
-4 105 736 
-3 105 737 
-1 106 739 
0 106 741 
1 106 742 
2 106 744 
3 107 747 
5 107 751 
6 108 755 
7 109 761 
9 110 767 
10 111 774 
11 111 779 
13 112 784 
14 113 788 
15 113 790 
17 113 792 
18 114 795 
19 114 796 
21 114 798 
22 114 800 
23 115 802 
25 115 805 
26 115 806 
-78 111 771 
-76 111 770 
-68 110 760 
-67 110 761 
-66 110 763 
-65 110 764 
-63 110 763 
-62 110 760 
-60 109 758 
-59 109 753 
-57 108 751 
-56 108 748 
-55 108 746 
-53 107 744 
-52 107 743 
-51 107 741 
-49 107 739 
-48 107 738 
-47 106 737 
-46 106 736 
-44 106 735 
-43 106 734 
-42 106 733 
-41 106 733 
-39 106 732 
-38 106 732 
-37 106 731 
-36 106 731 
-35 106 731 
-33 105 730 
-32 105 730 
-31 105 730 
-30 105 730 
-29 105 730 
-27 105 730 
-26 105 730 
-25 105 730 
-24 105 730 
-23 105 730 
-21 105 729 
-20 105 729 
-19 105 730 
-18 105 730 
-17 106 731 
-16 106 732 
-14 106 732 
-13 106 732 
-12 106 733 
-11 106 733 
-10 106 734 
-8 106 734 
-7 106 734 
-6 106 735 
-5 106 736 
-4 106 737 
-3 107 738 
-1 107 740 
0 107 741 
1 107 743 
2 108 746 
4 108 749 
5 109 752 
6 110 758 
7 110 763 
9 111 769 
10 112 776 
11 113 781 
13 113 785 
14 114 788 
15 114 789 
17 114 792 
18 115 794 
19 115 795 
21 115 797 
22 115 799 
23 116 801 
25 116 803 
26 116 805 
-78 113 774 
-77 113 773 
-75 113 773 
-74 113 772 
-73 113 771 
-71 112 769 
-70 112 767 
-68 112 766 
-67 112 766 
-66 112 767 
-65 112 767 
-64 112 766 
-62 111 763 
-61 111 760 
-59 111 757 
-58 110 753 
-56 110 750 
-55 109 748 
-53 109 747 
-52 109 745 
-51 108 743 
-50 108 742 
-48 108 741 
-47 108 739 
-46 108 737 
-44 108 737 
-43 107 736 
-42 107 735 
-41 107 734 
-39 107 733 
-38 107 733 
-37 107 732 
-36 107 732 
-35 107 732 
-33 107 731 
-32 107 731 
-31 107 731 
-30 107 731 
-29 107 731 
-27 107 731 
-26 107 731 
-25 107 731 
-24 107 731 
-23 107 730 
-21 107 730 
-20 107 731 
-19 107 731 
-18 107 731 
-17 107 732 
-16 107 732 
-14 107 732 
-13 107 733 
-12 107 733 
-11 107 733 
-10 107 734 
-8 107 734 
-7 107 735 
-6 108 736 
-5 108 737 
-4 108 738 
-3 108 739 
-1 108 741 
0 109 743 
1 109 745 
2 109 748 
4 110 751 
5 110 755 
6 111 761 
7 112 767 
9 113 773 
10 114 777 
11 114 782 
13 115 785 
14 115 788 
15 115 789 
17 116 791 
18 116 793 
19 116 794 
21 116 796 
22 116 797 
23 117 799 
25 117 802 
26 117 803 
-78 115 776 
-77 115 776 
-76 114 775 
-74 114 774 
-73 114 773 
-72 114 772 
-70 114 771 
-69 114 770 
-68 114 770 
-66 114 770 
-65 114 770 
-64 114 769 
-62 113 766 
-61 113 763 
-59 112 760 
-58 112 756 
-56 111 753 
-55 111 750 
-54 111 749 
-52 110 747 
-51 110 746 
-50 110 744 
-48 110 743 
-47 109 741 
-46 109 739 
-44 109 738 
-43 109 737 
-42 109 736 
-41 109 736 
-40 109 735 
-38 108 734 
-37 108 733 
-36 108 733 
-35 108 733 
-33 108 733 
-32 108 732 
-31 108 732 
-30 108 732 
-29 108 732 
-27 108 732 
-26 108 732 
-25 108 732 
-24 108 732 
-23 108 732 
-22 108 732 
-20 108 732 
-19 108 732 
-18 108 732 
-17 108 733 
-16 108 733 
-14 108 733 
-13 108 734 
-12 108 734 
-11 108 734 
-10 109 735 
-9 109 736 
-7 109 736 
-6 109 737 
-5 109 738 
-4 109 739 
-3 109 741 
-1 110 742 
0 110 744 
1 110 746 
2 111 750 
4 111 753 
5 112 758 
6 113 764 
7 114 769 
9 114 775 
10 115 779 
11 116 783 
13 116 785 
14 116 788 
15 117 789 
17 117 790 
18 117 792 
19 117 792 
21 117 795 
22 118 796 
23 118 798 
25 118 800 
26 118 802 
27 119 806 
-78 116 777 
-77 116 776 
-76 116 776 
-74 116 776 
-73 116 775 
-72 115 774 
-70 115 773 
-69 115 773 
-68 115 772 
-67 115 772 
-65 115 772 
-64 115 770 
-63 115 769 
-61 114 766 
-59 114 762 
-58 113 759 
-56 113 755 
-55 112 753 
-54 112 750 
-52 112 749 
-51 112 748 
-50 111 746 
-48 111 745 
-47 111 743 
-46 111 742 
-45 111 741 
-43 110 739 
-42 110 738 
-41 110 737 
-40 110 736 
-38 110 736 
-37 110 735 
-36 110 735 
-35 110 735 
-33 110 734 
-32 110 734 
-31 110 734 
-30 110 734 
-29 110 734 
-28 109 733 
-26 109 733 
-25 109 733 
-24 109 733 
-23 109 733 
-22 109 733 
-20 109 733 
-19 109 733 
-18 109 733 
-17 110 734 
-16 110 734 
-14 110 734 
-13 110 734 
-12 110 735 
-11 110 735 
-10 110 736 
-9 110 737 
-7 110 737 
-6 110 738 
-5 110 739 
-4 111 741 
-3 111 742 
-1 111 744 
0 111 746 
1 112 748 
2 112 752 
4 113 756 
5 114 761 
6 114 766 
7 115 772 
9 116 777 
10 117 781 
11 117 784 
13 117 785 
14 118 787 
15 118 788 
17 118 789 
18 118 791 
19 118 791 
20 119 794 
22 119 795 
23 119 798 
25 119 800 
26 120 802 
27 120 806 
-78 117 777 
-77 117 777 
-76 117 777 
-74 117 776 
-73 117 776 
-72 117 775 
-71 117 775 
-69 117 774 
-68 117 774 
-67 117 773 
-65 117 773 
-64 116 772 
-63 116 770 
-61 116 768 
-60 115 765 
-58 115 762 
-57 114 758 
-55 114 755 
-54 114 754 
-53 113 752 
-51 113 750 
-50 113 749 
-49 113 747 
-47 113 746 
-46 112 745 
-45 112 743 
-43 112 741 
-42 112 740 
-41 112 739 
-40 111 738 
-38 111 737 
-37 111 737 
-36 111 736 
-35 111 736 
-34 111 736 
-32 111 735 
-31 111 735 
-30 111 735 
-29 111 735 
-28 111 735 
-26 111 734 
-25 111 734 
-24 111 734 
-23 111 734 
-22 111 733 
-20 111 733 
-19 111 734 
-18 111 734 
-17 111 734 
-16 111 734 
-14 111 735 
-13 111 735 
-12 111 736 
-11 111 736 
-10 111 737 
-9 111 738 
-7 112 739 
-6 112 740 
-5 112 740 
-4 112 742 
-3 112 744 
-1 112 745 
0 113 748 
1 113 750 
2 114 754 
4 115 759 
5 115 765 
6 116 770 
7 117 775 
9 118 779 
10 118 782 
11 118 784 
13 119 785 
14 119 786 
15 119 787 
16 119 788 
18 119 790 
19 119 791 
20 120 793 
22 120 795 
23 120 797 
25 121 800 
26 121 802 
27 122 806 
-78 118 776 
-77 118 776 
-76 118 776 
-74 118 776 
-73 118 776 
-72 118 776 
-71 118 775 
-69 118 775 
-68 118 774 
-67 118 774 
-65 118 773 
-64 118 773 
-63 118 772 
-61 117 770 
-60 117 767 
-58 117 765 
-57 116 761 
-55 116 758 
-54 115 756 
-53 115 754 
-51 115 752 
-50 115 751 
-49 114 750 
-48 114 749 
-46 114 747 
-45 114 745 
-44 113 744 
-42 113 742 
-41 113 741 
-40 113 740 
-39 113 739 
-37 113 739 
-36 113 739 
-35 113 738 
-34 112 737 
-32 112 737 
-31 112 737 
-30 112 737 
-29 112 736 
-28 112 736 
-26 112 736 
-25 112 736 
-24 112 735 
-23 112 735 
-22 112 735 
-20 112 734 
-19 112 734 
-18 112 735 
-17 112 735 
-16 112 736 
-14 112 736 
-13 112 736 
-12 112 737 
-11 113 738 
-10 113 739 
-9 113 739 
-7 113 740 
-6 113 741 
-5 113 742 
-4 113 743 
-3 114 745 
-1 114 747 
0 114 750 
1 115 753 
2 115 757 
4 116 762 
5 117 767 
6 118 773 
7 119 777 
9 119 780 
10 119 783 
11 120 785 
13 120 785 
14 120 786 
15 120 787 
16 120 788 
18 120 789 
19 121 791 
20 121 792 
22 121 794 
23 121 796 
24 122 799 
26 122 802 
27 123 805 
-78 119 775 
-77 119 775 
-76 119 775 
-74 119 775 
-73 119 775 
-72 119 775 
-71 119 775 
-69 119 774 
-68 119 774 
-67 119 774 
-65 119 774 
-64 119 773 
-63 119 772 
-61 119 772 
-60 119 770 
-59 118 767 
-57 118 764 
-56 117 761 
-54 117 758 
-53 116 756 
-52 116 754 
-50 116 752 
-49 116 752 
-48 116 751 
-46 115 749 
-45 115 747 
-44 115 746 
-42 115 744 
-41 115 743 
-40 114 742 
-39 114 742 
-37 114 741 
-36 114 740 
-35 114 740 
-34 114 739 
-33 114 739 
-31 114 738 
-30 114 738 
-29 114 738 
-28 114 737 
-26 114 737 
-25 114 737 
-24 113 736 
-23 113 736 
-22 113 736 
-20 113 736 
-19 113 735 
-18 113 736 
-17 113 736 
-16 113 736 
-14 114 737 
-13 114 738 
-12 114 739 
-11 114 739 
-10 114 740 
-9 114 741 
-7 114 742 
-6 114 742 
-5 115 744 
-4 115 745 
-3 115 747 
-1 116 750 
0 116 753 
1 117 757 
2 117 761 
4 118 766 
5 119 771 
6 119 775 
7 120 779 
9 120 781 
10 121 783 
11 121 784 
13 121 785 
14 121 786 
15 121 786 
16 121 787 
18 121 788 
19 122 790 
20 122 792 
22 122 793 
23 123 795 
24 123 798 
26 123 801 
27 124 805 
-78 121 775 
-77 121 775 
-75 120 774 
-74 120 774 
-73 120 774 
-72 120 774 
-70 120 774 
-69 120 774 
-68 120 773 
-67 120 773 
-65 120 773 
-64 120 773 
-63 120 773 
-61 120 772 
-60 120 771 
-59 120 769 
-57 119 766 
-56 119 764 
-54 118 761 
-53 118 759 
-52 118 757 
-50 118 755 
-49 117 753 
-48 117 752 
-46 117 751 
-45 117 749 
-44 116 747 
-42 116 746 
-41 116 746 
-40 116 745 
-39 116 744 
-38 116 743 
-36 116 742 
-35 116 742 
-34 115 741 
-33 115 741 
-31 115 740 
-30 115 740 
-29 115 739 
-28 115 739 
-27 115 739 
-25 115 739 
-24 115 738 
-23 115 737 
-22 115 737 
-20 115 737 
-19 115 737 
-18 115 737 
-17 115 737 
-16 115 738 
-15 115 738 
-13 115 739 
-12 115 740 
-11 115 741 
-10 115 741 
-9 116 742 
-7 116 743 
-6 116 744 
-5 116 745 
-4 116 747 
-3 117 749 
-1 117 752 
0 118 755 
1 118 760 
2 119 764 
4 120 769 
5 120 773 
6 121 777 
7 122 780 
9 122 782 
10 122 783 
11 122 785 
13 122 785 
14 122 786 
15 123 787 
16 123 787 
18 123 788 
19 123 790 
20 123 792 
22 124 793 
23 124 795 
24 124 797 
26 125 800 
27 125 804 
-78 122 775 
-77 122 774 
-75 122 774 
-74 122 774 
-73 122 774 
-72 122 774 
-70 122 774 
-69 122 773 
-68 122 773 
-66 121 772 
-65 121 772 
-64 121 772 
-63 121 772 
-61 121 772 
-60 121 772 
-59 121 770 
-58 121 769 
-56 121 767 
-55 120 764 
-53 120 761 
-52 119 759 
-50 119 757 
-49 119 755 
-48 119 754 
-47 118 753 
-45 118 751 
-44 118 750 
-43 118 749 
-41 118 748 
-40 118 747 
-39 117 746 
-38 117 745 
-36 117 745 
-35 117 744 
-34 117 743 
-33 117 742 
-31 117 742 
-30 117 742 
-29 117 741 
-28 117 741 
-27 116 740 
-25 116 740 
-24 116 739 
-23 116 739 
-22 116 739 
-20 116 738 
-19 116 738 
-18 116 738 
-17 116 738 
-16 116 739 
-15 116 740 
-13 117 741 
-12 117 742 
-11 117 742 
-10 117 743 
-9 117 744 
-7 117 745 
-6 117 746 
-5 118 747 
-4 118 749 
-3 118 752 
-1 119 755 
0 119 759 
1 120 762 
2 121 767 
4 122 772 
5 122 775 
6 123 779 
7 123 781 
9 123 783 
10 123 784 
11 123 784 
13 124 785 
14 124 786 
15 124 787 
16 124 788 
18 124 788 
19 124 790 
20 125 791 
22 125 793 
23 125 795 
24 125 797 
26 126 800 
27 126 803 
29 127 808 
-78 123 774 
-77 123 774 
-75 123 774 
-74 123 773 
-73 123 773 
-72 123 773 
-70 123 773 
-69 123 773 
-68 123 773 
-66 123 772 
-65 123 772 
-64 123 772 
-63 123 772 
-61 123 772 
-60 123 772 
-59 123 771 
-58 122 770 
-56 122 768 
-55 122 767 
-53 122 765 
-52 121 763 
-51 121 760 
-49 121 759 
-48 120 756 
-47 120 755 
-45 120 753 
-44 120 752 
-43 119 751 
-42 119 750 
-40 119 749 
-39 119 749 
-38 119 748 
-36 119 747 
-35 119 746 
-34 118 745 
-33 118 745 
-32 118 745 
-30 118 744 
-29 118 743 
-28 118 743 
-27 118 742 
-25 118 742 
-24 118 741 
-23 118 741 
-22 118 740 
-21 118 739 
-19 118 739 
-18 118 740 
-17 118 740 
-16 118 740 
-15 118 741 
-13 118 742 
-12 118 744 
-11 118 744 
-10 118 744 
-9 118 745 
-7 119 746 
-6 119 748 
-5 119 749 
-4 119 751 
-3 120 754 
-1 120 757 
0 121 762 
1 122 766 
2 122 770 
4 123 774 
5 124 777 
6 124 779 
7 124 781 
9 124 782 
10 125 784 
11 125 784 
13 125 785 
14 125 786 
15 125 787 
16 125 787 
18 125 788 
19 125 789 
20 126 791 
22 126 792 
23 126 794 
24 127 796 
26 127 799 
27 128 802 
29 128 807 
-78 124 773 
-77 124 773 
-75 124 773 
-74 124 772 
-73 124 772 
-71 124 772 
-70 124 772 
-69 124 772 
-68 124 772 
-66 124 772 
-65 124 771 
-64 124 771 
-63 124 772 
-61 124 772 
-60 124 772 
-59 124 772 
-58 124 771 
-56 124 771 
-55 123 769 
-54 123 768 
-52 123 766 
-51 123 763 
-50 122 761 
-48 122 759 
-47 122 758 
-46 121 756 
-44 121 754 
-43 121 753 
-42 121 752 
-40 121 752 
-39 121 751 
-38 120 750 
-37 120 749 
-35 120 748 
-34 120 748 
-33 120 747 
-32 120 746 
-30 120 745 
-29 120 745 
-28 120 745 
-27 120 744 
-25 119 743 
-24 119 743 
-23 119 742 
-22 119 742 
-21 119 742 
-19 119 741 
-18 119 741 
-17 119 741 
-16 119 742 
-15 119 743 
-13 119 743 
-12 120 745 
-11 120 746 
-10 120 747 
-9 120 747 
-7 120 748 
-6 120 750 
-5 121 752 
-4 121 754 
-3 122 757 
-1 122 761 
0 123 765 
1 124 769 
2 124 773 
4 125 775 
5 125 778 
6 125 780 
7 125 781 
9 126 782 
10 126 783 
11 126 784 
13 126 785 
14 126 786 
15 126 787 
16 126 787 
18 127 788 
19 127 789 
20 127 790 
22 127 792 
23 128 794 
24 128 796 
26 128 799 
27 129 802 
29 130 807 
-78 125 773 
-76 125 772 
-75 125 772 
-74 125 772 
-73 125 771 
-71 125 771 
-70 125 771 
-69 125 771 
-68 125 771 
-66 125 771 
-65 125 771 
-64 125 771 
-63 125 771 
-61 125 772 
-60 125 772 
-59 125 772 
-58 125 772 
-56 125 772 
-55 125 771 
-54 125 770 
-53 125 769 
-51 124 767 
-50 124 765 
-48 124 762 
-47 123 761 
-46 123 759 
-44 123 757 
-43 123 756 
-42 122 755 
-41 122 754 
-39 122 753 
-38 122 752 
-37 122 751 
-35 122 751 
-34 122 750 
-33 122 749 
-32 122 749 
-30 121 747 
-29 121 747 
-28 121 747 
-27 121 746 
-26 121 745 
-24 121 745 
-23 121 745 
-22 121 744 
-21 121 744 
-19 121 743 
-18 121 743 
-17 121 743 
-16 121 744 
-15 121 745 
-13 121 745 
-12 121 746 
-11 121 747 
-10 121 748 
-9 122 749 
-7 122 750 
-6 122 752 
-5 122 754 
-4 123 757 
-3 123 760 
-1 124 764 
0 125 768 
1 125 771 
2 126 774 
4 126 776 
5 126 778 
6 127 780 
7 127 781 
9 127 782 
10 127 783 
11 127 784 
13 127 785 
14 128 786 
15 128 786 
16 128 787 
18 128 788 
19 128 789 
20 128 790 
22 129 792 
23 129 793 
24 129 796 
26 130 799 
27 130 802 
29 131 807 
-78 127 773 
-76 126 772 
-75 126 771 
-74 126 771 
-73 126 771 
-71 126 771 
-70 126 771 
-69 126 771 
-68 126 771 
-66 126 771 
-65 126 771 
-64 126 771 
-63 126 771 
-61 126 771 
-60 126 771 
-59 126 772 
-58 126 772 
-57 127 773 
-55 127 773 
-54 126 772 
-53 126 772 
-51 126 770 
-50 126 768 
-49 125 766 
-47 125 764 
-46 125 763 
-45 125 761 
-43 124 760 
-42 124 759 
-41 124 758 
-39 124 756 
-38 124 755 
-37 124 754 
-36 123 753 
-34 123 753 
-33 123 752 
-32 123 751 
-31 123 750 
-29 123 749 
-28 123 749 
-27 123 748 
-26 123 748 
-24 122 747 
-23 122 746 
-22 122 746 
-21 122 746 
-20 122 746 
-18 122 746 
-17 122 746 
-16 122 746 
-15 122 746 
-13 122 747 
-12 123 748 
-11 123 749 
-10 123 750 
-9 123 751 
-7 123 753 
-6 124 755 
-5 124 758 
-4 125 760 
-3 125 764 
-1 126 767 
0 126 770 
1 127 773 
2 127 775 
4 127 777 
5 127 778 
6 128 780 
7 128 781 
9 128 781 
10 128 782 
11 128 783 
13 128 784 
14 129 785 
15 129 786 
16 129 786 
18 129 787 
19 129 788 
20 129 790 
22 130 792 
23 130 793 
24 130 796 
26 131 799 
27 132 804 
29 133 809 
-78 128 773 
-77 128 773 
-75 128 772 
-74 127 771 
-73 127 771 
-71 127 771 
-70 127 770 
-69 127 770 
-68 127 770 
-66 127 770 
-65 127 769 
-64 127 770 
-63 127 770 
-61 127 770 
-60 127 771 
-59 128 771 
-58 128 772 
-56 128 772 
-55 128 773 
-54 128 774 
-53 128 774 
-52 128 774 
-50 128 772 
-49 128 771 
-48 127 769 
-46 127 768 
-45 127 766 
-44 126 764 
-42 126 763 
-41 126 762 
-40 126 760 
-38 126 759 
-37 125 758 
-36 125 757 
-34 125 756 
-33 125 755 
-32 125 754 
-31 125 753 
-29 124 751 
-28 124 750 
-27 124 750 
-26 124 750 
-24 124 749 
-23 124 749 
-22 124 748 
-21 124 748 
-20 124 748 
-18 124 748 
-17 124 748 
-16 124 748 
-15 124 748 
-14 124 749 
-12 124 750 
-11 124 751 
-10 124 752 
-9 125 753 
-7 125 755 
-6 125 758 
-5 126 760 
-4 126 764 
-3 127 767 
-1 127 769 
0 128 772 
1 128 774 
2 128 776 
4 129 777 
5 129 778 
6 129 780 
7 129 780 
9 129 781 
10 129 782 
11 130 783 
13 130 783 
14 130 784 
15 130 785 
16 130 786 
18 130 786 
19 130 787 
20 131 789 
22 131 791 
23 131 793 
24 132 795 
26 132 799 
27 133 804 
29 134 810 
-78 129 773 
-76 129 772 
-75 129 772 
-74 129 771 
-73 129 770 
-71 129 770 
-70 128 769 
-69 128 769 
-67 128 769 
-66 128 769 
-65 128 768 
-64 128 769 
-62 128 769 
-61 128 769 
-60 129 770 
-59 129 771 
-58 129 772 
-57 129 773 
-55 129 774 
-54 129 775 
-53 129 775 
-52 129 775 
-50 129 775 
-49 129 774 
-48 129 773 
-46 129 772 
-45 129 771 
-44 129 770 
-42 128 768 
-41 128 767 
-40 128 765 
-39 128 764 
-37 127 763 
-36 127 761 
-35 127 760 
-33 127 758 
-32 126 757 
-31 126 756 
-29 126 754 
-28 126 753 
-27 126 752 
-26 126 752 
-25 125 751 
-23 125 751 
-22 125 751 
-21 125 750 
-20 125 750 
-18 125 750 
-17 125 750 
-16 125 750 
-15 125 750 
-14 125 751 
-12 126 752 
-11 126 753 
-10 126 754 
-9 126 756 
-8 127 758 
-6 127 761 
-5 128 764 
-4 128 766 
-3 129 769 
-1 129 771 
0 129 773 
1 129 774 
2 130 776 
4 130 777 
5 130 778 
6 130 779 
7 130 780 
9 130 780 
10 131 781 
11 131 782 
13 131 782 
14 131 783 
15 131 783 
16 131 784 
18 131 786 
19 131 786 
20 132 789 
22 132 790 
23 132 792 
24 133 795 
26 134 799 
27 134 804 
29 136 811 
-76 130 771 
-75 130 771 
-74 130 771 
-73 130 770 
-71 130 769 
-70 129 768 
-69 129 768 
-67 129 768 
-66 129 768 
-65 129 767 
-64 129 767 
-62 129 768 
-61 130 769 
-60 130 769 
-59 130 770 
-58 130 771 
-56 130 772 
-55 131 774 
-54 131 775 
-53 131 776 
-52 131 777 
-51 131 777 
-49 131 778 
-48 131 778 
-47 131 777 
-46 131 777 
-44 131 776 
-43 131 775 
-42 131 774 
-40 130 772 
-39 130 770 
-38 130 769 
-36 129 766 
-35 129 764 
-34 129 762 
-32 128 761 
-31 128 759 
-30 128 757 
-28 128 756 
-27 127 755 
-26 127 754 
-25 127 754 
-23 127 754 
-22 127 753 
-21 127 752 
-20 127 752 
-18 127 752 
-17 127 752 
-16 127 752 
-15 127 753 
-14 127 754 
-12 127 755 
-11 128 756 
-10 128 757 
-9 128 759 
-8 128 761 
-6 129 763 
-5 129 766 
-4 130 768 
-3 130 769 
-1 130 771 
0 130 772 
1 131 774 
2 131 774 
4 131 775 
5 131 776 
6 131 777 
7 131 778 
9 131 779 
10 132 780 
11 132 780 
13 132 781 
14 132 782 
15 132 783 
16 132 784 
18 132 785 
19 133 786 
20 133 788 
22 133 790 
23 134 792 
24 134 795 
26 135 798 
27 136 804 
29 137 811 
-76 131 770 
-75 131 770 
-74 131 769 
-72 131 769 
-71 131 768 
-70 131 767 
-68 130 766 
-67 130 766 
-66 130 766 
-65 130 766 
-63 130 766 
-62 131 767 
-61 131 767 
-60 131 768 
-59 131 769 
-58 131 771 
-56 131 772 
-55 132 773 
-54 132 774 
-53 132 776 
-52 132 777 
-51 133 779 
-49 133 780 
-48 133 781 
-47 133 782 
-46 133 782 
-45 133 783 
-43 133 782 
-42 133 781 
-41 133 780 
-39 132 778 
-38 132 776 
-36 132 773 
-35 131 770 
-34 131 768 
-32 130 766 
-31 130 764 
-30 130 762 
-29 130 761 
-27 129 760 
-26 129 759 
-25 129 758 
-23 129 757 
-22 129 757 
-21 129 756 
-20 129 755 
-19 129 755 
-17 129 755 
-16 129 755 
-15 129 755 
-14 129 756 
-12 129 757 
-11 129 758 
-10 129 759 
-9 129 760 
-8 130 762 
-6 130 763 
-5 130 765 
-4 131 767 
-3 131 768 
-1 131 769 
0 131 770 
1 131 771 
2 131 772 
4 131 772 
5 132 773 
6 132 774 
7 132 775 
9 132 776 
10 132 776 
11 132 777 
12 133 778 
14 133 780 
15 133 781 
16 133 782 
18 134 784 
19 134 785 
20 134 787 
22 134 789 
23 135 791 
24 135 794 
26 136 797 
27 137 803 
29 138 810 
-77 132 770 
-76 132 769 
-75 132 769 
-74 132 768 
-72 132 767 
-71 132 766 
-70 131 765 
-68 131 764 
-67 131 764 
-66 131 764 
-65 131 764 
-63 131 765 
-62 131 765 
-61 132 766 
-60 132 767 
-59 132 768 
-57 132 769 
-56 132 771 
-55 133 772 
-54 133 774 
-53 133 775 
-52 134 777 
-51 134 779 
-50 134 781 
-48 135 783 
-47 135 785 
-46 135 787 
-45 135 788 
-44 136 789 
-42 136 789 
-41 135 787 
-40 135 786 
-38 135 784 
-37 134 781 
-35 134 778 
-34 133 775 
-33 133 773 
-31 132 770 
-30 132 769 
-29 132 767 
-27 132 766 
-26 131 764 
-25 131 763 
-24 131 762 
-22 131 761 
-21 131 760 
-20 130 759 
-19 130 758 
-17 130 758 
-16 130 758 
-15 130 758 
-14 130 758 
-12 130 758 
-11 130 759 
-10 131 760 
-9 131 761 
-8 131 762 
-6 131 763 
-5 131 764 
-4 132 765 
-3 132 765 
-1 132 765 
0 132 766 
1 132 767 
2 132 767 
4 132 768 
5 132 768 
6 132 769 
7 132 770 
9 133 771 
10 133 772 
11 133 772 
12 133 774 
14 133 776 
15 134 777 
16 134 778 
18 134 780 
19 134 782 
20 135 784 
22 135 786 
23 135 788 
24 136 791 
26 137 795 
27 138 801 
-77 133 769 
-76 133 768 
-75 133 766 
-73 133 765 
-72 132 764 
-71 132 763 
-69 132 763 
-68 132 762 
-67 132 762 
-66 132 762 
-64 132 762 
-63 132 763 
-62 132 763 
-61 133 765 
-60 133 766 
-59 133 768 
-57 133 769 
-56 134 770 
-55 134 771 
-54 134 773 
-53 134 775 
-52 135 777 
-51 135 779 
-50 135 781 
-48 136 784 
-47 137 787 
-46 137 790 
-45 137 792 
-40 137 792 
-39 137 790 
-37 137 788 
-36 136 785 
-34 136 783 
-33 135 780 
-32 135 778 
-30 135 776 
-29 134 774 
-28 134 772 
-26 134 771 
-25 133 769 
-24 133 767 
-23 133 766 
-21 133 764 
-20 132 763 
-19 132 761 
-17 132 760 
-16 132 760 
-15 132 760 
-14 132 759 
-12 132 759 
-11 132 759 
-10 132 760 
-9 132 760 
-8 132 760 
-6 132 761 
-5 132 761 
-4 132 762 
-3 132 762 
-1 132 761 
0 132 761 
1 132 762 
2 132 762 
4 132 762 
5 132 763 
6 132 763 
7 133 764 
9 133 765 
10 133 765 
11 133 767 
12 133 768 
14 134 770 
15 134 771 
16 134 773 
17 134 775 
19 135 777 
20 135 780 
21 136 782 
23 136 784 
24 137 787 
26 137 792 
27 138 797 
-77 134 766 
-76 134 765 
-74 134 763 
-73 133 762 
-72 133 762 
-70 133 761 
-69 133 760 
-68 133 760 
-67 133 760 
-65 133 760 
-64 133 760 
-63 133 761 
-62 133 762 
-61 134 763 
-60 134 765 
-58 134 766 
-57 134 768 
-56 135 769 
-55 135 770 
-54 135 772 
-53 136 774 
-52 136 776 
-51 136 778 
-50 137 781 
-48 137 784 
-35 138 789 
-33 138 787 
-32 137 785 
-31 137 783 
-29 137 780 
-28 136 779 
-27 136 776 
-25 136 775 
-24 135 773 
-23 135 770 
-21 135 768 
-20 134 766 
-19 134 764 
-17 133 762 
-16 133 761 
-15 133 760 
-14 133 760 
-12 133 759 
-11 133 759 
-10 133 759 
-9 133 758 
-8 133 758 
-6 133 758 
-5 133 758 
-4 133 758 
-3 133 757 
-1 133 757 
0 133 757 
1 133 757 
2 133 757 
4 133 757 
5 133 757 
6 133 757 
7 133 758 
8 133 758 
10 133 759 
11 133 760 
12 133 761 
13 134 763 
15 134 764 
16 134 766 
17 135 768 
19 135 770 
20 135 773 
21 136 775 
23 136 778 
24 137 781 
25 137 785 
27 139 791 
-75 134 761 
-74 134 759 
-73 134 759 
-71 134 759 
-70 134 758 
-69 134 758 
-68 134 758 
-66 134 758 
-65 134 758 
-64 134 758 
-63 134 759 
-62 134 760 
-61 135 762 
-59 135 763 
-58 135 765 
-57 135 766 
-56 136 768 
