ply
format ascii 1.0
comment VCGLIB generated
element vertex 2507
property float x
property float y
property float z
element face 0
property list uchar int vertex_indices
end_header
-0.007 0.147 0.74 
-0.006 0.147 0.74 
-0.005 0.147 0.74 
-0.004 0.147 0.74 
-0.003 0.147 0.74 
-0.001 0.147 0.74 
0 0.147 0.74 
0.001 0.147 0.74 
0.002 0.147 0.74 
0.003 0.147 0.74 
0.005 0.147 0.74 
0.006 0.147 0.74 
0.007 0.147 0.739 
0.008 0.147 0.737 
0.009 0.146 0.734 
0.011 0.146 0.732 
0.012 0.145 0.729 
0.013 0.145 0.726 
0.014 0.144 0.724 
0.015 0.144 0.722 
0.016 0.143 0.72 
0.017 0.143 0.719 
0.019 0.143 0.719 
0.02 0.143 0.719 
0.021 0.143 0.719 
0.022 0.143 0.719 
0.023 0.143 0.719 
0.024 0.143 0.72 
0.026 0.143 0.72 
0.027 0.144 0.722 
0.028 0.144 0.722 
0.029 0.144 0.724 
0.03 0.144 0.725 
0.032 0.145 0.728 
0.033 0.145 0.73 
0.034 0.146 0.733 
0.036 0.147 0.736 
0.037 0.147 0.74 
0.039 0.149 0.746 
0.04 0.15 0.753 
-0.032 0.151 0.75 
-0.03 0.15 0.746 
-0.029 0.149 0.743 
-0.028 0.149 0.741 
-0.026 0.148 0.739 
-0.025 0.148 0.738 
-0.024 0.148 0.737 
-0.023 0.148 0.736 
-0.022 0.148 0.736 
-0.02 0.148 0.736 
-0.019 0.148 0.736 
-0.018 0.148 0.735 
-0.017 0.148 0.736 
-0.016 0.148 0.736 
-0.014 0.148 0.737 
-0.013 0.148 0.737 
-0.012 0.148 0.738 
-0.011 0.148 0.738 
-0.01 0.148 0.738 
-0.009 0.148 0.738 
-0.007 0.148 0.739 
-0.006 0.148 0.739 
-0.005 0.148 0.739 
-0.004 0.148 0.739 
-0.003 0.149 0.74 
-0.001 0.149 0.74 
0 0.148 0.739 
0.001 0.148 0.739 
0.002 0.148 0.739 
0.003 0.148 0.739 
0.005 0.148 0.739 
0.006 0.148 0.738 
0.007 0.148 0.736 
0.008 0.147 0.734 
0.009 0.147 0.731 
0.01 0.146 0.728 
0.012 0.146 0.725 
0.013 0.145 0.723 
0.014 0.145 0.72 
0.015 0.144 0.719 
0.016 0.144 0.719 
0.017 0.144 0.717 
0.018 0.144 0.717 
0.02 0.144 0.717 
0.021 0.144 0.717 
0.022 0.144 0.718 
0.023 0.144 0.718 
0.024 0.144 0.719 
0.026 0.144 0.719 
0.027 0.145 0.72 
0.028 0.145 0.722 
0.029 0.145 0.723 
0.03 0.145 0.724 
0.032 0.146 0.726 
0.033 0.146 0.729 
0.034 0.147 0.732 
0.036 0.148 0.735 
0.037 0.148 0.739 
0.038 0.15 0.745 
0.04 0.151 0.752 
-0.033 0.152 0.75 
-0.032 0.151 0.746 
-0.03 0.15 0.743 
-0.029 0.15 0.74 
-0.028 0.149 0.738 
-0.026 0.149 0.737 
-0.025 0.149 0.735 
-0.024 0.149 0.734 
-0.023 0.148 0.733 
-0.021 0.148 0.732 
-0.02 0.148 0.732 
-0.019 0.148 0.732 
-0.018 0.148 0.733 
-0.017 0.148 0.733 
-0.016 0.149 0.734 
-0.014 0.149 0.734 
-0.013 0.149 0.735 
-0.012 0.149 0.735 
-0.011 0.149 0.735 
-0.01 0.149 0.736 
-0.008 0.149 0.736 
-0.007 0.149 0.736 
-0.006 0.149 0.736 
-0.005 0.149 0.737 
-0.004 0.149 0.737 
-0.003 0.149 0.737 
-0.001 0.149 0.737 
0 0.149 0.737 
0.001 0.149 0.737 
0.002 0.149 0.737 
0.003 0.149 0.736 
0.005 0.149 0.736 
0.006 0.149 0.735 
0.007 0.148 0.733 
0.008 0.148 0.73 
0.009 0.147 0.728 
0.01 0.147 0.725 
0.012 0.146 0.722 
0.013 0.146 0.72 
0.014 0.145 0.718 
0.015 0.145 0.717 
0.016 0.145 0.716 
0.017 0.145 0.716 
0.018 0.145 0.715 
0.02 0.145 0.715 
0.021 0.145 0.716 
0.022 0.145 0.716 
0.023 0.145 0.717 
0.024 0.145 0.717 
0.025 0.145 0.718 
0.027 0.146 0.719 
0.028 0.146 0.72 
0.029 0.146 0.722 
0.03 0.146 0.723 
0.032 0.147 0.725 
0.033 0.147 0.728 
0.034 0.148 0.731 
0.036 0.149 0.734 
0.037 0.149 0.738 
0.038 0.151 0.744 
0.04 0.152 0.751 
-0.033 0.152 0.746 
-0.031 0.151 0.742 
-0.03 0.151 0.739 
-0.029 0.15 0.737 
-0.028 0.15 0.736 
-0.026 0.15 0.734 
-0.025 0.149 0.732 
-0.024 0.149 0.731 
-0.023 0.149 0.73 
-0.021 0.149 0.729 
-0.02 0.149 0.728 
-0.019 0.149 0.729 
-0.018 0.149 0.729 
-0.017 0.149 0.729 
-0.016 0.149 0.73 
-0.014 0.149 0.731 
-0.013 0.149 0.731 
-0.012 0.149 0.732 
-0.011 0.149 0.732 
-0.01 0.149 0.732 
-0.008 0.15 0.733 
-0.007 0.15 0.733 
-0.006 0.15 0.733 
-0.005 0.15 0.733 
-0.004 0.15 0.734 
-0.003 0.15 0.734 
-0.001 0.15 0.734 
0 0.15 0.734 
0.001 0.15 0.734 
0.002 0.15 0.734 
0.003 0.15 0.733 
0.005 0.149 0.732 
0.006 0.149 0.73 
0.007 0.149 0.729 
0.008 0.148 0.726 
0.009 0.148 0.724 
0.01 0.147 0.721 
0.012 0.147 0.72 
0.013 0.147 0.718 
0.014 0.146 0.717 
0.015 0.146 0.716 
0.016 0.146 0.714 
0.017 0.146 0.714 
0.018 0.146 0.714 
0.02 0.146 0.714 
0.021 0.146 0.714 
0.022 0.146 0.715 
0.023 0.146 0.716 
0.024 0.146 0.717 
0.025 0.147 0.718 
0.027 0.147 0.718 
0.028 0.147 0.72 
0.029 0.147 0.721 
0.03 0.148 0.723 
0.032 0.148 0.724 
0.033 0.148 0.727 
0.034 0.149 0.73 
0.035 0.15 0.733 
0.037 0.15 0.737 
0.038 0.152 0.743 
0.04 0.153 0.75 
-0.034 0.154 0.749 
-0.033 0.153 0.743 
-0.031 0.152 0.74 
-0.03 0.152 0.737 
-0.029 0.151 0.734 
-0.027 0.151 0.732 
-0.026 0.15 0.73 
-0.025 0.15 0.729 
-0.024 0.15 0.728 
-0.023 0.15 0.727 
-0.021 0.149 0.726 
-0.02 0.149 0.726 
-0.019 0.149 0.726 
-0.018 0.149 0.726 
-0.017 0.149 0.726 
-0.015 0.149 0.726 
-0.014 0.15 0.727 
-0.013 0.15 0.727 
-0.012 0.15 0.727 
-0.011 0.15 0.727 
-0.01 0.15 0.728 
-0.008 0.15 0.728 
-0.007 0.15 0.728 
-0.006 0.15 0.728 
-0.005 0.15 0.728 
-0.004 0.15 0.729 
-0.002 0.15 0.729 
-0.001 0.15 0.73 
0 0.15 0.73 
0.001 0.15 0.73 
0.002 0.15 0.73 
0.003 0.15 0.729 
0.005 0.15 0.728 
0.006 0.149 0.726 
0.007 0.149 0.724 
0.008 0.149 0.723 
0.009 0.148 0.72 
0.01 0.148 0.718 
0.011 0.148 0.717 
0.013 0.147 0.716 
0.014 0.147 0.715 
0.015 0.147 0.714 
0.016 0.147 0.713 
0.017 0.147 0.713 
0.018 0.147 0.713 
0.02 0.147 0.713 
0.021 0.147 0.713 
0.022 0.147 0.714 
0.023 0.147 0.715 
0.024 0.147 0.716 
0.025 0.147 0.717 
0.027 0.148 0.718 
0.028 0.148 0.72 
0.029 0.148 0.721 
0.03 0.149 0.723 
0.032 0.149 0.724 
0.033 0.15 0.727 
0.034 0.15 0.73 
0.035 0.151 0.733 
0.037 0.151 0.736 
0.038 0.153 0.742 
0.04 0.154 0.749 
-0.034 0.155 0.746 
-0.033 0.154 0.741 
-0.031 0.153 0.738 
-0.03 0.152 0.734 
-0.029 0.152 0.732 
-0.027 0.151 0.73 
-0.026 0.151 0.729 
-0.025 0.151 0.727 
-0.024 0.15 0.725 
-0.022 0.15 0.724 
-0.021 0.15 0.724 
-0.02 0.15 0.723 
-0.019 0.15 0.723 
-0.018 0.15 0.723 
-0.016 0.15 0.722 
-0.015 0.15 0.723 
-0.014 0.15 0.723 
-0.013 0.15 0.723 
-0.012 0.15 0.723 
-0.011 0.15 0.723 
-0.009 0.15 0.723 
-0.008 0.15 0.723 
-0.007 0.15 0.723 
-0.006 0.15 0.723 
-0.005 0.15 0.724 
-0.004 0.15 0.724 
-0.002 0.15 0.725 
-0.001 0.15 0.725 
0 0.15 0.725 
0.001 0.15 0.725 
0.002 0.15 0.724 
0.003 0.15 0.724 
0.005 0.15 0.722 
0.006 0.149 0.72 
0.007 0.149 0.719 
0.008 0.149 0.718 
0.009 0.149 0.717 
0.01 0.148 0.716 
0.011 0.148 0.715 
0.013 0.148 0.714 
0.014 0.148 0.713 
0.015 0.148 0.712 
0.016 0.148 0.712 
0.017 0.148 0.712 
0.018 0.147 0.711 
0.019 0.148 0.712 
0.021 0.148 0.713 
0.022 0.148 0.713 
0.023 0.148 0.715 
0.024 0.148 0.716 
0.025 0.149 0.717 
0.027 0.149 0.718 
0.028 0.149 0.719 
0.029 0.149 0.72 
0.03 0.15 0.722 
0.032 0.15 0.724 
0.033 0.151 0.726 
0.034 0.151 0.729 
0.035 0.152 0.732 
0.037 0.152 0.735 
0.038 0.154 0.741 
0.04 0.155 0.748 
-0.034 0.155 0.743 
-0.032 0.154 0.739 
-0.031 0.154 0.735 
-0.03 0.153 0.732 
-0.029 0.152 0.73 
-0.027 0.152 0.728 
-0.026 0.152 0.726 
-0.025 0.151 0.725 
-0.024 0.151 0.723 
-0.022 0.151 0.721 
-0.021 0.151 0.721 
-0.02 0.151 0.721 
-0.019 0.15 0.72 
-0.018 0.15 0.72 
-0.016 0.15 0.719 
-0.015 0.15 0.72 
-0.014 0.15 0.72 
-0.013 0.15 0.72 
-0.012 0.15 0.719 
-0.011 0.15 0.719 
-0.009 0.15 0.719 
-0.008 0.15 0.719 
-0.007 0.15 0.719 
-0.006 0.15 0.719 
-0.005 0.15 0.719 
-0.004 0.15 0.719 
-0.002 0.15 0.72 
-0.001 0.15 0.72 
0 0.15 0.72 
0.001 0.15 0.719 
0.002 0.15 0.719 
0.003 0.15 0.718 
0.005 0.15 0.718 
0.006 0.15 0.716 
0.007 0.149 0.715 
0.008 0.149 0.714 
0.009 0.149 0.714 
0.01 0.149 0.713 
0.011 0.149 0.713 
0.013 0.149 0.712 
0.014 0.149 0.712 
0.015 0.149 0.711 
0.016 0.149 0.711 
0.017 0.149 0.711 
0.018 0.149 0.711 
0.019 0.149 0.711 
0.021 0.149 0.712 
0.022 0.149 0.712 
0.023 0.149 0.714 
0.024 0.149 0.715 
0.025 0.15 0.716 
0.027 0.15 0.717 
0.028 0.15 0.719 
0.029 0.15 0.72 
0.03 0.151 0.722 
0.031 0.151 0.723 
0.033 0.151 0.725 
0.034 0.152 0.728 
0.035 0.153 0.731 
0.037 0.153 0.734 
0.038 0.155 0.74 
0.04 0.156 0.747 
-0.035 0.157 0.748 
-0.034 0.156 0.741 
-0.032 0.155 0.736 
-0.031 0.154 0.733 
-0.03 0.153 0.729 
-0.028 0.153 0.727 
-0.027 0.153 0.725 
-0.026 0.152 0.724 
-0.025 0.152 0.722 
-0.023 0.152 0.721 
-0.022 0.151 0.719 
-0.021 0.151 0.719 
-0.02 0.151 0.718 
-0.019 0.151 0.717 
-0.018 0.151 0.717 
-0.016 0.151 0.717 
-0.015 0.151 0.717 
-0.014 0.151 0.716 
-0.013 0.151 0.717 
-0.012 0.151 0.716 
-0.011 0.151 0.716 
-0.009 0.151 0.716 
-0.008 0.151 0.716 
-0.007 0.151 0.716 
-0.006 0.151 0.715 
-0.005 0.151 0.715 
-0.004 0.151 0.715 
-0.002 0.151 0.716 
-0.001 0.151 0.716 
0 0.151 0.715 
0.001 0.15 0.714 
0.002 0.15 0.714 
0.003 0.15 0.714 
0.004 0.15 0.713 
0.006 0.15 0.713 
0.007 0.15 0.712 
0.008 0.15 0.712 
0.009 0.15 0.712 
0.01 0.15 0.711 
0.011 0.15 0.711 
0.013 0.15 0.711 
0.014 0.149 0.71 
0.015 0.149 0.71 
0.016 0.149 0.71 
0.017 0.149 0.71 
0.018 0.149 0.71 
0.019 0.149 0.71 
0.021 0.15 0.711 
0.022 0.15 0.712 
0.023 0.15 0.713 
0.024 0.15 0.714 
0.025 0.151 0.715 
0.027 0.151 0.717 
0.028 0.151 0.718 
0.029 0.151 0.719 
0.03 0.152 0.721 
0.031 0.152 0.722 
0.033 0.153 0.725 
0.034 0.153 0.727 
0.035 0.154 0.73 
0.037 0.154 0.733 
0.038 0.155 0.738 
0.04 0.157 0.745 
-0.035 0.158 0.745 
-0.034 0.157 0.739 
-0.032 0.156 0.734 
-0.031 0.155 0.731 
-0.03 0.154 0.727 
-0.028 0.154 0.726 
-0.027 0.153 0.723 
-0.026 0.153 0.722 
-0.025 0.153 0.721 
-0.023 0.153 0.719 
-0.022 0.152 0.718 
-0.021 0.152 0.717 
-0.02 0.152 0.716 
-0.019 0.152 0.715 
-0.017 0.152 0.715 
-0.016 0.152 0.715 
-0.015 0.152 0.715 
-0.014 0.151 0.714 
-0.013 0.151 0.714 
-0.012 0.151 0.714 
-0.011 0.151 0.713 
-0.009 0.151 0.713 
-0.008 0.151 0.713 
-0.007 0.151 0.713 
-0.006 0.151 0.713 
-0.005 0.151 0.712 
-0.004 0.151 0.712 
-0.002 0.151 0.712 
-0.001 0.151 0.712 
0 0.151 0.712 
0.001 0.151 0.711 
0.002 0.151 0.71 
0.003 0.151 0.71 
0.004 0.151 0.71 
0.006 0.15 0.709 
0.007 0.15 0.709 
0.008 0.15 0.709 
0.009 0.15 0.709 
0.01 0.15 0.709 
0.011 0.15 0.709 
0.013 0.151 0.71 
0.014 0.151 0.71 
0.015 0.15 0.709 
0.016 0.15 0.709 
0.017 0.15 0.709 
0.018 0.15 0.709 
0.019 0.15 0.709 
0.021 0.151 0.71 
0.022 0.151 0.712 
0.023 0.151 0.713 
0.024 0.151 0.714 
0.025 0.152 0.715 
0.027 0.152 0.716 
0.028 0.152 0.717 
0.029 0.153 0.719 
0.03 0.153 0.72 
0.031 0.153 0.722 
0.033 0.154 0.724 
0.034 0.154 0.726 
0.035 0.155 0.729 
0.037 0.155 0.732 
0.038 0.156 0.737 
0.04 0.157 0.742 
-0.035 0.159 0.742 
-0.034 0.158 0.737 
-0.032 0.157 0.733 
-0.031 0.156 0.729 
-0.03 0.155 0.726 
-0.028 0.155 0.724 
-0.027 0.154 0.722 
-0.026 0.154 0.72 
-0.025 0.154 0.719 
-0.023 0.153 0.718 
-0.022 0.153 0.717 
-0.021 0.153 0.716 
-0.02 0.153 0.715 
-0.019 0.153 0.714 
-0.017 0.152 0.713 
-0.016 0.152 0.713 
-0.015 0.152 0.713 
-0.014 0.152 0.713 
-0.013 0.152 0.712 
-0.012 0.152 0.712 
-0.01 0.152 0.711 
-0.009 0.152 0.711 
-0.008 0.152 0.711 
-0.007 0.152 0.711 
-0.006 0.152 0.71 
-0.005 0.152 0.71 
-0.004 0.152 0.71 
-0.002 0.152 0.71 
-0.001 0.152 0.71 
0 0.152 0.709 
0.001 0.152 0.709 
0.002 0.152 0.709 
0.003 0.152 0.709 
0.004 0.151 0.708 
0.006 0.151 0.708 
0.007 0.151 0.708 
0.008 0.151 0.708 
0.009 0.151 0.708 
0.01 0.151 0.708 
0.011 0.151 0.708 
0.012 0.151 0.708 
0.014 0.152 0.709 
0.015 0.152 0.709 
0.016 0.152 0.709 
0.017 0.152 0.709 
0.018 0.152 0.709 
0.019 0.152 0.709 
0.021 0.152 0.71 
0.022 0.152 0.711 
0.023 0.152 0.712 
0.024 0.152 0.713 
0.025 0.153 0.714 
0.027 0.153 0.716 
0.028 0.153 0.717 
0.029 0.153 0.718 
0.03 0.154 0.719 
0.031 0.154 0.722 
0.033 0.155 0.724 
0.034 0.155 0.726 
0.035 0.156 0.728 
0.037 0.156 0.732 
0.038 0.157 0.736 
0.039 0.158 0.741 
0.041 0.16 0.749 
-0.035 0.16 0.741 
-0.033 0.158 0.736 
-0.032 0.157 0.731 
-0.031 0.157 0.728 
-0.029 0.156 0.725 
-0.028 0.156 0.723 
-0.027 0.155 0.721 
-0.026 0.155 0.72 
-0.025 0.155 0.718 
-0.023 0.154 0.716 
-0.022 0.154 0.715 
-0.021 0.154 0.714 
-0.02 0.154 0.713 
-0.019 0.154 0.713 
-0.017 0.153 0.712 
-0.016 0.153 0.712 
-0.015 0.153 0.711 
-0.014 0.153 0.711 
-0.013 0.153 0.711 
-0.012 0.153 0.711 
-0.01 0.153 0.711 
-0.009 0.153 0.71 
-0.008 0.153 0.71 
-0.007 0.153 0.709 
-0.006 0.152 0.708 
-0.005 0.152 0.708 
-0.004 0.152 0.708 
-0.002 0.152 0.708 
-0.001 0.152 0.708 
0 0.152 0.707 
0.001 0.152 0.707 
0.002 0.152 0.707 
0.003 0.152 0.707 
0.004 0.152 0.706 
0.006 0.152 0.706 
0.007 0.152 0.706 
0.008 0.152 0.706 
0.009 0.152 0.706 
0.01 0.152 0.706 
0.011 0.152 0.707 
0.012 0.152 0.707 
0.014 0.152 0.708 
0.015 0.152 0.708 
0.016 0.152 0.708 
0.017 0.153 0.709 
0.018 0.153 0.709 
0.019 0.153 0.709 
0.021 0.153 0.71 
0.022 0.153 0.711 
0.023 0.153 0.711 
0.024 0.154 0.713 
0.025 0.154 0.714 
0.027 0.154 0.715 
0.028 0.154 0.716 
0.029 0.155 0.718 
0.03 0.155 0.719 
0.031 0.155 0.721 
0.033 0.156 0.723 
0.034 0.156 0.725 
0.035 0.157 0.727 
0.037 0.157 0.73 
0.038 0.158 0.734 
0.039 0.159 0.739 
0.041 0.161 0.746 
-0.036 0.162 0.746 
-0.035 0.16 0.739 
-0.033 0.159 0.735 
-0.032 0.158 0.73 
-0.031 0.158 0.727 
-0.029 0.157 0.725 
-0.028 0.157 0.722 
-0.027 0.156 0.72 
-0.026 0.156 0.719 
-0.025 0.156 0.717 
-0.023 0.155 0.716 
-0.022 0.155 0.714 
-0.021 0.155 0.713 
-0.02 0.154 0.712 
-0.019 0.154 0.711 
-0.017 0.154 0.711 
-0.016 0.154 0.711 
-0.015 0.154 0.71 
-0.014 0.154 0.71 
-0.013 0.154 0.71 
-0.012 0.154 0.71 
-0.01 0.154 0.71 
-0.009 0.154 0.709 
-0.008 0.154 0.709 
-0.007 0.154 0.708 
-0.006 0.153 0.707 
-0.005 0.153 0.707 
-0.004 0.153 0.707 
-0.002 0.153 0.707 
-0.001 0.153 0.707 
0 0.153 0.706 
0.001 0.153 0.706 
0.002 0.153 0.706 
0.003 0.153 0.706 
0.004 0.153 0.705 
0.006 0.153 0.705 
0.007 0.153 0.705 
0.008 0.153 0.705 
0.009 0.153 0.705 
0.01 0.153 0.706 
0.011 0.153 0.706 
0.012 0.153 0.707 
0.014 0.153 0.707 
0.015 0.153 0.707 
0.016 0.154 0.708 
0.017 0.154 0.708 
0.018 0.154 0.709 
0.019 0.154 0.709 
0.021 0.154 0.71 
0.022 0.154 0.711 
0.023 0.154 0.711 
0.024 0.154 0.712 
0.025 0.155 0.713 
0.027 0.155 0.715 
0.028 0.155 0.715 
0.029 0.156 0.717 
0.03 0.156 0.719 
0.031 0.156 0.72 
0.033 0.157 0.723 
0.034 0.157 0.725 
0.035 0.158 0.727 
0.036 0.158 0.729 
0.038 0.159 0.733 
0.039 0.16 0.737 
0.041 0.161 0.743 
0.042 0.162 0.749 
-0.036 0.162 0.743 
-0.035 0.161 0.738 
-0.033 0.16 0.733 
-0.032 0.16 0.73 
-0.031 0.159 0.726 
-0.029 0.158 0.724 
-0.028 0.158 0.722 
-0.027 0.157 0.72 
-0.026 0.157 0.718 
-0.024 0.156 0.716 
-0.023 0.156 0.715 
-0.022 0.156 0.714 
-0.021 0.156 0.712 
-0.02 0.155 0.711 
-0.019 0.155 0.71 
-0.017 0.155 0.71 
-0.016 0.155 0.71 
-0.015 0.155 0.709 
-0.014 0.155 0.709 
-0.013 0.155 0.709 
-0.012 0.155 0.709 
-0.01 0.155 0.709 
-0.009 0.155 0.708 
-0.008 0.155 0.708 
-0.007 0.155 0.707 
-0.006 0.154 0.706 
-0.005 0.154 0.706 
-0.004 0.154 0.705 
-0.002 0.154 0.705 
-0.001 0.154 0.705 
0 0.154 0.705 
0.001 0.154 0.705 
0.002 0.154 0.705 
0.003 0.154 0.705 
0.004 0.154 0.705 
0.006 0.154 0.704 
0.007 0.154 0.705 
0.008 0.154 0.705 
0.009 0.154 0.705 
0.01 0.154 0.705 
0.011 0.154 0.706 
0.012 0.154 0.706 
0.014 0.155 0.707 
0.015 0.155 0.707 
0.016 0.155 0.707 
0.017 0.155 0.708 
0.018 0.155 0.708 
0.019 0.155 0.709 
0.021 0.155 0.71 
0.022 0.155 0.71 
0.023 0.155 0.711 
0.024 0.156 0.712 
0.025 0.156 0.713 
0.026 0.156 0.714 
0.028 0.156 0.715 
0.029 0.156 0.716 
0.03 0.157 0.718 
0.031 0.157 0.72 
0.033 0.158 0.722 
0.034 0.158 0.724 
0.035 0.159 0.726 
0.036 0.159 0.729 
0.038 0.16 0.732 
0.039 0.161 0.735 
0.041 0.162 0.74 
0.042 0.163 0.745 
-0.036 0.163 0.742 
-0.035 0.162 0.737 
-0.033 0.161 0.733 
-0.032 0.16 0.729 
-0.031 0.16 0.726 
-0.029 0.159 0.724 
-0.028 0.159 0.721 
-0.027 0.158 0.719 
-0.026 0.158 0.718 
-0.024 0.157 0.715 
-0.023 0.157 0.714 
-0.022 0.157 0.713 
-0.021 0.157 0.711 
-0.02 0.156 0.71 
-0.019 0.156 0.71 
-0.017 0.156 0.709 
-0.016 0.156 0.709 
-0.015 0.156 0.708 
-0.014 0.156 0.708 
-0.013 0.156 0.708 
-0.012 0.156 0.708 
-0.01 0.156 0.708 
-0.009 0.156 0.707 
-0.008 0.156 0.707 
-0.007 0.155 0.706 
-0.006 0.155 0.706 
-0.005 0.155 0.705 
-0.004 0.155 0.704 
-0.002 0.155 0.704 
-0.001 0.155 0.704 
0 0.155 0.704 
0.001 0.155 0.704 
0.002 0.155 0.704 
0.003 0.155 0.704 
0.004 0.155 0.704 
0.006 0.155 0.704 
0.007 0.155 0.704 
0.008 0.155 0.704 
0.009 0.155 0.705 
0.01 0.155 0.705 
0.011 0.155 0.705 
0.012 0.155 0.705 
0.014 0.155 0.706 
0.015 0.155 0.706 
0.016 0.155 0.706 
0.017 0.156 0.707 
0.018 0.156 0.708 
0.019 0.156 0.709 
0.021 0.156 0.71 
0.022 0.156 0.71 
0.023 0.157 0.711 
0.024 0.157 0.712 
0.025 0.157 0.713 
0.026 0.157 0.713 
0.028 0.157 0.715 
0.029 0.158 0.716 
0.03 0.158 0.718 
0.031 0.158 0.719 
0.033 0.159 0.721 
0.034 0.159 0.724 
0.035 0.16 0.726 
0.036 0.16 0.728 
0.038 0.161 0.731 
0.039 0.162 0.734 
0.04 0.162 0.738 
0.042 0.164 0.743 
0.044 0.165 0.749 
-0.036 0.165 0.742 
-0.035 0.163 0.737 
-0.033 0.162 0.732 
-0.032 0.162 0.729 
-0.031 0.161 0.726 
-0.029 0.161 0.724 
-0.028 0.16 0.721 
-0.027 0.159 0.719 
-0.026 0.159 0.717 
-0.024 0.159 0.715 
-0.023 0.158 0.713 
-0.022 0.158 0.712 
-0.021 0.157 0.71 
-0.02 0.157 0.709 
-0.018 0.157 0.709 
-0.017 0.157 0.709 
-0.016 0.157 0.709 
-0.015 0.157 0.708 
-0.014 0.157 0.708 
-0.013 0.157 0.708 
-0.012 0.157 0.708 
-0.01 0.157 0.707 
-0.009 0.157 0.707 
-0.008 0.157 0.706 
-0.007 0.157 0.706 
-0.006 0.156 0.705 
-0.005 0.156 0.704 
-0.004 0.156 0.704 
-0.002 0.156 0.703 
-0.001 0.156 0.703 
0 0.156 0.703 
0.001 0.156 0.703 
0.002 0.156 0.703 
0.003 0.156 0.703 
0.004 0.156 0.703 
0.006 0.156 0.703 
0.007 0.156 0.703 
0.008 0.156 0.703 
0.009 0.156 0.704 
0.01 0.156 0.704 
0.011 0.156 0.704 
0.012 0.156 0.705 
0.014 0.157 0.706 
0.015 0.157 0.706 
0.016 0.157 0.706 
0.017 0.157 0.707 
0.018 0.157 0.708 
0.019 0.157 0.709 
0.021 0.157 0.71 
0.022 0.157 0.71 
0.023 0.158 0.712 
0.024 0.158 0.713 
0.025 0.158 0.713 
0.026 0.158 0.714 
0.028 0.159 0.715 
0.029 0.159 0.717 
0.03 0.159 0.718 
0.031 0.16 0.72 
0.033 0.16 0.721 
0.034 0.16 0.723 
0.035 0.161 0.726 
0.036 0.161 0.728 
0.038 0.162 0.731 
0.039 0.163 0.734 
0.04 0.163 0.737 
0.042 0.165 0.742 
0.043 0.166 0.747 
-0.036 0.166 0.742 
-0.035 0.165 0.737 
-0.033 0.164 0.733 
-0.032 0.163 0.729 
-0.031 0.162 0.726 
-0.029 0.161 0.723 
-0.028 0.161 0.721 
-0.027 0.161 0.719 
-0.026 0.16 0.717 
-0.024 0.16 0.715 
-0.023 0.159 0.713 
-0.022 0.159 0.712 
-0.021 0.159 0.71 
-0.02 0.158 0.709 
-0.018 0.158 0.709 
-0.017 0.158 0.709 
-0.016 0.158 0.709 
-0.015 0.158 0.708 
-0.014 0.158 0.708 
-0.013 0.158 0.708 
-0.012 0.158 0.708 
-0.01 0.158 0.707 
-0.009 0.158 0.707 
-0.008 0.158 0.706 
-0.007 0.157 0.705 
-0.006 0.157 0.704 
-0.005 0.157 0.704 
-0.004 0.157 0.703 
-0.002 0.157 0.703 
-0.001 0.157 0.703 
0 0.157 0.703 
0.001 0.157 0.703 
0.002 0.157 0.703 
0.003 0.157 0.703 
0.004 0.157 0.703 
0.006 0.157 0.703 
0.007 0.157 0.703 
0.008 0.157 0.703 
0.009 0.157 0.704 
0.01 0.157 0.704 
0.011 0.157 0.704 
0.012 0.157 0.705 
0.014 0.158 0.706 
0.015 0.158 0.706 
0.016 0.158 0.707 
0.017 0.158 0.708 
0.018 0.158 0.708 
0.019 0.158 0.709 
0.021 0.159 0.71 
0.022 0.159 0.711 
0.023 0.159 0.711 
0.024 0.159 0.713 
0.025 0.159 0.713 
0.026 0.159 0.714 
0.028 0.16 0.715 
0.029 0.16 0.716 
0.03 0.16 0.718 
0.031 0.161 0.72 
0.033 0.161 0.721 
0.034 0.161 0.723 
0.035 0.162 0.725 
0.036 0.163 0.728 
0.038 0.163 0.731 
0.039 0.164 0.734 
0.04 0.165 0.737 
0.042 0.165 0.741 
0.043 0.167 0.746 
-0.036 0.167 0.743 
-0.035 0.166 0.737 
-0.033 0.165 0.733 
-0.032 0.164 0.729 
-0.031 0.163 0.726 
-0.029 0.163 0.724 
-0.028 0.162 0.721 
-0.027 0.162 0.719 
-0.026 0.161 0.717 
-0.024 0.161 0.715 
-0.023 0.16 0.713 
-0.022 0.16 0.712 
-0.021 0.16 0.711 
-0.02 0.159 0.709 
-0.018 0.159 0.709 
-0.017 0.16 0.709 
-0.016 0.159 0.708 
-0.015 0.159 0.708 
-0.014 0.159 0.708 
-0.013 0.159 0.707 
-0.012 0.159 0.707 
-0.01 0.159 0.707 
-0.009 0.159 0.706 
-0.008 0.159 0.706 
-0.007 0.159 0.705 
-0.006 0.158 0.704 
-0.005 0.158 0.703 
-0.004 0.158 0.703 
-0.002 0.158 0.702 
-0.001 0.158 0.702 
0 0.158 0.702 
0.001 0.158 0.702 
0.002 0.158 0.702 
0.003 0.158 0.703 
0.004 0.158 0.703 
0.006 0.158 0.703 
0.007 0.158 0.703 
0.008 0.158 0.704 
0.009 0.158 0.704 
0.01 0.158 0.704 
0.011 0.159 0.705 
0.012 0.159 0.705 
0.014 0.159 0.706 
0.015 0.159 0.706 
0.016 0.159 0.707 
0.017 0.159 0.708 
0.018 0.16 0.709 
0.019 0.16 0.71 
0.021 0.16 0.711 
0.022 0.16 0.711 
0.023 0.16 0.712 
0.024 0.16 0.712 
0.025 0.16 0.713 
0.026 0.161 0.714 
0.028 0.161 0.715 
0.029 0.161 0.716 
0.03 0.161 0.717 
0.031 0.162 0.72 
0.033 0.162 0.721 
0.034 0.163 0.723 
0.035 0.163 0.725 
0.036 0.164 0.728 
0.038 0.164 0.731 
0.039 0.165 0.734 
0.04 0.166 0.737 
0.042 0.167 0.741 
0.043 0.168 0.746 
-0.036 0.169 0.744 
-0.035 0.167 0.738 
-0.033 0.166 0.734 
-0.032 0.165 0.73 
-0.031 0.165 0.727 
-0.029 0.164 0.723 
-0.028 0.164 0.722 
-0.027 0.163 0.719 
-0.026 0.162 0.717 
-0.024 0.162 0.715 
-0.023 0.162 0.713 
-0.022 0.161 0.712 
-0.021 0.161 0.711 
-0.02 0.161 0.71 
-0.018 0.161 0.709 
-0.017 0.161 0.709 
-0.016 0.161 0.709 
-0.015 0.16 0.708 
-0.014 0.16 0.707 
-0.013 0.16 0.707 
-0.012 0.16 0.706 
-0.01 0.16 0.706 
-0.009 0.16 0.706 
-0.008 0.16 0.705 
-0.007 0.16 0.705 
-0.006 0.16 0.704 
-0.005 0.159 0.703 
-0.004 0.159 0.703 
-0.002 0.159 0.702 
-0.001 0.159 0.702 
0 0.159 0.702 
0.001 0.159 0.702 
0.002 0.159 0.702 
0.003 0.159 0.702 
0.004 0.159 0.703 
0.006 0.159 0.703 
0.007 0.159 0.703 
0.008 0.16 0.704 
0.009 0.16 0.704 
0.01 0.16 0.704 
0.011 0.16 0.705 
0.012 0.16 0.705 
0.014 0.16 0.705 
0.015 0.16 0.706 
0.016 0.16 0.707 
0.017 0.16 0.708 
0.018 0.161 0.709 
0.019 0.161 0.709 
0.021 0.161 0.711 
0.022 0.161 0.711 
0.023 0.161 0.712 
0.024 0.161 0.712 
0.025 0.162 0.713 
0.026 0.162 0.714 
0.028 0.162 0.715 
0.029 0.162 0.716 
0.03 0.162 0.717 
0.031 0.163 0.719 
0.033 0.163 0.721 
0.034 0.164 0.723 
0.035 0.164 0.725 
0.036 0.165 0.728 
0.038 0.166 0.731 
0.039 0.166 0.734 
0.04 0.167 0.737 
0.042 0.168 0.741 
0.043 0.169 0.746 
-0.036 0.17 0.744 
-0.035 0.169 0.739 
-0.033 0.167 0.734 
-0.032 0.167 0.73 
-0.031 0.166 0.727 
-0.029 0.165 0.724 
-0.028 0.165 0.722 
-0.027 0.164 0.719 
-0.026 0.163 0.716 
-0.024 0.163 0.714 
-0.023 0.163 0.713 
-0.022 0.162 0.711 
-0.021 0.162 0.71 
-0.02 0.162 0.709 
-0.018 0.162 0.709 
-0.017 0.162 0.709 
-0.016 0.162 0.708 
-0.015 0.162 0.708 
-0.014 0.162 0.708 
-0.013 0.161 0.707 
-0.012 0.161 0.706 
-0.01 0.161 0.706 
-0.009 0.161 0.706 
-0.008 0.161 0.705 
-0.007 0.161 0.704 
-0.006 0.161 0.704 
-0.005 0.16 0.703 
-0.004 0.16 0.703 
-0.002 0.16 0.703 
-0.001 0.16 0.702 
0 0.16 0.702 
0.001 0.16 0.702 
0.002 0.16 0.702 
0.003 0.16 0.703 
0.004 0.16 0.703 
0.006 0.16 0.703 
0.007 0.161 0.704 
0.008 0.161 0.704 
0.009 0.161 0.705 
0.01 0.161 0.705 
0.011 0.161 0.705 
0.012 0.161 0.705 
0.014 0.161 0.706 
0.015 0.161 0.706 
0.016 0.161 0.707 
0.017 0.162 0.708 
0.018 0.162 0.709 
0.019 0.162 0.71 
0.021 0.162 0.711 
0.022 0.162 0.712 
0.023 0.162 0.712 
0.024 0.163 0.713 
0.025 0.163 0.714 
0.026 0.163 0.715 
0.028 0.163 0.715 
0.029 0.163 0.716 
0.03 0.164 0.718 
0.031 0.164 0.719 
0.033 0.164 0.721 
0.034 0.165 0.724 
0.035 0.166 0.726 
0.036 0.166 0.729 
0.038 0.167 0.731 
0.039 0.167 0.734 
0.04 0.168 0.738 
0.042 0.169 0.742 
0.043 0.17 0.747 
-0.035 0.17 0.739 
-0.033 0.169 0.735 
-0.032 0.168 0.731 
-0.031 0.167 0.727 
-0.029 0.166 0.724 
-0.028 0.166 0.722 
-0.027 0.165 0.72 
-0.026 0.165 0.717 
-0.024 0.164 0.715 
-0.023 0.164 0.713 
-0.022 0.164 0.712 
-0.021 0.163 0.711 
-0.02 0.163 0.709 
-0.018 0.163 0.709 
-0.017 0.163 0.709 
-0.016 0.163 0.708 
-0.015 0.163 0.708 
-0.014 0.162 0.707 
-0.013 0.162 0.707 
-0.012 0.162 0.706 
-0.01 0.162 0.705 
-0.009 0.162 0.705 
-0.008 0.162 0.705 
-0.007 0.162 0.704 
-0.006 0.162 0.704 
-0.005 0.162 0.703 
-0.004 0.162 0.703 
-0.002 0.162 0.703 
-0.001 0.162 0.703 
0 0.162 0.703 
0.001 0.162 0.703 
0.002 0.162 0.703 
0.003 0.162 0.703 
0.004 0.162 0.704 
0.006 0.162 0.704 
0.007 0.162 0.704 
0.008 0.162 0.704 
0.009 0.162 0.705 
0.01 0.162 0.705 
0.011 0.162 0.706 
0.012 0.162 0.706 
0.014 0.162 0.706 
0.015 0.162 0.707 
0.016 0.162 0.707 
0.017 0.163 0.708 
0.018 0.163 0.71 
0.019 0.163 0.711 
0.021 0.163 0.711 
0.022 0.163 0.711 
0.023 0.164 0.712 
0.024 0.164 0.713 
0.025 0.164 0.714 
0.026 0.164 0.715 
0.028 0.165 0.716 
0.029 0.165 0.717 
0.03 0.165 0.719 
0.031 0.165 0.72 
0.033 0.166 0.721 
0.034 0.166 0.723 
0.035 0.167 0.726 
0.036 0.167 0.729 
0.038 0.168 0.732 
0.039 0.169 0.735 
0.041 0.17 0.739 
0.042 0.171 0.744 
-0.035 0.171 0.741 
-0.033 0.17 0.736 
-0.032 0.169 0.731 
-0.031 0.168 0.728 
-0.029 0.167 0.724 
-0.028 0.167 0.722 
-0.027 0.167 0.72 
-0.026 0.166 0.717 
-0.024 0.165 0.715 
-0.023 0.165 0.714 
-0.022 0.165 0.712 
-0.021 0.165 0.711 
-0.02 0.164 0.71 
-0.019 0.164 0.71 
-0.017 0.164 0.71 
-0.016 0.164 0.709 
-0.015 0.164 0.708 
-0.014 0.164 0.707 
-0.013 0.164 0.707 
-0.012 0.163 0.706 
-0.01 0.163 0.706 
-0.009 0.163 0.705 
-0.008 0.163 0.705 
-0.007 0.163 0.704 
-0.006 0.163 0.704 
-0.005 0.163 0.704 
-0.004 0.163 0.703 
-0.002 0.163 0.703 
-0.001 0.163 0.703 
0 0.163 0.703 
0.001 0.163 0.703 
0.002 0.163 0.703 
0.003 0.163 0.703 
0.004 0.163 0.704 
0.006 0.163 0.704 
0.007 0.163 0.704 
0.008 0.163 0.705 
0.009 0.163 0.705 
0.01 0.163 0.705 
0.011 0.163 0.706 
0.012 0.163 0.706 
0.014 0.164 0.707 
0.015 0.164 0.707 
0.016 0.164 0.708 
0.017 0.164 0.709 
0.018 0.164 0.71 
0.019 0.165 0.711 
0.021 0.165 0.711 
0.022 0.165 0.712 
0.023 0.165 0.713 
0.024 0.165 0.713 
0.025 0.165 0.715 
0.026 0.165 0.715 
0.028 0.166 0.717 
0.029 0.166 0.717 
0.03 0.166 0.719 
0.031 0.167 0.721 
0.033 0.167 0.722 
0.034 0.167 0.724 
0.035 0.168 0.726 
0.036 0.169 0.729 
0.038 0.17 0.733 
0.039 0.17 0.736 
0.041 0.171 0.74 
0.042 0.173 0.746 
-0.035 0.173 0.742 
-0.033 0.171 0.736 
-0.032 0.171 0.732 
-0.031 0.17 0.729 
-0.029 0.169 0.725 
-0.028 0.168 0.723 
-0.027 0.168 0.72 
-0.026 0.167 0.717 
-0.024 0.167 0.715 
-0.023 0.166 0.714 
-0.022 0.166 0.713 
-0.021 0.166 0.712 
-0.02 0.166 0.711 
-0.018 0.165 0.71 
-0.017 0.165 0.71 
-0.016 0.165 0.709 
-0.015 0.165 0.708 
-0.014 0.165 0.708 
-0.013 0.165 0.707 
-0.012 0.164 0.706 
-0.01 0.164 0.706 
-0.009 0.164 0.706 
-0.008 0.164 0.705 
-0.007 0.164 0.705 
-0.006 0.164 0.704 
-0.005 0.164 0.704 
-0.004 0.164 0.704 
-0.002 0.164 0.704 
-0.001 0.164 0.704 
0 0.164 0.704 
0.001 0.164 0.704 
0.002 0.164 0.704 
0.003 0.164 0.704 
0.004 0.164 0.704 
0.006 0.164 0.704 
0.007 0.164 0.705 
0.008 0.164 0.705 
0.009 0.164 0.706 
0.01 0.164 0.706 
0.011 0.164 0.706 
0.012 0.165 0.707 
0.014 0.165 0.707 
0.015 0.165 0.708 
0.016 0.165 0.708 
0.017 0.165 0.709 
0.018 0.165 0.71 
0.019 0.166 0.711 
0.021 0.166 0.711 
0.022 0.166 0.712 
0.023 0.166 0.713 
0.024 0.166 0.714 
0.025 0.166 0.714 
0.026 0.167 0.715 
0.028 0.167 0.716 
0.029 0.167 0.718 
0.03 0.168 0.719 
0.031 0.168 0.721 
0.033 0.168 0.723 
0.034 0.169 0.724 
0.035 0.169 0.727 
0.036 0.17 0.73 
0.038 0.171 0.733 
0.039 0.172 0.737 
0.041 0.173 0.742 
-0.035 0.174 0.743 
-0.034 0.173 0.737 
-0.032 0.172 0.733 
-0.031 0.171 0.729 
-0.029 0.17 0.726 
-0.028 0.17 0.723 
-0.027 0.169 0.721 
-0.026 0.168 0.718 
-0.024 0.168 0.716 
-0.023 0.167 0.714 
-0.022 0.167 0.713 
-0.021 0.167 0.712 
-0.02 0.167 0.711 
-0.019 0.167 0.711 
-0.017 0.167 0.71 
-0.016 0.166 0.709 
-0.015 0.166 0.709 
-0.014 0.166 0.707 
-0.013 0.166 0.707 
-0.012 0.166 0.707 
-0.01 0.166 0.706 
-0.009 0.166 0.706 
-0.008 0.165 0.705 
-0.007 0.165 0.705 
-0.006 0.165 0.705 
-0.005 0.165 0.704 
-0.004 0.165 0.704 
-0.002 0.165 0.704 
-0.001 0.165 0.704 
0 0.165 0.705 
0.001 0.165 0.705 
0.002 0.165 0.705 
0.003 0.165 0.705 
0.004 0.165 0.705 
0.006 0.165 0.705 
0.007 0.165 0.705 
0.008 0.166 0.706 
0.009 0.166 0.706 
0.01 0.166 0.706 
0.011 0.166 0.706 
0.012 0.166 0.707 
0.014 0.166 0.707 
0.015 0.166 0.708 
0.016 0.166 0.708 
0.017 0.166 0.709 
0.018 0.167 0.71 
0.019 0.167 0.71 
0.021 0.167 0.711 
0.022 0.167 0.712 
0.023 0.167 0.713 
0.024 0.167 0.714 
0.025 0.167 0.714 
0.027 0.168 0.716 
0.028 0.168 0.717 
0.029 0.168 0.718 
0.03 0.169 0.719 
0.031 0.169 0.721 
0.033 0.17 0.723 
0.034 0.17 0.725 
0.035 0.171 0.727 
0.036 0.171 0.73 
0.038 0.172 0.733 
0.039 0.173 0.737 
0.041 0.174 0.743 
-0.034 0.174 0.738 
-0.032 0.173 0.733 
-0.031 0.172 0.729 
-0.029 0.171 0.726 
-0.028 0.171 0.724 
-0.027 0.17 0.721 
-0.026 0.17 0.719 
-0.025 0.17 0.718 
-0.023 0.169 0.716 
-0.022 0.169 0.714 
-0.021 0.168 0.713 
-0.02 0.168 0.712 
-0.019 0.168 0.711 
-0.017 0.168 0.71 
-0.016 0.168 0.71 
-0.015 0.167 0.709 
-0.014 0.167 0.708 
-0.013 0.167 0.707 
-0.012 0.167 0.707 
-0.01 0.167 0.707 
-0.009 0.167 0.706 
-0.008 0.167 0.706 
-0.007 0.167 0.705 
-0.006 0.167 0.705 
-0.005 0.167 0.705 
-0.004 0.166 0.704 
-0.002 0.166 0.704 
-0.001 0.166 0.704 
0 0.167 0.705 
0.001 0.167 0.705 
0.002 0.167 0.705 
0.003 0.167 0.705 
0.004 0.167 0.706 
0.006 0.167 0.706 
0.007 0.167 0.706 
0.008 0.167 0.706 
0.009 0.167 0.706 
0.01 0.167 0.707 
0.011 0.167 0.707 
0.012 0.167 0.708 
0.014 0.167 0.708 
0.015 0.167 0.708 
0.016 0.167 0.709 
0.017 0.168 0.71 
0.018 0.168 0.71 
0.019 0.168 0.711 
0.021 0.168 0.711 
0.022 0.168 0.712 
0.023 0.168 0.713 
0.024 0.169 0.714 
0.025 0.169 0.715 
0.027 0.169 0.716 
0.028 0.17 0.718 
0.029 0.17 0.719 
0.03 0.17 0.72 
0.031 0.171 0.722 
0.033 0.171 0.724 
0.034 0.171 0.725 
0.035 0.172 0.727 
0.036 0.172 0.73 
0.038 0.173 0.734 
0.039 0.174 0.738 
0.041 0.176 0.745 
-0.034 0.176 0.739 
-0.032 0.175 0.734 
-0.031 0.174 0.73 
-0.03 0.173 0.727 
-0.028 0.172 0.725 
-0.027 0.172 0.722 
-0.026 0.171 0.72 
-0.025 0.171 0.719 
-0.023 0.17 0.717 
-0.022 0.17 0.715 
-0.021 0.17 0.714 
-0.02 0.17 0.713 
-0.019 0.169 0.712 
-0.017 0.169 0.711 
-0.016 0.169 0.71 
-0.015 0.169 0.71 
-0.014 0.169 0.709 
-0.013 0.168 0.708 
-0.012 0.168 0.707 
-0.01 0.168 0.707 
-0.009 0.168 0.707 
-0.008 0.168 0.706 
-0.007 0.168 0.706 
-0.006 0.168 0.705 
-0.005 0.168 0.705 
-0.004 0.168 0.705 
-0.002 0.168 0.705 
-0.001 0.168 0.705 
0 0.168 0.706 
0.001 0.168 0.706 
0.002 0.168 0.706 
0.003 0.168 0.706 
0.004 0.168 0.706 
0.006 0.168 0.706 
0.007 0.168 0.707 
0.008 0.168 0.707 
0.009 0.168 0.707 
0.01 0.168 0.707 
0.011 0.168 0.708 
0.012 0.168 0.708 
0.014 0.169 0.709 
0.015 0.169 0.709 
0.016 0.169 0.709 
0.017 0.169 0.71 
0.018 0.169 0.71 
0.019 0.169 0.711 
0.021 0.169 0.712 
0.022 0.169 0.712 
0.023 0.17 0.713 
0.024 0.17 0.714 
0.025 0.17 0.716 
0.027 0.17 0.716 
0.028 0.171 0.718 
0.029 0.171 0.72 
0.03 0.171 0.721 
0.031 0.172 0.722 
0.033 0.172 0.725 
0.034 0.173 0.726 
0.035 0.173 0.728 
0.037 0.174 0.731 
0.038 0.175 0.735 
0.039 0.176 0.739 
0.041 0.177 0.746 
-0.034 0.177 0.74 
-0.032 0.176 0.735 
-0.031 0.175 0.73 
-0.03 0.174 0.728 
-0.028 0.174 0.725 
-0.027 0.173 0.723 
-0.026 0.173 0.721 
-0.025 0.172 0.719 
-0.023 0.172 0.718 
-0.022 0.171 0.716 
-0.021 0.171 0.714 
-0.02 0.171 0.713 
-0.019 0.171 0.713 
-0.017 0.17 0.711 
-0.016 0.17 0.711 
-0.015 0.17 0.71 
-0.014 0.17 0.709 
-0.013 0.17 0.709 
-0.012 0.169 0.708 
-0.01 0.169 0.707 
-0.009 0.169 0.707 
-0.008 0.169 0.707 
-0.007 0.169 0.706 
-0.006 0.169 0.706 
-0.005 0.169 0.705 
-0.004 0.169 0.705 
-0.002 0.169 0.705 
-0.001 0.169 0.705 
0 0.169 0.706 
0.001 0.169 0.706 
0.002 0.169 0.706 
0.003 0.169 0.706 
0.004 0.169 0.706 
0.006 0.169 0.706 
0.007 0.169 0.707 
0.008 0.169 0.707 
0.009 0.169 0.707 
0.01 0.169 0.707 
0.011 0.169 0.708 
0.012 0.169 0.708 
0.014 0.17 0.709 
0.015 0.17 0.709 
0.016 0.17 0.71 
0.017 0.17 0.71 
0.018 0.17 0.711 
0.019 0.17 0.711 
0.021 0.17 0.712 
0.022 0.171 0.713 
0.023 0.171 0.714 
0.024 0.171 0.715 
0.025 0.171 0.716 
0.027 0.172 0.717 
0.028 0.172 0.718 
0.029 0.172 0.72 
0.03 0.173 0.722 
0.031 0.173 0.723 
0.033 0.174 0.725 
0.034 0.174 0.727 
0.035 0.174 0.729 
0.037 0.175 0.731 
0.038 0.176 0.735 
0.039 0.177 0.74 
-0.032 0.177 0.736 
-0.031 0.176 0.731 
-0.03 0.176 0.729 
-0.028 0.175 0.726 
-0.027 0.174 0.723 
-0.026 0.174 0.722 
-0.025 0.173 0.72 
-0.023 0.173 0.718 
-0.022 0.173 0.717 
-0.021 0.172 0.715 
-0.02 0.172 0.714 
-0.019 0.172 0.713 
-0.017 0.172 0.712 
-0.016 0.171 0.711 
-0.015 0.171 0.71 
-0.014 0.171 0.71 
-0.013 0.171 0.709 
-0.012 0.171 0.708 
-0.01 0.171 0.708 
-0.009 0.171 0.708 
-0.008 0.171 0.708 
-0.007 0.17 0.707 
-0.006 0.17 0.706 
-0.005 0.17 0.706 
-0.004 0.17 0.706 
-0.002 0.17 0.706 
-0.001 0.17 0.706 
0 0.17 0.706 
0.001 0.17 0.706 
0.002 0.17 0.706 
0.003 0.17 0.707 
0.004 0.17 0.707 
0.006 0.17 0.707 
0.007 0.17 0.707 
0.008 0.171 0.708 
0.009 0.171 0.708 
0.01 0.171 0.708 
0.011 0.171 0.709 
0.012 0.171 0.709 
0.014 0.171 0.709 
0.015 0.171 0.71 
0.016 0.171 0.71 
0.017 0.171 0.71 
0.018 0.171 0.711 
0.019 0.172 0.712 
0.021 0.172 0.713 
0.022 0.172 0.714 
0.023 0.172 0.715 
0.024 0.173 0.716 
0.025 0.173 0.717 
0.027 0.173 0.718 
0.028 0.173 0.72 
0.029 0.174 0.721 
0.03 0.174 0.722 
0.031 0.174 0.724 
0.033 0.175 0.726 
0.034 0.175 0.728 
0.035 0.176 0.729 
0.037 0.176 0.732 
0.038 0.177 0.736 
0.039 0.179 0.741 
-0.032 0.179 0.737 
-0.031 0.178 0.733 
-0.03 0.177 0.729 
-0.028 0.176 0.727 
-0.027 0.176 0.724 
-0.026 0.175 0.722 
-0.025 0.175 0.721 
-0.023 0.174 0.719 
-0.022 0.174 0.717 
-0.021 0.174 0.716 
-0.02 0.173 0.715 
-0.019 0.173 0.713 
-0.017 0.173 0.712 
-0.016 0.172 0.711 
-0.015 0.172 0.711 
-0.014 0.172 0.71 
-0.013 0.172 0.71 
-0.012 0.172 0.709 
-0.01 0.172 0.709 
-0.009 0.172 0.709 
-0.008 0.172 0.708 
-0.007 0.172 0.708 
-0.006 0.172 0.707 
-0.005 0.172 0.707 
-0.004 0.172 0.707 
-0.002 0.171 0.706 
-0.001 0.171 0.706 
0 0.171 0.706 
0.001 0.172 0.707 
0.002 0.172 0.707 
0.003 0.172 0.707 
0.004 0.172 0.708 
0.006 0.172 0.708 
0.007 0.172 0.708 
0.008 0.172 0.708 
0.009 0.172 0.709 
0.01 0.172 0.709 
0.011 0.172 0.709 
0.013 0.172 0.71 
0.014 0.172 0.71 
0.015 0.172 0.711 
0.016 0.172 0.711 
0.017 0.172 0.711 
0.018 0.173 0.712 
0.019 0.173 0.713 
0.021 0.173 0.713 
0.022 0.173 0.715 
0.023 0.174 0.716 
0.024 0.174 0.717 
0.025 0.174 0.718 
0.027 0.174 0.719 
0.028 0.175 0.72 
0.029 0.175 0.722 
0.03 0.175 0.723 
0.031 0.176 0.724 
0.033 0.176 0.726 
0.034 0.177 0.728 
0.035 0.177 0.73 
0.037 0.178 0.733 
0.038 0.179 0.737 
0.039 0.18 0.742 
-0.032 0.18 0.739 
-0.031 0.179 0.734 
-0.03 0.178 0.73 
-0.028 0.177 0.727 
-0.027 0.177 0.725 
-0.026 0.177 0.723 
-0.025 0.176 0.721 
-0.023 0.176 0.72 
-0.022 0.175 0.718 
-0.021 0.175 0.716 
-0.02 0.175 0.715 
-0.019 0.174 0.714 
-0.017 0.174 0.713 
-0.016 0.174 0.712 
-0.015 0.174 0.711 
-0.014 0.173 0.71 
-0.013 0.173 0.71 
-0.012 0.173 0.71 
-0.01 0.173 0.709 
-0.009 0.173 0.709 
-0.008 0.173 0.708 
-0.007 0.173 0.708 
-0.006 0.173 0.708 
-0.005 0.173 0.707 
-0.004 0.173 0.707 
-0.002 0.173 0.707 
-0.001 0.173 0.707 
0 0.173 0.707 
0.001 0.173 0.707 
0.002 0.173 0.707 
0.003 0.173 0.707 
0.004 0.173 0.707 
0.006 0.173 0.708 
0.007 0.173 0.708 
0.008 0.173 0.708 
0.009 0.173 0.709 
0.01 0.173 0.709 
0.011 0.173 0.71 
0.013 0.173 0.71 
0.014 0.173 0.71 
0.015 0.174 0.711 
0.016 0.174 0.711 
0.017 0.174 0.712 
0.018 0.174 0.712 
0.019 0.174 0.713 
0.021 0.174 0.714 
0.022 0.175 0.715 
0.023 0.175 0.716 
0.024 0.175 0.717 
0.025 0.176 0.719 
0.027 0.176 0.72 
0.028 0.176 0.721 
0.029 0.177 0.723 
0.03 0.177 0.724 
0.032 0.177 0.725 
0.033 0.178 0.727 
0.034 0.178 0.729 
0.035 0.179 0.732 
0.037 0.179 0.734 
0.038 0.18 0.737 
0.04 0.181 0.743 
-0.031 0.181 0.735 
-0.03 0.18 0.731 
-0.028 0.179 0.728 
-0.027 0.178 0.726 
-0.026 0.178 0.724 
-0.025 0.177 0.722 
-0.023 0.177 0.72 
-0.022 0.177 0.719 
-0.021 0.176 0.717 
-0.02 0.176 0.716 
-0.019 0.176 0.715 
-0.017 0.175 0.713 
-0.016 0.175 0.712 
-0.015 0.175 0.711 
-0.014 0.175 0.711 
-0.013 0.175 0.71 
-0.012 0.175 0.71 
-0.01 0.175 0.71 
-0.009 0.174 0.709 
-0.008 0.174 0.709 
-0.007 0.174 0.708 
-0.006 0.174 0.708 
-0.005 0.174 0.708 
-0.004 0.174 0.708 
-0.002 0.174 0.708 
-0.001 0.174 0.708 
0 0.174 0.708 
0.001 0.174 0.708 
0.002 0.174 0.708 
0.003 0.174 0.708 
0.004 0.174 0.708 
0.006 0.174 0.708 
0.007 0.174 0.709 
0.008 0.174 0.709 
0.009 0.174 0.709 
0.01 0.174 0.709 
0.011 0.175 0.71 
0.013 0.175 0.711 
0.014 0.175 0.711 
0.015 0.175 0.711 
0.016 0.175 0.712 
0.017 0.175 0.712 
0.018 0.175 0.713 
0.02 0.175 0.714 
0.021 0.176 0.715 
0.022 0.176 0.715 
0.023 0.176 0.717 
0.024 0.176 0.718 
0.025 0.177 0.719 
0.027 0.177 0.72 
0.028 0.177 0.722 
0.029 0.178 0.724 
0.03 0.178 0.724 
0.032 0.178 0.726 
0.033 0.179 0.728 
0.034 0.179 0.73 
0.035 0.18 0.733 
0.037 0.181 0.735 
0.038 0.181 0.738 
0.04 0.183 0.743 
-0.031 0.183 0.738 
-0.03 0.181 0.733 
-0.028 0.18 0.729 
-0.027 0.18 0.726 
-0.026 0.179 0.724 
-0.025 0.179 0.722 
-0.023 0.178 0.72 
-0.022 0.178 0.719 
-0.021 0.177 0.717 
-0.02 0.177 0.716 
-0.019 0.177 0.715 
-0.017 0.177 0.714 
-0.016 0.176 0.713 
-0.015 0.176 0.712 
-0.014 0.176 0.712 
-0.013 0.176 0.711 
-0.012 0.176 0.71 
-0.01 0.176 0.71 
-0.009 0.176 0.71 
-0.008 0.176 0.71 
-0.007 0.175 0.709 
-0.006 0.175 0.709 
-0.005 0.175 0.709 
-0.004 0.175 0.709 
-0.002 0.175 0.708 
-0.001 0.175 0.708 
0 0.175 0.708 
0.001 0.175 0.708 
0.002 0.175 0.708 
0.003 0.175 0.709 
0.004 0.175 0.708 
0.006 0.175 0.708 
0.007 0.175 0.708 
0.008 0.175 0.709 
0.009 0.175 0.709 
0.01 0.175 0.709 
0.011 0.176 0.71 
0.013 0.176 0.711 
0.014 0.176 0.711 
0.015 0.176 0.711 
0.016 0.176 0.712 
0.017 0.176 0.713 
0.018 0.177 0.714 
0.02 0.177 0.714 
0.021 0.177 0.715 
0.022 0.177 0.716 
0.023 0.177 0.717 
0.024 0.178 0.718 
0.025 0.178 0.72 
0.027 0.178 0.721 
0.028 0.179 0.722 
0.029 0.179 0.724 
0.03 0.179 0.725 
0.032 0.18 0.727 
0.033 0.18 0.729 
0.034 0.181 0.731 
0.035 0.182 0.734 
0.037 0.182 0.736 
0.038 0.183 0.739 
-0.03 0.183 0.735 
-0.028 0.182 0.731 
-0.027 0.181 0.727 
-0.026 0.18 0.725 
-0.025 0.18 0.723 
-0.023 0.179 0.721 
-0.022 0.179 0.719 
-0.021 0.179 0.717 
-0.02 0.178 0.716 
-0.019 0.178 0.716 
-0.017 0.178 0.715 
-0.016 0.178 0.714 
-0.015 0.177 0.712 
-0.014 0.177 0.712 
-0.013 0.177 0.712 
-0.012 0.177 0.711 
-0.01 0.177 0.71 
-0.009 0.177 0.71 
-0.008 0.177 0.71 
-0.007 0.177 0.71 
-0.006 0.177 0.709 
-0.005 0.177 0.709 
-0.004 0.177 0.709 
-0.002 0.177 0.709 
-0.001 0.177 0.709 
0 0.177 0.709 
0.001 0.177 0.709 
0.002 0.176 0.708 
0.003 0.177 0.709 
0.004 0.177 0.709 
0.006 0.176 0.708 
0.007 0.176 0.708 
0.008 0.176 0.708 
0.009 0.177 0.709 
0.01 0.177 0.709 
0.011 0.177 0.71 
0.013 0.177 0.711 
0.014 0.177 0.711 
0.015 0.177 0.712 
0.016 0.178 0.713 
0.017 0.178 0.713 
0.018 0.178 0.714 
0.02 0.178 0.715 
0.021 0.178 0.716 
0.022 0.179 0.717 
0.023 0.179 0.718 
0.024 0.179 0.719 
0.025 0.179 0.72 
0.027 0.18 0.721 
0.028 0.18 0.722 
0.029 0.18 0.725 
0.03 0.181 0.726 
0.032 0.181 0.727 
0.033 0.181 0.729 
0.034 0.182 0.731 
0.035 0.183 0.734 
0.037 0.184 0.738 
0.038 0.184 0.741 
-0.03 0.185 0.739 
-0.029 0.184 0.733 
-0.027 0.183 0.729 
-0.026 0.182 0.726 
-0.025 0.181 0.724 
-0.023 0.181 0.721 
-0.022 0.18 0.72 
-0.021 0.18 0.718 
-0.02 0.18 0.717 
-0.019 0.179 0.716 
-0.017 0.179 0.715 
-0.016 0.179 0.714 
-0.015 0.179 0.713 
-0.014 0.179 0.713 
-0.013 0.178 0.712 
-0.012 0.178 0.711 
-0.01 0.178 0.711 
-0.009 0.178 0.71 
-0.008 0.178 0.71 
-0.007 0.178 0.71 
-0.006 0.178 0.71 
-0.005 0.178 0.71 
-0.004 0.178 0.71 
-0.002 0.178 0.71 
-0.001 0.178 0.71 
0 0.178 0.709 
0.001 0.178 0.709 
0.002 0.178 0.709 
0.003 0.178 0.709 
0.004 0.178 0.709 
0.006 0.178 0.709 
0.007 0.178 0.709 
0.008 0.178 0.709 
0.009 0.178 0.709 
0.01 0.178 0.71 
0.011 0.178 0.71 
0.013 0.178 0.711 
0.014 0.178 0.711 
0.015 0.178 0.712 
0.016 0.179 0.713 
0.017 0.179 0.713 
0.018 0.179 0.714 
0.02 0.179 0.716 
0.021 0.179 0.716 
0.022 0.18 0.717 
0.023 0.18 0.718 
0.024 0.18 0.72 
0.025 0.18 0.72 
0.027 0.181 0.722 
0.028 0.181 0.723 
0.029 0.182 0.725 
0.03 0.182 0.726 
0.032 0.182 0.728 
0.033 0.183 0.73 
0.034 0.184 0.734 
0.036 0.185 0.737 
0.037 0.186 0.741 
-0.029 0.185 0.735 
-0.027 0.184 0.73 
-0.026 0.183 0.727 
-0.025 0.183 0.724 
-0.023 0.182 0.722 
-0.022 0.182 0.72 
-0.021 0.181 0.719 
-0.02 0.181 0.718 
-0.019 0.181 0.717 
-0.017 0.181 0.716 
-0.016 0.18 0.715 
-0.015 0.18 0.713 
-0.014 0.18 0.713 
-0.013 0.18 0.713 
-0.012 0.18 0.712 
-0.01 0.179 0.711 
-0.009 0.179 0.711 
-0.008 0.179 0.711 
-0.007 0.179 0.711 
-0.006 0.179 0.711 
-0.005 0.179 0.711 
-0.004 0.179 0.711 
-0.002 0.179 0.711 
-0.001 0.179 0.711 
0 0.179 0.711 
0.001 0.179 0.71 
0.002 0.179 0.71 
0.003 0.179 0.71 
0.004 0.179 0.71 
0.006 0.179 0.71 
0.007 0.179 0.71 
0.008 0.179 0.71 
0.009 0.179 0.71 
0.01 0.179 0.71 
0.011 0.179 0.711 
0.013 0.179 0.711 
0.014 0.18 0.712 
0.015 0.18 0.712 
0.016 0.18 0.713 
0.017 0.18 0.714 
0.018 0.18 0.715 
0.02 0.181 0.716 
0.021 0.181 0.717 
0.022 0.181 0.718 
0.023 0.181 0.719 
0.024 0.182 0.72 
0.026 0.182 0.721 
0.027 0.182 0.722 
0.028 0.182 0.723 
0.029 0.183 0.725 
0.03 0.183 0.727 
0.032 0.184 0.729 
0.033 0.185 0.732 
0.034 0.185 0.735 
0.036 0.186 0.739 
-0.029 0.187 0.737 
-0.027 0.185 0.731 
-0.026 0.185 0.728 
-0.025 0.184 0.725 
-0.023 0.183 0.723 
-0.022 0.183 0.721 
-0.021 0.182 0.719 
-0.02 0.182 0.718 
-0.019 0.182 0.718 
-0.018 0.182 0.717 
-0.016 0.182 0.716 
-0.015 0.181 0.714 
-0.014 0.181 0.714 
-0.013 0.181 0.714 
-0.012 0.181 0.713 
-0.01 0.181 0.712 
-0.009 0.18 0.711 
-0.008 0.181 0.712 
-0.007 0.181 0.712 
-0.006 0.18 0.711 
-0.005 0.18 0.711 
-0.004 0.18 0.711 
-0.002 0.18 0.711 
-0.001 0.18 0.711 
0 0.18 0.711 
0.001 0.18 0.711 
0.002 0.18 0.711 
0.003 0.18 0.711 
0.004 0.18 0.711 
0.006 0.18 0.71 
0.007 0.18 0.71 
0.008 0.18 0.71 
0.009 0.18 0.71 
0.01 0.18 0.711 
0.011 0.18 0.711 
0.013 0.18 0.711 
0.014 0.181 0.712 
0.015 0.181 0.713 
0.016 0.181 0.714 
0.017 0.181 0.715 
0.018 0.181 0.715 
0.02 0.182 0.717 
0.021 0.182 0.718 
0.022 0.182 0.718 
0.023 0.182 0.719 
0.024 0.183 0.721 
0.026 0.183 0.721 
0.027 0.183 0.723 
0.028 0.184 0.724 
0.029 0.184 0.725 
0.03 0.184 0.727 
0.032 0.185 0.73 
0.033 0.186 0.733 
0.034 0.187 0.736 
0.036 0.188 0.74 
-0.027 0.187 0.733 
-0.026 0.186 0.729 
-0.025 0.185 0.726 
-0.023 0.185 0.723 
-0.022 0.184 0.722 
-0.021 0.184 0.72 
-0.02 0.184 0.719 
-0.019 0.183 0.718 
-0.017 0.183 0.717 
-0.016 0.183 0.717 
-0.015 0.183 0.715 
-0.014 0.183 0.715 
-0.013 0.182 0.714 
-0.012 0.182 0.713 
-0.01 0.182 0.713 
-0.009 0.182 0.713 
-0.008 0.182 0.713 
-0.007 0.182 0.713 
-0.006 0.182 0.712 
-0.005 0.182 0.712 
-0.004 0.182 0.712 
-0.002 0.182 0.712 
-0.001 0.182 0.712 
0 0.182 0.712 
0.001 0.182 0.712 
0.002 0.182 0.711 
0.003 0.182 0.711 
0.004 0.182 0.711 
0.006 0.182 0.711 
0.007 0.182 0.711 
0.008 0.182 0.711 
0.009 0.182 0.711 
0.01 0.182 0.711 
0.011 0.182 0.712 
0.013 0.182 0.713 
0.014 0.182 0.713 
0.015 0.182 0.713 
0.016 0.183 0.715 
0.017 0.183 0.716 
0.018 0.183 0.717 
0.02 0.183 0.717 
0.021 0.183 0.718 
0.022 0.184 0.719 
0.023 0.184 0.72 
0.024 0.184 0.721 
0.026 0.184 0.722 
0.027 0.185 0.723 
0.028 0.185 0.725 
0.029 0.185 0.726 
0.03 0.186 0.728 
0.032 0.186 0.73 
0.033 0.187 0.733 
0.034 0.188 0.737 
-0.027 0.189 0.735 
-0.026 0.188 0.73 
-0.025 0.187 0.727 
-0.024 0.186 0.725 
-0.022 0.186 0.723 
-0.021 0.185 0.721 
-0.02 0.185 0.72 
-0.019 0.185 0.719 
-0.018 0.184 0.718 
-0.016 0.184 0.717 
-0.015 0.184 0.716 
-0.014 0.184 0.715 
-0.013 0.184 0.715 
-0.012 0.183 0.714 
-0.01 0.183 0.713 
-0.009 0.183 0.713 
-0.008 0.183 0.713 
-0.007 0.183 0.713 
-0.006 0.183 0.713 
-0.005 0.183 0.712 
-0.004 0.183 0.712 
-0.002 0.183 0.712 
-0.001 0.183 0.712 
0 0.183 0.712 
0.001 0.183 0.712 
0.002 0.183 0.711 
0.003 0.183 0.711 
0.004 0.183 0.711 
0.006 0.183 0.711 
0.007 0.183 0.711 
0.008 0.183 0.711 
0.009 0.183 0.711 
0.01 0.183 0.712 
0.011 0.183 0.713 
0.013 0.183 0.713 
0.014 0.183 0.713 
0.015 0.183 0.714 
0.016 0.184 0.715 
0.017 0.184 0.716 
0.018 0.184 0.717 
0.02 0.184 0.718 
0.021 0.185 0.719 
0.022 0.185 0.719 
0.023 0.185 0.72 
0.024 0.186 0.722 
0.026 0.186 0.723 
0.027 0.186 0.724 
0.028 0.187 0.726 
0.029 0.187 0.727 
0.031 0.187 0.729 
0.032 0.188 0.731 
0.033 0.189 0.734 
0.035 0.19 0.739 
-0.027 0.19 0.736 
-0.026 0.189 0.732 
-0.025 0.188 0.729 
-0.024 0.188 0.726 
-0.022 0.187 0.724 
-0.021 0.187 0.722 
-0.02 0.186 0.72 
-0.019 0.186 0.719 
-0.018 0.186 0.719 
-0.016 0.186 0.718 
-0.015 0.185 0.716 
-0.014 0.185 0.716 
-0.013 0.185 0.715 
-0.012 0.185 0.715 
-0.011 0.185 0.714 
-0.009 0.185 0.714 
-0.008 0.185 0.714 
-0.007 0.185 0.714 
-0.006 0.185 0.714 
-0.005 0.184 0.713 
-0.004 0.184 0.713 
-0.002 0.184 0.713 
-0.001 0.184 0.713 
0 0.184 0.713 
0.001 0.184 0.712 
0.002 0.184 0.712 
0.003 0.184 0.712 
0.004 0.184 0.712 
0.006 0.184 0.712 
0.007 0.184 0.712 
0.008 0.184 0.712 
0.009 0.184 0.713 
0.01 0.184 0.713 
0.011 0.184 0.713 
0.013 0.185 0.714 
0.014 0.185 0.715 
0.015 0.185 0.715 
0.016 0.185 0.716 
0.017 0.185 0.717 
0.018 0.186 0.718 
0.02 0.186 0.719 
0.021 0.186 0.719 
0.022 0.186 0.72 
0.023 0.186 0.721 
0.024 0.187 0.722 
0.026 0.187 0.724 
0.027 0.187 0.725 
0.028 0.188 0.727 
0.029 0.188 0.728 
0.031 0.189 0.73 
0.032 0.19 0.733 
0.033 0.19 0.735 
0.035 0.191 0.739 
-0.026 0.191 0.734 
-0.025 0.19 0.73 
-0.024 0.189 0.727 
-0.022 0.189 0.725 
-0.021 0.188 0.723 
-0.02 0.188 0.722 
-0.019 0.187 0.72 
-0.018 0.187 0.719 
-0.016 0.187 0.719 
-0.015 0.187 0.717 
-0.014 0.187 0.717 
-0.013 0.186 0.716 
-0.012 0.186 0.716 
-0.011 0.186 0.715 
-0.009 0.186 0.715 
-0.008 0.186 0.714 
-0.007 0.186 0.714 
-0.006 0.186 0.714 
-0.005 0.186 0.714 
-0.004 0.186 0.714 
-0.002 0.186 0.714 
-0.001 0.186 0.714 
0 0.185 0.713 
0.001 0.185 0.713 
0.002 0.185 0.713 
0.003 0.185 0.713 
0.004 0.185 0.713 
0.006 0.185 0.713 
0.007 0.185 0.713 
0.008 0.185 0.713 
0.009 0.185 0.713 
0.01 0.186 0.714 
0.011 0.186 0.714 
0.013 0.186 0.715 
0.014 0.186 0.715 
0.015 0.186 0.716 
0.016 0.187 0.717 
0.017 0.187 0.718 
0.018 0.187 0.718 
0.02 0.187 0.719 
0.021 0.187 0.72 
0.022 0.188 0.721 
0.023 0.188 0.722 
0.024 0.188 0.723 
0.026 0.188 0.724 
0.027 0.189 0.726 
0.028 0.189 0.727 
0.029 0.19 0.729 
0.031 0.19 0.731 
0.032 0.191 0.734 
0.033 0.192 0.737 
0.035 0.192 0.74 
-0.026 0.192 0.735 
-0.025 0.192 0.732 
-0.024 0.191 0.728 
-0.022 0.19 0.726 
-0.021 0.19 0.725 
-0.02 0.189 0.723 
-0.019 0.189 0.721 
-0.018 0.188 0.72 
-0.016 0.188 0.719 
-0.015 0.188 0.718 
-0.014 0.188 0.718 
-0.013 0.188 0.717 
-0.012 0.187 0.716 
-0.011 0.187 0.716 
-0.009 0.187 0.715 
-0.008 0.187 0.715 
-0.007 0.187 0.714 
-0.006 0.187 0.714 
-0.005 0.187 0.714 
-0.004 0.187 0.714 
-0.002 0.187 0.714 
-0.001 0.187 0.714 
0 0.187 0.714 
0.001 0.187 0.713 
0.002 0.187 0.713 
0.003 0.187 0.713 
0.004 0.187 0.713 
0.006 0.187 0.713 
0.007 0.187 0.713 
0.008 0.187 0.713 
0.009 0.187 0.714 
0.01 0.187 0.714 
0.011 0.187 0.714 
0.013 0.187 0.715 
0.014 0.187 0.716 
0.015 0.188 0.717 
0.016 0.188 0.717 
0.017 0.188 0.718 
0.018 0.188 0.719 
0.02 0.188 0.72 
0.021 0.188 0.72 
0.022 0.189 0.721 
0.023 0.189 0.723 
0.024 0.19 0.724 
0.026 0.19 0.725 
0.027 0.19 0.726 
0.028 0.191 0.728 
0.029 0.191 0.731 
0.031 0.192 0.733 
0.032 0.193 0.736 
0.033 0.193 0.738 
-0.025 0.193 0.734 
-0.024 0.192 0.73 
-0.022 0.192 0.728 
-0.021 0.191 0.726 
-0.02 0.191 0.724 
-0.019 0.19 0.722 
-0.018 0.19 0.721 
-0.016 0.19 0.721 
-0.015 0.19 0.72 
-0.014 0.189 0.718 
-0.013 0.189 0.718 
-0.012 0.189 0.717 
-0.011 0.189 0.717 
-0.009 0.189 0.716 
-0.008 0.189 0.716 
-0.007 0.189 0.716 
-0.006 0.188 0.715 
-0.005 0.188 0.715 
-0.004 0.188 0.715 
-0.002 0.188 0.714 
-0.001 0.188 0.714 
0 0.188 0.714 
0.001 0.188 0.714 
0.002 0.188 0.713 
0.003 0.188 0.713 
0.004 0.188 0.714 
0.006 0.188 0.714 
0.007 0.188 0.714 
0.008 0.188 0.714 
0.009 0.188 0.715 
0.01 0.188 0.715 
0.011 0.188 0.715 
0.013 0.189 0.716 
0.014 0.189 0.717 
0.015 0.189 0.717 
0.016 0.189 0.718 
0.017 0.189 0.719 
0.018 0.19 0.72 
0.02 0.19 0.721 
0.021 0.19 0.722 
0.022 0.19 0.723 
0.023 0.191 0.724 
0.024 0.191 0.725 
0.026 0.191 0.726 
0.027 0.192 0.728 
0.028 0.192 0.73 
0.029 0.193 0.732 
0.031 0.193 0.734 
0.032 0.194 0.737 
-0.025 0.195 0.736 
-0.024 0.194 0.732 
-0.023 0.193 0.73 
-0.021 0.193 0.727 
-0.02 0.192 0.725 
-0.019 0.192 0.723 
-0.018 0.191 0.722 
-0.016 0.191 0.721 
-0.015 0.191 0.721 
-0.014 0.191 0.72 
-0.013 0.19 0.719 
-0.012 0.19 0.718 
-0.011 0.19 0.718 
-0.009 0.19 0.717 
-0.008 0.19 0.717 
-0.007 0.19 0.717 
-0.006 0.19 0.716 
-0.005 0.19 0.716 
-0.004 0.19 0.716 
-0.002 0.189 0.715 
-0.001 0.189 0.715 
0 0.189 0.715 
0.001 0.189 0.715 
0.002 0.189 0.714 
0.003 0.189 0.714 
0.004 0.189 0.714 
0.006 0.189 0.715 
