ply
format ascii 1.0
comment VCGLIB generated
element vertex 3901
property float x
property float y
property float z
element face 0
property list uchar int vertex_indices
end_header
5 133 753 
6 133 753 
7 133 753 
8 133 753 
10 133 754 
11 133 754 
12 133 755 
13 134 756 
15 134 757 
16 134 758 
17 134 760 
18 135 761 
20 135 763 
21 135 766 
22 136 768 
24 136 771 
25 137 775 
26 138 781 
28 140 790 
30 141 800 
31 143 810 
-46 141 792 
-45 142 796 
-44 143 800 
-43 143 803 
-42 144 805 
-41 144 805 
-39 143 804 
-38 143 802 
-36 143 800 
-35 142 798 
-34 142 796 
-32 142 795 
-31 141 792 
-30 141 790 
-28 141 788 
-27 140 785 
-25 139 781 
-24 139 777 
-23 138 773 
-21 137 769 
-20 137 766 
-19 136 763 
-17 136 761 
-16 135 759 
-15 135 758 
-14 135 756 
-12 135 756 
-11 134 754 
-10 134 753 
-9 134 752 
-7 134 751 
-6 134 751 
-5 134 750 
-4 134 750 
-3 134 750 
-1 134 749 
0 134 749 
1 134 749 
2 134 750 
4 134 750 
5 134 749 
6 134 750 
7 134 750 
8 134 750 
10 134 750 
11 134 750 
12 134 750 
13 134 751 
14 134 751 
16 134 751 
17 134 752 
18 134 753 
19 134 754 
21 135 756 
22 135 758 
23 136 761 
25 136 765 
26 138 771 
28 139 779 
33 145 813 
-46 142 791 
-45 143 796 
-44 144 800 
-43 145 804 
-42 145 806 
-41 145 806 
-39 145 806 
-38 145 805 
-37 144 803 
-35 144 801 
-34 144 799 
-32 143 797 
-31 143 795 
-30 143 792 
-28 142 790 
-27 141 786 
-25 141 781 
-24 140 776 
-23 139 771 
-21 138 767 
-20 138 764 
-19 137 761 
-17 137 759 
-16 136 757 
-15 136 755 
-14 136 754 
-12 136 753 
-11 135 752 
-10 135 751 
-9 135 750 
-7 135 749 
-6 135 748 
-5 135 748 
-4 135 748 
-3 135 748 
-1 134 747 
0 134 747 
1 134 747 
2 134 747 
3 134 747 
5 134 747 
6 135 748 
7 135 748 
8 135 748 
10 135 748 
11 134 747 
12 134 747 
13 134 747 
14 134 746 
16 134 746 
17 134 746 
18 134 746 
19 134 747 
20 134 747 
22 135 750 
23 135 752 
24 136 756 
26 137 761 
27 138 769 
-46 144 791 
-45 145 796 
-44 145 800 
-43 146 804 
-42 147 807 
-41 147 808 
-39 147 807 
-38 146 805 
-37 146 804 
-35 146 802 
-34 145 800 
-32 145 798 
-31 145 796 
-30 144 792 
-28 143 789 
-27 142 784 
-25 141 778 
-24 140 773 
-23 139 768 
-21 139 763 
-20 138 760 
-19 138 758 
-17 137 755 
-16 137 754 
-15 137 752 
-14 136 751 
-12 136 750 
-11 136 750 
-10 136 749 
-9 136 748 
-7 136 747 
-6 136 747 
-5 135 746 
-4 135 746 
-3 135 745 
-1 135 745 
0 135 746 
1 135 746 
2 135 746 
3 135 746 
5 135 746 
6 135 746 
7 135 746 
8 135 746 
10 135 746 
11 135 745 
12 135 745 
13 135 744 
14 135 744 
16 135 742 
17 135 742 
18 135 742 
19 135 742 
20 135 742 
22 135 743 
23 135 745 
24 136 748 
25 137 752 
27 137 757 
28 139 766 
-46 145 790 
-45 146 796 
-44 147 800 
-43 147 804 
-42 148 807 
-41 148 809 
-39 148 808 
-38 148 807 
-37 147 805 
-35 147 803 
-34 147 801 
-32 146 798 
-31 146 795 
-30 145 791 
-28 144 786 
-27 143 780 
-25 142 774 
-24 141 768 
-22 140 763 
-21 139 758 
-20 138 756 
-18 138 754 
-17 138 752 
-16 137 750 
-15 137 750 
-13 137 749 
-12 137 748 
-11 137 747 
-10 137 746 
-9 137 746 
-7 137 746 
-6 136 745 
-5 136 744 
-4 136 744 
-3 136 744 
-1 136 744 
0 136 744 
1 136 745 
2 136 745 
3 136 745 
5 137 746 
6 137 746 
7 137 746 
8 137 746 
10 136 745 
11 136 744 
12 136 744 
13 136 743 
14 136 742 
15 136 741 
17 135 739 
18 135 739 
19 135 738 
20 135 738 
21 135 739 
23 136 740 
24 136 742 
25 136 744 
27 137 749 
28 138 754 
30 140 763 
-46 146 789 
-45 147 795 
-44 148 800 
-43 149 804 
-42 149 807 
-41 149 809 
-39 149 809 
-38 149 808 
-37 149 806 
-35 148 803 
-34 148 800 
-32 147 797 
-31 146 792 
-30 146 788 
-28 144 781 
-26 143 774 
-25 142 767 
-24 141 762 
-22 140 757 
-21 139 754 
-20 139 752 
-18 139 751 
-17 138 749 
-16 138 748 
-15 138 747 
-13 138 747 
-12 138 746 
-11 138 745 
-10 138 745 
-9 138 744 
-7 138 744 
-6 138 744 
-5 137 743 
-4 137 743 
-3 137 743 
-1 137 743 
0 138 744 
1 138 744 
2 138 744 
3 138 744 
5 138 745 
6 138 745 
7 138 745 
8 138 745 
10 138 744 
11 138 744 
12 137 743 
13 137 741 
14 137 740 
15 137 739 
17 136 737 
18 136 737 
19 136 736 
20 136 736 
21 136 737 
23 136 737 
24 136 738 
25 137 739 
26 137 741 
28 138 745 
-46 147 789 
-45 148 794 
-44 149 799 
-43 150 803 
-42 150 807 
-41 151 809 
-39 151 809 
-38 151 808 
-37 150 806 
-35 150 803 
-34 149 799 
-32 148 795 
-31 147 788 
-29 146 782 
-28 144 774 
-26 143 767 
-25 142 761 
-23 141 757 
-22 140 753 
-21 140 751 
-20 140 749 
-18 139 748 
-17 139 747 
-16 139 746 
-15 139 745 
-13 139 745 
-12 139 744 
-11 139 744 
-10 139 744 
-9 139 743 
-7 139 743 
-6 139 743 
-5 139 743 
-4 138 742 
-3 139 743 
-1 138 742 
0 139 743 
1 139 743 
2 139 743 
3 139 743 
5 139 744 
6 139 744 
7 139 744 
8 139 744 
10 139 743 
11 139 743 
12 138 742 
13 138 740 
14 138 738 
15 137 737 
17 137 736 
18 137 735 
19 137 734 
20 137 734 
21 137 733 
22 137 734 
24 137 735 
25 137 735 
26 137 737 
27 138 740 
29 139 744 
30 140 750 
-46 148 788 
-45 149 793 
-44 150 799 
-43 151 803 
-42 152 806 
-41 152 808 
-39 152 809 
-38 152 808 
-37 151 805 
-35 151 802 
-34 150 797 
-32 149 791 
-31 147 783 
-29 146 774 
-27 144 766 
-26 143 761 
-25 142 757 
-23 142 753 
-22 141 750 
-21 141 748 
-20 140 747 
-18 140 746 
-17 140 745 
-16 140 744 
-15 140 744 
-13 140 744 
-12 140 743 
-11 140 743 
-10 140 743 
-9 140 743 
-7 140 742 
-6 140 742 
-5 140 742 
-4 140 742 
-3 140 742 
-1 140 742 
0 140 742 
1 140 742 
2 140 742 
3 140 743 
5 140 743 
6 140 744 
7 140 744 
8 140 744 
10 140 743 
11 140 742 
12 139 741 
13 139 739 
14 139 737 
15 138 735 
17 138 734 
18 138 733 
19 138 732 
20 138 732 
21 138 732 
22 138 732 
24 138 732 
25 138 732 
26 138 734 
27 138 736 
29 139 738 
30 140 742 
31 141 748 
-46 149 788 
-45 150 793 
-44 151 798 
-43 152 802 
-42 153 806 
-41 153 808 
-39 153 808 
-38 153 807 
-37 152 804 
-35 152 800 
-34 151 794 
-32 149 785 
-30 147 775 
-29 145 767 
-27 144 760 
-26 143 756 
-25 143 752 
-23 142 750 
-22 142 748 
-21 141 746 
-19 141 745 
-18 141 744 
-17 141 743 
-16 141 743 
-15 141 742 
-13 141 742 
-12 141 742 
-11 141 742 
-10 141 742 
-9 141 742 
-7 141 741 
-6 141 741 
-5 141 741 
-4 141 741 
-3 141 741 
-1 140 740 
0 141 741 
1 141 741 
2 141 742 
3 141 742 
5 141 742 
6 141 743 
7 141 743 
8 141 743 
10 141 743 
11 141 742 
12 140 740 
13 140 738 
14 140 736 
15 139 734 
16 139 732 
18 139 732 
19 139 731 
20 138 730 
21 138 730 
22 138 730 
24 138 730 
25 138 730 
26 139 731 
27 139 733 
28 139 735 
30 140 737 
31 140 740 
32 141 745 
34 142 750 
35 144 757 
-46 151 788 
-45 151 792 
-44 153 798 
-43 153 802 
-42 154 805 
-41 154 808 
-39 154 808 
-38 154 806 
-37 153 802 
-35 152 797 
-33 151 788 
-32 149 777 
-30 147 767 
-28 145 760 
-27 144 755 
-26 144 752 
-24 143 749 
-23 143 748 
-22 143 746 
-21 142 744 
-19 142 743 
-18 142 742 
-17 142 742 
-16 142 741 
-15 142 741 
-13 142 741 
-12 142 741 
-11 142 741 
-10 142 741 
-9 142 741 
-7 142 740 
-6 142 740 
-5 142 740 
-4 142 740 
-3 142 740 
-1 142 740 
0 142 741 
1 142 741 
2 142 742 
3 142 742 
5 142 742 
6 142 743 
7 142 743 
8 142 743 
9 142 742 
11 142 741 
12 141 739 
13 141 736 
14 140 734 
15 140 732 
16 140 731 
18 140 730 
19 139 729 
20 139 728 
21 139 728 
22 139 728 
23 139 727 
25 139 728 
26 139 729 
27 140 730 
28 140 732 
30 140 734 
31 141 737 
32 142 740 
34 142 744 
35 143 748 
37 144 755 
46 154 805 
47 155 812 
49 156 817 
-46 152 787 
-45 153 792 
-44 154 798 
-43 155 802 
-42 155 805 
-41 156 807 
-39 156 807 
-38 155 804 
-36 154 799 
-35 153 791 
-33 150 780 
-31 148 769 
-30 147 761 
-28 146 755 
-27 145 752 
-26 144 749 
-24 144 747 
-23 144 746 
-22 143 744 
-21 143 743 
-19 143 743 
-18 143 741 
-17 143 741 
-16 143 741 
-15 143 741 
-13 143 740 
-12 143 740 
-11 143 740 
-10 143 741 
-9 143 741 
-7 143 740 
-6 143 740 
-5 143 740 
-4 143 740 
-3 143 740 
-1 143 740 
0 143 741 
1 143 741 
2 143 741 
3 143 741 
5 143 742 
6 143 742 
7 143 742 
8 143 742 
9 143 741 
11 143 740 
12 142 737 
13 142 734 
14 141 732 
15 141 730 
16 141 729 
18 140 728 
19 140 727 
20 140 726 
21 140 726 
22 140 726 
23 140 725 
25 140 726 
26 140 727 
27 140 727 
28 141 729 
29 141 731 
31 141 733 
32 142 735 
33 143 739 
35 143 743 
36 144 749 
38 146 756 
39 147 764 
43 151 784 
45 153 795 
47 155 803 
48 156 808 
50 157 812 
51 157 816 
-46 153 787 
-45 154 792 
-44 155 797 
-43 156 802 
-42 157 805 
-41 157 806 
-39 157 806 
-38 156 802 
-36 154 794 
-34 152 784 
-33 150 771 
-31 148 763 
-30 147 756 
-28 146 751 
-27 146 749 
-26 145 747 
-24 145 746 
-23 145 744 
-22 144 743 
-21 144 742 
-19 144 742 
-18 144 741 
-17 144 740 
-16 144 740 
-15 144 740 
-13 144 740 
-12 144 740 
-11 144 740 
-10 144 740 
-9 144 741 
-7 144 740 
-6 144 740 
-5 144 740 
-4 144 740 
-3 144 740 
-1 144 740 
0 144 740 
1 144 741 
2 144 741 
3 144 741 
5 144 742 
6 144 742 
7 144 742 
8 144 741 
9 144 740 
11 144 738 
12 143 735 
13 143 733 
14 142 730 
15 142 728 
16 141 727 
18 141 726 
19 141 725 
20 141 724 
21 141 724 
22 141 724 
23 141 724 
25 141 724 
26 141 725 
27 141 726 
28 141 727 
29 142 729 
31 142 730 
32 143 733 
33 143 735 
35 144 739 
36 145 744 
38 146 750 
39 147 757 
41 149 766 
43 151 776 
44 153 786 
46 155 795 
48 156 801 
50 157 807 
51 158 811 
53 158 815 
54 159 817 
56 159 818 
-46 154 787 
-45 155 792 
-44 156 797 
-43 157 801 
-42 158 804 
-41 158 805 
-39 158 804 
-38 156 798 
-36 154 788 
-34 152 776 
-32 150 765 
-31 148 757 
-29 147 752 
-28 147 749 
-27 146 746 
-25 146 745 
-24 146 743 
-23 146 743 
-22 145 742 
-21 145 741 
-19 145 740 
-18 145 740 
-17 145 740 
-16 145 740 
-15 145 740 
-13 145 740 
-12 145 740 
-11 145 740 
-10 145 740 
-9 145 740 
-7 145 740 
-6 145 740 
-5 145 740 
-4 145 740 
-3 145 740 
-1 145 740 
0 145 740 
1 145 740 
2 145 740 
3 145 741 
5 145 741 
6 145 741 
7 145 741 
8 145 740 
9 145 738 
11 144 736 
12 144 733 
13 143 730 
14 143 728 
15 142 726 
16 142 724 
17 142 723 
19 142 723 
20 142 722 
21 142 722 
22 142 722 
23 142 722 
24 142 722 
26 142 723 
27 142 724 
28 142 725 
29 143 727 
31 143 729 
32 143 731 
33 144 733 
34 144 736 
36 145 740 
37 146 746 
39 147 752 
41 149 760 
42 151 770 
44 153 780 
46 154 788 
48 156 796 
49 157 802 
51 158 808 
52 159 812 
54 160 815 
55 160 816 
-46 156 787 
-45 157 792 
-44 157 796 
-43 158 800 
-42 159 803 
-40 159 803 
-39 158 800 
-37 156 791 
-35 154 779 
-34 152 767 
-32 150 758 
-31 149 753 
-29 148 749 
-28 147 746 
-27 147 743 
-25 147 743 
-24 146 741 
-23 146 740 
-22 146 740 
-21 146 740 
-19 146 739 
-18 146 739 
-17 146 739 
-16 146 740 
-15 146 740 
-13 146 740 
-12 146 740 
-11 146 740 
-10 146 740 
-9 146 740 
-7 146 740 
-6 146 740 
-5 146 741 
-4 146 740 
-3 146 740 
-1 146 740 
0 146 740 
1 146 740 
2 146 740 
3 146 740 
5 146 740 
6 146 740 
7 146 740 
8 146 739 
9 146 737 
11 145 734 
12 145 731 
13 144 728 
14 143 725 
15 143 724 
16 143 722 
17 143 721 
19 142 720 
20 142 720 
21 142 720 
22 142 720 
23 143 721 
24 143 721 
26 143 722 
27 143 723 
28 143 724 
29 143 725 
31 144 727 
32 144 729 
33 145 732 
34 145 734 
36 146 738 
37 147 743 
39 148 749 
40 149 755 
42 151 765 
44 153 775 
46 155 785 
47 157 794 
49 158 800 
51 159 806 
52 160 811 
54 161 813 
55 161 814 
-46 157 787 
-45 158 791 
-44 159 796 
-43 159 799 
-42 160 801 
-40 159 800 
-39 158 795 
-37 156 783 
-35 154 771 
-33 152 761 
-32 150 754 
-30 149 749 
-29 149 746 
-28 148 744 
-27 148 742 
-25 147 740 
-24 147 739 
-23 147 738 
-22 147 738 
-20 147 738 
-19 147 738 
-18 147 738 
-17 147 738 
-16 147 738 
-14 147 739 
-13 147 739 
-12 147 739 
-11 147 739 
-10 147 739 
-9 147 740 
-7 147 740 
-6 147 740 
-5 147 740 
-4 147 740 
-3 147 740 
-1 147 740 
0 147 740 
1 147 740 
2 147 740 
3 147 740 
5 147 740 
6 147 740 
7 147 739 
8 147 737 
9 146 734 
11 146 732 
12 145 729 
13 145 726 
14 144 724 
15 144 722 
16 143 720 
17 143 719 
19 143 719 
20 143 719 
21 143 719 
22 143 719 
23 143 719 
24 143 720 
26 143 720 
27 144 722 
28 144 722 
29 144 724 
30 144 725 
32 145 728 
33 145 730 
34 146 733 
36 147 736 
37 147 740 
39 149 746 
40 150 753 
42 152 763 
44 154 773 
46 156 783 
47 158 793 
49 160 801 
51 161 806 
52 162 812 
54 162 814 
55 163 816 
-46 158 787 
-45 159 791 
-44 160 795 
-43 160 799 
-42 160 799 
-40 160 796 
-38 158 788 
-37 156 776 
-35 153 763 
-33 152 755 
-32 151 750 
-30 150 746 
-29 149 743 
-28 149 741 
-26 148 739 
-25 148 738 
-24 148 737 
-23 148 736 
-22 148 736 
-20 148 736 
-19 148 736 
-18 148 735 
-17 148 736 
-16 148 736 
-14 148 737 
-13 148 737 
-12 148 738 
-11 148 738 
-10 148 738 
-9 148 738 
-7 148 739 
-6 148 739 
-5 148 739 
-4 148 739 
-3 149 740 
-1 149 740 
0 148 739 
1 148 739 
2 148 739 
3 148 739 
5 148 739 
6 148 738 
7 148 736 
8 147 734 
9 147 731 
10 146 728 
12 146 725 
13 145 723 
14 145 720 
15 144 719 
16 144 719 
17 144 717 
18 144 717 
20 144 717 
21 144 717 
22 144 718 
23 144 718 
24 144 719 
26 144 719 
27 145 720 
28 145 722 
29 145 723 
30 145 724 
32 146 726 
33 146 729 
34 147 732 
36 148 735 
37 148 739 
38 150 745 
40 151 752 
42 153 762 
44 155 773 
46 157 784 
47 159 794 
49 161 801 
51 162 807 
52 163 812 
54 164 815 
55 164 817 
-46 159 787 
-45 160 791 
-44 161 795 
-43 162 798 
-42 162 798 
-40 161 793 
-38 158 782 
-36 156 769 
-35 153 758 
-33 152 750 
-32 151 746 
-30 150 743 
-29 150 740 
-28 149 738 
-26 149 737 
-25 149 735 
-24 149 734 
-23 148 733 
-21 148 732 
-20 148 732 
-19 148 732 
-18 148 733 
-17 148 733 
-16 149 734 
-14 149 734 
-13 149 735 
-12 149 735 
-11 149 735 
-10 149 736 
-8 149 736 
-7 149 736 
-6 149 736 
-5 149 737 
-4 149 737 
-3 149 737 
-1 149 737 
0 149 737 
1 149 737 
2 149 737 
3 149 736 
5 149 736 
6 149 735 
7 148 733 
8 148 730 
9 147 728 
10 147 725 
12 146 722 
13 146 720 
14 145 718 
15 145 717 
16 145 716 
17 145 716 
18 145 715 
20 145 715 
21 145 716 
22 145 716 
23 145 717 
24 145 717 
25 145 718 
27 146 719 
28 146 720 
29 146 722 
30 146 723 
32 147 725 
33 147 728 
34 148 731 
36 149 734 
37 149 738 
38 151 744 
40 152 751 
42 154 763 
44 157 773 
46 159 784 
48 161 795 
49 163 803 
51 164 809 
53 165 813 
54 165 816 
56 166 818 
-46 160 786 
-45 161 790 
-44 162 794 
-43 163 797 
-41 162 795 
-40 161 788 
-38 158 775 
-36 156 763 
-34 154 753 
-33 152 746 
-31 151 742 
-30 151 739 
-29 150 737 
-28 150 736 
-26 150 734 
-25 149 732 
-24 149 731 
-23 149 730 
-21 149 729 
-20 149 728 
-19 149 729 
-18 149 729 
-17 149 729 
-16 149 730 
-14 149 731 
-13 149 731 
-12 149 732 
-11 149 732 
-10 149 732 
-8 150 733 
-7 150 733 
-6 150 733 
-5 150 733 
-4 150 734 
-3 150 734 
-1 150 734 
0 150 734 
1 150 734 
2 150 734 
3 150 733 
5 149 732 
6 149 730 
7 149 729 
8 148 726 
9 148 724 
10 147 721 
12 147 720 
13 147 718 
14 146 717 
15 146 716 
16 146 714 
17 146 714 
18 146 714 
20 146 714 
21 146 714 
22 146 715 
23 146 716 
24 146 717 
25 147 718 
27 147 718 
28 147 720 
29 147 721 
30 148 723 
32 148 724 
33 148 727 
34 149 730 
35 150 733 
37 150 737 
38 152 743 
40 153 750 
42 156 762 
44 158 774 
46 160 785 
48 163 797 
49 164 805 
51 166 812 
53 167 816 
54 167 819 
56 168 821 
-46 162 786 
-45 162 790 
-44 163 794 
-43 164 796 
-41 163 793 
-39 161 784 
-38 159 771 
-36 156 757 
-34 154 749 
-33 153 743 
-31 152 740 
-30 152 737 
-29 151 734 
-27 151 732 
-26 150 730 
-25 150 729 
-24 150 728 
-23 150 727 
-21 149 726 
-20 149 726 
-19 149 726 
-18 149 726 
-17 149 726 
-15 149 726 
-14 150 727 
-13 150 727 
-12 150 727 
-11 150 727 
-10 150 728 
-8 150 728 
-7 150 728 
-6 150 728 
-5 150 728 
-4 150 729 
-2 150 729 
-1 150 730 
0 150 730 
1 150 730 
2 150 730 
3 150 729 
5 150 728 
6 149 726 
7 149 724 
8 149 723 
9 148 720 
10 148 718 
11 148 717 
13 147 716 
14 147 715 
15 147 714 
16 147 713 
17 147 713 
18 147 713 
20 147 713 
21 147 713 
22 147 714 
23 147 715 
24 147 716 
25 147 717 
27 148 718 
28 148 720 
29 148 721 
30 149 723 
32 149 724 
33 150 727 
34 150 730 
35 151 733 
37 151 736 
38 153 742 
40 154 749 
42 157 761 
44 159 772 
46 161 785 
48 164 797 
49 166 806 
51 167 813 
53 168 817 
54 168 819 
56 169 821 
-46 163 786 
-45 164 790 
-44 165 794 
-43 165 795 
-41 164 791 
-39 162 781 
-37 159 768 
-36 156 754 
-34 155 746 
-33 154 741 
-31 153 738 
-30 152 734 
-29 152 732 
-27 151 730 
-26 151 729 
-25 151 727 
-24 150 725 
-22 150 724 
-21 150 724 
-20 150 723 
-19 150 723 
-18 150 723 
-16 150 722 
-15 150 723 
-14 150 723 
-13 150 723 
-12 150 723 
-11 150 723 
-9 150 723 
-8 150 723 
-7 150 723 
-6 150 723 
-5 150 724 
-4 150 724 
-2 150 725 
-1 150 725 
0 150 725 
1 150 725 
2 150 724 
3 150 724 
5 150 722 
6 149 720 
7 149 719 
8 149 718 
9 149 717 
10 148 716 
11 148 715 
13 148 714 
14 148 713 
15 148 712 
16 148 712 
17 148 712 
18 147 711 
19 148 712 
21 148 713 
22 148 713 
23 148 715 
24 148 716 
25 149 717 
27 149 718 
28 149 719 
29 149 720 
30 150 722 
32 150 724 
33 151 726 
34 151 729 
35 152 732 
37 152 735 
38 154 741 
40 155 748 
42 157 759 
44 160 771 
46 163 784 
48 165 797 
49 167 806 
51 169 814 
53 169 817 
54 170 820 
56 170 822 
-46 164 785 
-45 165 789 
-44 166 793 
-43 166 793 
-41 165 788 
-39 162 777 
-37 159 763 
-35 157 751 
-34 155 743 
-32 154 739 
-31 154 735 
-30 153 732 
-29 152 730 
-27 152 728 
-26 152 726 
-25 151 725 
-24 151 723 
-22 151 721 
-21 151 721 
-20 151 721 
-19 150 720 
-18 150 720 
-16 150 719 
-15 150 720 
-14 150 720 
-13 150 720 
-12 150 719 
-11 150 719 
-9 150 719 
-8 150 719 
-7 150 719 
-6 150 719 
-5 150 719 
-4 150 719 
-2 150 720 
-1 150 720 
0 150 720 
1 150 719 
2 150 719 
3 150 718 
5 150 718 
6 150 716 
7 149 715 
8 149 714 
9 149 714 
10 149 713 
11 149 713 
13 149 712 
14 149 712 
15 149 711 
16 149 711 
17 149 711 
18 149 711 
19 149 711 
21 149 712 
22 149 712 
23 149 714 
24 149 715 
25 150 716 
27 150 717 
28 150 719 
29 150 720 
30 151 722 
31 151 723 
33 151 725 
34 152 728 
35 153 731 
37 153 734 
38 155 740 
40 156 747 
42 158 757 
43 160 768 
45 163 782 
48 166 796 
49 168 805 
51 170 813 
53 171 817 
54 171 820 
56 172 822 
-46 165 785 
-45 166 788 
-44 166 791 
-42 166 790 
-41 165 785 
-39 162 771 
-37 160 759 
-35 157 748 
-34 156 741 
-32 155 736 
-31 154 733 
-30 153 729 
-28 153 727 
-27 153 725 
-26 152 724 
-25 152 722 
-23 152 721 
-22 151 719 
-21 151 719 
-20 151 718 
-19 151 717 
-18 151 717 
-16 151 717 
-15 151 717 
-14 151 716 
-13 151 717 
-12 151 716 
-11 151 716 
-9 151 716 
-8 151 716 
-7 151 716 
-6 151 715 
-5 151 715 
-4 151 715 
-2 151 716 
-1 151 716 
0 151 715 
1 150 714 
2 150 714 
3 150 714 
4 150 713 
6 150 713 
7 150 712 
8 150 712 
9 150 712 
10 150 711 
11 150 711 
13 150 711 
14 149 710 
15 149 710 
16 149 710 
17 149 710 
18 149 710 
19 149 710 
21 150 711 
22 150 712 
23 150 713 
24 150 714 
25 151 715 
27 151 717 
28 151 718 
29 151 719 
30 152 721 
31 152 722 
33 153 725 
34 153 727 
35 154 730 
37 154 733 
38 155 738 
40 157 745 
41 159 754 
47 167 793 
49 169 803 
51 171 811 
53 172 816 
54 172 819 
56 173 821 
-46 166 784 
-45 167 787 
-44 167 789 
-42 167 786 
-40 165 778 
-39 162 765 
-37 160 755 
-35 158 745 
-34 157 739 
-32 156 734 
-31 155 731 
-30 154 727 
-28 154 726 
-27 153 723 
-26 153 722 
-25 153 721 
-23 153 719 
-22 152 718 
-21 152 717 
-20 152 716 
-19 152 715 
-17 152 715 
-16 152 715 
-15 152 715 
-14 151 714 
-13 151 714 
-12 151 714 
-11 151 713 
-9 151 713 
-8 151 713 
-7 151 713 
-6 151 713 
-5 151 712 
-4 151 712 
-2 151 712 
-1 151 712 
0 151 712 
1 151 711 
2 151 710 
3 151 710 
4 151 710 
6 150 709 
7 150 709 
8 150 709 
9 150 709 
10 150 709 
11 150 709 
13 151 710 
14 151 710 
15 150 709 
16 150 709 
17 150 709 
18 150 709 
19 150 709 
21 151 710 
22 151 712 
23 151 713 
24 151 714 
25 152 715 
27 152 716 
28 152 717 
29 153 719 
30 153 720 
31 153 722 
33 154 724 
34 154 726 
35 155 729 
37 155 732 
38 156 737 
40 157 742 
41 160 752 
47 167 789 
49 170 800 
51 172 809 
53 173 815 
54 173 818 
56 174 821 
-46 167 783 
-45 168 786 
-43 168 786 
-42 167 781 
-40 165 771 
-38 162 760 
-37 160 751 
-35 159 742 
-34 158 737 
-32 157 733 
-31 156 729 
-30 155 726 
-28 155 724 
-27 154 722 
-26 154 720 
-25 154 719 
-23 153 718 
-22 153 717 
-21 153 716 
-20 153 715 
-19 153 714 
-17 152 713 
-16 152 713 
-15 152 713 
-14 152 713 
-13 152 712 
-12 152 712 
-10 152 711 
-9 152 711 
-8 152 711 
-7 152 711 
-6 152 710 
-5 152 710 
-4 152 710 
-2 152 710 
-1 152 710 
0 152 709 
1 152 709 
2 152 709 
3 152 709 
4 151 708 
6 151 708 
7 151 708 
8 151 708 
9 151 708 
10 151 708 
11 151 708 
12 151 708 
14 152 709 
15 152 709 
16 152 709 
17 152 709 
18 152 709 
19 152 709 
21 152 710 
22 152 711 
23 152 712 
24 152 713 
25 153 714 
27 153 716 
28 153 717 
29 153 718 
30 154 719 
31 154 722 
33 155 724 
34 155 726 
35 156 728 
37 156 732 
38 157 736 
39 158 741 
41 160 749 
47 167 783 
49 170 795 
51 172 804 
52 173 811 
54 174 815 
55 175 818 
-46 169 783 
-45 169 784 
-43 169 783 
-42 167 775 
-40 165 766 
-38 163 756 
-36 161 748 
-35 160 741 
-33 158 736 
-32 157 731 
-31 157 728 
-29 156 725 
-28 156 723 
-27 155 721 
-26 155 720 
-25 155 718 
-23 154 716 
-22 154 715 
-21 154 714 
-20 154 713 
-19 154 713 
-17 153 712 
-16 153 712 
-15 153 711 
-14 153 711 
-13 153 711 
-12 153 711 
-10 153 711 
-9 153 710 
-8 153 710 
-7 153 709 
-6 152 708 
-5 152 708 
-4 152 708 
-2 152 708 
-1 152 708 
0 152 707 
1 152 707 
2 152 707 
3 152 707 
4 152 706 
6 152 706 
7 152 706 
8 152 706 
9 152 706 
10 152 706 
11 152 707 
12 152 707 
14 152 708 
15 152 708 
16 152 708 
17 153 709 
18 153 709 
19 153 709 
21 153 710 
22 153 711 
23 153 711 
24 154 713 
25 154 714 
27 154 715 
28 154 716 
29 155 718 
30 155 719 
31 155 721 
33 156 723 
34 156 725 
35 157 727 
37 157 730 
38 158 734 
39 159 739 
41 161 746 
43 163 755 
44 165 765 
46 167 777 
48 170 788 
50 172 798 
52 174 806 
54 175 811 
55 175 814 
-46 170 783 
-44 170 783 
-43 169 779 
-41 167 769 
-39 165 760 
-38 163 752 
-36 162 746 
-35 160 739 
-33 159 735 
-32 158 730 
-31 158 727 
-29 157 725 
-28 157 722 
-27 156 720 
-26 156 719 
-25 156 717 
-23 155 716 
-22 155 714 
-21 155 713 
-20 154 712 
-19 154 711 
-17 154 711 
-16 154 711 
-15 154 710 
-14 154 710 
-13 154 710 
-12 154 710 
-10 154 710 
-9 154 709 
-8 154 709 
-7 154 708 
-6 153 707 
-5 153 707 
-4 153 707 
-2 153 707 
-1 153 707 
0 153 706 
1 153 706 
2 153 706 
3 153 706 
4 153 705 
6 153 705 
7 153 705 
8 153 705 
9 153 705 
10 153 706 
11 153 706 
12 153 707 
14 153 707 
15 153 707 
16 154 708 
17 154 708 
18 154 709 
19 154 709 
21 154 710 
22 154 711 
23 154 711 
24 154 712 
25 155 713 
27 155 715 
28 155 715 
29 156 717 
30 156 719 
31 156 720 
33 157 723 
34 157 725 
35 158 727 
36 158 729 
38 159 733 
39 160 737 
41 161 743 
42 162 749 
44 164 758 
46 167 768 
48 169 779 
50 171 789 
52 173 798 
53 174 803 
55 175 807 
56 176 810 
-46 171 783 
-44 171 781 
-43 169 774 
-41 167 764 
-39 165 755 
-38 164 749 
-36 162 743 
-35 161 738 
-33 160 733 
-32 160 730 
-31 159 726 
-29 158 724 
-28 158 722 
-27 157 720 
-26 157 718 
-24 156 716 
-23 156 715 
-22 156 714 
-21 156 712 
-20 155 711 
-19 155 710 
-17 155 710 
-16 155 710 
-15 155 709 
-14 155 709 
-13 155 709 
-12 155 709 
-10 155 709 
-9 155 708 
-8 155 708 
-7 155 707 
-6 154 706 
-5 154 706 
-4 154 705 
-2 154 705 
-1 154 705 
0 154 705 
1 154 705 
2 154 705 
3 154 705 
4 154 705 
6 154 704 
7 154 705 
8 154 705 
9 154 705 
10 154 705 
11 154 706 
12 154 706 
14 155 707 
15 155 707 
16 155 707 
17 155 708 
18 155 708 
19 155 709 
21 155 710 
22 155 710 
23 155 711 
24 156 712 
25 156 713 
26 156 714 
28 156 715 
29 156 716 
30 157 718 
31 157 720 
33 158 722 
34 158 724 
35 159 726 
36 159 729 
38 160 732 
39 161 735 
41 162 740 
42 163 745 
44 164 752 
45 166 761 
47 168 770 
49 170 779 
51 172 786 
52 173 792 
54 174 797 
-46 172 783 
-44 172 780 
-43 170 771 
-41 168 762 
-39 166 754 
-38 165 748 
-36 163 742 
-35 162 737 
-33 161 733 
-32 160 729 
-31 160 726 
-29 159 724 
-28 159 721 
-27 158 719 
-26 158 718 
-24 157 715 
-23 157 714 
-22 157 713 
-21 157 711 
-20 156 710 
-19 156 710 
-17 156 709 
-16 156 709 
-15 156 708 
-14 156 708 
-13 156 708 
-12 156 708 
-10 156 708 
-9 156 707 
-8 156 707 
-7 155 706 
-6 155 706 
-5 155 705 
-4 155 704 
-2 155 704 
-1 155 704 
0 155 704 
1 155 704 
2 155 704 
3 155 704 
4 155 704 
6 155 704 
7 155 704 
8 155 704 
9 155 705 
10 155 705 
11 155 705 
12 155 705 
14 155 706 
15 155 706 
16 155 706 
17 156 707 
18 156 708 
19 156 709 
21 156 710 
22 156 710 
23 157 711 
24 157 712 
25 157 713 
26 157 713 
28 157 715 
29 158 716 
30 158 718 
31 158 719 
33 159 721 
34 159 724 
35 160 726 
36 160 728 
38 161 731 
39 162 734 
40 162 738 
42 164 743 
44 165 749 
45 166 756 
47 168 764 
49 170 772 
50 171 779 
52 173 785 
53 174 789 
55 174 791 
-46 173 782 
-44 172 778 
-42 170 769 
-41 168 760 
-39 167 754 
-38 166 748 
-36 165 742 
-35 163 737 
-33 162 732 
-32 162 729 
-31 161 726 
-29 161 724 
-28 160 721 
-27 159 719 
-26 159 717 
-24 159 715 
-23 158 713 
-22 158 712 
-21 157 710 
-20 157 709 
-18 157 709 
-17 157 709 
-16 157 709 
-15 157 708 
-14 157 708 
-13 157 708 
-12 157 708 
-10 157 707 
-9 157 707 
-8 157 706 
-7 157 706 
-6 156 705 
-5 156 704 
-4 156 704 
-2 156 703 
-1 156 703 
0 156 703 
1 156 703 
2 156 703 
3 156 703 
4 156 703 
6 156 703 
7 156 703 
8 156 703 
9 156 704 
10 156 704 
11 156 704 
12 156 705 
14 157 706 
15 157 706 
16 157 706 
17 157 707 
18 157 708 
19 157 709 
21 157 710 
22 157 710 
23 158 712 
24 158 713 
25 158 713 
26 158 714 
28 159 715 
29 159 717 
30 159 718 
31 160 720 
33 160 721 
34 160 723 
35 161 726 
36 161 728 
38 162 731 
39 163 734 
40 163 737 
42 165 742 
43 166 747 
45 167 754 
47 169 761 
48 170 769 
50 172 775 
52 173 780 
53 174 784 
-47 175 783 
-46 175 782 
-44 174 777 
-42 171 768 
-41 170 760 
-39 168 754 
-38 167 748 
-36 166 742 
-35 165 737 
-33 164 733 
-32 163 729 
-31 162 726 
-29 161 723 
-28 161 721 
-27 161 719 
-26 160 717 
-24 160 715 
-23 159 713 
-22 159 712 
-21 159 710 
-20 158 709 
-18 158 709 
-17 158 709 
-16 158 709 
-15 158 708 
-14 158 708 
-13 158 708 
-12 158 708 
-10 158 707 
-9 158 707 
-8 158 706 
-7 157 705 
-6 157 704 
-5 157 704 
-4 157 703 
-2 157 703 
-1 157 703 
0 157 703 
1 157 703 
2 157 703 
3 157 703 
4 157 703 
6 157 703 
7 157 703 
8 157 703 
9 157 704 
10 157 704 
11 157 704 
12 157 705 
14 158 706 
15 158 706 
16 158 707 
17 158 708 
18 158 708 
19 158 709 
21 159 710 
22 159 711 
23 159 711 
24 159 713 
25 159 713 
26 159 714 
28 160 715 
29 160 716 
30 160 718 
31 161 720 
33 161 721 
34 161 723 
35 162 725 
36 163 728 
38 163 731 
39 164 734 
40 165 737 
42 165 741 
43 167 746 
45 168 752 
47 169 759 
48 171 767 
50 173 773 
51 174 777 
53 174 781 
54 175 784 
-47 176 783 
-46 176 782 
-44 175 777 
-42 173 768 
-41 171 761 
-39 170 755 
-38 168 749 
-36 167 743 
-35 166 737 
-33 165 733 
-32 164 729 
-31 163 726 
-29 163 724 
-28 162 721 
-27 162 719 
-26 161 717 
-24 161 715 
-23 160 713 
-22 160 712 
-21 160 711 
-20 159 709 
-18 159 709 
-17 160 709 
-16 159 708 
-15 159 708 
-14 159 708 
-13 159 707 
-12 159 707 
-10 159 707 
-9 159 706 
-8 159 706 
-7 159 705 
-6 158 704 
-5 158 703 
-4 158 703 
-2 158 702 
-1 158 702 
0 158 702 
1 158 702 
2 158 702 
3 158 703 
4 158 703 
6 158 703 
7 158 703 
8 158 704 
9 158 704 
10 158 704 
11 159 705 
12 159 705 
14 159 706 
15 159 706 
16 159 707 
17 159 708 
18 160 709 
19 160 710 
21 160 711 
22 160 711 
23 160 712 
24 160 712 
25 160 713 
26 161 714 
28 161 715 
29 161 716 
30 161 717 
31 162 720 
33 162 721 
34 163 723 
35 163 725 
36 164 728 
38 164 731 
39 165 734 
40 166 737 
42 167 741 
43 168 746 
45 169 752 
47 171 759 
48 172 765 
50 174 772 
51 175 776 
53 175 778 
54 176 781 
-47 177 783 
-46 177 781 
-44 176 776 
-42 174 769 
-41 173 762 
-39 171 756 
-38 170 750 
-36 169 744 
-35 167 738 
-33 166 734 
-32 165 730 
-31 165 727 
-29 164 723 
-28 164 722 
-27 163 719 
-26 162 717 
-24 162 715 
-23 162 713 
-22 161 712 
-21 161 711 
-20 161 710 
-18 161 709 
-17 161 709 
-16 161 709 
-15 160 708 
-14 160 707 
-13 160 707 
-12 160 706 
-10 160 706 
-9 160 706 
-8 160 705 
-7 160 705 
-6 160 704 
-5 159 703 
-4 159 703 
-2 159 702 
-1 159 702 
0 159 702 
1 159 702 
2 159 702 
3 159 702 
4 159 703 
6 159 703 
7 159 703 
8 160 704 
9 160 704 
10 160 704 
11 160 705 
12 160 705 
14 160 705 
15 160 706 
16 160 707 
17 160 708 
18 161 709 
19 161 709 
21 161 711 
22 161 711 
23 161 712 
24 161 712 
25 162 713 
26 162 714 
28 162 715 
29 162 716 
30 162 717 
31 163 719 
33 163 721 
34 164 723 
35 164 725 
36 165 728 
38 166 731 
39 166 734 
40 167 737 
42 168 741 
43 169 746 
45 170 752 
47 172 759 
48 173 765 
50 175 771 
51 175 774 
53 176 776 
54 176 778 
-47 179 784 
-46 178 782 
-44 177 778 
-43 176 771 
-41 174 764 
-39 173 757 
-38 171 750 
-36 170 744 
-35 169 739 
-33 167 734 
-32 167 730 
-31 166 727 
-29 165 724 
-28 165 722 
-27 164 719 
-26 163 716 
-24 163 714 
-23 163 713 
-22 162 711 
-21 162 710 
-20 162 709 
-18 162 709 
-17 162 709 
-16 162 708 
-15 162 708 
-14 162 708 
-13 161 707 
-12 161 706 
-10 161 706 
-9 161 706 
-8 161 705 
-7 161 704 
-6 161 704 
-5 160 703 
-4 160 703 
-2 160 703 
-1 160 702 
0 160 702 
1 160 702 
2 160 702 
3 160 703 
4 160 703 
6 160 703 
7 161 704 
8 161 704 
9 161 705 
10 161 705 
11 161 705 
12 161 705 
14 161 706 
15 161 706 
16 161 707 
17 162 708 
18 162 709 
19 162 710 
21 162 711 
22 162 712 
23 162 712 
24 163 713 
25 163 714 
26 163 715 
28 163 715 
29 163 716 
30 164 718 
31 164 719 
33 164 721 
34 165 724 
35 166 726 
36 166 729 
38 167 731 
39 167 734 
40 168 738 
42 169 742 
43 170 747 
45 172 753 
47 173 760 
48 175 767 
50 176 772 
51 177 776 
53 177 778 
54 178 779 
-47 180 785 
-46 180 784 
-44 179 780 
-43 178 774 
-41 176 766 
-39 174 759 
-38 173 752 
-36 171 746 
-35 170 739 
-33 169 735 
-32 168 731 
-31 167 727 
-29 166 724 
-28 166 722 
-27 165 720 
-26 165 717 
-24 164 715 
-23 164 713 
-22 164 712 
-21 163 711 
-20 163 709 
-18 163 709 
-17 163 709 
-16 163 708 
-15 163 708 
-14 162 707 
-13 162 707 
-12 162 706 
-10 162 705 
-9 162 705 
-8 162 705 
-7 162 704 
-6 162 704 
-5 162 703 
-4 162 703 
-2 162 703 
-1 162 703 
0 162 703 
1 162 703 
2 162 703 
3 162 703 
4 162 704 
6 162 704 
7 162 704 
8 162 704 
9 162 705 
10 162 705 
11 162 706 
12 162 706 
14 162 706 
15 162 707 
16 162 707 
17 163 708 
18 163 710 
19 163 711 
21 163 711 
22 163 711 
23 164 712 
24 164 713 
25 164 714 
26 164 715 
28 165 716 
29 165 717 
30 165 719 
31 165 720 
33 166 721 
34 166 723 
35 167 726 
36 167 729 
38 168 732 
39 169 735 
41 170 739 
42 171 744 
44 172 750 
45 174 756 
47 175 762 
48 177 769 
50 178 774 
51 178 777 
53 179 779 
54 179 780 
-47 182 786 
-46 182 785 
-44 181 782 
-43 180 777 
-41 178 770 
-40 176 762 
-38 174 754 
-36 173 747 
-35 171 741 
-33 170 736 
-32 169 731 
-31 168 728 
-29 167 724 
-28 167 722 
-27 167 720 
-26 166 717 
-24 165 715 
-23 165 714 
-22 165 712 
-21 165 711 
-20 164 710 
-19 164 710 
-17 164 710 
-16 164 709 
-15 164 708 
-14 164 707 
-13 164 707 
-12 163 706 
-10 163 706 
-9 163 705 
-8 163 705 
-7 163 704 
-6 163 704 
-5 163 704 
-4 163 703 
-2 163 703 
-1 163 703 
0 163 703 
1 163 703 
2 163 703 
3 163 703 
4 163 704 
6 163 704 
7 163 704 
8 163 705 
9 163 705 
10 163 705 
11 163 706 
12 163 706 
14 164 707 
15 164 707 
16 164 708 
17 164 709 
18 164 710 
19 165 711 
21 165 711 
22 165 712 
23 165 713 
24 165 713 
25 165 715 
26 165 715 
28 166 717 
29 166 717 
30 166 719 
31 167 721 
33 167 722 
34 167 724 
35 168 726 
36 169 729 
38 170 733 
39 170 736 
41 171 740 
42 173 746 
44 174 752 
45 176 759 
47 177 765 
49 179 772 
50 179 776 
52 180 779 
53 180 780 
54 181 781 
-47 183 787 
-46 183 786 
-45 183 785 
-43 182 781 
-42 181 776 
-40 179 768 
-38 177 759 
-36 174 749 
-35 173 742 
-33 171 736 
-32 171 732 
-31 170 729 
-29 169 725 
-28 168 723 
-27 168 720 
-26 167 717 
-24 167 715 
-23 166 714 
-22 166 713 
-21 166 712 
-20 166 711 
-18 165 710 
-17 165 710 
-16 165 709 
-15 165 708 
-14 165 708 
-13 165 707 
-12 164 706 
-10 164 706 
-9 164 706 
-8 164 705 
-7 164 705 
-6 164 704 
-5 164 704 
-4 164 704 
-2 164 704 
-1 164 704 
0 164 704 
1 164 704 
2 164 704 
3 164 704 
4 164 704 
6 164 704 
7 164 705 
8 164 705 
9 164 706 
10 164 706 
11 164 706 
12 165 707 
14 165 707 
15 165 708 
16 165 708 
17 165 709 
18 165 710 
19 166 711 
21 166 711 
22 166 712 
23 166 713 
24 166 714 
25 166 714 
26 167 715 
28 167 716 
29 167 718 
30 168 719 
31 168 721 
33 168 723 
34 169 724 
35 169 727 
36 170 730 
38 171 733 
39 172 737 
41 173 742 
42 174 748 
44 176 755 
45 177 762 
47 179 768 
49 180 774 
50 181 778 
52 182 780 
53 182 781 
54 182 782 
-47 185 790 
-46 185 789 
-45 185 788 
-43 184 785 
-42 183 780 
-40 181 772 
-38 179 762 
-37 176 752 
-35 174 743 
-34 173 737 
-32 172 733 
-31 171 729 
-29 170 726 
-28 170 723 
-27 169 721 
-26 168 718 
-24 168 716 
-23 167 714 
-22 167 713 
-21 167 712 
-20 167 711 
-19 167 711 
-17 167 710 
-16 166 709 
-15 166 709 
-14 166 707 
-13 166 707 
-12 166 707 
-10 166 706 
-9 166 706 
-8 165 705 
-7 165 705 
-6 165 705 
-5 165 704 
-4 165 704 
-2 165 704 
-1 165 704 
0 165 705 
1 165 705 
2 165 705 
3 165 705 
4 165 705 
6 165 705 
7 165 705 
8 166 706 
9 166 706 
10 166 706 
11 166 706 
12 166 707 
14 166 707 
15 166 708 
16 166 708 
17 166 709 
18 167 710 
19 167 710 
21 167 711 
22 167 712 
23 167 713 
24 167 714 
25 167 714 
27 168 716 
28 168 717 
29 168 718 
30 169 719 
31 169 721 
33 170 723 
34 170 725 
35 171 727 
36 171 730 
38 172 733 
39 173 737 
41 174 743 
42 176 749 
44 178 757 
46 179 764 
47 181 771 
49 182 777 
50 183 781 
52 184 783 
53 184 783 
54 184 784 
-47 187 790 
-46 187 791 
-45 187 790 
-43 186 788 
-42 185 784 
-40 184 778 
-39 181 767 
-37 178 755 
-35 176 744 
-34 174 738 
-32 173 733 
-31 172 729 
-29 171 726 
-28 171 724 
-27 170 721 
-26 170 719 
-25 170 718 
-23 169 716 
-22 169 714 
-21 168 713 
-20 168 712 
-19 168 711 
-17 168 710 
-16 168 710 
-15 167 709 
-14 167 708 
-13 167 707 
-12 167 707 
-10 167 707 
-9 167 706 
-8 167 706 
-7 167 705 
-6 167 705 
-5 167 705 
-4 166 704 
-2 166 704 
-1 166 704 
0 167 705 
1 167 705 
2 167 705 
3 167 705 
4 167 706 
6 167 706 
7 167 706 
8 167 706 
9 167 706 
10 167 707 
11 167 707 
12 167 708 
14 167 708 
15 167 708 
16 167 709 
17 168 710 
18 168 710 
19 168 711 
21 168 711 
22 168 712 
23 168 713 
24 169 714 
25 169 715 
27 169 716 
28 170 718 
29 170 719 
30 170 720 
31 171 722 
33 171 724 
34 171 725 
35 172 727 
36 172 730 
38 173 734 
39 174 738 
41 176 745 
42 177 751 
44 179 760 
46 181 767 
47 183 774 
49 184 779 
51 185 783 
52 185 785 
53 185 785 
-47 188 791 
-46 188 790 
-45 188 790 
-44 188 789 
-42 187 786 
-41 186 782 
-39 184 773 
-37 180 759 
-35 177 746 
-34 176 739 
-32 175 734 
-31 174 730 
-30 173 727 
-28 172 725 
-27 172 722 
-26 171 720 
-25 171 719 
-23 170 717 
-22 170 715 
-21 170 714 
-20 170 713 
-19 169 712 
-17 169 711 
-16 169 710 
-15 169 710 
-14 169 709 
-13 168 708 
-12 168 707 
-10 168 707 
-9 168 707 
-8 168 706 
-7 168 706 
-6 168 705 
-5 168 705 
-4 168 705 
-2 168 705 
-1 168 705 
0 168 706 
1 168 706 
2 168 706 
3 168 706 
4 168 706 
6 168 706 
7 168 707 
8 168 707 
9 168 707 
10 168 707 
11 168 708 
12 168 708 
14 169 709 
15 169 709 
16 169 709 
17 169 710 
18 169 710 
19 169 711 
21 169 712 
22 169 712 
23 170 713 
24 170 714 
25 170 716 
27 170 716 
28 171 718 
29 171 720 
30 171 721 
31 172 722 
33 172 725 
34 173 726 
35 173 728 
37 174 731 
38 175 735 
39 176 739 
41 177 746 
43 179 753 
44 181 762 
46 183 769 
48 185 777 
49 186 781 
51 186 784 
52 187 786 
53 187 787 
-47 189 790 
-46 189 790 
-45 189 790 
-44 189 789 
-42 188 787 
-41 187 783 
-39 186 776 
-37 183 765 
-35 179 749 
-34 177 740 
-32 176 735 
-31 175 730 
-30 174 728 
-28 174 725 
-27 173 723 
-26 173 721 
-25 172 719 
-23 172 718 
-22 171 716 
-21 171 714 
-20 171 713 
-19 171 713 
-17 170 711 
-16 170 711 
-15 170 710 
-14 170 709 
-13 170 709 
-12 169 708 
-10 169 707 
-9 169 707 
-8 169 707 
-7 169 706 
-6 169 706 
-5 169 705 
-4 169 705 
-2 169 705 
-1 169 705 
0 169 706 
1 169 706 
2 169 706 
3 169 706 
4 169 706 
6 169 706 
7 169 707 
8 169 707 
9 169 707 
10 169 707 
11 169 708 
12 169 708 
14 170 709 
15 170 709 
16 170 710 
17 170 710 
18 170 711 
19 170 711 
21 170 712 
22 171 713 
23 171 714 
24 171 715 
25 171 716 
27 172 717 
28 172 718 
29 172 720 
30 173 722 
31 173 723 
33 174 725 
34 174 727 
35 174 729 
37 175 731 
38 176 735 
39 177 740 
41 179 747 
43 181 755 
44 183 763 
46 185 771 
48 186 778 
49 187 782 
51 188 784 
52 188 786 
53 188 787 
-47 191 791 
-46 191 791 
-45 191 791 
-44 190 790 
-42 190 788 
-41 189 785 
-39 188 779 
-37 185 768 
-35 181 753 
-34 179 742 
-32 177 736 
-31 176 731 
-30 176 729 
-28 175 726 
-27 174 723 
-26 174 722 
-25 173 720 
-23 173 718 
-22 173 717 
-21 172 715 
-20 172 714 
-19 172 713 
-17 172 712 
-16 171 711 
-15 171 710 
-14 171 710 
-13 171 709 
-12 171 708 
-10 171 708 
-9 171 708 
-8 171 708 
-7 170 707 
-6 170 706 
-5 170 706 
-4 170 706 
-2 170 706 
-1 170 706 
0 170 706 
1 170 706 
2 170 706 
3 170 707 
4 170 707 
6 170 707 
7 170 707 
8 171 708 
9 171 708 
10 171 708 
11 171 709 
12 171 709 
14 171 709 
15 171 710 
16 171 710 
17 171 710 
18 171 711 
19 172 712 
21 172 713 
22 172 714 
23 172 715 
24 173 716 
25 173 717 
27 173 718 
28 173 720 
29 174 721 
30 174 722 
31 174 724 
33 175 726 
34 175 728 
35 176 729 
37 176 732 
38 177 736 
39 179 741 
41 180 748 
43 182 756 
44 184 764 
46 186 772 
48 187 778 
49 188 782 
51 189 785 
52 189 786 
53 190 787 
-47 192 791 
-46 192 791 
-45 192 791 
-44 192 791 
-42 191 789 
-41 191 786 
-39 189 780 
-38 187 771 
-36 183 755 
-34 180 744 
-32 179 737 
-31 178 733 
-30 177 729 
-28 176 727 
-27 176 724 
-26 175 722 
-25 175 721 
-23 174 719 
-22 174 717 
-21 174 716 
-20 173 715 
-19 173 713 
-17 173 712 
-16 172 711 
-15 172 711 
-14 172 710 
-13 172 710 
-12 172 709 
-10 172 709 
-9 172 709 
-8 172 708 
-7 172 708 
-6 172 707 
-5 172 707 
-4 172 707 
-2 171 706 
-1 171 706 
0 171 706 
1 172 707 
2 172 707 
3 172 707 
4 172 708 
6 172 708 
7 172 708 
8 172 708 
9 172 709 
10 172 709 
11 172 709 
13 172 710 
14 172 710 
15 172 711 
16 172 711 
17 172 711 
18 173 712 
19 173 713 
21 173 713 
22 173 715 
23 174 716 
24 174 717 
25 174 718 
27 174 719 
28 175 720 
29 175 722 
30 175 723 
31 176 724 
33 176 726 
34 177 728 
35 177 730 
37 178 733 
38 179 737 
39 180 742 
41 182 749 
43 183 756 
44 185 764 
46 187 772 
48 189 779 
49 190 783 
51 190 785 
52 191 787 
53 191 788 
-47 193 791 
-46 193 791 
-45 193 791 
-44 193 791 
-42 193 789 
-41 192 786 
-39 191 781 
-38 189 773 
-36 185 758 
-34 182 746 
-32 180 739 
-31 179 734 
-30 178 730 
-28 177 727 
-27 177 725 
-26 177 723 
-25 176 721 
-23 176 720 
-22 175 718 
-21 175 716 
-20 175 715 
-19 174 714 
-17 174 713 
-16 174 712 
-15 174 711 
-14 173 710 
-13 173 710 
-12 173 710 
-10 173 709 
-9 173 709 
-8 173 708 
-7 173 708 
-6 173 708 
-5 173 707 
-4 173 707 
-2 173 707 
-1 173 707 
0 173 707 
1 173 707 
2 173 707 
3 173 707 
4 173 707 
6 173 708 
7 173 708 
8 173 708 
9 173 709 
10 173 709 
11 173 710 
13 173 710 
14 173 710 
15 174 711 
16 174 711 
17 174 712 
18 174 712 
19 174 713 
21 174 714 
22 175 715 
23 175 716 
24 175 717 
25 176 719 
27 176 720 
28 176 721 
29 177 723 
30 177 724 
32 177 725 
33 178 727 
34 178 729 
35 179 732 
37 179 734 
38 180 737 
40 181 743 
41 183 749 
43 185 756 
44 187 764 
46 188 771 
48 190 778 
49 191 782 
51 191 784 
52 192 786 
53 192 787 
-47 194 790 
-46 194 790 
-45 194 790 
-44 194 790 
-42 194 789 
-41 193 787 
-39 192 782 
-38 190 774 
-36 187 762 
-34 184 750 
-33 182 742 
-31 181 735 
-30 180 731 
-28 179 728 
-27 178 726 
-26 178 724 
-25 177 722 
-23 177 720 
-22 177 719 
-21 176 717 
-20 176 716 
-19 176 715 
-17 175 713 
-16 175 712 
-15 175 711 
-14 175 711 
-13 175 710 
-12 175 710 
-10 175 710 
-9 174 709 
-8 174 709 
-7 174 708 
-6 174 708 
-5 174 708 
-4 174 708 
-2 174 708 
-1 174 708 
0 174 708 
1 174 708 
2 174 708 
3 174 708 
4 174 708 
6 174 708 
7 174 709 
8 174 709 
9 174 709 
10 174 709 
11 175 710 
13 175 711 
14 175 711 
15 175 711 
16 175 712 
17 175 712 
18 175 713 
20 175 714 
21 176 715 
22 176 715 
23 176 717 
24 176 718 
25 177 719 
27 177 720 
28 177 722 
29 178 724 
30 178 724 
32 178 726 
33 179 728 
34 179 730 
35 180 733 
37 181 735 
38 181 738 
40 183 743 
41 184 749 
43 186 756 
44 187 763 
46 189 770 
48 191 776 
49 192 780 
50 192 782 
52 192 783 
53 193 784 
54 193 785 
-47 195 790 
-46 195 790 
-45 195 790 
-44 195 790 
-42 195 789 
-41 195 787 
-39 193 782 
-38 192 775 
-36 189 765 
-34 186 754 
-33 185 746 
-31 183 738 
-30 181 733 
-28 180 729 
-27 180 726 
-26 179 724 
-25 179 722 
-23 178 720 
-22 178 719 
-21 177 717 
-20 177 716 
-19 177 715 
-17 177 714 
-16 176 713 
-15 176 712 
-14 176 712 
-13 176 711 
-12 176 710 
-10 176 710 
-9 176 710 
-8 176 710 
-7 175 709 
-6 175 709 
-5 175 709 
-4 175 709 
-2 175 708 
-1 175 708 
0 175 708 
1 175 708 
2 175 708 
3 175 709 
4 175 708 
6 175 708 
7 175 708 
8 175 709 
9 175 709 
10 175 709 
11 176 710 
13 176 711 
14 176 711 
15 176 711 
16 176 712 
17 176 713 
18 177 714 
20 177 714 
21 177 715 
22 177 716 
23 177 717 
24 178 718 
25 178 720 
27 178 721 
28 179 722 
29 179 724 
30 179 725 
32 180 727 
33 180 729 
34 181 731 
35 182 734 
37 182 736 
38 183 739 
40 184 744 
41 185 749 
43 187 756 
44 188 762 
46 190 768 
47 191 773 
49 192 776 
50 193 779 
52 193 780 
53 193 780 
54 193 781 
-47 196 789 
-46 197 790 
-45 197 790 
-44 197 790 
-42 196 789 
-41 196 786 
-39 195 782 
-38 193 777 
-36 192 771 
-35 189 761 
-33 187 752 
-31 185 742 
-30 183 735 
-28 182 731 
-27 181 727 
-26 180 725 
-25 180 723 
-23 179 721 
-22 179 719 
-21 179 717 
-20 178 716 
-19 178 716 
-17 178 715 
-16 178 714 
-15 177 712 
-14 177 712 
-13 177 712 
-12 177 711 
-10 177 710 
-9 177 710 
-8 177 710 
-7 177 710 
-6 177 709 
-5 177 709 
-4 177 709 
-2 177 709 
-1 177 709 
0 177 709 
1 177 709 
2 176 708 
3 177 709 
4 177 709 
6 176 708 
7 176 708 
8 176 708 
9 177 709 
10 177 709 
11 177 710 
13 177 711 
14 177 711 
15 177 712 
16 178 713 
17 178 713 
18 178 714 
20 178 715 
21 178 716 
22 179 717 
23 179 718 
24 179 719 
25 179 720 
27 180 721 
28 180 722 
29 180 725 
30 181 726 
32 181 727 
33 181 729 
34 182 731 
35 183 734 
37 184 738 
38 184 741 
40 186 746 
41 187 751 
43 188 756 
44 189 761 
46 191 766 
47 192 770 
49 192 772 
50 193 774 
51 193 776 
53 193 776 
54 193 776 
-47 196 784 
-46 197 785 
-45 197 785 
-43 197 785 
-42 196 784 
-41 196 782 
-39 195 779 
-38 194 776 
-36 193 772 
-35 192 766 
-33 190 758 
-32 188 749 
-30 185 739 
-29 184 733 
-27 183 729 
-26 182 726 
-25 181 724 
-23 181 721 
-22 180 720 
-21 180 718 
-20 180 717 
-19 179 716 
-17 179 715 
-16 179 714 
-15 179 713 
-14 179 713 
-13 178 712 
-12 178 711 
-10 178 711 
-9 178 710 
-8 178 710 
-7 178 710 
-6 178 710 
-5 178 710 
-4 178 710 
-2 178 710 
-1 178 710 
0 178 709 
1 178 709 
2 178 709 
3 178 709 
4 178 709 
6 178 709 
7 178 709 
8 178 709 
9 178 709 
10 178 710 
11 178 710 
13 178 711 
14 178 711 
15 178 712 
16 179 713 
17 179 713 
18 179 714 
20 179 716 
21 179 716 
22 180 717 
23 180 718 
24 180 720 
25 180 720 
27 181 722 
28 181 723 
29 182 725 
30 182 726 
32 182 728 
33 183 730 
34 184 734 
36 185 737 
37 186 741 
38 186 744 
40 187 748 
41 189 753 
43 190 757 
44 190 760 
46 191 764 
47 192 766 
48 192 768 
50 192 768 
51 193 770 
52 193 770 
53 193 770 
-46 195 774 
-45 195 775 
-44 195 775 
-43 195 775 
-41 195 775 
-40 195 775 
-39 195 774 
-38 195 773 
-36 194 771 
-35 193 767 
-33 192 762 
-32 190 753 
-30 187 743 
-29 185 735 
-27 184 730 
-26 183 727 
-25 183 724 
-23 182 722 
-22 182 720 
-21 181 719 
-20 181 718 
-19 181 717 
-17 181 716 
-16 180 715 
-15 180 713 
-14 180 713 
-13 180 713 
-12 180 712 
-10 179 711 
-9 179 711 
-8 179 711 
-7 179 711 
-6 179 711 
-5 179 711 
-4 179 711 
-2 179 711 
-1 179 711 
0 179 711 
1 179 710 
2 179 710 
3 179 710 
4 179 710 
6 179 710 
7 179 710 
8 179 710 
9 179 710 
10 179 710 
11 179 711 
13 179 711 
14 180 712 
15 180 712 
16 180 713 
17 180 714 
18 180 715 
20 181 716 
21 181 717 
22 181 718 
23 181 719 
24 182 720 
26 182 721 
27 182 722 
28 182 723 
29 183 725 
30 183 727 
32 184 729 
33 185 732 
34 185 735 
36 186 739 
37 187 743 
39 188 747 
40 189 751 
41 190 754 
43 191 758 
44 192 760 
45 192 762 
47 192 763 
48 193 764 
49 193 765 
51 193 765 
52 193 765 
53 193 765 
-46 195 770 
-45 195 770 
-44 196 771 
-42 196 771 
-41 196 771 
-40 196 771 
-39 196 772 
-38 196 771 
-36 195 770 
-35 195 768 
-33 194 764 
-32 192 757 
-30 190 747 
-29 187 737 
-27 185 731 
-26 185 728 
-25 184 725 
-23 183 723 
-22 183 721 
-21 182 719 
-20 182 718 
-19 182 718 
-18 182 717 
-16 182 716 
-15 181 714 
-14 181 714 
-13 181 714 
-12 181 713 
-10 181 712 
-9 180 711 
-8 181 712 
-7 181 712 
-6 180 711 
-5 180 711 
-4 180 711 
-2 180 711 
-1 180 711 
0 180 711 
1 180 711 
2 180 711 
3 180 711 
4 180 711 
6 180 710 
7 180 710 
8 180 710 
9 180 710 
10 180 711 
11 180 711 
13 180 711 
14 181 712 
15 181 713 
16 181 714 
17 181 715 
18 181 715 
20 182 717 
21 182 718 
22 182 718 
23 182 719 
24 183 721 
26 183 721 
27 183 723 
28 184 724 
29 184 725 
30 184 727 
32 185 730 
33 186 733 
34 187 736 
36 188 740 
37 189 745 
39 190 749 
40 191 753 
41 192 756 
43 192 758 
44 193 760 
45 193 761 
47 193 762 
48 194 763 
49 194 763 
50 194 764 
52 194 764 
53 194 764 
-46 197 770 
-45 197 770 
-44 197 770 
-42 197 771 
-41 197 771 
-40 197 771 
-39 197 772 
-34 196 767 
-32 194 761 
-30 192 751 
-29 189 739 
-27 187 733 
-26 186 729 
-25 185 726 
-23 185 723 
-22 184 722 
-21 184 720 
-20 184 719 
-19 183 718 
-17 183 717 
-16 183 717 
-15 183 715 
-14 183 715 
-13 182 714 
-12 182 713 
-10 182 713 
-9 182 713 
-8 182 713 
-7 182 713 
-6 182 712 
-5 182 712 
-4 182 712 
-2 182 712 
-1 182 712 
0 182 712 
1 182 712 
2 182 711 
3 182 711 
4 182 711 
6 182 711 
7 182 711 
8 182 711 
9 182 711 
10 182 711 
11 182 712 
13 182 713 
14 182 713 
15 182 713 
16 183 715 
17 183 716 
18 183 717 
20 183 717 
21 183 718 
22 184 719 
23 184 720 
24 184 721 
26 184 722 
27 185 723 
28 185 725 
29 185 726 
30 186 728 
32 186 730 
33 187 733 
34 188 737 
36 189 742 
37 191 747 
39 192 751 
40 193 755 
42 194 758 
43 194 760 
44 194 761 
45 195 762 
47 195 763 
48 195 763 
49 195 763 
50 195 763 
52 195 763 
53 195 763 
-46 198 769 
-45 198 769 
-44 198 769 
-42 198 770 
-41 198 771 
-40 198 772 
-39 198 772 
-34 198 769 
-32 196 764 
-31 194 755 
-29 191 742 
-27 189 735 
-26 188 730 
-25 187 727 
-24 186 725 
-22 186 723 
-21 185 721 
-20 185 720 
-19 185 719 
-18 184 718 
-16 184 717 
-15 184 716 
-14 184 715 
-13 184 715 
-12 183 714 
-10 183 713 
-9 183 713 
-8 183 713 
-7 183 713 
-6 183 713 
-5 183 712 
-4 183 712 
-2 183 712 
-1 183 712 
0 183 712 
1 183 712 
2 183 711 
3 183 711 
4 183 711 
6 183 711 
7 183 711 
8 183 711 
9 183 711 
10 183 712 
11 183 713 
13 183 713 
14 183 713 
15 183 714 
16 184 715 
17 184 716 
18 184 717 
20 184 718 
21 185 719 
22 185 719 
23 185 720 
24 186 722 
26 186 723 
27 186 724 
28 187 726 
29 187 727 
31 187 729 
32 188 731 
33 189 734 
35 190 739 
36 191 743 
37 192 748 
39 193 752 
40 194 756 
42 195 758 
43 195 759 
44 196 761 
45 196 761 
47 196 762 
48 196 762 
49 196 763 
50 196 763 
52 196 762 
53 196 762 
-46 199 768 
-45 199 769 
-44 199 769 
-42 199 769 
-41 199 770 
-40 199 771 
-39 200 772 
-34 199 770 
-32 198 765 
-31 196 758 
-29 192 744 
-27 190 736 
-26 189 732 
-25 188 729 
-24 188 726 
-22 187 724 
-21 187 722 
-20 186 720 
-19 186 719 
-18 186 719 
-16 186 718 
-15 185 716 
-14 185 716 
-13 185 715 
-12 185 715 
-11 185 714 
-9 185 714 
-8 185 714 
-7 185 714 
-6 185 714 
-5 184 713 
-4 184 713 
-2 184 713 
-1 184 713 
0 184 713 
1 184 712 
2 184 712 
3 184 712 
4 184 712 
6 184 712 
7 184 712 
8 184 712 
9 184 713 
10 184 713 
11 184 713 
13 185 714 
14 185 715 
15 185 715 
16 185 716 
17 185 717 
18 186 718 
20 186 719 
21 186 719 
22 186 720 
23 186 721 
24 187 722 
