ply
format ascii 1.0
comment VCGLIB generated
element vertex 1780
property float x
property float y
property float z
property uchar red
property uchar green
property uchar blue
property uchar alpha
element face 0
property list uchar int vertex_indices
end_header
-58 13 667 197 200 189 255 
-57 13 667 195 201 189 255 
-55 13 667 201 207 195 255 
-54 13 666 202 210 197 255 
-53 13 666 195 203 190 255 
-52 13 665 191 204 187 255 
-51 13 665 192 205 188 255 
-50 13 664 198 204 194 255 
-49 13 663 200 206 196 255 
-48 13 662 205 211 201 255 
-46 13 661 233 239 229 255 
-45 13 660 243 249 239 255 
-44 13 659 243 249 239 255 
-43 13 657 237 240 233 255 
-42 13 657 231 234 227 255 
-41 13 655 231 233 228 255 
-39 13 653 231 233 228 255 
-38 13 652 232 234 229 255 
-37 13 650 234 236 231 255 
-36 13 649 232 234 231 255 
-35 13 648 229 231 228 255 
-34 13 646 234 234 232 255 
-33 13 643 231 231 229 255 
-31 13 641 234 233 228 255 
-30 12 639 233 232 227 255 
-29 12 638 229 235 231 255 
-28 12 636 221 227 223 255 
-27 12 634 214 217 224 255 
-26 12 634 120 123 130 255 
-25 12 633 87 147 197 255 
-24 12 632 74 134 184 255 
-23 12 631 25 79 141 255 
-22 12 630 29 83 145 255 
-21 12 629 39 94 150 255 
-20 12 628 17 72 128 255 
-19 12 628 24 82 145 255 
-17 12 628 19 77 140 255 
-16 12 628 17 78 135 255 
-15 12 629 17 78 135 255 
-14 12 630 30 97 152 255 
-13 12 631 47 114 169 255 
-12 12 632 33 98 152 255 
-11 12 634 24 89 143 255 
-10 12 634 35 98 151 255 
-9 12 636 34 97 150 255 
-8 12 637 26 88 139 255 
-7 12 638 14 76 127 255 
-6 12 639 14 75 129 255 
-5 12 639 15 76 130 255 
-4 12 640 11 72 129 255 
-3 13 642 16 77 134 255 
-2 13 643 17 76 136 255 
-1 13 644 16 75 135 255 
0 13 644 18 74 133 255 
1 13 645 14 70 129 255 
2 13 646 18 73 129 255 
3 13 647 14 69 125 255 
4 13 648 16 71 127 255 
5 13 649 21 76 132 255 
6 13 650 24 77 131 255 
7 13 651 26 79 133 255 
8 13 652 27 81 127 255 
9 13 652 22 76 122 255 
10 13 653 15 72 115 255 
12 13 654 21 78 121 255 
13 13 655 22 81 121 255 
14 13 655 24 83 123 255 
15 13 656 22 79 122 255 
16 13 657 27 84 127 255 
17 13 659 22 75 117 255 
18 13 660 14 67 109 255 
19 13 660 15 56 76 255 
20 13 661 25 66 86 255 
21 13 662 47 76 80 255 
22 13 662 74 103 107 255 
24 13 663 104 119 114 255 
25 13 663 105 120 115 255 
26 13 664 119 131 127 255 
27 13 665 112 124 120 255 
28 13 665 99 115 112 255 
29 13 665 107 123 120 255 
30 13 665 100 117 109 255 
31 13 665 100 117 109 255 
32 13 665 97 114 104 255 
33 13 665 102 119 109 255 
34 13 665 118 135 127 255 
36 13 665 126 143 135 255 
37 13 665 132 147 140 255 
38 13 665 129 144 137 255 
39 13 665 130 147 137 255 
40 13 665 125 142 132 255 
41 13 665 137 154 144 255 
42 13 665 141 158 148 255 
43 13 666 135 150 143 255 
44 13 666 139 154 147 255 
45 13 666 141 156 149 255 
46 13 666 140 155 148 255 
48 13 666 148 164 154 255 
49 13 666 146 162 152 255 
50 13 666 144 160 147 255 
51 13 665 141 157 144 255 
52 13 665 142 156 141 255 
53 13 665 140 154 139 255 
54 13 665 144 155 147 255 
55 13 665 146 157 149 255 
56 13 665 150 161 153 255 
57 13 665 146 157 149 255 
58 13 665 135 146 138 255 
59 13 664 138 149 141 255 
60 13 664 143 154 146 255 
61 13 664 149 160 152 255 
62 13 664 144 154 145 255 
64 13 664 154 164 155 255 
65 13 664 143 153 144 255 
66 13 663 138 148 139 255 
67 13 663 135 145 136 255 
68 13 662 118 128 119 255 
69 13 662 131 141 132 255 
70 13 663 133 143 134 255 
71 13 663 102 108 96 255 
72 13 663 79 85 73 255 
73 13 664 103 111 98 255 
74 13 664 146 154 141 255 
75 13 664 132 140 127 255 
76 13 663 113 121 108 255 
77 13 663 127 133 121 255 
79 13 663 143 149 137 255 
80 13 663 131 137 123 255 
81 13 663 97 103 89 255 
82 13 663 66 74 59 255 
83 13 663 109 117 102 255 
84 13 663 142 150 135 255 
85 13 662 114 122 107 255 
86 13 662 99 105 91 255 
87 13 662 112 118 104 255 
88 13 662 138 146 131 255 
89 13 662 142 150 135 255 
90 13 662 134 140 126 255 
91 13 662 117 123 109 255 
92 13 662 137 143 129 255 
93 13 662 121 127 113 255 
94 13 662 89 95 81 255 
96 13 662 92 98 84 255 
97 13 662 129 136 120 255 
98 13 662 146 153 137 255 
99 13 662 142 146 131 255 
100 13 662 134 138 123 255 
101 13 661 137 141 126 255 
102 13 661 144 148 133 255 
103 13 661 107 111 96 255 
104 13 661 84 88 73 255 
105 13 661 102 108 98 255 
106 13 662 126 132 122 255 
107 13 662 130 138 125 255 
108 13 662 114 122 109 255 
109 13 662 118 126 113 255 
111 13 663 130 138 125 255 
112 13 663 121 127 115 255 
113 13 664 104 110 98 255 
114 13 664 109 115 101 255 
115 13 666 140 146 132 255 
117 13 666 137 144 128 255 
118 13 668 88 95 79 255 
120 13 671 95 102 86 255 
121 13 674 129 136 120 255 
-166 16 765 136 126 75 255 
-164 16 760 139 129 78 255 
-162 16 756 148 131 77 255 
-160 16 753 150 133 79 255 
-158 16 750 167 140 87 255 
-156 16 748 175 148 95 255 
-155 16 745 179 147 90 255 
-153 16 743 184 152 95 255 
-151 16 741 183 151 90 255 
-150 16 740 182 150 89 255 
-148 16 737 180 148 87 255 
-147 15 735 179 147 86 255 
-145 15 734 182 150 89 255 
-144 15 732 184 152 91 255 
-142 15 730 184 152 91 255 
-141 15 729 183 151 90 255 
-139 15 727 172 140 79 255 
-138 15 725 176 144 83 255 
-136 15 724 178 146 85 255 
-135 15 722 175 143 82 255 
-133 15 721 176 142 81 255 
-132 15 719 177 143 82 255 
-130 15 717 180 146 85 255 
-129 15 715 182 148 87 255 
-127 15 714 179 147 88 255 
-126 15 712 174 142 83 255 
-124 15 710 184 149 91 255 
-123 15 709 182 147 89 255 
-122 15 707 178 143 85 255 
-120 15 705 181 146 88 255 
-119 15 704 186 151 93 255 
-118 15 703 182 147 89 255 
-116 15 702 183 148 90 255 
-115 15 701 191 156 98 255 
-114 15 700 188 153 95 255 
-112 15 698 194 159 101 255 
-111 15 696 178 143 85 255 
-109 15 694 189 154 96 255 
-108 15 693 185 150 92 255 
-107 15 691 189 154 96 255 
-105 15 690 187 155 98 255 
-104 15 688 183 151 94 255 
-103 14 687 188 153 95 255 
-101 14 686 187 152 94 255 
-100 14 684 187 152 94 255 
-99 14 682 181 146 88 255 
-97 14 681 173 141 84 255 
-96 14 679 177 145 88 255 
-95 14 676 174 142 85 255 
-93 14 675 187 155 98 255 
-92 14 673 184 152 95 255 
-91 14 671 178 146 89 255 
-89 14 670 173 141 84 255 
-88 14 670 170 138 81 255 
-87 14 669 164 133 78 255 
-86 14 668 155 124 69 255 
-85 14 668 141 118 76 255 
-84 14 667 127 104 62 255 
-82 14 667 125 103 56 255 
-82 14 668 131 109 62 255 
-80 14 668 129 105 57 255 
-79 14 668 134 110 62 255 
-78 14 668 138 114 66 255 
-77 14 668 134 110 62 255 
-76 14 667 122 100 53 255 
-75 14 666 138 116 69 255 
-74 14 666 142 119 75 255 
-73 14 667 132 109 65 255 
-72 14 667 117 94 50 255 
-71 14 667 128 105 61 255 
-70 14 667 141 116 76 255 
-68 14 667 140 115 75 255 
-67 14 668 141 125 92 255 
-66 14 667 152 136 103 255 
-65 14 667 160 145 122 255 
-64 14 667 187 172 149 255 
-63 14 667 189 183 167 255 
-62 14 667 185 179 163 255 
-61 14 667 176 178 167 255 
-60 14 667 179 181 170 255 
-59 14 667 177 180 171 255 
-58 14 666 187 190 181 255 
-56 14 666 191 197 185 255 
-55 14 666 193 199 187 255 
-54 14 665 195 201 189 255 
-53 14 665 193 199 187 255 
-52 14 664 193 204 188 255 
-51 14 664 193 204 188 255 
-50 14 663 198 201 190 255 
-49 14 663 197 200 189 255 
-48 14 662 192 195 184 255 
-46 14 661 202 205 194 255 
-45 14 660 225 228 219 255 
-44 14 659 244 247 238 255 
-43 14 658 242 245 238 255 
-42 14 656 235 238 231 255 
-41 14 655 228 229 223 255 
-39 14 654 231 232 226 255 
-38 14 653 232 234 229 255 
-37 14 651 229 231 226 255 
-36 14 649 231 233 230 255 
-35 14 648 232 234 231 255 
-34 14 647 224 224 222 255 
-33 14 644 231 231 229 255 
-31 14 642 232 231 229 255 
-30 14 640 233 232 230 255 
-29 13 638 228 234 230 255 
-28 13 637 224 230 226 255 
-27 13 635 207 212 215 255 
-26 13 634 90 95 98 255 
-25 13 633 30 93 136 255 
-24 13 632 34 97 140 255 
-23 13 631 20 79 135 255 
-22 13 630 33 92 148 255 
-21 13 629 11 71 123 255 
-20 13 629 13 73 125 255 
-19 13 629 22 82 145 255 
-18 13 629 20 80 143 255 
-17 13 629 19 79 139 255 
-15 13 629 15 75 135 255 
-14 13 630 18 85 138 255 
-13 13 632 34 101 154 255 
-12 13 633 23 90 145 255 
-11 13 634 14 81 136 255 
-10 13 635 20 85 141 255 
-9 13 636 18 83 139 255 
-8 13 637 16 79 133 255 
-7 13 638 10 73 127 255 
-6 14 639 14 77 131 255 
-5 14 640 16 79 133 255 
-4 14 641 13 74 131 255 
-3 14 642 18 79 136 255 
-2 14 642 9 70 125 255 
-1 14 644 18 79 134 255 
0 14 645 19 79 133 255 
1 14 646 9 69 123 255 
2 14 647 17 75 125 255 
3 14 647 14 72 122 255 
4 14 648 14 68 130 255 
5 14 649 15 69 131 255 
6 14 650 14 66 126 255 
7 14 651 18 70 130 255 
8 14 652 20 74 120 255 
9 14 653 18 72 118 255 
10 14 653 18 75 118 255 
12 14 654 16 73 116 255 
13 14 655 15 71 118 255 
14 14 655 19 75 122 255 
15 14 656 18 69 112 255 
16 14 657 19 70 113 255 
17 14 658 21 68 98 255 
18 14 659 18 65 95 255 
19 14 660 33 69 85 255 
20 14 661 35 71 87 255 
21 14 661 57 85 89 255 
22 14 661 72 100 104 255 
24 14 662 90 106 103 255 
25 14 662 88 104 101 255 
26 14 663 96 109 102 255 
27 14 663 103 116 109 255 
28 14 664 85 100 95 255 
29 14 664 91 106 101 255 
30 14 664 83 103 94 255 
31 14 665 82 102 93 255 
32 14 665 73 93 84 255 
33 14 665 79 99 90 255 
34 14 665 95 112 104 255 
36 14 665 103 120 112 255 
37 14 664 120 135 128 255 
38 14 664 115 130 123 255 
39 14 664 104 121 113 255 
40 14 664 103 120 112 255 
41 14 664 115 131 121 255 
42 14 664 118 134 124 255 
43 14 664 125 141 131 255 
44 14 665 130 146 136 255 
45 14 665 145 158 148 255 
46 14 665 141 154 144 255 
47 14 664 134 150 139 255 
48 14 664 136 152 141 255 
50 14 664 141 154 144 255 
51 14 664 140 153 143 255 
52 14 664 137 150 140 255 
53 14 664 141 154 144 255 
54 14 664 136 147 139 255 
55 14 664 144 155 147 255 
56 14 664 148 159 151 255 
57 14 664 145 156 148 255 
58 14 664 137 148 140 255 
59 14 663 139 150 142 255 
60 14 663 144 155 147 255 
61 14 663 151 162 154 255 
62 14 663 149 161 151 255 
63 14 663 147 159 149 255 
65 14 663 139 151 141 255 
66 14 662 151 163 153 255 
67 14 662 156 166 157 255 
68 14 661 149 159 150 255 
69 14 661 137 147 138 255 
70 14 661 138 148 139 255 
71 14 662 137 145 132 255 
72 14 662 103 111 98 255 
73 14 662 90 101 87 255 
74 14 662 124 135 121 255 
75 14 662 130 141 127 255 
76 14 661 91 102 88 255 
77 14 661 69 77 64 255 
78 14 661 84 92 79 255 
79 14 660 123 131 118 255 
80 14 660 153 161 148 255 
82 14 661 127 135 122 255 
83 14 661 126 134 121 255 
84 14 661 131 139 126 255 
85 14 660 130 138 125 255 
86 14 661 82 88 74 255 
87 14 661 82 88 74 255 
88 14 660 105 113 100 255 
89 14 661 136 144 131 255 
90 14 660 125 131 119 255 
91 14 660 115 121 109 255 
92 14 660 132 138 126 255 
93 14 660 128 134 122 255 
94 14 661 124 130 118 255 
95 14 660 102 108 96 255 
96 14 660 105 111 97 255 
97 14 660 137 143 129 255 
99 14 661 128 132 118 255 
100 14 660 100 104 90 255 
101 14 660 95 99 85 255 
102 14 660 127 131 117 255 
103 14 660 140 144 130 255 
104 14 660 127 131 117 255 
105 14 660 120 126 116 255 
106 14 660 134 140 130 255 
107 14 661 129 135 123 255 
108 14 661 98 104 92 255 
109 14 661 80 86 72 255 
110 14 661 113 119 105 255 
111 14 661 132 138 126 255 
112 14 661 137 143 131 255 
114 14 661 119 123 109 255 
115 14 662 126 130 116 255 
116 14 662 138 145 129 255 
117 14 662 107 114 98 255 
118 14 664 99 106 90 255 
120 14 666 91 98 82 255 
121 14 669 122 126 111 255 
123 14 672 113 117 102 255 
125 14 678 105 111 97 255 
127 14 682 120 126 112 255 
130 15 690 120 126 112 255 
133 14 675 195 193 180 255 
134 14 675 196 194 181 255 
-167 17 767 152 143 88 255 
-164 17 761 148 139 84 255 
-162 17 757 154 134 81 255 
-160 17 754 151 131 78 255 
-158 17 751 162 135 88 255 
-157 17 749 171 144 97 255 
-155 17 746 176 145 91 255 
-153 17 744 178 147 93 255 
-152 17 742 187 155 98 255 
-150 17 741 181 149 92 255 
-149 17 739 173 141 84 255 
-147 17 737 173 141 84 255 
-145 17 735 176 144 85 255 
-144 17 733 174 142 83 255 
-142 17 732 176 144 85 255 
-141 17 730 177 145 86 255 
-139 17 728 188 153 95 255 
-138 16 726 183 148 90 255 
-136 16 724 178 143 85 255 
-135 16 723 182 147 89 255 
-133 16 721 182 147 89 255 
-132 16 719 177 142 84 255 
-131 16 718 176 141 83 255 
-129 16 716 178 143 85 255 
-127 16 714 179 144 86 255 
-126 16 712 184 149 91 255 
-125 16 711 193 158 100 255 
-123 16 709 191 156 98 255 
-122 16 707 187 152 94 255 
-120 16 706 184 149 91 255 
-119 16 704 185 150 92 255 
-118 16 704 184 149 91 255 
-116 16 702 186 151 93 255 
-115 16 701 182 147 89 255 
-114 16 700 188 153 95 255 
-112 16 698 187 152 94 255 
-111 16 697 190 155 97 255 
-109 16 694 180 145 87 255 
-108 16 694 187 152 94 255 
-107 16 692 191 156 98 255 
-105 16 690 183 151 94 255 
-104 16 688 180 148 91 255 
-103 16 688 185 150 92 255 
-102 16 687 190 155 97 255 
-100 16 685 188 153 95 255 
-99 16 683 185 150 92 255 
-97 15 681 182 150 93 255 
-96 15 679 188 156 99 255 
-95 15 677 186 154 97 255 
-93 15 675 180 148 91 255 
-92 15 674 181 146 90 255 
-91 15 672 175 140 84 255 
-89 15 671 176 144 87 255 
-88 15 669 181 149 92 255 
-87 15 669 168 136 79 255 
-86 15 668 149 117 60 255 
-85 15 667 145 121 75 255 
-84 15 667 137 113 67 255 
-82 15 666 116 92 46 255 
-81 15 666 121 97 51 255 
-80 15 666 124 100 54 255 
-79 15 666 123 99 53 255 
-78 15 666 137 113 67 255 
-77 15 666 120 96 50 255 
-76 15 666 129 105 61 255 
-75 15 665 132 108 64 255 
-74 15 665 141 117 73 255 
-73 15 665 141 117 73 255 
-71 15 665 134 109 68 255 
-70 15 665 141 116 75 255 
-69 15 666 147 122 82 255 
-68 15 666 145 120 80 255 
-67 15 666 148 124 86 255 
-66 15 666 150 126 88 255 
-65 15 666 148 129 99 255 
-64 15 666 152 133 103 255 
-63 15 666 164 151 132 255 
-62 15 666 186 173 154 255 
-61 15 666 188 185 170 255 
-60 15 666 195 192 177 255 
-59 15 666 192 194 183 255 
-58 15 666 196 198 187 255 
-56 15 665 193 196 187 255 
-55 15 664 187 190 181 255 
-54 15 664 194 200 188 255 
-53 15 664 193 199 187 255 
-52 15 663 194 201 185 255 
-51 15 663 196 203 187 255 
-50 15 662 193 195 184 255 
-49 15 662 193 195 184 255 
-47 15 661 202 205 194 255 
-46 15 661 202 205 194 255 
-45 15 659 200 203 194 255 
-44 15 659 211 214 205 255 
-43 15 658 233 234 226 255 
-42 15 656 242 243 235 255 
-41 15 655 235 236 230 255 
-39 15 654 230 231 225 255 
-38 15 653 229 230 225 255 
-37 15 651 231 232 227 255 
-36 15 650 226 226 224 255 
-35 15 648 231 231 229 255 
-34 15 647 231 231 229 255 
-33 15 645 230 230 228 255 
-32 15 643 238 234 235 255 
-30 15 641 231 227 228 255 
-29 15 639 226 231 227 255 
-28 14 637 226 231 227 255 
-27 14 636 213 222 217 255 
-26 14 635 114 123 118 255 
-25 14 633 36 102 136 255 
-24 14 633 41 107 141 255 
-23 14 632 24 90 140 255 
-22 14 631 22 88 138 255 
-21 14 630 28 89 143 255 
-20 14 630 12 73 127 255 
-19 14 629 22 83 148 255 
-18 14 629 15 76 141 255 
-17 14 630 20 79 139 255 
-16 14 630 17 76 136 255 
-15 14 631 20 85 139 255 
-13 14 632 29 94 148 255 
-12 14 633 20 85 141 255 
-11 14 635 14 79 135 255 
-10 14 636 18 83 141 255 
-9 14 637 16 81 139 255 
-8 14 637 15 77 136 255 
-7 15 638 11 73 132 255 
-6 15 639 17 78 135 255 
-5 15 640 18 79 136 255 
-4 15 641 12 73 128 255 
-3 15 642 18 79 134 255 
-2 15 642 14 74 128 255 
-1 15 643 18 78 132 255 
0 15 645 15 77 128 255 
1 15 646 20 82 133 255 
2 15 646 14 76 125 255 
3 15 648 14 76 125 255 
4 15 649 15 69 129 255 
5 15 650 15 69 129 255 
6 15 651 14 64 125 255 
7 15 651 20 70 131 255 
8 15 652 22 74 124 255 
9 15 653 22 74 124 255 
10 15 653 13 70 113 255 
12 15 654 16 73 116 255 
13 15 654 18 71 115 255 
14 15 655 18 71 115 255 
15 15 656 22 65 100 255 
16 15 657 32 75 110 255 
17 15 658 47 82 102 255 
18 15 659 44 79 99 255 
19 15 659 52 80 91 255 
20 15 660 44 72 83 255 
21 15 660 57 82 87 255 
22 15 661 66 91 96 255 
24 15 661 69 87 87 255 
25 15 661 72 90 90 255 
26 15 662 93 106 99 255 
27 15 662 96 109 102 255 
28 15 662 87 100 91 255 
29 15 663 90 103 94 255 
30 15 663 89 109 100 255 
31 15 663 94 114 105 255 
32 15 663 79 100 93 255 
33 15 663 83 104 97 255 
34 15 664 94 114 105 255 
36 15 664 103 123 114 255 
37 15 663 121 136 131 255 
38 15 663 114 129 124 255 
39 15 664 107 122 117 255 
40 15 664 104 119 114 255 
41 15 664 109 124 117 255 
42 15 664 111 126 119 255 
43 15 664 124 137 127 255 
44 15 664 133 146 136 255 
45 15 664 135 148 138 255 
46 15 664 131 144 134 255 
47 15 663 131 144 134 255 
48 15 663 145 158 148 255 
49 15 663 136 149 140 255 
50 15 662 136 149 140 255 
52 15 662 134 145 139 255 
53 15 662 137 148 142 255 
54 15 662 136 147 139 255 
55 15 662 143 154 146 255 
56 15 662 146 157 149 255 
57 15 662 145 156 148 255 
58 15 662 140 151 143 255 
59 15 662 143 154 146 255 
60 15 662 144 156 146 255 
61 15 662 141 153 143 255 
62 15 662 145 157 147 255 
63 15 661 151 163 153 255 
64 15 661 137 149 139 255 
65 15 661 152 164 154 255 
66 15 660 150 162 152 255 
67 15 660 148 160 150 255 
69 15 660 145 157 147 255 
70 15 660 149 161 151 255 
71 15 660 145 156 142 255 
72 15 661 141 152 138 255 
73 15 661 129 140 126 255 
74 15 661 136 147 133 255 
75 15 660 149 160 146 255 
76 15 660 143 154 140 255 
77 15 660 119 127 114 255 
78 15 659 106 114 101 255 
79 15 659 100 108 93 255 
80 15 659 124 132 117 255 
81 15 659 113 121 106 255 
82 15 659 92 100 85 255 
83 15 659 113 121 106 255 
84 15 658 128 136 121 255 
86 15 659 145 151 137 255 
87 15 659 138 144 130 255 
88 15 659 119 125 113 255 
89 15 659 144 150 138 255 
90 15 659 144 147 136 255 
91 15 659 111 114 103 255 
92 15 659 89 92 81 255 
93 15 659 98 101 90 255 
94 15 659 136 142 130 255 
95 15 659 143 149 137 255 
96 15 658 126 132 120 255 
97 15 659 125 131 119 255 
98 15 659 143 146 135 255 
99 15 658 139 142 131 255 
100 15 658 110 113 102 255 
101 15 658 105 108 97 255 
102 15 658 129 132 121 255 
103 15 658 151 154 143 255 
105 15 658 129 132 121 255 
106 15 658 114 117 106 255 
107 15 658 138 144 130 255 
108 15 659 134 140 126 255 
109 15 659 120 126 112 255 
110 15 660 119 125 111 255 
111 15 660 135 139 125 255 
112 15 659 137 141 127 255 
113 15 659 100 104 89 255 
114 15 659 79 83 68 255 
115 15 659 96 100 85 255 
116 15 659 140 144 129 255 
118 15 660 145 149 132 255 
119 15 660 123 127 110 255 
120 15 662 145 149 132 255 
122 15 665 140 144 127 255 
123 15 667 128 135 119 255 
125 15 670 117 124 108 255 
126 15 671 93 100 84 255 
127 15 672 112 119 103 255 
129 15 674 107 111 94 255 
130 15 673 101 105 88 255 
130 15 669 139 140 124 255 
131 15 667 182 183 167 255 
131 15 665 204 202 187 255 
132 15 665 198 196 181 255 
135 15 671 134 132 120 255 
-164 19 763 155 143 85 255 
-162 18 758 161 136 79 255 
-160 18 754 162 137 80 255 
-158 18 752 171 141 91 255 
-157 18 749 179 149 99 255 
-155 18 747 183 152 98 255 
-153 18 745 177 146 92 255 
-152 18 743 182 151 96 255 
-150 18 742 182 151 96 255 
-149 18 740 175 144 89 255 
-147 18 738 172 141 86 255 
-146 18 737 174 142 85 255 
-144 18 735 176 144 87 255 
-142 18 732 180 148 91 255 
-141 18 730 177 145 88 255 
-140 18 729 171 139 82 255 
-138 18 727 183 151 94 255 
-136 18 724 184 149 93 255 
-135 18 723 186 151 95 255 
-134 18 722 183 148 90 255 
-132 17 719 185 150 92 255 
-131 17 718 183 148 90 255 
-129 17 717 179 144 86 255 
-128 17 715 180 148 89 255 
-126 17 713 192 160 101 255 
-125 17 711 188 156 97 255 
-123 17 709 179 147 88 255 
-122 17 707 183 148 90 255 
-120 17 706 177 142 84 255 
-119 17 705 174 139 81 255 
-118 17 704 181 146 88 255 
-116 17 703 186 151 93 255 
-115 17 701 188 153 95 255 
-114 17 700 189 154 96 255 
-112 17 697 187 152 94 255 
-111 17 696 188 153 95 255 
-109 17 694 183 148 90 255 
-108 17 693 185 150 92 255 
-107 17 692 182 147 89 255 
-105 17 690 184 152 95 255 
-104 17 689 181 149 92 255 
-103 17 688 181 149 92 255 
-102 17 687 188 156 99 255 
-100 17 685 177 145 88 255 
-99 17 683 176 144 87 255 
-97 17 681 181 149 92 255 
-96 17 680 179 147 90 255 
-95 16 678 186 154 97 255 
-93 16 676 180 148 91 255 
-92 16 674 182 147 89 255 
-91 16 673 183 148 90 255 
-90 16 672 180 145 87 255 
-88 16 670 175 140 82 255 
-87 16 669 179 147 90 255 
-86 16 668 168 136 79 255 
-85 16 667 163 137 88 255 
-83 16 666 160 134 85 255 
-82 16 665 136 112 64 255 
-81 16 665 121 97 49 255 
-80 16 665 129 104 63 255 
-79 16 664 127 102 61 255 
-78 16 664 129 104 64 255 
-77 16 664 128 103 63 255 
-76 16 664 139 114 74 255 
-75 16 664 136 111 71 255 
-73 16 663 145 117 78 255 
-72 16 664 144 116 77 255 
-71 16 664 135 110 70 255 
-70 16 664 135 110 70 255 
-69 16 664 136 113 72 255 
-68 16 664 146 123 82 255 
-67 16 665 149 126 85 255 
-66 16 664 136 113 72 255 
-65 16 664 146 122 86 255 
-64 16 664 149 125 89 255 
-63 16 664 149 130 100 255 
-62 16 664 171 152 122 255 
-61 16 665 186 175 155 255 
-60 16 665 197 186 166 255 
-59 16 665 188 186 173 255 
-57 16 664 195 193 180 255 
-56 16 664 192 195 184 255 
-55 16 663 180 183 172 255 
-54 16 662 183 189 177 255 
-53 16 662 188 194 182 255 
-52 16 662 194 198 183 255 
-51 16 662 192 196 181 255 
-50 16 661 192 194 181 255 
-49 16 661 196 198 185 255 
-47 16 661 193 195 184 255 
-46 16 660 187 189 178 255 
-45 16 659 196 198 187 255 
-44 16 658 189 191 180 255 
-43 16 658 190 191 183 255 
-42 16 656 192 193 185 255 
-41 16 655 229 230 224 255 
-39 16 653 241 242 236 255 
-38 16 653 231 233 228 255 
-37 16 651 229 231 226 255 
-36 16 649 224 226 223 255 
-35 16 648 231 233 230 255 
-34 16 647 232 232 230 255 
-33 16 646 228 228 226 255 
-32 16 643 232 228 227 255 
-30 16 642 235 231 230 255 
-29 16 640 231 233 230 255 
-28 16 638 229 231 228 255 
-27 16 636 213 223 215 255 
-26 15 635 127 137 129 255 
-25 15 634 38 103 133 255 
-24 15 633 76 141 171 255 
-23 15 632 25 96 142 255 
-22 15 631 17 88 134 255 
-21 15 630 38 99 154 255 
-20 15 630 15 76 131 255 
-19 15 629 23 87 151 255 
-18 15 630 15 79 143 255 
-17 15 630 22 78 135 255 
-16 15 631 16 72 129 255 
-15 15 631 15 76 131 255 
-13 15 632 21 82 137 255 
-13 15 634 15 76 133 255 
-11 15 635 12 73 130 255 
-10 16 636 14 76 135 255 
-9 16 637 13 75 134 255 
-8 16 638 14 74 134 255 
-7 16 639 16 76 136 255 
-6 16 639 15 74 132 255 
-5 16 640 15 74 132 255 
-4 16 641 18 74 131 255 
-3 16 642 16 72 129 255 
-2 16 643 13 69 126 255 
-1 16 644 13 69 126 255 
0 16 645 18 74 131 255 
1 16 646 22 78 135 255 
2 16 647 13 73 125 255 
3 16 648 14 74 126 255 
4 16 649 15 71 122 255 
5 16 650 16 72 123 255 
6 16 650 15 66 119 255 
7 16 651 22 73 126 255 
8 16 652 20 72 122 255 
9 16 653 16 68 118 255 
10 16 653 14 65 108 255 
12 16 654 16 67 110 255 
13 16 655 17 64 92 255 
14 16 656 17 64 92 255 
15 16 657 27 64 83 255 
16 16 657 38 75 94 255 
17 16 658 55 80 100 255 
18 16 659 48 73 93 255 
19 16 659 49 77 81 255 
20 16 659 53 81 85 255 
21 16 659 54 83 89 255 
22 16 660 52 81 87 255 
23 16 660 54 78 80 255 
25 16 660 60 84 86 255 
26 16 660 88 103 98 255 
27 16 661 95 110 105 255 
28 16 661 100 113 104 255 
29 16 661 103 116 107 255 
30 16 661 101 118 112 255 
31 16 662 100 117 111 255 
32 16 662 92 111 105 255 
33 16 662 110 129 123 255 
34 16 662 104 119 112 255 
35 16 663 85 100 93 255 
36 16 662 116 131 126 255 
38 16 662 104 119 114 255 
39 16 663 106 121 116 255 
40 16 663 101 116 111 255 
41 16 663 104 119 114 255 
42 16 663 108 123 118 255 
43 16 663 109 122 115 255 
44 16 663 114 127 120 255 
45 16 662 120 133 124 255 
46 16 662 121 134 125 255 
47 16 662 116 129 120 255 
48 16 662 135 148 139 255 
49 16 662 127 140 133 255 
50 16 662 130 143 136 255 
51 16 661 124 136 132 255 
53 16 661 128 140 136 255 
54 16 661 137 149 139 255 
55 16 661 139 151 141 255 
56 16 660 140 152 142 255 
57 16 661 139 151 141 255 
58 16 661 130 142 132 255 
59 16 660 138 150 140 255 
60 16 660 147 159 149 255 
61 16 660 141 153 143 255 
62 16 660 140 152 140 255 
63 16 659 153 165 153 255 
64 16 659 137 149 137 255 
65 16 659 141 153 141 255 
66 16 659 140 152 140 255 
67 16 658 147 159 147 255 
68 16 658 154 166 154 255 
70 16 659 155 167 155 255 
71 16 659 153 166 149 255 
72 16 659 140 153 136 255 
73 16 659 137 150 133 255 
74 16 659 153 166 149 255 
75 16 659 154 165 149 255 
76 16 658 147 158 142 255 
77 16 658 144 155 139 255 
78 16 658 147 158 142 255 
79 16 657 143 151 136 255 
80 16 657 141 149 134 255 
81 16 657 142 150 135 255 
82 16 657 108 116 101 255 
83 16 657 87 96 79 255 
84 16 657 104 113 96 255 
85 16 657 137 144 128 255 
86 16 658 140 147 131 255 
88 16 658 90 96 82 255 
89 16 658 84 90 76 255 
90 16 657 132 138 124 255 
91 16 657 155 161 147 255 
92 16 657 134 140 126 255 
93 16 657 121 127 113 255 
94 16 657 132 138 124 255 
95 16 657 143 149 135 255 
96 16 657 109 115 101 255 
97 16 657 88 94 80 255 
98 16 657 95 101 87 255 
99 16 657 118 124 110 255 
100 16 656 140 146 132 255 
101 16 657 137 143 129 255 
102 16 656 132 138 124 255 
103 16 656 147 153 139 255 
104 16 656 132 136 122 255 
105 16 656 97 101 87 255 
107 16 657 98 104 90 255 
108 16 657 116 122 108 255 
109 16 658 130 136 122 255 
110 16 658 111 117 103 255 
111 16 658 114 118 103 255 
112 16 657 128 132 117 255 
113 16 657 132 136 121 255 
114 16 657 108 112 97 255 
115 16 656 93 97 80 255 
116 16 656 122 126 109 255 
117 16 656 136 140 123 255 
118 16 656 123 127 110 255 
119 16 658 89 93 76 255 
121 16 659 117 121 104 255 
122 16 660 130 134 117 255 
123 16 660 129 133 116 255 
124 16 661 116 120 103 255 
125 16 662 127 131 114 255 
126 16 661 126 129 110 255 
127 16 659 73 76 57 255 
128 16 658 89 90 72 255 
129 16 658 119 120 102 255 
130 16 657 160 161 145 255 
131 16 659 172 173 157 255 
133 16 661 105 103 90 255 
135 16 665 64 62 49 255 
137 16 671 61 57 48 255 
140 16 679 47 43 34 255 
-165 20 766 163 150 97 255 
-163 20 760 172 143 87 255 
-160 20 756 166 137 81 255 
-158 19 752 170 139 85 255 
-157 19 749 176 145 91 255 
-155 19 747 181 152 96 255 
-153 19 745 174 145 89 255 
-152 19 744 175 144 89 255 
-151 19 743 181 150 95 255 
-149 19 740 181 150 95 255 
-147 19 738 180 149 94 255 
-146 19 736 180 149 94 255 
-144 19 735 181 150 95 255 
-143 19 733 184 153 98 255 
-141 19 730 178 147 92 255 
-140 19 729 169 137 80 255 
-138 19 727 181 149 92 255 
-136 19 725 178 146 89 255 
-135 19 722 179 147 90 255 
-133 19 721 180 148 91 255 
-132 19 719 186 154 97 255 
-131 19 718 189 157 100 255 
-129 19 717 189 157 100 255 
-128 19 715 187 155 98 255 
-126 18 713 190 158 101 255 
-125 18 711 184 152 95 255 
-123 18 710 180 148 91 255 
-122 18 708 180 148 91 255 
-120 18 706 181 149 92 255 
-119 18 705 181 149 92 255 
-118 18 704 180 148 91 255 
-116 18 703 175 143 86 255 
-115 18 702 183 151 94 255 
-114 18 700 180 148 91 255 
-112 18 697 186 154 97 255 
-111 18 696 183 148 92 255 
-109 18 694 192 157 101 255 
-108 18 692 191 156 100 255 
-107 18 691 191 156 100 255 
-105 18 690 185 153 96 255 
-104 18 689 180 148 91 255 
-103 18 687 181 149 92 255 
-101 18 686 184 152 95 255 
-100 18 685 178 146 89 255 
-99 18 684 183 151 94 255 
-98 18 682 181 149 92 255 
-96 18 680 176 144 87 255 
-95 18 679 186 154 97 255 
-94 18 677 184 152 95 255 
-92 18 675 184 152 95 255 
-91 17 674 186 154 97 255 
-90 17 672 178 146 89 255 
-88 17 671 166 134 77 255 
-87 17 670 179 147 90 255 
-86 17 669 176 144 87 255 
-85 17 667 175 148 93 255 
-83 17 666 175 148 93 255 
-82 17 665 150 124 75 255 
-81 17 664 148 122 73 255 
-80 17 663 155 130 89 255 
-79 17 662 136 111 70 255 
-78 17 662 137 111 74 255 
-76 17 662 143 117 80 255 
-75 17 662 140 114 79 255 
-74 17 662 127 101 66 255 
-73 17 662 141 115 78 255 
-72 17 662 146 120 83 255 
-71 17 661 135 112 71 255 
-70 17 661 129 106 65 255 
-69 17 662 133 112 69 255 
-68 17 662 147 126 83 255 
-67 17 662 142 122 85 255 
-66 17 662 140 120 83 255 
-65 17 662 137 113 75 255 
-64 17 662 151 127 89 255 
-63 17 663 162 136 101 255 
-62 17 663 146 120 85 255 
-60 17 663 151 131 104 255 
-59 17 663 175 155 128 255 
-58 17 663 180 173 155 255 
-57 17 663 194 187 169 255 
-56 17 663 192 194 183 255 
-55 17 662 184 186 175 255 
-54 17 661 189 195 185 255 
-53 17 661 192 198 188 255 
-52 17 661 192 196 182 255 
-51 17 661 191 195 181 255 
-50 17 660 191 195 181 255 
-48 17 660 186 190 176 255 
-47 17 660 193 195 182 255 
-46 17 659 193 195 182 255 
-45 17 658 194 196 185 255 
-44 17 658 195 197 186 255 
-43 17 657 189 192 183 255 
-42 17 656 137 140 131 255 
-41 17 655 157 160 153 255 
-39 17 653 211 214 207 255 
-38 17 652 221 223 218 255 
-37 17 651 226 228 223 255 
-36 17 649 225 227 224 255 
-35 17 648 229 231 228 255 
-34 17 647 230 232 229 255 
-33 17 646 224 226 223 255 
-32 17 644 232 231 227 255 
-30 17 642 232 231 227 255 
-29 17 641 230 230 228 255 
-28 17 639 227 227 225 255 
-27 17 637 214 220 216 255 
-26 17 636 138 144 140 255 
-25 16 634 33 94 125 255 
-24 16 633 82 143 174 255 
-23 16 632 24 92 139 255 
-22 16 631 22 90 137 255 
-21 16 631 50 106 163 255 
-20 16 630 18 74 131 255 
-19 16 630 27 88 153 255 
-18 16 631 20 81 146 255 
-17 16 631 17 77 131 255 
-16 16 631 19 79 133 255 
-15 16 632 20 79 135 255 
-14 16 633 17 76 132 255 
-13 16 634 9 68 124 255 
-11 17 635 7 66 122 255 
-10 17 636 14 73 129 255 
-9 17 637 16 75 131 255 
-8 17 638 15 74 130 255 
-7 17 639 16 75 131 255 
-6 17 640 20 75 132 255 
-5 17 640 17 72 129 255 
-4 17 641 23 78 135 255 
-3 17 642 15 70 127 255 
-2 17 643 22 76 138 255 
-1 17 644 10 64 126 255 
0 17 645 18 71 137 255 
1 17 645 22 75 141 255 
2 17 647 16 76 128 255 
3 17 648 18 78 130 255 
4 17 649 20 78 124 255 
5 17 650 20 78 124 255 
6 17 650 19 72 116 255 
7 17 652 22 75 119 255 
8 17 652 20 71 114 255 
9 17 653 14 65 108 255 
11 17 654 13 59 92 255 
12 17 654 17 63 96 255 
13 17 655 30 72 88 255 
14 17 656 41 83 99 255 
15 17 657 44 78 90 255 
16 17 658 34 68 80 255 
17 17 658 44 69 89 255 
18 17 658 49 74 94 255 
19 17 658 56 84 87 255 
20 17 658 54 82 85 255 
21 17 658 59 90 95 255 
22 17 658 52 83 88 255 
23 17 658 56 85 89 255 
24 17 658 65 94 98 255 
26 17 659 78 98 96 255 
27 17 660 89 109 107 255 
28 17 660 88 101 94 255 
29 17 660 91 104 97 255 
30 17 661 99 114 109 255 
31 17 662 105 120 115 255 
32 17 662 100 115 110 255 
33 17 662 110 125 120 255 
34 17 662 107 120 113 255 
35 17 662 102 115 108 255 
36 17 662 99 115 105 255 
38 17 662 94 110 100 255 
39 17 662 104 119 112 255 
40 17 662 100 115 108 255 
41 17 661 99 114 109 255 
42 17 661 102 117 112 255 
43 17 661 101 116 111 255 
44 17 661 104 119 114 255 
45 17 661 107 122 115 255 
46 17 661 103 118 111 255 
47 17 661 99 112 103 255 
48 17 661 120 133 124 255 
49 17 661 117 130 121 255 
50 17 661 129 142 133 255 
51 17 661 124 137 128 255 
52 17 660 122 135 126 255 
54 17 660 126 136 125 255 
55 17 660 131 141 130 255 
56 17 660 147 157 146 255 
57 17 660 154 164 153 255 
58 17 659 137 147 136 255 
59 17 659 142 152 141 255 
60 17 659 151 161 150 255 
61 17 658 140 150 139 255 
62 17 658 134 145 131 255 
63 17 658 142 153 139 255 
64 17 657 144 155 141 255 
65 17 657 134 145 131 255 
66 17 657 141 152 138 255 
67 17 657 148 159 145 255 
68 17 656 148 159 145 255 
69 17 657 148 159 145 255 
70 17 657 147 160 143 255 
71 17 657 153 166 149 255 
72 17 657 149 160 144 255 
74 17 657 142 153 137 255 
75 17 657 140 151 135 255 
76 17 657 151 162 146 255 
77 17 656 151 162 146 255 
78 17 656 140 151 135 255 
79 17 655 149 157 142 255 
80 17 655 147 155 140 255 
81 17 655 147 155 140 255 
82 17 655 138 146 131 255 
83 17 655 129 135 121 255 
84 17 655 141 147 133 255 
85 17 656 147 153 139 255 
86 17 656 150 156 142 255 
87 17 656 134 141 125 255 
88 17 656 87 94 78 255 
89 17 656 91 98 82 255 
90 17 656 137 144 128 255 
92 17 656 150 157 141 255 
93 17 656 114 121 105 255 
94 17 656 102 109 93 255 
95 17 656 129 136 120 255 
96 17 656 146 153 137 255 
97 17 656 127 134 118 255 
98 17 656 107 114 98 255 
99 17 656 122 129 113 255 
100 17 655 147 154 138 255 
101 17 655 116 123 107 255 
102 17 655 98 105 89 255 
103 17 654 113 120 104 255 
104 17 654 128 135 119 255 
105 17 654 139 146 130 255 
106 17 655 129 133 118 255 
107 17 656 134 138 123 255 
108 17 656 130 134 119 255 
110 17 657 134 138 123 255 
111 17 656 112 116 99 255 
112 17 656 96 100 83 255 
113 17 655 112 116 99 255 
113 17 654 142 146 129 255 
114 17 653 132 137 117 255 
116 17 654 115 120 100 255 
117 17 654 140 145 125 255 
118 17 654 154 159 139 255 
119 17 655 123 128 108 255 
120 17 655 109 114 94 255 
121 17 655 110 113 92 255 
122 17 656 127 130 109 255 
123 17 657 107 111 88 255 
124 17 656 99 103 80 255 
125 17 656 93 95 71 255 
126 17 655 103 105 81 255 
127 17 654 82 84 60 255 
128 17 653 82 84 60 255 
129 17 652 90 89 68 255 
130 17 653 111 110 89 255 
132 17 655 82 81 63 255 
133 17 657 53 52 34 255 
135 17 660 38 34 22 255 
137 17 665 58 54 42 255 
138 17 668 49 45 34 255 
-163 21 762 162 139 89 255 
-161 21 757 159 136 86 255 
-159 21 753 169 138 83 255 
-157 21 750 173 142 87 255 
-155 21 747 176 146 92 255 
-154 21 746 172 142 88 255 
-152 20 744 178 147 92 255 
-150 20 742 180 149 94 255 
-149 20 741 181 150 95 255 
-147 20 739 183 152 97 255 
-146 20 737 181 150 95 255 
-144 20 735 179 148 93 255 
-143 20 733 179 148 93 255 
-141 20 731 174 143 88 255 
-140 20 729 172 141 86 255 
-138 20 727 180 149 94 255 
-136 20 725 183 152 95 255 
-135 20 723 186 155 98 255 
-134 20 722 184 153 96 255 
-132 20 720 179 148 91 255 
-131 20 719 184 152 95 255 
-129 20 717 194 162 105 255 
-128 20 716 193 161 104 255 
-126 20 714 189 157 100 255 
-125 20 712 182 150 93 255 
-123 20 710 179 147 90 255 
-122 20 709 178 146 89 255 
-121 20 708 183 151 94 255 
-119 19 706 180 148 91 255 
-118 19 705 175 143 86 255 
-117 19 704 176 144 87 255 
-115 19 702 177 145 88 255 
-114 19 701 181 149 92 255 
-112 19 698 178 146 89 255 
-111 19 696 182 150 93 255 
-109 19 694 179 147 90 255 
-108 19 692 186 154 97 255 
-107 19 691 188 156 99 255 
-105 19 689 186 154 97 255 
-104 19 689 180 148 91 255 
-103 19 687 183 151 94 255 
-101 19 686 177 145 88 255 
-100 19 685 182 150 93 255 
-99 19 684 187 155 98 255 
-98 19 682 167 135 78 255 
-96 19 680 166 134 77 255 
-95 19 679 183 151 94 255 
-94 19 678 183 151 94 255 
-92 19 676 189 157 100 255 
-91 19 675 185 153 96 255 
-90 19 673 177 145 88 255 
-89 19 672 173 141 84 255 
-87 19 671 180 148 91 255 
-86 18 669 181 149 92 255 
-85 18 668 174 145 87 255 
-83 18 666 182 153 95 255 
-82 18 665 183 153 99 255 
-81 18 663 166 136 82 255 
-80 18 662 156 128 80 255 
-79 18 662 145 117 69 255 
-77 18 661 133 106 63 255 
-76 18 661 136 109 66 255 
-75 18 660 137 112 71 255 
-74 18 660 110 85 44 255 
-73 18 660 125 102 61 255 
-72 18 660 138 115 74 255 
-71 18 660 135 114 71 255 
-70 18 660 136 115 72 255 
-69 18 660 139 118 73 255 
-68 18 661 140 119 74 255 
-67 18 661 138 120 82 255 
-66 18 661 132 114 76 255 
-65 18 661 133 111 72 255 
-64 18 661 148 126 87 255 
-62 18 661 151 125 88 255 
-61 18 661 144 118 81 255 
-60 18 661 148 124 96 255 
-59 18 661 149 125 97 255 
-58 18 661 141 128 109 255 
-57 18 661 172 159 140 255 
-56 18 661 191 189 176 255 
-55 18 660 197 195 182 255 
-54 18 659 191 194 183 255 
-53 18 659 196 199 188 255 
-52 18 659 195 198 187 255 
-50 18 659 186 189 178 255 
-49 18 659 183 187 173 255 
-48 18 659 187 191 177 255 
-47 18 658 187 191 177 255 
-46 18 658 184 188 174 255 
-45 18 656 191 194 183 255 
-44 18 656 197 200 189 255 
-43 18 656 197 200 191 255 
-42 18 655 156 159 150 255 
-41 18 654 113 116 109 255 
-39 18 653 122 125 118 255 
-38 18 652 169 170 164 255 
-37 18 651 219 220 214 255 
-36 18 650 229 230 225 255 
-35 18 649 227 228 223 255 
-34 18 648 220 222 217 255 
-33 18 646 225 227 222 255 
-32 18 645 232 233 227 255 
-30 18 643 230 231 225 255 
-29 18 641 232 231 229 255 
-28 18 640 231 230 228 255 
-27 18 638 215 221 219 255 
-26 18 636 154 160 158 255 
-25 18 634 47 100 132 255 
-24 17 633 99 152 184 255 
-23 17 632 22 86 130 255 
-22 17 631 20 84 128 255 
-21 17 631 55 104 162 255 
-20 17 630 27 76 134 255 
-19 17 631 24 85 150 255 
-18 17 631 20 81 146 255 
-17 17 632 16 76 130 255 
-16 17 632 19 79 133 255 
-15 17 633 22 81 137 255 
-14 18 634 21 80 136 255 
-13 18 634 18 78 132 255 
-11 18 635 12 72 126 255 
-10 18 636 12 72 126 255 
-9 18 637 13 73 127 255 
-8 18 638 15 72 127 255 
-7 18 639 21 78 133 255 
-6 18 640 19 74 130 255 
-5 18 640 13 68 124 255 
-4 18 641 18 73 130 255 
-3 18 642 12 67 124 255 
-2 18 643 31 82 145 255 
-1 18 644 14 65 128 255 
0 18 645 22 75 141 255 
1 18 646 27 80 146 255 
2 18 647 14 73 117 255 
3 18 648 16 75 119 255 
4 18 649 21 75 119 255 
5 18 650 18 72 116 255 
6 18 650 19 68 108 255 
7 18 651 21 70 110 255 
8 18 652 27 74 102 255 
9 18 653 25 72 100 255 
10 18 653 23 66 82 255 
12 18 654 25 68 84 255 
13 18 655 36 74 85 255 
14 18 655 41 79 90 255 
15 18 656 43 77 89 255 
16 18 657 36 70 82 255 
17 18 657 48 77 91 255 
18 18 657 57 86 100 255 
19 18 657 59 89 91 255 
20 18 657 56 86 88 255 
21 18 657 60 91 96 255 
22 18 657 60 91 96 255 
23 18 657 56 85 89 255 
24 18 657 53 82 86 255 
26 18 657 69 94 91 255 
27 18 658 82 107 104 255 
28 18 659 83 100 94 255 
29 18 659 86 103 97 255 
30 18 659 101 114 107 255 
31 18 661 102 115 108 255 
32 18 661 101 114 107 255 
33 18 661 108 121 114 255 
34 18 661 103 116 109 255 
35 18 661 101 114 107 255 
36 18 661 95 113 99 255 
38 18 661 95 113 99 255 
39 18 661 96 112 101 255 
40 18 661 98 114 103 255 
41 18 660 104 120 110 255 
42 18 660 103 119 109 255 
43 18 660 104 119 112 255 
44 18 660 98 113 106 255 
45 18 660 102 118 108 255 
46 18 660 95 111 101 255 
47 18 660 99 112 102 255 
48 18 660 112 125 115 255 
49 18 659 102 116 103 255 
50 18 659 115 129 116 255 
51 18 659 122 136 121 255 
52 18 658 120 134 119 255 
53 18 658 121 132 118 255 
54 18 658 117 128 114 255 
56 18 658 130 141 127 255 
57 18 659 141 152 138 255 
58 18 658 129 140 126 255 
59 18 658 137 148 134 255 
60 18 658 145 156 142 255 
61 18 658 133 144 130 255 
62 18 657 139 150 136 255 
63 18 657 140 151 137 255 
64 18 656 139 150 136 255 
65 18 656 134 145 131 255 
66 18 656 145 156 140 255 
67 18 655 146 157 141 255 
68 18 655 144 155 139 255 
69 18 655 142 153 137 255 
70 18 655 149 161 147 255 
71 18 655 150 162 148 255 
72 18 655 144 155 141 255 
73 18 655 140 151 137 255 
74 18 655 141 152 138 255 
75 18 655 155 166 152 255 
77 18 655 162 173 159 255 
78 18 655 159 170 156 255 
79 18 654 148 159 145 255 
80 18 654 146 157 143 255 
81 18 654 136 144 131 255 
82 18 654 138 146 133 255 
83 18 653 159 167 152 255 
84 18 653 145 153 138 255 
85 18 654 146 154 139 255 
86 18 654 147 155 140 255 
87 18 654 139 147 132 255 
88 18 654 144 152 137 255 
89 18 654 138 146 131 255 
90 18 654 142 150 135 255 
91 18 654 147 155 140 255 
92 18 654 115 123 108 255 
93 18 654 86 92 78 255 
94 18 654 87 93 79 255 
95 18 654 117 123 109 255 
97 18 654 146 152 138 255 
98 18 654 140 149 132 255 
99 18 654 119 128 111 255 
100 18 653 134 143 126 255 
101 18 653 138 147 130 255 
102 18 653 122 129 113 255 
103 18 653 107 114 98 255 
104 18 653 101 108 92 255 
105 18 653 130 137 121 255 
106 18 654 130 134 119 255 
107 18 654 114 118 103 255 
108 18 655 97 101 86 255 
109 18 655 124 128 113 255 
110 18 655 146 150 133 255 
111 18 653 131 135 118 255 
112 18 653 127 132 112 255 
113 18 652 139 144 124 255 
114 18 651 132 137 117 255 
115 18 652 104 109 89 255 
116 18 652 97 102 82 255 
117 18 653 111 116 96 255 
118 18 653 142 147 125 255 
120 18 653 137 142 120 255 
121 18 653 121 121 93 255 
122 18 653 99 99 71 255 
123 18 653 91 90 60 255 
124 18 653 88 87 57 255 
125 18 652 94 93 62 255 
126 18 652 87 86 55 255 
127 18 651 78 79 47 255 
128 18 651 84 85 53 255 
128 18 650 90 91 60 255 
130 18 651 91 92 61 255 
131 18 651 85 84 56 255 
132 18 652 81 80 52 255 
133 18 654 71 69 46 255 
135 18 656 40 38 15 255 
137 18 659 49 47 26 255 
-161 22 758 146 132 95 255 
-159 22 754 157 130 75 255 
-157 22 750 165 138 83 255 
-155 22 747 178 145 94 255 
-154 22 746 176 143 92 255 
-152 22 745 184 153 98 255 
-151 22 743 181 150 95 255 
-149 22 741 182 151 94 255 
-147 22 739 184 153 96 255 
-146 21 737 183 152 95 255 
-144 21 735 180 149 92 255 
-143 21 733 177 146 89 255 
-141 21 731 175 144 87 255 
-140 21 729 172 141 84 255 
-138 21 728 179 148 91 255 
-137 21 726 180 149 92 255 
-135 21 724 178 147 90 255 
-134 21 723 185 154 97 255 
-132 21 721 187 156 99 255 
-131 21 719 186 155 98 255 
-129 21 718 184 153 96 255 
-128 21 716 181 149 92 255 
-126 21 714 183 151 94 255 
-125 21 712 179 147 90 255 
-124 21 711 179 147 90 255 
-122 21 709 183 151 94 255 
-121 21 708 187 155 98 255 
-119 21 706 180 148 91 255 
-118 21 705 180 148 91 255 
-117 21 704 171 139 82 255 
-115 20 702 174 142 85 255 
-114 20 701 175 143 86 255 
-112 20 698 173 141 84 255 
-111 20 697 181 146 90 255 
-109 20 694 184 149 93 255 
-108 20 693 185 150 94 255 
-107 20 692 184 149 93 255 
-105 20 690 186 151 93 255 
-104 20 689 183 148 90 255 
-103 20 687 187 152 94 255 
-101 20 686 183 148 90 255 
-100 20 686 184 152 95 255 
-99 20 684 183 151 94 255 
-98 20 683 177 142 84 255 
-96 20 681 177 142 84 255 
-95 20 679 187 152 94 255 
-94 20 678 186 151 93 255 
-92 20 677 188 156 99 255 
-91 20 675 182 150 93 255 
-90 20 674 172 140 83 255 
-89 20 673 175 143 86 255 
-87 20 672 176 144 87 255 
-86 20 670 176 144 87 255 
-85 20 668 175 143 86 255 
-84 19 667 178 146 89 255 
-82 19 665 179 147 90 255 
-81 19 664 188 156 99 255 
-80 19 662 181 150 95 255 
-79 19 661 161 130 75 255 
-77 19 660 145 118 63 255 
-76 19 660 143 116 61 255 
-75 19 660 132 109 57 255 
-74 19 659 119 96 44 255 
-73 19 659 131 110 63 255 
-72 19 659 133 112 65 255 
-71 19 659 134 113 68 255 
-70 19 660 140 119 74 255 
-69 19 659 135 116 73 255 
-68 19 659 126 107 64 255 
-67 19 660 125 104 61 255 
-66 19 660 123 102 59 255 
-64 19 660 123 104 62 255 
-63 19 660 140 121 79 255 
-62 19 660 145 125 88 255 
-61 19 661 149 129 92 255 
-60 19 660 146 127 97 255 
-59 19 660 142 123 93 255 
-58 19 660 141 125 100 255 
-57 19 660 145 129 104 255 
-56 19 660 160 152 131 255 
-55 19 659 188 180 159 255 
-54 19 658 183 181 166 255 
-53 19 658 190 188 173 255 
-51 19 658 192 194 183 255 
-50 19 658 185 187 176 255 
-49 19 657 182 186 172 255 
-48 19 657 187 191 177 255 
-47 19 656 189 191 178 255 
-46 19 656 186 188 175 255 
-45 19 655 191 193 182 255 
-44 19 655 189 191 180 255 
-43 19 654 191 194 185 255 
-42 19 654 190 193 184 255 
-40 19 653 120 121 113 255 
-39 19 652 113 114 106 255 
-38 19 652 89 90 84 255 
-37 19 650 135 136 130 255 
-36 19 650 203 202 198 255 
-35 19 649 226 225 221 255 
-34 19 648 231 232 227 255 
-33 19 647 222 223 218 255 
-32 19 645 228 233 226 255 
-31 19 644 228 233 226 255 
-29 19 641 228 226 227 255 
-28 19 640 229 227 228 255 
-27 19 639 223 227 226 255 
-26 19 637 161 165 164 255 
-25 19 635 46 93 123 255 
-24 19 634 106 153 183 255 
-23 19 633 28 87 127 255 
-22 18 632 22 81 121 255 
-21 18 631 36 79 134 255 
-20 18 630 37 80 135 255 
-19 18 631 21 82 147 255 
-18 18 631 20 81 146 255 
-17 18 632 20 83 137 255 
-16 19 633 8 71 125 255 
-15 19 633 16 77 132 255 
-14 19 634 13 74 129 255 
-13 19 635 14 74 128 255 
-12 19 636 9 69 123 255 
-10 19 637 11 68 121 255 
-9 19 637 15 72 125 255 
-8 19 638 14 71 126 255 
-7 19 639 16 73 128 255 
-6 19 640 14 69 125 255 
-5 19 640 8 63 119 255 
-4 19 641 14 69 125 255 
-3 19 642 10 65 121 255 
-2 19 643 17 69 126 255 
-1 19 644 18 70 127 255 
0 19 645 34 84 143 255 
1 19 646 22 72 131 255 
2 19 647 14 72 110 255 
3 19 648 14 72 110 255 
4 19 649 24 72 108 255 
5 19 650 19 67 103 255 
6 19 650 28 68 94 255 
7 19 651 30 70 96 255 
8 19 652 44 79 98 255 
9 19 652 45 80 99 255 
10 19 653 42 76 86 255 
12 19 654 44 78 88 255 
13 19 655 49 84 90 255 
14 19 655 41 76 82 255 
15 19 655 37 70 77 255 
16 19 656 37 70 77 255 
17 19 656 49 82 89 255 
18 19 656 55 88 95 255 
19 19 656 58 83 87 255 
20 19 656 60 85 89 255 
21 19 656 52 77 82 255 
22 19 656 57 82 87 255 
23 19 656 56 81 86 255 
24 19 656 43 68 73 255 
26 19 657 60 86 87 255 
27 19 657 70 96 97 255 
28 19 658 87 106 102 255 
29 19 658 80 99 95 255 
30 19 658 92 104 94 255 
31 19 659 97 109 99 255 
32 19 659 102 114 104 255 
33 19 659 97 109 99 255 
34 19 659 84 101 91 255 
35 19 660 86 103 93 255 
36 19 660 91 107 97 255 
37 19 660 90 106 96 255 
39 19 660 86 102 91 255 
40 19 660 86 102 91 255 
41 19 659 94 107 97 255 
42 19 659 88 101 91 255 
43 19 659 86 102 91 255 
44 19 659 87 103 92 255 
45 19 659 90 103 93 255 
46 19 659 93 106 96 255 
47 19 658 103 117 104 255 
48 19 658 107 121 108 255 
49 19 658 97 109 95 255 
50 19 657 96 108 94 255 
51 19 657 103 117 102 255 
52 19 657 111 125 110 255 
53 19 657 113 125 111 255 
54 19 657 106 118 104 255 
55 19 657 114 126 112 255 
56 19 657 126 138 124 255 
58 19 657 125 136 122 255 
59 19 657 131 142 128 255 
60 19 656 130 141 127 255 
61 19 656 120 131 117 255 
62 19 656 131 142 126 255 
63 19 656 136 147 131 255 
64 19 656 128 139 123 255 
65 19 655 128 139 123 255 
66 19 655 129 140 124 255 
67 19 655 128 139 123 255 
68 19 654 135 146 130 255 
69 19 654 143 154 138 255 
70 19 654 144 156 142 255 
71 19 654 143 155 141 255 
72 19 654 142 153 139 255 
73 19 654 142 153 139 255 
74 19 654 136 147 133 255 
75 19 654 145 156 142 255 
76 19 654 154 165 151 255 
77 19 654 153 164 150 255 
79 19 654 147 158 142 255 
79 19 653 145 156 140 255 
81 19 653 143 151 136 255 
81 19 652 144 152 137 255 
83 19 652 159 167 152 255 
84 19 652 154 162 147 255 
85 19 652 149 160 144 255 
86 19 652 153 164 148 255 
87 19 652 141 149 134 255 
88 19 653 137 145 130 255 
89 19 653 138 146 131 255 
90 19 652 141 149 134 255 
91 19 652 142 150 135 255 
92 19 652 140 148 133 255 
93 19 652 132 138 124 255 
94 19 652 123 129 115 255 
95 19 652 126 132 118 255 
96 19 652 141 147 133 255 
97 19 652 131 137 123 255 
98 19 652 91 97 83 255 
99 19 651 90 97 81 255 
100 19 652 114 121 105 255 
101 19 652 132 136 121 255 
102 19 651 151 155 140 255 
104 19 652 138 142 125 255 
105 19 652 141 145 128 255 
106 19 652 153 157 142 255 
107 19 653 135 139 124 255 
108 19 653 110 114 97 255 
109 19 653 84 88 71 255 
110 19 652 117 122 102 255 
111 19 652 138 143 123 255 
112 19 651 124 129 109 255 
113 19 651 113 118 98 255 
114 19 650 129 132 113 255 
115 19 651 135 138 119 255 
116 19 651 129 132 111 255 
117 19 651 129 132 111 255 
118 19 652 119 124 101 255 
119 19 652 125 130 107 255 
120 19 651 101 96 64 255 
121 19 651 86 81 49 255 
122 19 651 84 80 45 255 
123 19 650 91 87 52 255 
124 19 650 105 101 64 255 
125 19 650 101 97 60 255 
126 19 650 94 92 54 255 
127 19 650 88 86 48 255 
128 19 649 98 96 58 255 
129 19 649 96 94 56 255 
130 19 649 86 83 50 255 
131 19 649 91 88 55 255 
133 19 650 88 84 55 255 
134 19 651 71 67 38 255 
135 19 653 60 59 31 255 
137 19 656 50 49 21 255 
138 19 658 62 60 45 255 
145 20 675 46 44 31 255 
-162 23 762 145 140 111 255 
-159 23 755 156 130 79 255 
-157 23 750 168 142 91 255 
-155 23 748 189 151 104 255 
-154 23 746 185 147 100 255 
-152 23 745 181 150 93 255 
-151 23 743 181 150 93 255 
-149 23 742 182 151 94 255 
-148 23 740 182 151 94 255 
-146 23 737 183 152 95 255 
-144 23 736 183 152 95 255 
-143 23 733 177 146 89 255 
-141 22 731 173 142 85 255 
-140 22 730 174 143 86 255 
-138 22 728 179 148 91 255 
-137 22 726 180 149 92 255 
-135 22 724 178 147 90 255 
-134 22 723 192 161 104 255 
-132 22 721 193 162 105 255 
-131 22 719 186 155 98 255 
-129 22 718 177 146 89 255 
-128 22 717 185 153 96 255 
-126 22 715 186 154 97 255 
-125 22 713 181 149 92 255 
-124 22 711 177 145 88 255 
-122 22 709 176 144 87 255 
-121 22 708 183 151 94 255 
-119 22 707 178 146 89 255 
-118 22 705 184 152 95 255 
-117 22 704 179 144 88 255 
-115 22 702 172 137 81 255 
-114 22 700 169 134 78 255 
-112 22 698 176 141 85 255 
-111 21 697 186 151 95 255 
-110 21 695 188 153 97 255 
-108 21 693 181 146 90 255 
-107 21 692 185 150 94 255 
-106 21 691 184 148 88 255 
-104 21 690 184 148 88 255 
-103 21 688 184 149 91 255 
-102 21 687 187 152 94 255 
-100 21 686 179 144 86 255 
-99 21 685 171 136 78 255 
-98 21 683 192 157 99 255 
-96 21 681 190 155 97 255 
-95 21 680 186 151 93 255 
-94 21 678 185 150 92 255 
-92 21 677 182 150 93 255 
-91 21 676 182 150 93 255 
-90 21 674 172 140 83 255 
-89 21 674 174 142 85 255 
-88 21 673 177 145 88 255 
-86 21 671 178 146 89 255 
-85 21 669 175 140 86 255 
-84 21 667 182 147 93 255 
-82 21 666 177 142 86 255 
