ply
format ascii 1.0
comment VCGLIB generated
element vertex 1671
property float x
property float y
property float z
property uchar red
property uchar green
property uchar blue
property uchar alpha
element face 0
property list uchar int vertex_indices
end_header
-53 262 573 131 169 170 255 
-52 262 573 125 163 164 255 
-51 261 572 119 159 159 255 
-50 261 572 125 165 165 255 
-49 261 572 120 160 160 255 
-48 261 572 120 160 160 255 
-48 261 572 123 161 162 255 
-47 261 572 125 163 164 255 
-46 261 572 130 164 166 255 
-45 261 571 130 164 166 255 
-44 261 571 130 161 164 255 
-43 260 570 126 157 160 255 
-42 260 570 122 156 158 255 
-41 260 569 121 155 157 255 
-40 260 569 118 152 154 255 
-39 260 569 122 156 158 255 
-38 260 568 125 159 161 255 
-37 259 567 124 158 160 255 
-36 259 567 126 160 162 255 
-35 259 566 130 164 166 255 
-34 259 566 121 155 157 255 
-33 258 565 121 155 157 255 
-33 258 565 136 167 170 255 
-32 258 564 136 167 170 255 
-31 257 563 138 169 172 255 
-30 257 563 137 168 171 255 
-29 257 563 130 161 164 255 
-28 257 562 130 161 164 255 
-27 257 562 134 165 168 255 
-26 256 561 129 160 163 255 
-25 256 561 130 161 164 255 
-24 256 561 134 165 168 255 
-23 256 561 135 166 169 255 
-22 256 560 135 166 169 255 
-22 256 560 137 168 171 255 
-21 255 559 139 170 173 255 
-20 255 559 139 170 173 255 
-19 255 558 137 168 171 255 
-18 255 558 138 167 171 255 
-17 255 558 140 169 173 255 
-16 255 557 140 169 173 255 
-15 255 557 137 166 170 255 
-14 255 558 135 164 168 255 
-13 255 559 137 166 170 255 
-13 257 562 129 159 159 255 
-12 258 564 93 123 123 255 
-11 259 567 97 128 120 255 
-10 261 570 143 174 166 255 
-9 262 573 147 176 180 255 
-8 263 576 147 176 180 255 
-7 264 577 146 176 176 255 
-7 264 578 144 174 174 255 
-6 264 578 140 171 166 255 
-5 264 578 136 167 162 255 
-4 264 578 136 165 169 255 
-3 264 578 138 167 171 255 
-2 264 577 139 169 171 255 
-1 264 577 143 173 175 255 
0 264 577 150 180 182 255 
1 264 578 158 188 190 255 
2 265 579 158 188 190 255 
3 266 581 147 177 179 255 
4 267 584 132 162 164 255 
5 269 588 135 165 167 255 
6 272 594 137 167 167 255 
7 274 600 134 164 164 255 
-113 275 601 133 167 169 255 
-112 275 600 133 167 169 255 
-111 275 600 135 170 172 255 
-110 274 599 137 172 174 255 
-109 274 599 132 167 169 255 
-108 274 599 127 162 164 255 
-107 274 599 127 165 166 255 
-106 274 599 132 170 171 255 
-105 274 599 135 170 172 255 
-104 274 599 135 170 172 255 
-103 274 598 132 167 169 255 
-102 274 598 131 166 168 255 
-101 274 598 132 167 169 255 
-100 273 597 133 168 170 255 
-99 273 597 133 168 170 255 
-98 273 596 132 167 169 255 
-97 272 595 135 170 172 255 
-96 272 594 137 172 174 255 
-95 272 594 128 163 165 255 
-94 272 593 126 161 163 255 
-93 271 592 127 162 164 255 
-92 271 592 125 160 162 255 
-91 271 592 128 162 164 255 
-90 271 592 129 163 165 255 
-89 271 591 138 169 171 255 
-88 271 591 139 170 172 255 
-87 271 591 141 171 173 255 
-86 271 591 118 148 150 255 
-85 271 591 41 67 68 255 
-84 271 591 19 45 46 255 
-83 271 591 10 31 34 255 
-82 270 590 13 34 37 255 
-81 269 588 16 34 36 255 
-80 269 587 18 36 38 255 
-79 269 587 17 31 32 255 
-78 269 587 14 28 29 255 
-77 268 586 12 26 26 255 
-76 268 586 16 30 30 255 
-75 268 585 20 36 35 255 
-74 268 585 15 31 30 255 
-73 268 584 26 37 41 255 
-72 267 583 26 37 41 255 
-71 267 583 26 37 41 255 
-70 267 583 32 43 47 255 
-69 267 582 32 47 50 255 
-68 267 582 34 49 52 255 
-67 267 582 63 87 91 255 
-66 266 581 114 138 142 255 
-65 266 581 139 170 172 255 
-64 266 580 135 166 168 255 
-63 265 579 128 163 165 255 
-62 265 578 133 168 170 255 
-61 264 577 124 159 163 255 
-60 264 577 122 157 161 255 
-59 264 576 128 161 166 255 
-58 264 576 127 160 165 255 
-57 264 575 119 154 156 255 
-56 264 575 129 164 166 255 
-55 264 575 134 169 171 255 
-54 263 574 136 171 173 255 
-53 263 574 136 171 173 255 
-52 263 574 126 161 163 255 
-51 263 573 113 153 153 255 
-50 263 573 111 151 151 255 
-49 263 573 117 159 158 255 
-49 263 573 122 164 163 255 
-48 263 573 125 165 165 255 
-47 263 573 128 168 168 255 
-46 262 572 131 166 168 255 
-45 262 572 129 164 166 255 
-44 262 571 129 163 165 255 
-43 262 571 124 158 160 255 
-42 262 571 123 157 159 255 
-41 261 570 125 159 161 255 
-40 261 570 123 157 159 255 
-39 261 569 124 158 160 255 
-38 261 569 125 159 161 255 
-37 260 568 124 158 160 255 
-36 260 567 129 163 165 255 
-35 260 566 130 164 166 255 
-34 260 566 127 161 163 255 
-34 260 566 129 163 165 255 
-33 259 565 132 163 166 255 
-32 259 564 131 162 165 255 
-31 259 564 137 168 171 255 
-30 258 563 136 167 170 255 
-29 258 563 133 164 167 255 
-28 258 563 132 163 166 255 
-27 258 563 129 163 165 255 
-26 258 563 125 159 161 255 
-25 258 562 128 159 162 255 
-24 258 562 133 164 167 255 
-23 258 562 135 166 169 255 
-22 258 562 135 166 169 255 
-22 257 561 136 167 170 255 
-21 257 560 138 169 172 255 
-20 257 560 135 166 169 255 
-19 257 560 135 166 169 255 
-18 256 559 137 166 170 255 
-17 256 559 139 168 172 255 
-16 256 558 140 169 173 255 
-15 256 558 138 167 171 255 
-14 256 559 135 164 168 255 
-13 257 560 134 163 167 255 
-13 258 562 129 159 161 255 
-12 259 565 95 125 127 255 
-11 260 567 90 121 113 255 
-10 261 570 141 172 164 255 
-9 263 573 142 171 175 255 
-8 264 576 143 172 176 255 
-7 265 577 145 175 177 255 
-7 265 578 143 173 175 255 
-6 266 579 145 175 173 255 
-5 266 579 137 167 165 255 
-4 266 579 137 166 172 255 
-3 266 579 138 167 173 255 
-2 265 578 139 168 172 255 
-1 265 578 141 170 174 255 
0 265 578 144 173 177 255 
1 266 579 149 178 182 255 
2 266 580 153 182 186 255 
3 266 581 149 178 182 255 
4 268 584 132 161 165 255 
5 270 589 129 158 162 255 
6 273 595 127 157 159 255 
-113 277 603 132 163 166 255 
-112 276 602 135 166 169 255 
-111 276 601 135 170 172 255 
-110 276 600 136 171 173 255 
-109 276 600 133 168 170 255 
-108 276 600 129 164 166 255 
-107 276 600 124 164 163 255 
-106 276 600 125 165 164 255 
-105 275 599 135 170 172 255 
-104 275 599 134 169 171 255 
-103 275 599 135 170 172 255 
-102 275 598 137 172 174 255 
-101 275 598 135 170 172 255 
-100 275 598 132 167 169 255 
-99 274 597 131 166 168 255 
-98 274 596 129 164 166 255 
-97 274 596 131 166 168 255 
-96 273 595 133 168 170 255 
-95 273 595 131 165 167 255 
-94 273 594 132 166 168 255 
-93 272 593 132 166 168 255 
-92 272 593 128 162 164 255 
-91 272 593 128 163 165 255 
-90 272 593 126 161 163 255 
-89 272 592 131 165 166 255 
-88 272 592 130 164 165 255 
-87 272 592 136 166 168 255 
-86 272 592 99 129 131 255 
-85 272 591 17 41 43 255 
-84 272 591 15 39 41 255 
-83 272 591 11 29 31 255 
-82 272 591 9 27 29 255 
-81 271 589 23 39 39 255 
-80 270 588 27 43 43 255 
-79 270 587 20 38 38 255 
-78 270 587 20 38 38 255 
-77 269 586 44 63 61 255 
-76 269 586 66 85 83 255 
-75 269 586 64 83 79 255 
-74 269 585 51 70 66 255 
-73 269 585 38 56 56 255 
-72 268 584 28 46 46 255 
-71 268 584 23 39 39 255 
-70 268 583 23 39 39 255 
-69 268 583 23 37 40 255 
-68 268 583 25 39 42 255 
-67 268 582 34 52 56 255 
-66 268 582 49 67 71 255 
-65 268 582 86 111 115 255 
-64 267 581 142 167 171 255 
-63 267 580 130 161 164 255 
-62 266 579 132 163 166 255 
-61 266 579 128 163 165 255 
-60 266 578 119 154 156 255 
-59 265 577 121 156 158 255 
-58 265 577 81 116 118 255 
-57 265 576 78 109 112 255 
-56 264 575 117 148 151 255 
-55 264 575 125 156 158 255 
-54 264 575 126 157 159 255 
-53 264 574 137 171 172 255 
-52 264 574 125 159 160 255 
-51 264 574 106 145 144 255 
-50 264 574 116 155 154 255 
-50 264 574 121 161 160 255 
-49 264 574 126 166 165 255 
-48 264 574 126 166 165 255 
-47 264 574 126 166 165 255 
-46 264 573 129 165 165 255 
-45 264 573 128 164 164 255 
-44 264 573 130 164 165 255 
-43 263 572 128 162 163 255 
-42 263 571 129 163 165 255 
-41 263 571 133 167 169 255 
-40 263 571 132 166 168 255 
-39 262 570 129 163 165 255 
-38 262 569 126 160 162 255 
-37 262 569 126 160 162 255 
-36 261 568 129 163 165 255 
-35 261 567 125 159 161 255 
-34 260 566 127 161 163 255 
-34 260 566 131 165 167 255 
-33 260 565 130 161 164 255 
-32 260 565 131 162 165 255 
-31 259 564 139 170 173 255 
-30 259 564 135 166 169 255 
-29 259 563 134 165 168 255 
-28 259 563 132 163 166 255 
-27 259 563 126 160 162 255 
-26 259 563 126 160 162 255 
-25 259 563 129 160 163 255 
-24 259 563 133 164 167 255 
-23 259 563 137 168 171 255 
-23 259 563 135 166 169 255 
-22 259 562 133 164 167 255 
-21 258 561 133 164 167 255 
-20 258 561 134 165 168 255 
-19 258 561 136 167 170 255 
-18 258 560 138 167 171 255 
-17 257 559 138 167 171 255 
-16 257 559 138 167 171 255 
-15 257 559 137 166 170 255 
-14 258 560 135 164 168 255 
-13 258 561 132 161 165 255 
-13 259 563 127 156 160 255 
-12 260 565 95 124 128 255 
-11 261 568 87 118 112 255 
-10 263 571 141 172 166 255 
-9 264 573 139 168 172 255 
-8 265 576 142 171 175 255 
-7 266 578 144 173 177 255 
-7 266 579 144 173 177 255 
-6 266 579 146 176 176 255 
-5 266 579 137 167 167 255 
-4 267 580 137 166 172 255 
-3 266 579 139 168 174 255 
-2 266 579 139 168 174 255 
-1 266 579 141 170 176 255 
0 266 579 143 172 178 255 
1 266 579 147 176 182 255 
2 267 580 153 182 188 255 
3 268 582 152 181 187 255 
4 269 585 136 165 169 255 
5 271 589 133 162 166 255 
6 274 595 134 164 166 255 
-114 278 604 133 164 167 255 
-113 278 603 136 167 170 255 
-111 277 602 133 171 172 255 
-110 277 601 134 172 173 255 
-109 277 601 133 175 173 255 
-108 277 601 132 174 172 255 
-107 277 601 126 172 169 255 
-106 277 601 123 169 166 255 
-105 276 600 132 170 171 255 
-104 276 600 133 171 172 255 
-103 277 600 136 174 175 255 
-102 276 599 137 175 176 255 
-101 276 598 136 171 173 255 
-100 276 598 134 169 171 255 
-99 276 598 129 167 168 255 
-98 275 597 127 165 166 255 
-97 275 596 129 164 166 255 
-96 275 596 132 167 169 255 
-95 274 595 132 167 169 255 
-94 274 595 134 169 171 255 
-93 274 594 134 169 171 255 
-92 273 593 132 167 169 255 
-91 273 593 132 167 169 255 
-90 273 593 132 167 169 255 
-89 273 593 130 166 166 255 
-88 273 592 122 158 158 255 
-87 273 592 126 156 158 255 
-86 273 592 77 107 109 255 
-85 273 592 15 36 39 255 
-84 273 592 8 29 32 255 
-83 273 592 7 25 27 255 
-82 273 592 8 26 28 255 
-81 272 590 15 33 35 255 
-80 271 588 31 49 51 255 
-79 271 587 92 114 112 255 
-78 271 587 134 156 154 255 
-77 270 586 138 163 160 255 
-76 270 586 147 172 169 255 
-75 270 586 146 168 165 255 
-74 270 586 130 152 149 255 
-73 270 585 109 134 131 255 
-72 269 584 101 126 123 255 
-71 269 584 75 96 97 255 
-70 269 584 37 58 59 255 
-69 269 583 11 29 31 255 
-68 269 583 9 27 29 255 
-67 269 583 23 38 41 255 
-66 268 582 28 43 46 255 
-65 269 582 28 47 51 255 
-64 269 582 59 78 82 255 
-63 268 581 115 140 144 255 
-62 268 580 131 156 160 255 
-61 267 579 130 161 163 255 
-60 267 579 133 164 166 255 
-59 267 578 100 134 135 255 
-58 267 578 21 55 56 255 
-57 266 577 19 44 48 255 
-56 266 576 79 104 108 255 
-55 266 576 113 143 145 255 
-54 266 576 125 155 157 255 
-53 265 575 130 161 163 255 
-52 265 575 124 155 157 255 
-51 265 575 121 157 157 255 
-51 265 575 127 163 163 255 
-50 265 575 127 166 165 255 
-49 265 575 127 166 165 255 
-48 265 575 125 164 163 255 
-47 265 574 123 162 161 255 
-46 265 574 125 161 161 255 
-45 264 573 126 162 162 255 
-44 264 573 129 163 164 255 
-43 264 572 130 164 165 255 
-42 264 572 129 163 165 255 
-41 264 571 132 166 168 255 
-40 264 571 131 165 167 255 
-39 264 571 127 161 163 255 
-38 263 570 124 158 160 255 
-37 263 569 127 161 163 255 
-36 263 569 131 165 167 255 
-35 262 568 126 160 162 255 
-34 262 567 122 156 158 255 
-34 261 566 125 159 161 255 
-33 261 566 124 155 158 255 
-32 261 566 126 157 160 255 
-31 261 565 134 165 168 255 
-30 261 565 129 160 163 255 
-29 260 564 132 163 166 255 
-28 260 564 132 163 166 255 
-27 260 564 133 164 167 255 
-26 260 564 132 163 166 255 
-25 260 564 129 160 163 255 
-24 260 564 131 162 165 255 
-23 260 564 136 167 170 255 
-23 260 564 137 168 171 255 
-22 260 563 135 166 169 255 
-21 259 562 135 166 169 255 
-20 259 562 138 169 172 255 
-19 259 561 140 171 174 255 
-18 259 560 141 170 174 255 
-17 259 560 137 166 170 255 
-16 259 560 134 163 167 255 
-15 259 560 135 164 168 255 
-14 259 560 135 164 168 255 
-13 259 561 133 162 166 255 
-13 260 563 126 154 158 255 
-12 261 566 95 123 127 255 
-11 263 569 85 116 110 255 
-10 264 572 138 169 163 255 
-9 265 574 136 165 169 255 
-8 266 577 140 169 173 255 
-7 267 579 142 171 175 255 
-7 268 580 143 172 176 255 
-6 268 581 143 173 171 255 
-5 268 580 138 168 166 255 
-4 268 580 143 172 178 255 
-3 268 580 150 179 185 255 
-2 268 580 149 178 182 255 
-1 268 580 149 178 182 255 
0 268 580 151 180 184 255 
1 268 580 152 181 185 255 
2 268 581 154 183 187 255 
3 269 583 153 182 186 255 
4 271 586 140 169 173 255 
5 273 591 135 164 168 255 
6 275 596 133 163 165 255 
-114 280 605 134 168 169 255 
-113 279 604 135 169 170 255 
-112 279 603 133 173 173 255 
-111 279 603 134 174 174 255 
-110 279 603 131 176 173 255 
-108 278 602 131 176 173 255 
-108 278 602 125 176 171 255 
-106 278 601 123 174 169 255 
-105 278 601 127 169 168 255 
-104 278 601 128 170 169 255 
-103 277 600 130 170 170 255 
-102 277 600 127 167 167 255 
-101 277 600 130 170 170 255 
-100 277 599 137 177 177 255 
-99 277 599 135 175 175 255 
-98 277 598 132 172 172 255 
-97 276 597 129 169 169 255 
-96 276 596 129 169 169 255 
-95 276 596 130 168 169 255 
-94 276 596 132 170 171 255 
-93 275 594 133 171 172 255 
-92 275 594 132 170 171 255 
-91 275 594 132 170 171 255 
-90 275 594 135 173 174 255 
-89 274 593 136 175 174 255 
-88 274 593 130 169 168 255 
-87 274 593 128 158 160 255 
-86 274 593 77 107 109 255 
-85 274 593 19 40 45 255 
-84 274 593 16 37 42 255 
-83 274 593 21 39 43 255 
-82 275 594 12 30 34 255 
-81 273 591 21 42 45 255 
-80 273 589 93 114 117 255 
-79 272 588 137 165 166 255 
-78 272 587 140 168 169 255 
-77 272 587 136 166 164 255 
-76 272 587 140 170 168 255 
-75 272 587 144 173 171 255 
-74 271 586 143 172 170 255 
-73 271 586 133 162 160 255 
-72 271 585 128 157 155 255 
-71 271 585 114 142 143 255 
-70 270 584 111 139 140 255 
-69 270 584 97 121 123 255 
-68 270 584 50 74 76 255 
-67 270 583 22 41 45 255 
-66 270 583 22 41 45 255 
-65 270 583 24 42 46 255 
-64 270 583 12 30 34 255 
-63 269 582 43 62 66 255 
-62 269 581 97 116 120 255 
-61 269 580 142 166 170 255 
-60 268 579 139 163 167 255 
-59 268 579 64 90 91 255 
-58 268 579 20 46 47 255 
-57 268 578 25 46 51 255 
-56 267 577 25 46 51 255 
-55 267 577 57 82 86 255 
-54 267 577 115 140 144 255 
-53 267 577 131 161 163 255 
-53 267 577 125 155 157 255 
-52 267 577 129 163 164 255 
-51 267 577 131 165 166 255 
-50 267 576 131 167 167 255 
-49 267 576 128 164 164 255 
-48 267 576 123 161 162 255 
-47 266 575 121 159 160 255 
-46 266 574 124 159 161 255 
-45 266 574 125 160 162 255 
-44 265 573 126 161 163 255 
-43 265 572 128 163 165 255 
-42 265 572 130 164 166 255 
-41 265 572 129 163 165 255 
-40 265 572 127 161 163 255 
-39 264 571 125 159 161 255 
-38 264 570 124 158 160 255 
-37 264 570 129 163 165 255 
-36 264 570 134 168 170 255 
-35 264 569 135 169 171 255 
-34 263 567 129 163 165 255 
-34 263 567 125 159 161 255 
-33 262 566 130 161 164 255 
-32 262 566 132 163 166 255 
-31 262 565 137 168 171 255 
-30 262 565 134 165 168 255 
-29 262 565 132 163 166 255 
-28 262 565 134 165 168 255 
-27 262 565 136 167 170 255 
-26 262 565 130 161 164 255 
-25 261 564 128 159 162 255 
-24 261 564 131 162 165 255 
-24 262 565 136 167 170 255 
-23 262 565 137 168 171 255 
-22 261 564 139 170 173 255 
-21 261 563 141 172 175 255 
-20 260 562 141 172 175 255 
-19 260 562 141 172 175 255 
-18 260 561 139 170 173 255 
-17 259 560 137 168 171 255 
-16 259 560 134 165 168 255 
-15 259 560 132 163 166 255 
-14 260 561 131 162 165 255 
-14 260 562 131 162 165 255 
-13 261 564 124 152 155 255 
-12 262 566 93 121 124 255 
-11 264 569 85 116 108 255 
-10 265 572 133 164 156 255 
-9 266 575 131 160 164 255 
-8 267 577 136 165 169 255 
-7 268 579 135 165 167 255 
-7 269 581 137 167 169 255 
-6 269 581 139 169 167 255 
-5 269 581 137 167 165 255 
-4 269 581 141 172 175 255 
-3 269 581 146 177 180 255 
-2 269 581 141 172 174 255 
-1 269 580 141 172 174 255 
0 269 580 152 182 184 255 
1 269 581 158 188 190 255 
2 270 582 159 191 190 255 
3 270 583 149 181 180 255 
4 271 586 134 165 167 255 
5 274 591 131 162 164 255 
6 277 598 132 163 165 255 
-114 281 606 137 168 170 255 
-113 281 605 137 168 170 255 
-112 280 604 133 173 172 255 
-111 280 604 134 174 173 255 
-110 280 604 126 172 169 255 
-109 280 603 124 170 167 255 
-108 280 603 121 174 166 255 
-107 279 602 120 173 165 255 
-106 279 602 123 167 166 255 
-105 279 602 124 168 167 255 
-104 279 601 122 164 163 255 
-103 279 601 115 157 156 255 
-101 278 600 126 168 167 255 
-100 278 600 140 182 181 255 
-100 278 600 137 179 178 255 
-98 278 599 131 173 172 255 
-97 277 597 129 171 170 255 
-96 277 597 129 171 170 255 
-95 277 597 130 170 170 255 
-94 277 596 131 171 171 255 
-93 276 595 134 172 173 255 
-92 276 595 133 171 172 255 
-91 276 595 129 169 169 255 
-90 276 594 132 172 172 255 
-89 276 594 130 170 169 255 
-88 276 594 131 171 170 255 
-87 276 594 132 163 166 255 
-86 276 594 96 127 130 255 
-85 276 594 19 40 45 255 
-84 276 594 10 31 36 255 
-83 276 594 16 33 40 255 
-82 276 594 5 22 29 255 
-81 275 592 35 59 61 255 
-80 274 590 118 142 144 255 
-79 273 589 132 163 165 255 
-78 273 588 131 162 164 255 
-77 273 587 134 168 169 255 
-76 273 587 133 167 168 255 
-75 273 587 145 177 176 255 
-74 273 587 134 166 165 255 
-73 273 587 122 150 151 255 
-72 272 586 128 156 157 255 
-71 272 585 124 154 156 255 
-70 272 585 124 154 156 255 
-69 271 584 126 156 158 255 
-68 271 584 119 149 151 255 
-67 271 584 86 110 112 255 
-66 271 583 31 55 57 255 
-65 271 583 0 18 22 255 
-64 271 583 9 27 31 255 
-63 271 583 20 35 40 255 
-62 271 583 40 55 60 255 
-61 270 582 107 126 130 255 
-60 270 581 102 121 125 255 
-59 269 580 36 56 57 255 
-58 269 580 17 37 38 255 
-57 269 579 20 38 42 255 
-56 269 579 20 38 42 255 
-56 269 579 18 42 44 255 
-54 269 578 70 94 96 255 
-54 269 578 125 155 157 255 
-53 269 578 130 160 162 255 
-52 269 578 126 157 159 255 
-51 269 578 135 166 168 255 
-50 269 578 130 164 165 255 
-49 268 577 127 161 162 255 
-48 268 576 126 161 163 255 
-47 268 576 125 160 162 255 
-46 267 575 125 160 162 255 
-45 267 575 126 161 163 255 
-44 267 574 125 160 162 255 
-43 266 573 129 164 166 255 
-42 266 572 132 166 168 255 
-41 266 572 127 161 163 255 
-40 266 572 126 160 162 255 
-39 266 572 124 158 160 255 
-38 265 571 122 156 158 255 
-37 265 570 125 159 161 255 
-36 265 570 130 164 166 255 
-36 265 570 136 170 172 255 
-35 264 568 137 171 173 255 
-34 264 567 122 156 158 255 
-33 264 567 128 159 162 255 
-32 264 567 126 157 160 255 
-31 263 566 129 160 163 255 
-30 263 566 131 162 165 255 
-29 263 566 127 158 161 255 
-28 263 566 131 162 165 255 
-27 263 566 128 159 162 255 
-26 263 565 123 154 157 255 
-25 263 565 125 156 159 255 
-24 263 565 134 165 168 255 
-24 263 565 138 169 172 255 
-23 263 565 137 168 171 255 
-22 263 565 138 169 172 255 
-21 262 564 140 171 174 255 
-20 262 563 139 170 173 255 
-19 261 562 138 169 172 255 
-18 261 562 137 168 171 255 
-17 261 561 139 170 173 255 
-16 260 560 139 170 173 255 
-15 261 561 133 164 167 255 
-14 261 561 127 158 161 255 
-14 261 562 127 158 161 255 
-13 262 564 128 156 159 255 
-12 264 567 99 127 130 255 
-11 265 570 92 124 113 255 
-10 266 572 137 169 158 255 
-9 267 575 134 165 167 255 
-8 269 578 136 167 169 255 
-7 270 580 134 164 164 255 
-7 270 581 136 166 166 255 
-6 271 582 136 167 162 255 
-5 271 582 136 167 162 255 
-4 271 582 140 171 173 255 
-3 271 582 143 174 176 255 
-2 271 582 132 166 165 255 
-1 270 581 131 165 164 255 
0 270 581 148 180 179 255 
1 270 581 158 190 189 255 
2 271 583 167 199 196 255 
3 271 584 151 183 180 255 
4 272 586 134 166 165 255 
5 275 592 129 161 160 255 
-114 283 608 129 169 168 255 
-113 282 607 132 172 171 255 
-112 282 606 129 174 171 255 
-111 282 605 128 173 170 255 
-110 282 605 129 167 168 255 
-109 282 605 131 169 170 255 
-108 281 604 127 167 169 255 
-107 281 603 126 166 168 255 
-106 281 603 129 167 168 255 
-105 280 602 132 170 171 255 
-104 280 602 126 166 166 255 
-103 280 602 125 165 165 255 
-102 280 601 133 173 173 255 
-100 279 600 138 178 178 255 
-100 279 600 138 176 177 255 
-99 279 600 134 172 173 255 
-97 278 598 133 171 172 255 
-96 278 598 130 168 169 255 
-95 278 598 130 168 169 255 
-94 278 597 131 169 170 255 
-93 278 596 131 169 170 255 
-92 278 596 131 169 170 255 
-91 278 596 132 170 171 255 
-90 277 595 132 170 171 255 
-89 277 595 130 178 178 255 
-88 277 594 125 173 173 255 
-87 277 594 131 171 171 255 
-86 277 594 104 144 144 255 
-85 277 594 25 46 51 255 
-84 277 594 7 28 33 255 
-83 277 594 20 31 35 255 
-82 277 594 10 21 25 255 
-81 276 593 42 60 60 255 
-80 275 591 133 151 151 255 
-79 275 590 129 163 162 255 
-78 274 589 127 161 160 255 
-77 274 588 128 167 166 255 
-76 274 588 137 176 175 255 
-75 274 588 146 180 181 255 
-74 274 588 137 171 172 255 
-73 274 588 135 166 168 255 
-72 274 587 140 171 173 255 
-71 273 586 140 171 173 255 
-70 273 586 130 161 163 255 
-69 273 585 117 151 152 255 
-68 273 585 122 156 157 255 
-67 272 584 124 155 157 255 
-66 272 584 102 133 135 255 
-65 272 584 46 74 75 255 
-64 272 584 13 41 42 255 
-63 272 584 18 37 41 255 
-62 272 584 16 35 39 255 
-61 272 583 48 63 68 255 
-61 272 583 54 69 74 255 
-60 271 582 26 40 43 255 
-58 271 581 14 28 31 255 
-57 270 580 10 31 34 255 
-57 270 580 8 29 32 255 
-56 270 579 11 35 35 255 
-55 270 579 101 125 125 255 
-54 270 579 127 157 159 255 
-53 270 579 132 162 164 255 
-52 269 578 131 166 170 255 
-51 269 578 130 165 169 255 
-50 269 578 129 164 170 255 
-49 269 578 124 159 165 255 
-48 269 577 127 158 160 255 
-47 269 577 127 158 160 255 
-46 269 576 125 157 156 255 
-45 268 575 122 154 153 255 
-44 268 574 120 156 156 255 
-43 267 573 129 165 165 255 
-42 267 573 128 162 164 255 
-41 267 573 119 153 155 255 
-40 267 572 129 160 163 255 
-39 267 572 127 158 161 255 
-38 267 572 121 152 155 255 
-37 266 571 122 153 156 255 
-37 266 571 131 165 167 255 
-36 266 570 129 163 165 255 
-35 265 569 129 163 164 255 
-34 265 568 127 161 162 255 
-33 265 568 132 163 165 255 
-32 264 567 132 163 165 255 
-31 264 567 131 162 164 255 
-30 264 567 131 162 164 255 
-29 264 567 128 159 161 255 
-28 264 567 129 160 162 255 
-27 264 566 128 159 162 255 
-26 264 566 117 148 151 255 
-25 264 566 120 151 154 255 
-24 264 566 131 162 165 255 
-24 264 566 142 173 176 255 
-23 264 566 138 169 172 255 
-22 263 565 134 165 168 255 
-21 263 564 135 166 169 255 
-20 263 564 133 164 167 255 
-19 263 564 137 168 171 255 
-18 263 563 134 165 168 255 
-17 262 562 137 168 171 255 
-16 262 562 141 172 175 255 
-15 262 562 133 164 167 255 
-14 263 563 126 157 160 255 
-14 263 563 130 161 164 255 
-13 264 565 130 161 163 255 
-12 264 567 101 132 134 255 
-11 266 570 93 126 117 255 
-10 267 573 132 165 156 255 
-9 268 575 134 166 161 255 
-8 270 578 129 161 156 255 
-7 271 580 133 164 167 255 
-7 271 582 139 170 173 255 
-6 271 582 136 168 167 255 
-5 271 582 138 170 169 255 
-4 272 583 138 170 165 255 
-3 272 583 141 173 168 255 
-2 271 582 148 179 181 255 
-1 271 582 150 181 183 255 
0 271 582 152 184 183 255 
1 271 582 158 190 189 255 
2 272 584 164 194 192 255 
3 273 585 153 183 181 255 
4 274 588 133 165 164 255 
5 277 593 126 158 157 255 
-115 284 609 126 165 164 255 
-113 284 608 131 170 169 255 
-112 283 607 129 171 169 255 
-111 283 606 131 173 171 255 
-110 283 605 135 170 172 255 
-109 283 605 137 172 174 255 
-108 282 604 130 170 172 255 
-107 282 604 129 169 171 255 
-106 282 604 127 167 167 255 
-105 282 603 130 170 170 255 
-104 282 603 128 168 168 255 
-103 282 603 129 169 169 255 
-102 281 602 134 174 174 255 
-101 281 601 136 176 176 255 
-100 281 601 133 173 173 255 
-99 280 600 129 169 169 255 
-97 280 599 130 168 169 255 
-97 280 599 131 169 170 255 
-95 279 598 132 172 172 255 
-94 279 598 132 172 172 255 
-93 279 598 129 169 169 255 
-92 279 597 128 168 168 255 
-91 278 596 130 168 169 255 
-90 278 596 130 168 169 255 
-89 278 595 129 173 172 255 
-88 278 595 122 166 165 255 
-87 278 595 119 157 158 255 
-86 278 595 124 162 163 255 
-85 278 595 58 84 85 255 
-85 278 595 10 36 37 255 
-84 278 595 15 31 31 255 
-83 278 595 10 26 26 255 
-81 277 593 35 57 55 255 
-80 277 592 118 140 138 255 
-79 276 591 130 164 163 255 
-78 276 590 132 166 165 255 
-77 275 589 132 171 170 255 
-76 275 588 131 170 169 255 
-75 275 588 137 171 172 255 
-74 275 588 136 170 171 255 
-73 275 588 134 165 168 255 
-72 275 588 135 166 169 255 
-71 274 587 132 163 165 255 
-70 274 586 130 161 163 255 
-69 274 586 130 161 163 255 
-68 274 585 127 158 160 255 
-67 274 585 128 159 161 255 
-66 273 584 131 162 164 255 
-65 273 584 117 145 146 255 
-64 273 584 55 83 84 255 
-63 273 584 29 48 52 255 
-62 273 584 17 36 40 255 
-62 273 584 10 25 28 255 
-61 273 584 16 31 34 255 
-60 273 583 17 31 34 255 
-59 272 582 11 25 28 255 
-58 272 581 9 29 30 255 
-57 272 581 0 15 16 255 
-56 271 580 79 100 101 255 
-55 271 580 136 157 158 255 
-54 271 580 132 160 163 255 
-53 271 580 136 164 167 255 
-52 271 579 132 165 170 255 
-51 271 579 133 166 171 255 
-50 271 579 135 166 171 255 
-49 271 579 125 156 161 255 
-48 270 578 124 153 157 255 
-47 270 578 130 159 163 255 
-46 270 577 133 163 165 255 
-45 269 575 127 157 159 255 
-44 268 574 121 157 157 255 
-43 269 574 129 165 165 255 
-42 268 573 131 165 167 255 
-41 268 573 125 159 161 255 
-40 268 573 132 163 166 255 
-39 268 572 130 161 164 255 
-38 268 572 127 158 161 255 
-37 268 572 128 159 162 255 
-37 268 572 133 164 166 255 
-36 267 571 131 162 164 255 
-35 267 570 131 162 164 255 
-34 266 569 129 160 162 255 
-33 266 569 132 162 164 255 
-32 266 568 134 164 166 255 
-31 266 568 132 162 164 255 
-30 266 568 132 162 164 255 
-29 266 568 130 161 163 255 
-28 266 568 128 159 161 255 
-27 265 567 128 159 162 255 
-26 265 567 123 154 157 255 
-25 265 567 125 156 159 255 
-24 265 566 130 161 164 255 
-24 265 566 140 171 174 255 
-23 265 566 139 170 173 255 
-22 265 566 136 167 170 255 
-21 264 565 137 168 171 255 
-20 264 565 135 166 168 255 
-19 264 564 136 167 169 255 
-18 264 564 136 167 169 255 
-17 263 563 139 170 172 255 
-16 263 563 140 170 172 255 
-15 263 563 133 163 165 255 
-14 263 563 130 160 162 255 
-14 264 564 133 163 165 255 
-13 265 566 130 160 162 255 
-12 266 568 107 137 139 255 
-11 267 570 90 121 113 255 
-10 268 573 134 165 157 255 
-9 270 576 137 168 163 255 
-8 271 579 134 165 160 255 
-7 272 581 135 164 168 255 
-7 273 583 137 166 170 255 
-6 273 583 133 165 164 255 
-5 273 583 138 170 169 255 
-4 273 583 141 173 168 255 
-3 273 584 145 177 172 255 
-2 273 583 151 182 184 255 
-1 273 583 151 182 184 255 
0 273 583 152 183 185 255 
1 273 583 159 190 192 255 
2 273 584 161 193 190 255 
3 274 586 155 187 184 255 
4 275 588 135 167 166 255 
5 278 594 124 156 155 255 
-113 285 608 134 170 168 255 
-112 285 608 130 170 169 255 
-111 284 606 133 173 172 255 
-110 284 606 138 173 175 255 
-109 283 605 139 174 176 255 
-108 283 605 136 174 177 255 
-107 283 605 137 175 178 255 
-106 283 604 130 170 170 255 
-105 283 604 129 169 169 255 
-104 283 603 128 168 168 255 
-103 283 603 130 170 170 255 
-102 283 603 134 174 174 255 
-101 282 602 133 173 173 255 
-100 282 602 129 167 168 255 
-99 282 601 128 166 167 255 
-98 281 600 130 168 169 255 
-97 281 600 132 170 171 255 
-96 281 599 133 173 173 255 
-95 281 599 132 172 172 255 
-93 280 598 130 168 169 255 
-93 280 598 129 167 168 255 
-91 280 597 129 167 168 255 
-90 280 597 129 167 168 255 
-89 279 596 128 168 168 255 
-88 279 596 121 161 161 255 
-87 279 596 128 164 164 255 
-86 279 595 132 168 168 255 
-85 279 595 93 121 122 255 
-85 279 595 12 40 41 255 
-84 279 595 11 33 31 255 
-83 279 595 10 32 30 255 
-82 279 594 16 41 38 255 
-80 278 593 85 110 107 255 
-79 278 592 137 169 166 255 
-78 277 591 128 160 157 255 
-77 277 590 126 160 161 255 
-76 276 589 132 166 167 255 
-75 276 589 132 163 165 255 
-74 276 589 140 171 173 255 
-73 276 589 126 160 162 255 
-72 276 588 125 159 161 255 
-71 276 588 127 158 161 255 
-70 275 587 125 156 159 255 
-69 275 587 125 156 158 255 
-68 275 586 128 159 161 255 
-67 274 585 130 161 163 255 
-66 274 585 132 163 165 255 
-65 274 584 133 161 162 255 
-64 274 584 111 139 140 255 
-64 274 585 36 57 60 255 
-62 274 584 6 27 30 255 
-62 274 584 11 26 29 255 
-61 274 585 7 22 25 255 
-60 274 584 11 25 28 255 
-59 274 583 5 19 22 255 
-58 273 582 4 19 22 255 
-57 273 581 34 49 52 255 
-56 273 581 120 141 142 255 
-55 273 581 135 156 157 255 
-54 272 580 133 161 164 255 
-53 272 580 137 165 168 255 
-52 272 580 135 166 171 255 
-51 272 580 136 167 172 255 
-50 272 580 136 165 171 255 
-49 272 580 129 158 164 255 
-48 272 579 128 153 158 255 
-47 271 578 134 159 164 255 
-46 271 577 136 164 167 255 
-45 270 576 131 159 162 255 
-44 270 575 128 162 163 255 
-43 269 574 134 168 169 255 
-42 269 574 132 163 165 255 
-41 269 574 128 159 161 255 
-40 269 574 128 159 161 255 
-39 269 573 124 155 157 255 
-38 269 573 127 158 161 255 
-38 269 573 130 161 164 255 
-37 268 572 132 163 166 255 
-36 268 571 132 163 166 255 
-35 268 571 134 165 168 255 
-34 268 570 130 161 164 255 
-33 267 569 131 160 164 255 
-32 267 569 132 161 165 255 
-31 267 569 130 159 163 255 
-30 267 568 130 159 163 255 
-29 267 568 132 161 165 255 
-28 267 568 130 159 163 255 
-27 267 568 125 156 159 255 
-26 266 567 127 158 161 255 
-25 266 567 129 160 163 255 
-24 266 566 128 159 162 255 
-24 266 566 138 169 171 255 
-23 266 566 138 169 171 255 
-22 266 566 137 167 169 255 
-21 266 566 138 168 170 255 
-20 265 565 138 168 170 255 
-19 265 565 136 166 168 255 
-18 265 564 138 168 170 255 
-17 265 564 143 173 175 255 
-16 265 564 139 169 171 255 
-15 265 564 134 164 166 255 
-14 265 564 133 163 165 255 
-14 265 564 133 163 165 255 
-13 266 566 126 154 155 255 
-12 267 568 109 137 138 255 
-11 268 571 83 113 103 255 
-10 269 574 132 162 152 255 
-9 271 577 140 169 165 255 
-8 272 579 143 172 168 255 
-7 273 582 141 170 174 255 
-7 274 584 141 170 174 255 
-6 274 584 134 164 162 255 
-5 274 584 137 167 165 255 
-4 274 584 142 172 170 255 
-3 274 584 149 179 177 255 
-2 274 584 152 183 185 255 
-1 274 584 150 181 183 255 
0 274 584 151 182 184 255 
1 274 584 157 188 190 255 
2 274 584 158 190 189 255 
3 275 586 157 189 188 255 
4 277 589 140 172 171 255 
5 279 594 129 161 160 255 
-114 286 609 136 168 167 255 
-112 286 608 129 169 168 255 
-111 285 607 132 172 171 255 
-110 285 607 134 169 171 255 
-109 285 606 136 171 173 255 
-108 285 606 137 175 178 255 
-107 285 606 139 177 180 255 
-106 284 605 136 174 175 255 
-105 284 604 129 167 168 255 
-104 284 604 126 166 166 255 
-103 284 604 127 167 167 255 
-102 284 603 131 169 170 255 
-101 284 603 132 170 171 255 
-100 284 603 128 166 167 255 
-99 283 602 128 166 167 255 
-98 283 602 129 167 168 255 
-97 283 601 132 170 171 255 
-96 282 600 133 171 172 255 
-95 282 600 132 170 171 255 
-94 282 599 130 168 169 255 
-93 282 599 130 168 169 255 
-92 282 599 130 168 169 255 
-91 281 598 128 166 167 255 
-90 281 597 131 170 169 255 
-89 281 597 131 170 169 255 
-88 281 597 130 166 166 255 
-87 280 596 133 169 169 255 
-86 280 596 127 157 155 255 
-85 280 596 34 64 62 255 
-84 280 596 10 35 32 255 
-83 280 596 8 33 30 255 
-82 280 595 10 35 32 255 
-81 279 594 39 64 61 255 
-79 279 593 120 148 149 255 
-79 279 593 136 164 165 255 
-77 278 591 127 158 160 255 
-76 278 590 131 162 164 255 
-75 278 590 136 170 172 255 
-74 277 589 138 172 174 255 
-73 277 589 132 166 168 255 
-72 277 589 125 159 161 255 
-71 277 588 129 160 163 255 
-70 277 588 131 162 165 255 
-69 276 587 131 162 165 255 
-68 276 587 136 167 170 255 
-67 276 586 136 166 168 255 
-66 275 585 131 161 163 255 
-65 275 585 129 157 158 255 
-64 275 585 136 164 165 255 
-64 275 585 84 108 110 255 
-63 275 585 20 44 46 255 
-62 275 585 16 31 34 255 
-61 275 585 16 31 34 255 
-60 275 585 14 25 29 255 
-59 275 584 10 21 25 255 
-58 274 583 43 57 58 255 
-57 274 582 120 134 135 255 
-56 274 582 144 164 165 255 
-55 274 582 140 160 161 255 
-54 274 581 138 166 169 255 
-53 274 581 137 165 168 255 
-52 274 581 132 163 166 255 
-51 274 581 133 164 167 255 
-50 273 580 135 162 169 255 
-49 273 580 134 161 168 255 
-48 273 579 131 156 161 255 
-47 273 579 135 160 165 255 
-46 272 578 140 168 171 255 
-45 272 577 139 167 170 255 
-44 271 576 135 166 168 255 
-43 271 575 133 164 166 255 
-42 270 574 133 164 166 255 
-41 270 574 131 162 164 255 
-40 270 574 128 159 161 255 
-39 270 574 124 155 157 255 
-38 270 573 130 161 164 255 
-38 270 573 135 166 169 255 
-37 270 573 136 167 170 255 
-36 269 572 137 168 171 255 
-35 269 572 136 167 170 255 
-34 269 571 134 165 168 255 
-33 268 570 132 161 165 255 
-32 268 570 133 162 166 255 
-31 268 570 133 162 166 255 
-30 268 570 132 161 165 255 
-29 268 569 134 163 167 255 
-28 268 569 131 160 164 255 
-27 268 569 125 156 159 255 
-26 268 568 127 158 161 255 
-25 268 568 129 160 163 255 
-25 268 568 128 159 162 255 
-24 267 567 136 167 169 255 
-23 267 567 138 169 171 255 
-22 267 567 137 167 169 255 
-21 267 567 138 168 170 255 
-20 267 566 137 167 169 255 
-19 267 566 134 164 166 255 
-18 266 565 138 168 170 255 
-17 266 565 145 175 177 255 
-16 266 565 142 172 172 255 
-15 266 564 137 167 167 255 
-14 266 564 136 166 166 255 
-14 266 565 132 162 162 255 
-13 267 567 130 158 159 255 
-12 268 569 117 145 146 255 
-11 269 571 78 108 98 255 
-10 270 574 131 161 151 255 
-9 272 577 139 168 164 255 
-8 273 580 142 171 167 255 
-7 275 583 139 168 172 255 
-7 276 585 140 169 173 255 
-6 276 585 137 167 165 255 
-5 276 585 137 167 165 255 
-4 276 585 140 170 168 255 
-3 276 585 146 176 174 255 
-2 275 584 149 180 182 255 
-1 275 584 148 179 181 255 
0 275 584 149 180 182 255 
1 275 584 155 186 188 255 
2 276 585 155 187 184 255 
3 277 587 154 186 183 255 
4 277 589 138 170 169 255 
5 280 595 132 164 163 255 
-114 288 610 133 163 163 255 
-113 287 609 126 166 165 255 
-111 287 608 128 168 167 255 
-110 286 607 128 166 167 255 
-109 286 607 131 169 170 255 
-108 286 606 134 174 174 255 
-107 286 606 135 175 175 255 
-106 286 606 138 178 178 255 
-105 285 605 131 171 171 255 
-104 285 605 128 168 168 255 
-103 285 605 127 167 167 255 
-102 285 604 128 168 168 255 
-101 285 604 130 170 170 255 
-100 285 604 128 168 168 255 
-99 284 603 129 169 169 255 
-98 285 603 129 169 169 255 
-97 284 602 132 172 172 255 
-96 284 601 134 172 173 255 
-95 284 601 133 171 172 255 
-94 283 600 131 169 170 255 
-93 283 600 130 168 169 255 
-92 283 600 129 167 168 255 
-91 283 599 127 165 166 255 
-90 282 598 133 171 172 255 
-89 282 598 129 167 168 255 
-88 282 598 135 171 171 255 
-87 281 596 129 165 165 255 
-86 281 596 139 169 169 255 
-85 281 596 108 138 138 255 
-84 281 596 27 51 51 255 
-83 281 596 10 34 34 255 
-82 281 595 11 31 32 255 
-81 281 595 11 31 32 255 
-80 280 594 71 92 95 255 
-79 280 593 123 144 147 255 
-77 279 592 138 166 169 255 
-76 279 591 129 157 160 255 
-75 279 591 140 174 176 255 
-74 279 590 136 170 172 255 
-73 279 590 128 161 166 255 
-72 278 589 125 158 163 255 
-71 278 589 124 158 160 255 
-71 278 589 125 159 161 255 
-69 278 588 134 165 168 255 
-68 277 587 141 172 175 255 
-67 277 587 137 167 169 255 
-66 277 586 131 161 163 255 
-65 277 586 134 162 163 255 
-65 277 586 136 164 165 255 
-64 277 586 118 142 144 255 
-63 277 586 31 55 57 255 
-62 277 586 13 31 33 255 
-61 277 586 13 31 33 255 
-60 277 586 18 29 33 255 
-59 276 585 25 36 40 255 
-58 276 584 93 107 107 255 
-57 275 583 142 156 156 255 
-56 275 583 136 157 158 255 
-55 275 582 144 165 166 255 
-54 274 581 134 164 166 255 
-53 274 581 140 170 172 255 
-52 274 581 137 168 171 255 
-51 274 581 137 168 171 255 
-50 274 580 133 161 165 255 
-49 274 580 136 164 168 255 
-48 274 579 135 160 165 255 
-47 274 579 134 159 164 255 
-46 273 578 131 161 163 255 
-45 273 578 130 160 162 255 
-44 273 577 132 164 163 255 
-43 272 576 135 167 166 255 
-42 272 576 132 163 165 255 
-41 272 575 131 162 164 255 
-40 271 574 127 158 160 255 
-39 271 574 126 157 159 255 
-39 271 574 129 160 163 255 
-38 271 574 135 166 169 255 
-37 271 573 134 165 168 255 
-36 271 573 134 165 168 255 
-35 271 573 134 165 168 255 
-34 270 572 134 165 168 255 
-33 270 571 131 162 165 255 
-32 270 571 134 165 168 255 
-31 270 571 139 170 173 255 
-30 270 571 137 168 171 255 
-29 269 570 135 164 168 255 
-28 269 570 130 159 163 255 
-27 269 569 130 161 164 255 
-26 269 569 129 160 163 255 
-25 268 568 131 162 165 255 
-25 268 568 130 161 164 255 
-24 268 568 135 166 168 255 
-23 268 567 136 167 169 255 
-22 268 567 137 168 170 255 
-21 268 567 140 171 173 255 
-20 268 567 137 167 169 255 
-19 267 566 133 163 165 255 
-18 267 566 137 167 169 255 
-17 267 566 145 175 177 255 
-16 267 566 144 174 174 255 
-15 267 565 140 170 170 255 
-14 267 565 138 168 168 255 
-14 267 566 134 164 164 255 
-13 268 567 135 163 164 255 
-12 269 569 121 149 150 255 
-11 270 572 77 107 97 255 
-10 271 574 129 159 149 255 
-9 273 577 139 168 163 255 
-8 274 580 142 171 166 255 
-7 276 583 139 167 171 255 
-7 276 585 141 169 173 255 
-6 277 586 140 170 168 255 
-5 277 586 140 170 168 255 
-4 277 586 141 172 167 255 
-3 277 586 146 177 172 255 
-2 276 585 147 178 180 255 
-1 276 584 144 175 177 255 
0 276 584 146 177 179 255 
1 276 585 154 185 187 255 
2 276 585 156 188 185 255 
3 277 587 149 181 178 255 
4 279 590 132 164 161 255 
-114 289 611 130 158 159 255 
-113 289 610 126 166 165 255 
-112 288 609 128 168 167 255 
-110 288 608 128 168 168 255 
-109 287 607 132 172 172 255 
-108 287 607 134 174 174 255 
-107 287 607 134 174 174 255 
-106 287 607 134 176 175 255 
-105 287 607 131 173 172 255 
-104 287 606 131 173 172 255 
-103 287 606 129 171 170 255 
-102 287 606 127 169 168 255 
-101 286 605 129 171 170 255 
-100 286 605 130 172 171 255 
-99 286 604 128 170 169 255 
-98 285 603 128 170 169 255 
-97 285 603 131 173 172 255 
-96 285 602 134 174 174 255 
-95 285 601 133 173 173 255 
-94 285 601 130 170 170 255 
-93 284 600 127 167 167 255 
-92 284 600 126 168 167 255 
-91 284 599 126 168 167 255 
-90 284 599 130 170 172 255 
-89 284 599 132 172 174 255 
-88 283 598 135 171 171 255 
-87 283 597 131 167 167 255 
-86 283 597 133 165 164 255 
-85 282 596 137 169 168 255 
-84 282 596 92 118 117 255 
-83 283 597 22 48 47 255 
-82 282 595 13 33 34 255 
-81 282 595 12 32 33 255 
-80 282 595 29 47 51 255 
-79 281 594 62 80 84 255 
-78 281 593 115 139 143 255 
-77 280 592 138 162 166 255 
-75 280 591 141 172 175 255 
-75 280 591 135 166 169 255 
-73 279 590 127 160 165 255 
-73 279 590 126 159 164 255 
-71 279 589 127 161 163 255 
-71 279 589 127 161 163 255 
-70 279 589 130 164 166 255 
-69 279 588 139 173 175 255 
-67 278 587 139 170 172 255 
-67 279 588 129 160 162 255 
-66 278 587 133 161 164 255 
-65 278 587 140 168 171 255 
-64 278 587 131 155 157 255 
-63 278 587 38 62 64 255 
-62 278 587 24 42 46 255 
-61 278 587 20 38 42 255 
-60 278 587 22 36 39 255 
-59 278 586 28 42 45 255 
-58 277 585 96 110 110 255 
-57 277 584 137 151 151 255 
-56 276 583 137 161 161 255 
-55 276 583 144 168 168 255 
-54 276 582 136 166 168 255 
-53 276 582 137 167 169 255 
-52 276 582 135 166 169 255 
-51 276 582 137 168 171 255 
-50 275 581 138 166 170 255 
-49 275 581 137 165 169 255 
-48 275 580 134 162 166 255 
-47 274 579 137 165 169 255 
-46 274 579 138 168 170 255 
-45 274 578 132 162 164 255 
-44 274 578 129 161 160 255 
-43 273 577 133 165 164 255 
-42 273 576 135 166 168 255 
-41 273 576 132 163 165 255 
-40 273 575 129 160 162 255 
-40 273 575 129 160 162 255 
-39 273 575 129 160 162 255 
-38 273 575 133 164 166 255 
-37 273 575 132 163 165 255 
-36 272 574 132 163 165 255 
-35 272 574 130 161 163 255 
-34 272 573 129 160 162 255 
-33 271 572 125 156 158 255 
-32 271 572 128 159 161 255 
-31 271 572 137 168 170 255 
-30 271 572 138 169 171 255 
-29 271 571 133 163 165 255 
-28 270 570 128 158 160 255 
-27 270 569 131 162 164 255 
-26 270 569 130 161 163 255 
-25 269 568 133 164 166 255 
-25 269 568 132 163 165 255 
-24 269 567 135 166 168 255 
-23 269 567 132 163 165 255 
-22 269 567 134 165 167 255 
-21 269 567 139 170 172 255 
-20 269 567 137 168 170 255 
-19 269 567 134 165 167 255 
-18 269 567 136 166 168 255 
-17 268 566 142 172 174 255 
-16 268 566 143 173 175 255 
-15 268 566 139 169 171 255 
-15 268 566 139 169 169 255 
-14 269 567 139 169 169 255 
-13 269 568 136 164 165 255 
-12 270 570 123 151 152 255 
-11 271 572 78 108 98 255 
-10 273 575 124 154 144 255 
-9 274 578 142 171 167 255 
-8 275 581 143 172 168 255 
-8 277 584 142 170 174 255 
-7 278 586 145 173 177 255 
-6 278 587 140 170 168 255 
-5 278 587 142 172 170 255 
-4 278 587 146 177 172 255 
-3 278 587 150 181 176 255 
-2 278 586 149 179 181 255 
-1 278 586 144 174 176 255 
0 277 585 145 175 177 255 
1 278 586 154 184 186 255 
2 278 586 162 194 191 255 
3 279 588 152 184 181 255 
4 280 590 134 165 160 255 
-114 291 612 129 153 155 255 
-113 290 611 128 168 167 255 
-112 290 610 131 171 170 255 
-111 289 609 131 171 171 255 
-109 289 608 135 175 175 255 
-109 289 608 133 173 173 255 
-108 289 608 132 172 172 255 
-106 288 607 128 170 169 255 
-105 288 607 130 172 171 255 
-104 288 607 132 172 172 255 
-103 288 606 129 169 169 255 
-102 288 606 126 166 166 255 
-101 288 606 131 171 171 255 
-100 287 605 134 176 175 255 
-99 287 605 128 170 169 255 
-98 287 604 124 166 165 255 
-97 286 603 126 168 167 255 
-96 286 603 129 169 169 255 
-95 286 602 131 171 171 255 
-94 285 601 130 170 170 255 
-93 285 601 127 167 167 255 
-92 285 601 126 166 166 255 
-91 285 600 128 168 168 255 
-90 285 599 137 177 179 255 
-89 285 599 129 169 171 255 
-88 285 599 140 176 176 255 
-87 284 598 136 172 172 255 
-86 284 597 127 161 160 255 
-85 284 597 128 162 161 255 
-84 284 597 126 158 155 255 
-83 284 597 75 107 104 255 
-82 283 596 24 48 48 255 
-81 283 596 8 32 32 255 
-80 283 596 23 38 41 255 
-79 283 595 27 42 45 255 
-78 282 594 58 76 80 255 
-77 282 594 108 126 130 255 
-76 282 593 128 156 160 255 
-75 281 592 142 170 174 255 
-74 281 592 131 162 165 255 
-73 281 591 126 157 160 255 
-72 280 590 128 162 164 255 
-71 280 590 133 167 169 255 
-70 280 590 131 165 167 255 
-69 279 588 132 166 168 255 
-68 279 588 136 167 169 255 
-67 279 588 128 159 161 255 
-66 279 588 135 163 166 255 
-65 279 588 134 162 165 255 
-64 280 588 135 159 161 255 
-63 280 588 42 66 68 255 
-62 280 589 14 32 36 255 
-61 280 588 17 35 39 255 
-60 280 588 16 29 35 255 
-59 279 587 12 25 31 255 
-58 278 585 77 93 92 255 
-57 278 585 137 153 152 255 
-56 278 584 130 154 156 255 
-55 277 583 132 156 158 255 
-54 277 583 136 166 168 255 
-53 277 583 135 165 167 255 
-52 277 583 132 162 164 255 
-51 277 582 133 163 165 255 
-50 277 582 131 160 164 255 
-49 277 582 132 161 165 255 
-48 276 581 132 161 165 255 
-47 276 580 131 160 164 255 
-46 276 580 128 159 161 255 
-45 275 579 122 153 155 255 
-44 275 578 121 153 150 255 
-43 275 578 129 161 158 255 
-42 274 577 130 162 161 255 
-41 274 577 125 157 156 255 
-40 274 576 124 156 155 255 
-40 274 576 127 159 158 255 
-39 273 575 125 157 156 255 
-38 273 575 129 161 160 255 
-37 273 575 129 159 159 255 
-36 273 574 129 159 159 255 
-35 273 574 129 159 159 255 
-34 273 574 128 158 158 255 
-33 273 573 124 156 155 255 
-32 272 572 125 157 156 255 
-31 272 572 133 163 163 255 
-30 272 572 136 166 166 255 
-29 272 571 132 162 162 255 
-28 272 571 130 160 160 255 
-27 271 570 129 160 162 255 
-26 271 569 130 161 163 255 
-25 270 568 133 164 166 255 
-25 270 568 131 162 164 255 
-24 270 568 135 165 167 255 
-23 270 567 131 161 163 255 
-22 270 567 132 162 164 255 
-21 270 568 137 167 169 255 
-20 270 568 137 167 167 255 
-19 270 568 137 167 167 255 
-18 270 568 137 167 167 255 
-17 270 567 141 171 171 255 
-16 270 567 141 171 171 255 
-15 270 567 136 166 166 255 
-15 270 567 135 165 165 255 
-14 270 567 137 167 167 255 
-13 270 568 139 165 166 255 
-12 271 570 131 157 158 255 
-11 273 573 89 116 107 255 
-10 274 576 123 150 141 255 
-9 275 579 143 172 168 255 
-8 276 581 142 171 167 255 
-8 278 584 140 168 171 255 
-7 279 586 141 169 172 255 
-6 279 587 141 170 168 255 
-5 280 588 144 173 171 255 
-4 280 588 148 177 173 255 
-3 280 588 152 181 177 255 
-2 279 587 150 178 179 255 
-1 279 587 145 173 174 255 
0 279 586 146 174 175 255 
1 279 587 154 182 183 255 
2 279 587 164 196 193 255 
3 280 588 155 187 184 255 
4 281 591 135 167 162 255 
-114 292 613 126 147 148 255 
-113 291 612 131 170 169 255 
-112 291 611 135 174 173 255 
-111 291 610 133 173 173 255 
-110 291 610 134 174 174 255 
-109 290 609 128 168 168 255 
-108 290 609 128 168 168 255 
-107 290 609 126 166 166 255 
-106 290 608 129 169 169 255 
-105 290 608 128 166 167 255 
-104 290 608 125 163 164 255 
-103 289 607 125 163 164 255 
-101 289 606 133 171 172 255 
-100 289 606 138 178 178 255 
-99 288 605 129 169 169 255 
-98 288 605 120 160 160 255 
-97 288 604 121 161 161 255 
-96 288 604 125 163 164 255 
-95 287 603 129 167 168 255 
-94 287 602 132 170 171 255 
-93 287 602 130 168 169 255 
-92 286 601 127 165 166 255 
-91 286 600 128 166 167 255 
-90 286 600 129 169 171 255 
-89 286 600 134 174 176 255 
-88 285 599 138 174 174 255 
-87 285 599 136 172 172 255 
-86 285 598 131 167 163 255 
-85 285 598 132 168 164 255 
-84 285 598 133 169 165 255 
-83 285 598 130 166 162 255 
-82 285 597 80 109 107 255 
-81 284 596 14 43 41 255 
-80 284 596 11 26 29 255 
-79 284 596 24 39 42 255 
-78 284 595 26 41 46 255 
-77 283 594 45 60 65 255 
-76 283 594 69 93 97 255 
-75 283 593 102 126 130 255 
-74 283 593 122 153 156 255 
-73 282 592 133 164 167 255 
-72 282 591 130 164 166 255 
-71 282 591 127 161 163 255 
-70 281 590 132 167 169 255 
-69 281 590 136 171 173 255 
-68 281 589 136 167 169 255 
-67 281 589 128 159 161 255 
-66 281 589 140 168 171 255 
-65 281 589 139 167 170 255 
-64 281 589 104 125 130 255 
-63 280 588 31 52 57 255 
-62 281 589 14 32 36 255 
-61 281 589 15 33 37 255 
-60 280 588 20 33 39 255 
-59 280 587 14 27 33 255 
-58 279 586 65 81 81 255 
-57 280 586 135 151 151 255 
-56 279 585 129 153 155 255 
-55 279 584 137 161 163 255 
-54 279 584 135 165 167 255 
-53 278 583 135 165 167 255 
-52 278 583 132 162 164 255 
-51 278 583 131 161 163 255 
-50 278 582 128 157 161 255 
-49 278 582 132 161 165 255 
-48 278 582 133 164 167 255 
-47 277 581 129 160 163 255 
-46 277 580 128 159 161 255 
-45 276 579 126 157 159 255 
-44 276 579 123 155 152 255 
-43 276 578 126 158 155 255 
-42 276 578 126 156 154 255 
-41 275 577 122 152 150 255 
-41 275 577 123 155 152 255 
-40 275 576 130 162 159 255 
-39 275 576 128 160 157 255 
-38 275 576 132 164 161 255 
-37 274 575 130 160 158 255 
-36 274 575 129 159 157 255 
-35 274 575 130 160 158 255 
-34 274 575 130 160 158 255 
-33 274 574 131 161 159 255 
-32 273 573 130 160 158 255 
-31 273 573 132 162 160 255 
-30 273 573 134 164 162 255 
-29 273 572 134 163 159 255 
-28 272 571 134 163 159 255 
-27 272 570 130 160 160 255 
-26 272 570 134 164 164 255 
-25 272 569 134 164 164 255 
-25 272 569 131 161 161 255 
-24 272 569 136 166 166 255 
-23 271 568 133 163 163 255 
-22 271 568 132 162 162 255 
-21 271 568 138 168 168 255 
-20 271 568 135 165 165 255 
-19 271 568 137 167 167 255 
-18 271 568 139 169 169 255 
-17 271 568 143 173 173 255 
-16 271 568 142 172 172 255 
-15 271 567 133 163 163 255 
-15 271 567 129 159 159 255 
-14 271 568 130 160 160 255 
-13 272 569 131 156 160 255 
-12 273 571 130 155 159 255 
-11 273 573 93 120 111 255 
-10 275 576 120 147 138 255 
-9 276 579 148 174 171 255 
-8 278 582 147 173 170 255 
-8 279 585 145 170 174 255 
-7 280 587 145 170 174 255 
-6 281 588 146 172 171 255 
-5 281 588 145 171 170 255 
-4 281 588 145 174 170 255 
-3 281 588 148 177 173 255 
-2 281 588 147 175 176 255 
-1 280 587 144 172 173 255 
0 280 587 148 176 177 255 
1 281 588 155 183 184 255 
2 281 588 158 193 189 255 
3 281 589 151 186 182 255 
