ply
format ascii 1.0
comment VCGLIB generated
element vertex 1724
property float x
property float y
property float z
property uchar red
property uchar green
property uchar blue
property uchar alpha
element face 0
property list uchar int vertex_indices
end_header
-28 206 555 36 55 51 255 
-27 204 550 26 52 43 255 
-25 203 546 54 80 71 255 
-24 201 543 57 76 72 255 
-23 200 540 66 85 81 255 
-22 199 536 72 88 87 255 
-21 197 532 72 88 87 255 
-20 196 528 67 85 87 255 
-19 194 524 70 88 90 255 
-19 194 522 94 120 121 255 
-18 193 521 141 167 168 255 
-17 193 520 170 198 202 255 
-16 193 520 190 218 222 255 
-15 193 520 197 220 228 255 
-14 193 520 195 218 226 255 
-13 193 521 195 213 225 255 
-13 193 521 195 213 225 255 
-12 193 521 199 223 227 255 
-11 194 522 205 229 233 255 
-10 194 523 207 230 236 255 
-9 194 523 207 230 236 255 
-8 194 523 209 232 238 255 
-8 194 524 207 230 236 255 
-7 194 524 205 228 234 255 
-6 194 524 207 230 236 255 
-5 194 524 206 229 235 255 
-4 194 524 204 227 233 255 
-3 195 525 205 228 234 255 
-3 195 525 205 228 234 255 
-2 195 526 204 227 233 255 
-1 195 526 204 227 233 255 
0 195 526 204 227 233 255 
1 196 527 202 225 231 255 
2 196 527 205 225 232 255 
2 196 527 204 224 231 255 
3 196 527 208 228 235 255 
4 196 528 207 227 234 255 
5 196 529 206 226 233 255 
6 196 529 203 223 230 255 
7 196 529 196 216 223 255 
8 197 530 197 217 224 255 
8 197 530 202 225 231 255 
9 197 530 206 229 235 255 
10 197 530 207 231 235 255 
11 197 530 208 232 236 255 
12 197 531 207 231 235 255 
13 197 531 205 229 233 255 
14 197 531 206 230 234 255 
14 197 532 204 228 232 255 
15 197 532 205 228 234 255 
16 197 532 205 228 234 255 
17 198 533 208 231 237 255 
18 198 534 210 233 239 255 
19 198 534 207 231 235 255 
20 198 534 204 228 232 255 
21 199 535 204 228 232 255 
21 199 536 207 231 235 255 
22 199 536 205 229 233 255 
23 199 536 206 230 234 255 
24 199 537 207 231 233 255 
25 199 537 204 228 230 255 
26 199 537 207 228 231 255 
27 199 537 203 224 227 255 
28 200 538 207 228 231 255 
28 200 538 205 226 229 255 
29 200 538 204 225 230 255 
30 200 539 211 232 237 255 
31 200 539 209 230 235 255 
32 200 540 209 230 235 255 
33 200 540 211 232 237 255 
34 200 540 206 227 232 255 
35 201 541 205 226 231 255 
36 201 541 208 229 234 255 
36 201 542 210 231 236 255 
37 201 542 208 229 234 255 
38 201 542 206 227 232 255 
39 201 543 209 230 235 255 
40 201 543 211 232 237 255 
41 201 543 209 230 235 255 
42 202 544 207 228 233 255 
43 202 544 205 226 231 255 
44 202 545 208 229 234 255 
45 202 545 208 229 234 255 
46 203 546 206 227 232 255 
46 203 546 207 228 233 255 
47 202 546 206 227 232 255 
48 202 546 206 227 232 255 
49 203 547 211 232 237 255 
50 203 547 214 235 240 255 
51 203 548 208 228 235 255 
52 204 549 206 226 233 255 
53 204 549 204 224 231 255 
54 204 549 203 223 230 255 
55 204 549 207 227 234 255 
56 204 550 209 229 236 255 
56 204 550 209 229 236 255 
57 204 550 209 229 236 255 
58 204 551 209 229 236 255 
59 204 551 208 228 235 255 
60 204 551 208 228 235 255 
61 205 552 204 224 231 255 
62 205 552 201 221 228 255 
63 205 552 204 224 231 255 
64 205 553 210 230 237 255 
65 205 554 212 232 239 255 
66 205 554 214 234 241 255 
67 205 554 213 233 240 255 
68 206 555 211 231 238 255 
69 206 555 209 229 236 255 
70 206 556 210 230 237 255 
70 206 556 212 232 239 255 
71 206 556 211 231 238 255 
72 206 556 208 228 235 255 
73 206 557 205 225 232 255 
74 206 557 203 223 230 255 
75 206 557 204 224 231 255 
76 206 557 207 227 234 255 
77 206 557 210 230 237 255 
78 207 558 211 231 238 255 
79 207 559 211 231 238 255 
80 207 559 210 230 237 255 
81 207 559 211 231 238 255 
82 207 559 211 231 238 255 
83 207 560 214 234 241 255 
83 207 560 213 233 240 255 
84 207 560 209 229 236 255 
85 207 560 211 231 238 255 
86 207 560 212 232 239 255 
87 207 559 209 229 236 255 
88 207 559 209 227 231 255 
89 207 558 149 167 171 255 
-51 241 648 84 91 97 255 
-50 239 643 70 88 90 255 
-48 237 637 66 84 86 255 
-47 236 633 68 92 96 255 
-45 234 628 60 84 88 255 
-44 232 623 52 80 81 255 
-43 230 617 56 84 85 255 
-41 228 611 74 94 95 255 
-40 226 606 44 64 65 255 
-38 223 598 49 74 71 255 
-37 221 592 70 95 92 255 
-36 219 587 75 97 95 255 
-35 218 584 64 86 84 255 
-34 216 579 69 87 87 255 
-32 214 575 73 91 91 255 
-31 213 571 68 90 87 255 
-30 211 567 70 92 89 255 
-29 209 562 75 94 90 255 
-28 208 557 45 64 60 255 
-27 206 552 24 50 41 255 
-26 204 547 58 84 75 255 
-25 203 544 65 86 81 255 
-24 202 541 75 96 91 255 
-22 200 537 74 93 91 255 
-21 199 533 69 88 86 255 
-20 197 529 73 93 94 255 
-19 196 525 85 105 106 255 
-19 195 523 96 122 123 255 
-18 194 522 141 167 168 255 
-17 194 520 172 201 205 255 
-16 194 520 190 219 223 255 
-15 194 520 196 220 230 255 
-14 194 520 196 220 230 255 
-13 194 521 200 220 231 255 
-13 194 521 196 216 227 255 
-12 195 522 198 218 225 255 
-11 195 522 203 223 230 255 
-10 195 523 206 226 233 255 
-9 195 523 207 227 234 255 
-8 195 524 209 229 236 255 
-8 195 524 209 229 236 255 
-7 195 524 208 228 235 255 
-6 196 525 207 227 234 255 
-5 196 525 211 231 238 255 
-4 196 525 207 227 234 255 
-3 196 526 208 228 235 255 
-3 196 526 209 229 236 255 
-2 196 527 206 226 233 255 
-1 196 527 206 226 233 255 
0 196 527 207 227 236 255 
1 197 528 206 226 235 255 
2 197 528 208 228 235 255 
2 197 529 206 226 233 255 
3 197 529 209 229 236 255 
4 197 529 208 228 235 255 
5 197 529 205 225 232 255 
6 197 530 203 223 230 255 
7 197 530 200 220 227 255 
8 198 531 203 223 230 255 
8 198 531 203 227 231 255 
9 198 531 204 228 232 255 
10 198 531 202 226 230 255 
11 198 531 202 226 230 255 
12 198 531 202 226 230 255 
13 198 532 201 225 229 255 
14 198 532 204 228 232 255 
14 198 532 203 227 231 255 
15 199 533 205 228 234 255 
16 199 533 204 227 233 255 
17 199 534 206 229 235 255 
18 199 534 208 231 237 255 
19 199 535 206 229 235 255 
20 199 535 201 224 230 255 
21 200 536 203 227 231 255 
21 200 536 207 231 235 255 
22 200 536 206 230 234 255 
23 200 537 206 230 234 255 
24 200 537 211 232 237 255 
25 200 537 211 232 237 255 
26 200 537 211 232 235 255 
27 200 538 203 224 227 255 
28 200 538 204 225 228 255 
28 200 538 203 224 227 255 
29 201 539 206 227 232 255 
30 201 539 213 234 239 255 
31 201 540 208 229 234 255 
32 201 540 206 227 232 255 
33 202 541 210 231 236 255 
34 202 541 205 226 231 255 
35 202 542 204 225 230 255 
36 202 542 209 230 235 255 
36 202 542 209 230 235 255 
37 202 543 208 229 234 255 
38 202 543 208 229 234 255 
39 202 543 212 233 238 255 
40 203 544 212 233 238 255 
41 203 544 208 229 234 255 
42 203 544 208 229 234 255 
43 203 544 207 228 233 255 
44 203 545 211 232 237 255 
45 203 546 209 230 235 255 
46 203 546 205 226 231 255 
46 204 547 206 227 232 255 
47 204 547 207 228 233 255 
48 204 547 206 227 232 255 
49 204 547 211 232 237 255 
50 204 548 214 235 240 255 
51 204 548 210 230 237 255 
52 204 549 207 227 234 255 
53 204 549 205 225 232 255 
54 204 549 205 225 232 255 
55 204 549 205 225 232 255 
55 204 549 207 227 234 255 
56 205 550 208 228 235 255 
57 205 550 208 228 235 255 
58 205 550 207 227 234 255 
59 205 550 208 228 235 255 
60 205 551 206 226 233 255 
61 206 552 205 225 232 255 
62 206 552 207 227 234 255 
63 206 553 208 228 235 255 
64 206 554 207 227 234 255 
65 206 554 207 227 234 255 
66 206 554 209 229 236 255 
67 207 555 209 229 236 255 
68 207 555 209 229 236 255 
69 207 556 208 228 235 255 
70 207 557 208 228 235 255 
71 207 557 209 229 236 255 
71 207 557 206 226 233 255 
72 207 557 202 222 229 255 
73 208 558 202 222 229 255 
74 208 558 203 223 230 255 
75 208 558 206 226 233 255 
76 208 558 210 230 237 255 
77 208 558 213 233 240 255 
78 208 558 214 234 241 255 
79 208 560 213 233 240 255 
80 208 559 212 232 239 255 
81 208 560 215 235 242 255 
82 208 560 214 234 241 255 
83 208 560 214 234 241 255 
83 208 560 213 233 240 255 
84 208 560 210 230 237 255 
85 208 560 209 229 236 255 
86 208 560 209 229 236 255 
87 208 559 207 227 234 255 
88 208 559 203 221 225 255 
89 208 559 149 167 171 255 
-51 243 650 86 95 100 255 
-50 242 646 73 93 94 255 
-48 239 640 65 85 86 255 
-47 237 634 61 81 82 255 
-46 236 630 62 82 83 255 
-44 233 624 62 88 87 255 
-43 231 618 55 81 80 255 
-41 229 612 73 91 93 255 
-40 227 607 49 67 69 255 
-39 224 600 45 67 65 255 
-37 222 594 71 93 91 255 
-36 220 589 85 105 104 255 
-35 219 586 69 89 88 255 
-34 217 581 72 88 87 255 
-32 215 576 72 88 87 255 
-31 214 572 73 95 92 255 
-30 212 568 72 94 91 255 
-29 211 563 70 86 83 255 
-28 209 559 59 75 72 255 
-27 207 554 36 61 55 255 
-26 205 549 52 77 71 255 
-25 204 545 58 78 76 255 
-24 203 542 74 94 92 255 
-22 201 537 79 97 97 255 
-21 199 533 75 93 93 255 
-20 198 530 76 96 97 255 
-19 197 526 82 102 103 255 
-19 196 523 91 116 120 255 
-18 195 522 137 162 166 255 
-17 195 521 169 197 201 255 
-16 195 521 187 215 219 255 
-15 195 521 194 219 226 255 
-14 195 521 195 220 227 255 
-13 195 521 202 222 233 255 
-13 195 522 202 222 233 255 
-12 195 522 201 221 228 255 
-11 196 523 205 225 232 255 
-10 196 524 208 228 235 255 
-9 196 524 208 228 235 255 
-8 196 524 209 229 236 255 
-8 196 525 210 230 237 255 
-7 196 525 210 230 237 255 
-6 196 525 210 230 237 255 
-5 197 526 210 230 237 255 
-4 197 526 207 227 234 255 
-3 197 526 210 230 237 255 
-3 197 527 212 232 239 255 
-2 197 527 208 228 235 255 
-1 197 527 206 226 233 255 
0 198 528 207 227 234 255 
1 198 528 205 225 232 255 
2 198 529 209 229 236 255 
2 198 529 206 226 233 255 
3 198 529 208 228 235 255 
4 198 529 208 228 235 255 
5 198 530 206 226 233 255 
6 198 530 204 224 231 255 
7 198 530 202 223 228 255 
8 199 531 204 225 230 255 
8 199 531 204 228 232 255 
9 199 531 203 227 231 255 
10 199 531 202 226 230 255 
11 199 531 202 226 230 255 
12 199 532 200 224 228 255 
13 199 532 199 223 227 255 
14 199 532 202 226 230 255 
14 199 532 201 225 229 255 
15 199 533 203 226 232 255 
16 199 533 205 228 234 255 
17 200 534 208 231 237 255 
18 200 535 206 229 235 255 
19 201 536 203 226 232 255 
20 201 536 203 226 232 255 
21 201 537 205 228 234 255 
21 201 537 207 230 236 255 
22 201 537 207 231 235 255 
23 201 537 206 230 234 255 
24 201 538 210 231 236 255 
25 201 538 212 233 238 255 
26 201 538 212 233 238 255 
27 201 538 205 226 231 255 
28 202 539 199 223 227 255 
28 202 539 197 221 225 255 
29 202 539 202 223 228 255 
30 202 540 210 231 236 255 
31 202 541 208 229 234 255 
32 202 541 204 225 230 255 
33 202 541 208 229 234 255 
34 203 542 209 230 235 255 
35 203 542 207 228 233 255 
36 203 543 209 230 235 255 
37 203 543 207 228 233 255 
37 204 544 208 229 234 255 
38 204 544 209 230 235 255 
39 204 544 212 233 238 255 
40 203 544 210 231 236 255 
41 204 545 206 227 232 255 
42 204 545 208 229 234 255 
43 204 545 210 231 236 255 
44 204 546 214 235 240 255 
45 204 546 210 231 236 255 
46 205 547 206 227 232 255 
46 205 547 207 228 233 255 
47 205 547 208 229 234 255 
48 205 548 208 229 234 255 
49 205 548 209 230 235 255 
50 205 549 209 230 235 255 
51 205 549 207 227 234 255 
52 206 550 205 225 232 255 
53 206 550 205 225 232 255 
54 206 550 205 225 232 255 
55 206 550 204 224 231 255 
56 206 550 205 225 232 255 
57 206 551 206 226 233 255 
57 206 551 206 226 233 255 
58 206 551 206 226 233 255 
59 206 551 209 229 236 255 
60 206 551 208 228 235 255 
61 206 552 208 228 235 255 
62 207 553 211 231 238 255 
63 207 553 210 230 237 255 
64 207 554 206 226 233 255 
65 207 555 204 224 231 255 
66 207 555 209 229 236 255 
67 207 555 209 229 236 255 
68 208 556 208 228 235 255 
69 208 556 208 228 235 255 
70 208 557 210 230 237 255 
71 208 557 211 231 238 255 
71 208 557 208 228 235 255 
72 208 557 206 226 233 255 
73 209 558 205 225 232 255 
74 209 558 207 227 234 255 
75 209 558 209 229 236 255 
76 209 558 211 231 238 255 
77 209 559 214 234 241 255 
78 209 559 214 234 241 255 
79 209 560 213 233 240 255 
80 209 560 215 235 242 255 
81 210 561 214 234 241 255 
82 210 561 214 234 241 255 
83 210 561 214 234 241 255 
84 210 561 213 233 240 255 
85 210 561 211 231 238 255 
85 210 561 210 230 237 255 
86 209 560 208 228 235 255 
87 209 560 206 226 233 255 
88 209 559 198 216 220 255 
89 209 559 129 147 151 255 
-51 244 651 85 96 100 255 
-50 243 647 77 98 99 255 
-48 241 641 76 97 98 255 
-47 239 636 71 91 92 255 
-46 237 630 69 89 90 255 
-44 234 624 82 108 107 255 
-43 232 618 70 96 95 255 
-41 230 612 70 88 90 255 
-40 228 608 59 77 79 255 
-39 226 601 48 68 67 255 
-37 224 595 75 95 94 255 
-36 222 591 79 99 97 255 
-35 221 587 57 77 75 255 
-34 219 582 65 81 80 255 
-33 217 578 77 93 92 255 
-31 215 573 73 95 92 255 
-30 214 569 65 87 84 255 
-29 212 564 65 81 80 255 
-28 210 560 66 82 81 255 
-27 209 555 40 60 58 255 
-26 207 550 55 75 73 255 
-25 205 546 71 89 89 255 
-24 203 541 83 101 101 255 
-22 202 537 83 99 99 255 
-21 200 533 79 95 95 255 
-20 199 530 80 100 101 255 
-19 198 526 81 101 102 255 
-19 197 524 88 112 114 255 
-18 196 522 140 164 166 255 
-17 196 522 173 198 203 255 
-16 196 521 187 212 217 255 
-15 196 521 196 221 228 255 
-14 196 522 194 219 226 255 
-13 196 522 201 221 230 255 
-13 196 522 204 224 233 255 
-12 197 523 203 223 230 255 
-11 197 524 205 225 232 255 
-10 197 524 206 226 233 255 
-9 197 524 205 225 232 255 
-8 197 524 206 226 233 255 
-8 197 525 205 225 232 255 
-7 197 525 205 225 232 255 
-6 197 525 207 227 234 255 
-5 198 526 207 227 234 255 
-4 198 526 206 226 233 255 
-3 198 526 209 229 236 255 
-3 198 527 211 231 238 255 
-2 198 527 208 228 235 255 
-1 198 527 206 226 233 255 
0 198 528 206 226 233 255 
1 199 529 204 224 231 255 
2 199 529 207 227 234 255 
2 199 529 204 224 231 255 
3 199 529 206 226 233 255 
4 199 530 209 229 236 255 
5 199 530 209 229 236 255 
6 200 531 206 226 233 255 
7 200 531 204 224 231 255 
8 200 531 204 224 231 255 
8 200 531 204 227 233 255 
9 200 532 202 225 231 255 
10 200 532 205 228 234 255 
11 200 532 206 229 235 255 
12 200 532 204 228 232 255 
13 200 533 203 227 231 255 
14 200 533 204 228 232 255 
14 200 533 205 229 233 255 
15 200 533 204 227 233 255 
16 201 534 204 227 233 255 
17 201 535 210 230 237 255 
18 201 535 210 230 237 255 
19 201 536 207 227 234 255 
20 202 537 208 228 235 255 
21 202 538 208 231 237 255 
22 202 538 206 229 235 255 
22 202 538 209 232 238 255 
23 202 538 209 232 238 255 
24 202 538 210 233 239 255 
25 203 539 212 235 241 255 
26 203 539 210 234 238 255 
27 203 539 209 233 237 255 
28 203 539 204 228 232 255 
28 203 539 201 225 229 255 
29 203 540 202 223 228 255 
30 203 541 206 227 232 255 
31 203 541 209 230 235 255 
32 203 541 208 229 234 255 
33 203 541 209 230 235 255 
34 204 542 209 230 235 255 
35 204 542 207 228 233 255 
36 204 543 207 228 233 255 
37 204 543 209 230 235 255 
37 204 544 208 229 234 255 
38 204 544 207 228 233 255 
39 205 545 208 229 234 255 
40 205 545 207 228 233 255 
41 205 545 202 223 228 255 
42 205 546 203 224 229 255 
43 205 546 206 227 232 255 
44 205 547 213 234 239 255 
45 205 547 209 230 235 255 
46 206 548 206 227 232 255 
47 206 548 205 226 231 255 
47 206 548 207 228 233 255 
48 206 549 209 230 235 255 
49 206 549 208 229 234 255 
50 206 549 208 229 234 255 
51 206 549 204 224 231 255 
52 207 550 203 223 230 255 
53 207 551 204 224 231 255 
54 207 551 205 225 232 255 
55 207 551 204 224 231 255 
56 207 551 204 224 231 255 
57 207 551 204 224 231 255 
58 207 552 203 223 230 255 
58 207 552 207 227 234 255 
59 207 552 210 230 237 255 
60 208 553 209 229 236 255 
61 208 553 207 227 234 255 
62 208 553 208 228 235 255 
63 208 554 209 229 236 255 
64 208 555 207 227 234 255 
65 208 555 205 225 232 255 
66 208 555 207 227 234 255 
67 209 556 206 226 233 255 
68 209 556 207 227 234 255 
69 209 557 208 228 235 255 
70 209 557 210 230 237 255 
71 209 558 210 230 237 255 
72 209 558 210 230 237 255 
72 209 558 209 229 236 255 
73 209 558 209 229 236 255 
74 209 558 210 230 237 255 
75 209 558 211 231 238 255 
76 210 559 210 230 237 255 
77 210 559 211 231 238 255 
78 210 559 213 233 240 255 
79 210 560 214 234 241 255 
80 211 561 216 236 243 255 
81 211 561 214 234 241 255 
82 211 561 214 234 241 255 
83 211 561 214 234 241 255 
84 210 561 213 233 240 255 
84 210 561 211 231 238 255 
85 210 561 210 230 237 255 
86 210 561 209 229 236 255 
87 210 560 207 227 234 255 
88 210 560 195 215 216 255 
89 210 559 115 135 136 255 
89 209 558 77 97 98 255 
-51 246 653 81 95 98 255 
-50 245 649 76 100 102 255 
-49 243 643 69 93 95 255 
-47 240 637 74 94 95 255 
-46 238 631 79 99 100 255 
-44 236 625 78 104 105 255 
-43 233 618 80 106 107 255 
-41 231 613 79 98 102 255 
-40 229 608 71 90 94 255 
-39 227 603 52 73 74 255 
-37 225 596 75 96 97 255 
-36 223 592 63 85 83 255 
-35 222 589 76 98 96 255 
-34 220 584 75 93 93 255 
-33 218 578 79 97 97 255 
-31 217 574 76 101 98 255 
-30 215 569 61 86 83 255 
-29 213 565 60 78 78 255 
-28 212 561 65 83 83 255 
-27 210 556 56 75 73 255 
-26 208 551 64 83 81 255 
-25 206 546 78 94 94 255 
-24 204 542 78 94 94 255 
-23 203 538 76 92 92 255 
-21 201 534 80 96 96 255 
-20 200 530 78 96 98 255 
-20 199 527 65 83 85 255 
-19 198 525 82 103 106 255 
-18 198 524 143 164 167 255 
-17 197 522 174 198 202 255 
-16 197 522 182 206 210 255 
-15 197 522 195 218 224 255 
-14 197 522 196 219 225 255 
-14 197 523 200 220 227 255 
-13 197 523 204 224 231 255 
-12 198 524 200 220 229 255 
-11 198 524 203 223 232 255 
-10 198 525 204 224 233 255 
-9 198 525 205 225 234 255 
-8 198 525 207 227 236 255 
-8 198 525 206 226 235 255 
-7 198 526 206 226 233 255 
-6 198 526 208 228 235 255 
-5 198 526 206 226 233 255 
-4 199 527 204 224 231 255 
-3 199 527 204 224 231 255 
-3 199 527 206 226 233 255 
-2 199 528 205 225 232 255 
-1 199 528 206 226 233 255 
0 200 529 206 226 233 255 
1 200 529 205 225 232 255 
2 200 530 205 228 234 255 
2 200 530 203 226 232 255 
3 200 530 204 227 233 255 
4 200 530 208 231 237 255 
5 200 531 208 231 237 255 
6 201 532 205 228 234 255 
7 201 532 208 228 235 255 
8 201 532 208 228 235 255 
8 201 532 208 228 235 255 
9 201 532 205 225 232 255 
10 201 533 210 230 237 255 
11 201 533 211 231 238 255 
12 201 533 208 228 235 255 
13 201 533 206 226 233 255 
14 201 533 205 225 232 255 
14 201 533 206 226 233 255 
15 201 534 206 229 235 255 
16 202 535 200 223 229 255 
17 202 535 206 226 233 255 
18 202 536 214 234 241 255 
19 202 536 213 233 240 255 
20 203 537 210 230 237 255 
21 203 538 207 230 236 255 
22 203 538 204 227 233 255 
22 203 539 204 227 233 255 
23 203 539 208 231 237 255 
24 203 539 211 234 240 255 
25 204 540 211 234 240 255 
26 204 540 207 230 236 255 
27 204 540 212 235 241 255 
28 204 540 206 231 236 255 
29 204 541 202 227 232 255 
29 204 541 201 222 227 255 
30 204 541 200 221 226 255 
31 204 542 207 228 233 255 
32 204 542 214 235 240 255 
33 204 542 214 235 240 255 
34 204 542 210 231 236 255 
35 205 543 207 228 233 255 
36 205 543 209 230 235 255 
37 205 544 209 230 235 255 
38 206 545 207 228 233 255 
38 206 545 204 225 230 255 
39 206 545 206 227 232 255 
40 206 546 208 229 234 255 
41 206 546 204 225 230 255 
42 206 546 202 223 228 255 
43 206 547 203 224 229 255 
44 207 548 208 228 235 255 
45 207 548 205 225 232 255 
46 207 548 205 225 232 255 
47 207 548 203 223 230 255 
48 207 549 205 225 232 255 
48 207 549 208 228 235 255 
49 207 549 208 228 235 255 
50 207 549 209 229 236 255 
51 207 549 206 226 233 255 
52 207 550 204 224 231 255 
53 208 551 203 224 229 255 
54 208 551 205 226 231 255 
55 208 551 206 227 232 255 
56 208 552 206 227 232 255 
57 208 552 205 226 231 255 
58 208 552 203 224 229 255 
58 209 553 210 230 237 255 
59 209 553 211 231 238 255 
60 209 553 209 229 236 255 
61 209 554 205 225 232 255 
62 209 554 204 224 231 255 
63 209 554 208 228 235 255 
64 209 555 210 230 237 255 
65 210 556 209 229 236 255 
66 210 556 206 226 233 255 
67 210 556 206 226 233 255 
68 210 557 209 229 236 255 
69 210 557 212 232 239 255 
70 210 558 212 232 239 255 
71 210 558 211 231 238 255 
72 210 558 212 232 239 255 
73 211 559 211 231 238 255 
73 210 558 210 230 237 255 
74 210 558 210 230 237 255 
75 211 559 209 229 236 255 
76 211 559 208 228 235 255 
77 211 559 209 229 236 255 
78 211 560 212 232 239 255 
79 211 560 215 235 242 255 
80 211 561 216 236 243 255 
81 212 562 217 237 244 255 
82 212 562 216 236 243 255 
83 212 562 216 236 243 255 
84 211 561 214 234 241 255 
84 211 561 211 231 238 255 
85 211 561 211 231 238 255 
86 211 561 211 231 238 255 
87 211 561 208 228 235 255 
88 211 560 199 220 221 255 
89 211 560 109 130 131 255 
-52 248 655 77 92 97 255 
-50 247 651 79 94 99 255 
-49 245 646 75 90 95 255 
-47 242 639 74 92 96 255 
-46 239 632 82 100 104 255 
-44 237 627 81 99 103 255 
-43 235 621 79 97 101 255 
-42 233 615 79 97 101 255 
-40 231 611 81 99 103 255 
-39 229 605 60 78 80 255 
-38 227 599 79 97 99 255 
-36 225 593 76 96 97 255 
-35 223 589 74 94 95 255 
-34 222 585 70 90 91 255 
-33 220 580 74 94 95 255 
-31 218 575 80 100 101 255 
-30 216 570 68 88 89 255 
-29 214 566 57 77 78 255 
-28 213 562 65 85 86 255 
-27 211 557 69 87 87 255 
-26 209 552 79 97 97 255 
-25 207 547 82 98 98 255 
-24 206 543 80 96 96 255 
-23 204 539 78 96 98 255 
-22 203 535 72 90 92 255 
-21 202 532 79 98 104 255 
-20 200 528 80 99 105 255 
-19 199 526 82 103 108 255 
-18 199 525 136 157 162 255 
-17 199 524 174 193 199 255 
-16 198 523 182 201 207 255 
-15 198 523 198 218 225 255 
-14 198 523 203 223 230 255 
-13 198 523 202 224 235 255 
-13 199 524 206 228 239 255 
-12 199 525 204 224 233 255 
-11 199 525 203 223 232 255 
-10 199 525 203 223 230 255 
-9 199 526 204 224 231 255 
-9 199 526 206 226 233 255 
-8 199 526 205 225 232 255 
-7 199 526 205 225 232 255 
-6 199 526 208 228 235 255 
-5 199 526 205 225 232 255 
-4 200 527 206 226 233 255 
-3 200 527 207 227 234 255 
-3 200 528 207 227 234 255 
-2 200 528 208 228 235 255 
-1 200 528 209 229 236 255 
0 200 529 207 227 234 255 
1 201 530 205 225 232 255 
2 201 530 206 226 233 255 
2 201 530 204 224 231 255 
3 201 531 209 229 236 255 
4 201 531 208 228 235 255 
5 201 531 208 228 235 255 
6 202 532 207 227 234 255 
7 202 532 208 232 236 255 
8 202 532 210 234 238 255 
8 202 532 205 229 233 255 
9 202 532 207 231 235 255 
10 202 533 208 232 236 255 
11 202 533 207 231 235 255 
12 202 533 205 229 233 255 
13 202 533 202 226 230 255 
14 202 533 199 223 227 255 
15 202 534 201 225 229 255 
15 203 535 201 221 228 255 
16 203 535 202 222 229 255 
17 203 536 202 222 229 255 
18 203 536 212 232 239 255 
19 203 537 209 229 236 255 
20 204 538 204 224 231 255 
21 204 538 198 221 227 255 
22 204 539 200 223 229 255 
22 204 539 204 227 233 255 
23 204 539 207 230 236 255 
24 205 540 209 232 238 255 
25 205 540 206 229 235 255 
26 205 541 207 231 235 255 
27 205 541 204 228 232 255 
28 205 541 206 230 234 255 
29 205 541 207 231 235 255 
30 205 542 204 224 231 255 
30 205 542 209 229 236 255 
31 205 542 210 230 237 255 
32 206 543 211 231 238 255 
33 206 543 212 232 239 255 
34 206 543 207 227 234 255 
35 206 543 204 224 231 255 
36 206 544 210 230 237 255 
37 206 545 213 233 240 255 
38 206 545 206 226 233 255 
38 206 545 201 221 228 255 
39 207 546 202 222 229 255 
40 207 546 198 218 225 255 
41 207 546 203 223 230 255 
42 207 547 201 221 228 255 
43 207 547 201 221 228 255 
44 207 547 200 220 227 255 
45 208 549 198 218 225 255 
46 208 549 205 225 232 255 
47 208 549 209 229 236 255 
48 208 549 203 223 230 255 
48 208 550 203 223 230 255 
49 208 550 211 231 238 255 
50 208 550 212 232 239 255 
51 208 550 211 231 238 255 
52 209 551 206 226 233 255 
53 209 551 197 217 224 255 
54 209 551 200 220 227 255 
55 209 552 203 223 230 255 
56 209 552 202 222 229 255 
57 209 553 205 225 232 255 
58 209 553 205 225 232 255 
58 209 553 206 226 233 255 
59 210 554 207 227 234 255 
60 210 554 209 229 236 255 
61 210 554 209 229 236 255 
62 210 555 208 228 235 255 
63 210 555 207 227 234 255 
64 210 555 209 229 236 255 
65 210 556 211 231 238 255 
66 210 556 208 228 235 255 
67 210 556 208 228 235 255 
68 211 557 204 224 231 255 
69 211 557 204 224 231 255 
70 211 558 210 230 237 255 
71 211 558 214 234 241 255 
72 211 558 214 234 241 255 
73 212 559 213 233 240 255 
73 212 559 205 225 232 255 
74 212 559 206 226 233 255 
75 212 559 208 228 235 255 
76 212 560 209 229 236 255 
77 212 560 207 227 234 255 
78 212 560 210 230 237 255 
79 212 561 215 235 242 255 
80 212 561 211 231 238 255 
81 213 562 213 233 240 255 
82 213 563 215 235 242 255 
83 213 563 215 235 242 255 
84 213 563 214 234 241 255 
85 213 563 213 233 240 255 
86 213 563 213 233 240 255 
86 213 562 214 234 241 255 
87 213 562 213 233 240 255 
88 212 561 202 227 224 255 
89 212 561 104 129 126 255 
-50 248 653 74 92 96 255 
-49 246 648 67 85 89 255 
-47 244 641 67 85 89 255 
-46 241 635 73 91 95 255 
-44 239 628 75 93 97 255 
-43 237 623 80 98 102 255 
-42 234 616 70 88 92 255 
-40 233 612 73 91 95 255 
-39 230 606 69 87 91 255 
-38 228 600 68 86 90 255 
-36 226 595 72 90 92 255 
-35 224 590 78 96 98 255 
-34 223 585 70 88 90 255 
-33 221 580 81 99 101 255 
-32 219 576 74 92 94 255 
-30 218 572 70 88 90 255 
-29 216 568 62 80 82 255 
-28 215 564 59 77 79 255 
-27 213 559 73 91 91 255 
-26 211 554 82 100 100 255 
-25 209 549 88 104 104 255 
-24 207 544 86 102 102 255 
-23 206 541 79 97 99 255 
-22 204 537 74 92 94 255 
-21 203 533 77 96 102 255 
-20 202 530 82 101 107 255 
-19 200 527 88 109 114 255 
-18 200 525 132 153 158 255 
-17 199 524 173 193 200 255 
-16 199 524 184 204 211 255 
-15 199 524 194 214 223 255 
-14 199 524 203 223 232 255 
-14 199 524 205 227 238 255 
-13 200 525 200 222 233 255 
-12 200 525 199 219 228 255 
-11 200 525 204 224 233 255 
-10 200 526 207 227 234 255 
-9 200 526 207 227 234 255 
-9 200 526 207 227 234 255 
-8 200 526 206 226 233 255 
-7 201 527 203 223 230 255 
-6 201 527 200 220 227 255 
-5 201 527 201 221 228 255 
-4 201 527 204 224 231 255 
-3 201 528 208 228 235 255 
-3 201 529 210 230 237 255 
-2 201 529 210 230 237 255 
-1 201 529 210 230 237 255 
0 202 530 210 230 237 255 
1 202 530 207 227 234 255 
2 202 531 206 226 233 255 
2 202 531 206 226 233 255 
3 202 531 208 228 235 255 
4 202 531 205 225 232 255 
5 202 532 206 226 233 255 
6 202 532 204 224 231 255 
7 203 533 204 224 231 255 
8 203 533 205 225 232 255 
8 203 533 208 232 236 255 
9 203 533 208 232 236 255 
10 203 533 208 232 236 255 
11 203 533 204 228 232 255 
12 203 534 203 227 231 255 
13 203 534 203 227 231 255 
14 203 534 203 227 231 255 
15 204 535 206 230 234 255 
15 204 535 206 226 233 255 
16 204 537 205 225 232 255 
17 204 537 201 221 228 255 
18 204 537 207 227 234 255 
19 205 538 206 226 233 255 
20 205 538 205 225 232 255 
21 205 538 202 222 229 255 
22 205 539 203 223 230 255 
22 205 539 207 227 234 255 
23 205 539 210 230 237 255 
24 205 539 209 229 236 255 
25 205 540 203 223 230 255 
26 206 541 204 225 230 255 
27 206 541 202 223 228 255 
28 206 542 205 229 233 255 
29 206 542 210 234 238 255 
30 206 542 207 227 234 255 
30 206 542 208 228 235 255 
31 207 543 207 227 234 255 
32 207 543 206 226 233 255 
33 207 543 208 228 235 255 
34 207 544 206 226 233 255 
35 207 544 207 227 234 255 
36 207 544 211 231 238 255 
37 207 545 213 233 240 255 
38 208 546 210 230 237 255 
38 208 546 207 227 234 255 
39 208 546 208 228 235 255 
40 208 547 202 222 229 255 
41 208 547 205 225 232 255 
42 208 547 207 227 234 255 
43 208 548 208 228 235 255 
44 208 548 209 229 236 255 
45 209 549 208 228 235 255 
46 209 550 210 230 237 255 
47 209 550 211 231 238 255 
48 209 550 207 227 234 255 
48 209 550 207 227 234 255 
49 210 551 212 232 239 255 
50 210 551 215 235 242 255 
51 209 550 212 232 239 255 
52 210 551 207 227 234 255 
53 210 551 200 220 227 255 
54 210 552 201 221 228 255 
55 210 552 205 225 232 255 
56 210 553 204 224 231 255 
57 211 554 206 226 233 255 
58 211 554 207 227 234 255 
59 211 554 204 224 231 255 
59 211 554 207 227 234 255 
60 211 554 208 228 235 255 
61 211 554 207 227 234 255 
62 211 555 207 227 234 255 
63 211 555 207 227 234 255 
64 211 555 208 228 235 255 
65 211 556 211 231 238 255 
66 212 557 207 227 234 255 
67 212 557 207 227 234 255 
68 212 557 206 226 233 255 
69 212 558 207 227 234 255 
70 212 558 211 231 238 255 
71 212 559 214 234 241 255 
72 212 559 214 234 241 255 
73 212 559 213 233 240 255 
74 213 560 208 228 235 255 
74 213 560 202 222 229 255 
75 213 560 204 224 231 255 
76 213 560 208 228 235 255 
77 213 561 209 229 236 255 
78 213 561 212 232 239 255 
79 213 561 214 234 241 255 
80 214 562 211 231 238 255 
81 214 563 211 231 238 255 
82 214 563 212 232 239 255 
83 214 563 215 235 242 255 
84 214 563 216 236 243 255 
85 214 563 214 234 241 255 
86 214 563 212 232 239 255 
87 214 563 211 231 238 255 
87 213 562 209 229 236 255 
88 213 562 199 221 219 255 
89 213 562 98 120 118 255 
-51 250 655 82 100 104 255 
-49 248 649 84 102 106 255 
-47 245 642 70 88 92 255 
-46 243 636 66 84 88 255 
-45 241 630 74 92 96 255 
-43 238 624 85 103 107 255 
-42 236 618 72 90 94 255 
-40 234 613 69 87 91 255 
-39 232 607 74 92 96 255 
-38 230 601 75 93 97 255 
-36 228 597 77 92 97 255 
-35 226 592 73 88 93 255 
-34 224 587 86 101 106 255 
-33 222 582 77 92 97 255 
-32 221 578 71 86 91 255 
-30 218 572 78 93 98 255 
-29 217 569 73 88 91 255 
-28 215 564 53 68 71 255 
-27 214 560 69 85 85 255 
-26 212 555 75 91 91 255 
-25 210 550 78 94 94 255 
-24 208 545 79 95 95 255 
-23 207 541 77 95 95 255 
-22 206 538 76 94 94 255 
-21 204 534 74 93 97 255 
-20 202 530 76 95 99 255 
-19 202 528 89 109 116 255 
-18 201 526 132 152 159 255 
-17 201 525 174 194 203 255 
-16 200 524 185 205 214 255 
-15 200 524 192 215 223 255 
-14 201 525 203 226 234 255 
-14 201 525 208 232 242 255 
-13 201 525 201 225 235 255 
-12 201 525 201 221 230 255 
-11 201 526 205 225 234 255 
-10 201 526 208 228 237 255 
-9 201 526 209 229 238 255 
-9 201 526 208 228 237 255 
-8 201 527 207 227 236 255 
-7 201 527 203 223 230 255 
-6 202 528 200 220 227 255 
-5 202 528 197 217 224 255 
-4 202 528 203 223 230 255 
-3 202 529 210 230 237 255 
-3 202 529 211 231 238 255 
-2 202 530 209 229 236 255 
-1 202 530 210 230 237 255 
0 202 530 208 228 235 255 
1 203 531 204 224 231 255 
2 203 531 207 227 234 255 
2 203 531 209 229 236 255 
3 203 531 209 229 236 255 
4 203 532 203 223 230 255 
5 204 533 207 227 234 255 
6 204 533 207 227 234 255 
7 204 533 208 228 235 255 
8 204 533 209 229 236 255 
8 204 533 211 231 238 255 
9 204 533 210 230 237 255 
10 204 533 209 230 235 255 
11 204 534 206 227 232 255 
12 204 534 205 226 231 255 
13 204 534 206 227 232 255 
14 204 535 205 229 233 255 
15 204 535 207 231 235 255 
15 205 536 206 226 233 255 
16 205 537 206 226 233 255 
17 206 538 204 224 231 255 
18 206 538 207 227 234 255 
19 206 538 208 228 235 255 
20 206 539 208 228 235 255 
21 206 540 205 225 232 255 
22 206 540 201 221 228 255 
22 206 540 203 223 230 255 
23 206 540 207 227 234 255 
24 207 541 207 227 234 255 
25 207 541 204 224 231 255 
26 207 541 206 227 232 255 
27 207 542 202 223 228 255 
28 207 542 205 226 231 255 
29 207 543 208 229 234 255 
30 207 543 209 229 236 255 
30 207 543 209 229 236 255 
31 207 543 207 227 234 255 
32 208 544 205 225 232 255 
33 208 544 207 227 234 255 
34 208 544 208 228 235 255 
35 208 545 209 229 236 255 
36 208 545 211 231 238 255 
37 209 546 212 232 239 255 
38 209 546 213 233 240 255 
38 209 546 211 231 238 255 
39 209 547 212 232 239 255 
40 209 547 204 224 231 255 
41 209 548 204 224 231 255 
42 209 548 208 228 235 255 
43 210 549 207 227 234 255 
44 210 549 208 228 235 255 
45 210 549 207 227 234 255 
46 210 550 204 224 231 255 
47 210 550 203 223 230 255 
48 210 551 204 224 231 255 
49 210 551 205 225 232 255 
49 210 551 206 226 233 255 
50 210 551 211 231 238 255 
51 210 551 208 228 235 255 
52 211 552 205 225 232 255 
53 211 552 203 223 230 255 
54 211 552 205 225 232 255 
55 211 553 207 227 234 255 
56 211 553 205 225 232 255 
57 212 554 204 224 231 255 
58 212 555 204 224 231 255 
59 212 555 206 226 233 255 
60 212 555 209 229 236 255 
61 212 556 210 230 237 255 
61 212 556 208 228 235 255 
62 212 556 209 229 236 255 
63 212 556 208 228 235 255 
64 212 556 207 227 234 255 
65 212 556 208 228 235 255 
66 213 557 205 225 232 255 
67 213 558 205 225 232 255 
68 213 558 206 226 233 255 
69 213 559 208 228 235 255 
70 213 559 210 230 237 255 
71 213 559 212 232 239 255 
72 213 559 213 233 240 255 
73 214 560 213 233 240 255 
74 214 560 211 231 238 255 
74 214 560 199 219 226 255 
75 214 561 202 222 229 255 
77 214 562 209 229 236 255 
77 214 562 211 231 238 255 
78 214 562 212 232 239 255 
79 214 562 211 231 238 255 
80 214 562 209 229 236 255 
81 215 563 210 230 237 255 
82 215 564 209 229 236 255 
83 215 564 212 232 239 255 
84 215 564 214 234 241 255 
85 215 564 210 230 237 255 
86 215 564 206 226 233 255 
87 215 563 206 226 233 255 
87 214 562 206 226 233 255 
88 214 562 196 216 217 255 
89 214 562 94 114 115 255 
-51 252 656 79 97 101 255 
-49 250 651 72 90 94 255 
-48 247 643 70 88 92 255 
-46 244 637 72 90 94 255 
-45 242 631 86 104 108 255 
-43 239 624 88 106 110 255 
-42 237 619 79 97 101 255 
-40 235 614 76 94 98 255 
-39 234 609 72 90 94 255 
-38 231 603 76 94 98 255 
-37 229 598 81 96 99 255 
-35 228 594 87 102 105 255 
-34 226 589 74 89 92 255 
-33 224 583 60 75 78 255 
-32 222 579 60 75 78 255 
-30 220 574 81 96 99 255 
-29 218 569 75 90 93 255 
-28 217 565 56 71 74 255 
-27 215 561 64 78 78 255 
-26 213 555 75 89 89 255 
-25 211 551 72 88 87 255 
-24 209 546 74 90 89 255 
-23 208 542 76 92 92 255 
-22 206 538 79 95 95 255 
-21 205 535 76 94 96 255 
-20 204 531 75 93 95 255 
-19 203 528 91 110 117 255 
-18 202 527 143 162 169 255 
-17 202 526 182 202 211 255 
-16 201 525 189 209 218 255 
-15 201 525 198 221 229 255 
-14 201 525 205 228 236 255 
-14 201 525 209 232 240 255 
-13 202 526 210 233 241 255 
-12 202 526 206 226 235 255 
-11 202 526 204 224 233 255 
-10 202 527 205 225 234 255 
-9 202 527 208 228 237 255 
-9 202 527 209 229 238 255 
-8 202 527 205 225 234 255 
-7 202 527 204 224 233 255 
-6 203 528 205 225 234 255 
-5 203 528 200 220 227 255 
-4 203 529 206 226 233 255 
-3 203 530 212 232 239 255 
-3 203 530 212 232 239 255 
-2 203 530 211 231 238 255 
-1 203 530 211 231 238 255 
0 204 531 208 228 235 255 
1 204 532 202 222 229 255 
2 204 532 203 223 230 255 
2 204 532 205 225 232 255 
3 204 532 208 228 235 255 
4 204 532 203 223 230 255 
5 204 533 204 224 231 255 
6 205 534 207 227 234 255 
7 205 534 209 229 236 255 
8 205 534 207 227 234 255 
9 205 534 207 230 236 255 
9 205 534 207 230 236 255 
10 205 534 207 230 236 255 
11 205 534 206 229 235 255 
12 205 535 205 228 234 255 
13 205 535 207 230 236 255 
14 206 536 206 229 235 255 
15 206 536 206 229 235 255 
15 206 536 205 228 234 255 
16 206 538 206 229 235 255 
17 206 538 203 226 232 255 
18 207 539 202 225 231 255 
19 207 539 202 225 231 255 
20 207 539 205 228 234 255 
21 207 540 206 229 235 255 
22 208 541 203 226 232 255 
23 208 541 199 222 228 255 
23 208 541 203 226 232 255 
24 208 541 207 227 234 255 
25 208 542 206 226 233 255 
26 208 542 210 231 236 255 
27 208 542 206 227 232 255 
28 208 543 206 227 232 255 
29 208 543 206 227 232 255 
30 208 543 207 227 234 255 
30 209 544 209 229 236 255 
31 209 544 208 228 235 255 
32 209 544 205 225 232 255 
33 209 544 206 226 233 255 
34 209 545 207 227 234 255 
35 209 546 207 227 234 255 
36 209 546 209 229 236 255 
37 209 546 206 226 233 255 
38 210 547 209 229 236 255 
39 210 547 207 227 234 255 
39 210 547 208 228 235 255 
40 210 548 205 225 232 255 
41 211 549 204 224 231 255 
42 211 549 208 228 235 255 
43 211 550 207 227 234 255 
44 211 550 210 230 237 255 
45 211 550 211 231 238 255 
46 211 551 205 225 232 255 
47 211 551 202 222 229 255 
48 212 552 204 224 231 255 
49 212 552 203 223 230 255 
50 212 553 203 223 230 255 
50 212 552 207 227 234 255 
51 212 552 205 225 232 255 
52 212 552 204 224 231 255 
53 212 553 207 227 234 255 
54 212 553 209 229 236 255 
55 212 553 208 228 235 255 
56 212 554 206 226 233 255 
57 213 555 202 222 229 255 
58 213 555 201 221 228 255 
59 213 556 203 223 230 255 
60 213 556 207 227 234 255 
61 214 557 209 229 236 255 
62 214 557 209 229 236 255 
62 214 557 210 230 237 255 
63 214 557 211 231 238 255 
64 213 557 209 229 236 255 
65 213 557 208 228 235 255 
66 214 558 205 225 232 255 
67 214 558 205 225 232 255 
68 214 559 206 226 233 255 
69 215 560 207 227 234 255 
70 215 560 206 226 233 255 
71 215 560 205 225 232 255 
72 215 560 207 227 234 255 
73 215 560 208 228 235 255 
74 215 561 211 231 238 255 
75 215 561 202 222 229 255 
75 215 561 207 227 234 255 
77 215 562 213 233 240 255 
78 216 563 213 233 240 255 
78 216 563 212 232 239 255 
79 216 563 208 228 235 255 
80 216 564 207 227 234 255 
81 216 564 213 233 240 255 
82 216 564 211 231 238 255 
83 216 564 213 233 240 255 
84 216 564 215 235 242 255 
85 216 564 211 231 238 255 
86 216 564 206 226 233 255 
87 216 564 206 226 233 255 
87 216 563 210 230 237 255 
88 215 562 193 213 212 255 
89 215 562 101 121 120 255 
-51 253 657 72 90 94 255 
-49 251 652 73 91 95 255 
-48 248 644 65 83 85 255 
-46 246 638 69 87 89 255 
-45 243 632 75 93 95 255 
-43 241 626 77 95 97 255 
-42 239 620 77 95 97 255 
-41 237 616 75 93 95 255 
-39 235 611 68 86 88 255 
-38 233 604 73 91 93 255 
-37 231 599 81 96 99 255 
-35 229 595 79 94 97 255 
-34 227 589 86 101 104 255 
-33 225 585 67 82 85 255 
-32 223 580 61 76 79 255 
-31 221 575 83 98 101 255 
-29 220 570 66 81 84 255 
-28 218 566 64 79 82 255 
-27 216 561 82 96 96 255 
-26 214 556 88 102 102 255 
-25 212 551 78 92 92 255 
-24 211 548 76 90 90 255 
-23 209 543 82 98 97 255 
-22 208 539 82 98 97 255 
-21 207 537 76 94 94 255 
-20 205 532 65 83 83 255 
-19 204 529 81 98 105 255 
-18 203 528 136 153 160 255 
-17 203 527 177 197 204 255 
-16 203 527 186 206 213 255 
-15 203 526 197 217 226 255 
-14 203 526 203 223 232 255 
-14 203 526 203 226 234 255 
-13 203 526 206 229 237 255 
-12 203 527 206 226 235 255 
-11 203 527 203 223 232 255 
-10 203 528 204 224 233 255 
-9 203 528 207 227 236 255 
-9 203 528 208 228 237 255 
-8 203 528 205 225 234 255 
-7 203 528 205 225 234 255 
-6 203 528 207 227 236 255 
-5 204 529 199 219 228 255 
-4 204 530 203 223 232 255 
-3 204 530 204 224 231 255 
-3 205 531 205 225 232 255 
-2 205 531 208 228 235 255 
-1 205 531 209 229 236 255 
0 205 531 204 224 231 255 
1 205 532 198 218 225 255 
2 205 533 195 218 224 255 
3 205 533 197 220 226 255 
3 205 533 206 229 235 255 
4 205 533 204 227 233 255 
5 206 534 203 226 232 255 
6 206 534 206 229 235 255 
7 206 535 209 232 238 255 
8 206 535 201 224 230 255 
9 206 535 197 220 226 255 
9 206 535 198 221 227 255 
10 206 535 201 224 230 255 
11 206 536 200 223 229 255 
12 206 536 200 223 229 255 
13 206 536 201 224 230 255 
14 207 537 201 224 230 255 
15 207 537 202 225 231 255 
15 207 537 202 227 232 255 
16 207 538 204 229 234 255 
17 208 539 203 228 233 255 
18 208 539 199 224 229 255 
19 208 539 200 225 230 255 
20 208 540 203 228 233 255 
21 208 541 206 229 235 255 
22 208 541 202 225 231 255 
23 208 541 205 228 234 255 
23 209 542 205 228 234 255 
24 209 542 204 227 233 255 
25 209 542 201 224 230 255 
26 209 543 205 229 233 255 
27 210 544 203 227 231 255 
28 210 544 206 230 234 255 
29 210 544 207 231 235 255 
30 210 544 205 225 232 255 
31 210 545 207 227 234 255 
31 210 545 204 224 231 255 
32 210 545 201 221 228 255 
33 210 545 203 223 230 255 
34 210 545 205 225 232 255 
35 210 546 206 226 233 255 
36 211 547 208 228 235 255 
37 211 547 208 228 235 255 
38 211 547 209 229 236 255 
39 211 548 204 224 231 255 
40 211 548 204 224 231 255 
40 211 549 206 226 233 255 
41 211 549 205 225 232 255 
42 212 550 209 229 236 255 
43 212 550 208 228 235 255 
44 212 550 210 230 237 255 
45 212 551 214 234 241 255 
46 212 551 211 231 238 255 
47 212 551 208 228 235 255 
48 213 552 208 228 235 255 
49 213 552 206 226 233 255 
50 213 553 205 225 232 255 
51 213 553 209 229 236 255 
51 213 553 209 229 236 255 
52 213 553 207 227 234 255 
53 213 553 208 228 235 255 
54 213 554 209 229 236 255 
55 213 554 208 228 235 255 
56 214 555 206 226 233 255 
57 214 556 204 224 231 255 
58 214 556 203 223 230 255 
59 214 556 203 223 230 255 
60 214 557 204 224 231 255 
61 214 557 206 226 233 255 
62 215 558 207 227 234 255 
63 215 558 207 227 234 255 
63 215 558 208 228 235 255 
64 215 558 207 227 234 255 
65 215 558 204 224 231 255 
66 215 558 201 221 228 255 
67 215 559 203 223 230 255 
68 215 559 204 224 231 255 
69 215 560 205 225 232 255 
70 216 561 204 224 231 255 
71 216 561 203 223 230 255 
72 216 561 205 225 232 255 
73 216 561 207 227 234 255 
74 216 561 210 230 237 255 
75 216 561 206 226 233 255 
76 216 562 211 231 238 255 
77 217 563 213 233 240 255 
78 217 563 213 233 240 255 
78 217 563 212 232 239 255 
79 217 563 206 226 233 255 
80 217 564 205 225 232 255 
81 217 564 208 228 235 255 
82 217 565 206 226 233 255 
83 217 565 208 228 235 255 
84 217 565 212 232 239 255 
85 217 565 211 231 238 255 
86 217 565 206 226 233 255 
87 217 565 205 225 232 255 
88 217 564 209 229 236 255 
88 217 563 189 209 208 255 
89 217 563 101 121 120 255 
-51 254 657 71 86 91 255 
-49 252 652 78 93 98 255 
-48 250 646 65 83 85 255 
-46 247 640 68 86 88 255 
-45 245 634 66 84 86 255 
-43 243 628 85 103 105 255 
-42 240 621 88 106 108 255 
-41 239 617 81 99 101 255 
-39 237 613 82 97 100 255 
-38 234 606 77 92 95 255 
-37 232 600 95 110 113 255 
-35 230 596 71 86 89 255 
-34 229 591 72 87 90 255 
-33 227 586 69 84 87 255 
-32 225 581 69 85 85 255 
-31 223 577 77 93 93 255 
-29 221 572 78 94 94 255 
-28 219 567 64 80 80 255 
-27 218 563 61 73 71 255 
-26 216 558 71 83 81 255 
-25 213 552 74 88 88 255 
-24 212 548 76 90 90 255 
-23 211 545 83 99 98 255 
-22 209 541 84 100 99 255 
-21 208 537 86 102 102 255 
-20 206 533 77 93 93 255 
-19 205 530 77 95 99 255 
-18 205 529 126 144 148 255 
-17 204 528 171 190 197 255 
-16 204 527 185 204 211 255 
-15 203 526 194 214 221 255 
-14 204 527 204 224 231 255 
-14 204 527 209 229 236 255 
-13 204 527 204 224 231 255 
-12 204 527 200 220 229 255 
-11 204 527 204 224 233 255 
-10 204 528 207 227 236 255 
-9 204 528 206 226 235 255 
-9 204 528 204 224 233 255 
-8 204 528 205 225 234 255 
-7 205 529 205 225 234 255 
-6 205 529 204 224 233 255 
-5 205 530 202 222 231 255 
-4 205 530 204 224 233 255 
-3 205 531 203 223 232 255 
-3 205 531 206 226 235 255 
-2 205 531 213 233 240 255 
-1 206 532 216 236 243 255 
0 206 532 210 230 237 255 
1 206 533 205 225 232 255 
2 206 533 200 223 231 255 
3 206 533 198 221 229 255 
3 207 534 207 230 238 255 
4 207 534 207 230 238 255 
5 207 535 205 228 236 255 
6 207 535 209 232 240 255 
7 207 535 212 235 243 255 
8 207 535 204 227 235 255 
9 207 536 193 216 222 255 
9 207 536 195 218 224 255 
10 207 536 202 225 231 255 
11 207 536 204 227 233 255 
12 208 537 204 229 234 255 
13 208 538 204 229 234 255 
14 208 538 202 227 232 255 
15 208 538 201 226 231 255 
16 208 539 203 228 233 255 
16 208 539 203 228 233 255 
17 208 539 202 227 232 255 
18 209 540 198 223 228 255 
19 209 540 199 224 229 255 
20 209 541 200 225 230 255 
21 209 541 202 227 232 255 
22 209 541 199 224 229 255 
23 210 542 203 228 233 255 
23 210 542 203 228 233 255 
24 210 542 200 225 230 255 
25 210 543 197 222 227 255 
26 210 544 199 224 228 255 
27 210 544 197 222 226 255 
28 210 544 201 226 230 255 
29 211 545 203 228 232 255 
30 210 544 206 226 233 255 
31 211 545 206 226 233 255 
31 211 545 202 222 229 255 
32 211 545 200 220 227 255 
33 211 545 204 224 231 255 
34 211 546 206 226 233 255 
35 212 547 207 227 234 255 
36 212 547 210 230 237 255 
37 212 548 209 229 236 255 
38 212 548 210 230 237 255 
39 212 549 205 225 232 255 
40 212 549 203 223 230 255 
41 213 550 207 227 234 255 
41 213 550 205 225 232 255 
42 213 550 206 226 233 255 
43 213 551 206 226 233 255 
44 213 551 206 226 233 255 
45 213 551 210 230 237 255 
46 213 552 212 232 239 255 
47 213 552 209 229 236 255 
48 214 553 207 227 234 255 
49 214 553 206 226 233 255 
50 214 553 207 227 234 255 
50 214 553 209 229 236 255 
51 214 554 211 231 238 255 
52 214 554 208 228 235 255 
53 214 554 206 226 233 255 
54 215 555 206 226 233 255 
55 215 555 206 226 233 255 
56 215 555 205 225 232 255 
57 215 556 206 226 233 255 
58 215 557 206 226 233 255 
59 215 557 206 226 233 255 
60 215 557 205 225 232 255 
61 215 557 206 226 233 255 
62 216 558 207 227 234 255 
63 216 558 206 226 233 255 
63 216 558 206 226 233 255 
64 216 558 204 224 231 255 
65 216 559 201 221 228 255 
66 216 559 198 218 225 255 
67 216 560 199 219 226 255 
68 216 560 201 221 228 255 
69 217 561 202 222 229 255 
70 217 561 203 223 230 255 
71 217 562 205 225 232 255 
72 217 562 207 227 234 255 
73 217 562 211 231 238 255 
74 218 563 207 227 234 255 
75 218 563 205 225 232 255 
76 217 562 206 226 233 255 
77 217 563 206 226 233 255 
78 218 564 208 228 235 255 
79 218 564 209 229 236 255 
79 218 564 205 225 232 255 
80 218 564 204 224 231 255 
81 218 565 208 228 235 255 
82 218 565 206 226 233 255 
83 219 566 206 226 233 255 
84 219 566 209 229 236 255 
85 219 566 213 233 240 255 
86 218 565 210 230 237 255 
87 218 565 209 229 236 255 
88 218 565 212 232 239 255 
89 218 565 189 210 211 255 
89 218 564 92 113 114 255 
-51 255 658 71 86 91 255 
-49 253 653 66 81 86 255 
-48 251 647 57 72 75 255 
-46 249 641 66 81 84 255 
-45 247 636 62 77 80 255 
-44 245 630 75 90 93 255 
-42 242 623 72 87 90 255 
-41 240 618 74 89 92 255 
-39 238 614 75 90 93 255 
-38 236 607 65 80 83 255 
-37 234 602 76 91 94 255 
-36 232 597 66 81 84 255 
-34 230 592 63 78 81 255 
-33 228 587 73 88 91 255 
-32 226 583 69 84 87 255 
-31 224 578 78 93 96 255 
-29 222 573 67 82 85 255 
-28 220 567 67 82 85 255 
-27 219 563 41 56 53 255 
-26 217 558 50 65 62 255 
-25 215 553 79 95 94 255 
-24 214 550 77 93 92 255 
-23 212 546 74 90 90 255 
-22 210 542 71 87 87 255 
-21 209 539 79 94 97 255 
-20 207 534 84 99 102 255 
-19 206 531 77 95 99 255 
-18 205 529 120 138 142 255 
-17 205 529 165 184 190 255 
-16 205 528 180 199 205 255 
-15 205 527 189 209 216 255 
-14 205 527 199 219 226 255 
-14 205 528 206 225 232 255 
-13 205 528 199 218 225 255 
-12 205 528 197 217 226 255 
-11 205 529 203 223 232 255 
-10 205 529 208 228 237 255 
-9 205 529 206 226 235 255 
-9 205 529 203 223 232 255 
-8 205 529 204 224 233 255 
-7 206 530 206 226 235 255 
-6 206 530 204 224 233 255 
-5 206 531 201 221 230 255 
-4 206 531 202 222 231 255 
-3 206 531 203 223 232 255 
-3 207 532 207 227 236 255 
-2 207 532 213 233 242 255 
-1 207 533 215 235 244 255 
0 207 533 212 232 239 255 
1 207 533 208 228 235 255 
2 207 534 207 230 238 255 
3 207 534 201 224 232 255 
3 207 534 205 228 236 255 
4 208 535 203 226 234 255 
5 208 536 202 225 233 255 
6 208 536 206 229 237 255 
7 208 536 210 233 241 255 
8 208 536 203 226 234 255 
9 209 537 194 217 225 255 
9 209 537 195 218 226 255 
10 209 537 201 224 230 255 
11 209 537 206 229 235 255 
12 209 538 208 231 237 255 
13 209 538 207 230 236 255 
14 209 539 203 226 232 255 
15 209 539 200 223 229 255 
16 209 539 201 224 230 255 
16 210 540 202 225 231 255 
17 210 540 204 227 233 255 
18 210 541 204 227 233 255 
19 210 541 206 231 236 255 
20 210 541 201 226 231 255 
21 210 541 199 224 229 255 
22 210 542 193 218 223 255 
23 210 542 198 223 228 255 
23 210 542 199 224 229 255 
24 211 543 199 224 229 255 
25 211 543 197 222 227 255 
26 211 544 201 226 230 255 
27 211 544 197 222 226 255 
28 211 544 199 224 228 255 
29 212 545 200 225 229 255 
30 212 545 209 229 236 255 
31 212 545 207 227 234 255 
31 212 545 205 225 232 255 
32 212 546 205 225 232 255 
33 212 546 208 228 235 255 
34 212 547 209 229 236 255 
35 212 547 207 227 234 255 
36 213 548 207 227 234 255 
37 213 548 204 224 231 255 
38 213 548 205 225 232 255 
39 213 549 205 225 232 255 
40 214 550 203 223 230 255 
41 214 550 208 228 235 255 
41 214 551 205 225 232 255 
42 214 551 205 225 232 255 
43 214 552 206 226 233 255 
44 214 552 209 229 236 255 
45 214 552 210 230 237 255 
46 215 553 211 231 238 255 
47 215 553 210 230 237 255 
48 215 553 208 228 235 255 
49 215 554 208 228 235 255 
50 215 554 207 227 234 255 
51 215 554 205 225 232 255 
52 215 555 207 227 234 255 
