ply
format ascii 1.0
comment VCGLIB generated
element vertex 1820
property float x
property float y
property float z
property uchar red
property uchar green
property uchar blue
property uchar alpha
element face 0
property list uchar int vertex_indices
end_header
-30 123 557 27 22 18 255 
-29 122 556 26 21 17 255 
-28 122 556 25 20 16 255 
-27 122 555 24 19 15 255 
-26 122 554 24 19 15 255 
-25 122 553 24 19 15 255 
-24 122 552 23 18 14 255 
-23 121 551 24 19 15 255 
-22 121 550 26 21 17 255 
-21 121 549 25 20 16 255 
-20 121 548 23 18 14 255 
-20 120 547 25 20 16 255 
-19 120 547 25 20 16 255 
-18 120 547 27 22 18 255 
-17 120 547 26 21 17 255 
-16 120 546 24 19 15 255 
-15 120 546 27 22 18 255 
-14 120 546 32 27 23 255 
-13 120 547 34 29 25 255 
-13 121 548 53 46 36 255 
-12 121 549 89 82 72 255 
-11 121 550 108 104 77 255 
-10 122 552 110 106 79 255 
-9 122 554 107 103 74 255 
-8 123 557 106 102 73 255 
-7 123 558 105 99 75 255 
-6 123 560 107 101 77 255 
-6 124 561 113 108 79 255 
-5 124 563 110 105 76 255 
-4 124 564 107 100 72 255 
-3 124 565 108 101 73 255 
-2 125 566 106 99 73 255 
-1 125 568 103 96 70 255 
0 125 569 107 100 72 255 
1 125 570 107 100 72 255 
2 126 572 109 102 73 255 
3 126 574 112 105 76 255 
4 127 576 115 108 82 255 
5 127 578 117 110 84 255 
6 128 580 111 105 79 255 
6 128 582 111 105 79 255 
7 129 585 117 112 83 255 
8 129 587 115 110 81 255 
9 130 590 113 110 77 255 
10 131 593 118 115 82 255 
12 132 599 115 112 81 255 
13 133 603 110 107 76 255 
14 135 611 107 105 82 255 
21 144 654 43 45 40 255 
22 145 659 44 46 41 255 
23 146 663 43 44 38 255 
25 146 664 41 42 36 255 
26 146 665 41 43 38 255 
27 146 665 40 42 37 255 
28 146 665 38 43 39 255 
29 146 664 39 44 40 255 
30 146 663 42 47 41 255 
31 146 662 45 50 44 255 
32 146 661 46 48 43 255 
33 145 660 45 47 42 255 
34 145 660 45 48 41 255 
35 145 658 44 47 40 255 
36 145 658 42 44 41 255 
37 145 657 41 43 40 255 
38 144 656 41 43 40 255 
39 144 655 40 42 39 255 
40 144 654 39 41 38 255 
41 144 653 41 43 40 255 
42 144 652 41 43 40 255 
43 143 651 37 39 36 255 
44 143 650 40 42 39 255 
45 143 649 33 35 32 255 
46 143 648 33 35 32 255 
47 142 647 43 45 42 255 
48 142 646 42 44 41 255 
49 142 645 43 45 42 255 
50 142 644 42 44 41 255 
51 141 643 41 43 40 255 
52 141 643 42 44 41 255 
53 141 641 40 42 39 255 
54 141 640 40 42 39 255 
55 141 639 41 43 40 255 
56 140 638 40 42 39 255 
57 140 638 38 40 37 255 
58 140 636 40 42 39 255 
59 140 636 42 44 41 255 
59 140 635 43 45 42 255 
60 139 634 43 45 42 255 
61 139 633 45 47 44 255 
62 139 632 46 48 45 255 
63 139 631 42 44 41 255 
64 139 630 39 41 38 255 
65 139 630 42 44 41 255 
66 138 629 47 49 46 255 
67 138 628 41 43 38 255 
68 138 626 40 42 37 255 
69 137 625 47 49 44 255 
70 137 625 49 51 46 255 
71 137 624 48 50 47 255 
71 137 623 48 50 47 255 
72 137 622 45 47 44 255 
73 137 621 49 51 48 255 
74 137 621 46 48 45 255 
75 136 620 45 47 44 255 
76 136 619 44 46 43 255 
77 136 618 44 46 43 255 
78 135 616 44 46 45 255 
78 135 615 43 45 44 255 
79 135 615 44 46 45 255 
80 135 614 45 47 46 255 
81 135 613 41 43 42 255 
82 135 612 43 45 44 255 
83 134 611 46 48 47 255 
84 134 610 47 49 48 255 
85 134 609 46 48 47 255 
85 134 608 47 49 48 255 
86 133 607 48 50 49 255 
87 133 606 46 48 47 255 
88 133 606 44 46 45 255 
89 133 605 46 48 47 255 
90 133 604 45 47 46 255 
91 132 603 44 46 45 255 
91 132 603 47 49 48 255 
92 132 603 52 54 53 255 
93 132 602 54 56 55 255 
94 132 602 54 56 55 255 
95 132 600 48 50 49 255 
96 132 600 53 55 54 255 
97 132 600 55 57 56 255 
98 132 599 59 61 60 255 
98 131 598 60 62 61 255 
99 131 597 60 62 61 255 
100 131 597 63 65 64 255 
101 131 597 62 64 63 255 
102 131 596 62 64 63 255 
103 131 596 52 54 53 255 
104 131 596 50 52 51 255 
105 131 596 54 56 55 255 
106 131 595 51 53 52 255 
107 131 595 50 52 51 255 
107 130 594 44 46 45 255 
108 131 595 24 26 25 255 
109 131 595 19 21 16 255 
110 130 594 29 31 26 255 
111 130 593 17 18 12 255 
112 130 593 11 12 6 255 
113 130 593 13 18 11 255 
114 130 593 23 28 21 255 
115 130 593 3 18 11 255 
116 130 594 110 125 118 255 
117 131 596 140 166 163 255 
118 131 597 149 175 172 255 
120 131 599 147 178 180 255 
121 132 600 146 177 179 255 
122 132 602 150 180 182 255 
124 133 605 151 181 183 255 
125 133 607 153 179 180 255 
127 134 609 152 178 179 255 
128 134 612 152 182 184 255 
130 135 614 150 180 182 255 
131 135 616 149 179 181 255 
132 136 618 149 179 181 255 
134 136 621 145 175 177 255 
136 137 623 142 172 174 255 
137 137 625 146 176 178 255 
138 137 626 150 180 182 255 
140 138 628 148 178 180 255 
141 138 630 149 179 181 255 
143 139 632 147 177 179 255 
144 139 634 148 178 180 255 
145 139 636 149 179 181 255 
147 140 639 148 178 180 255 
148 140 640 149 179 181 255 
150 141 642 146 176 178 255 
151 141 644 148 178 180 255 
153 142 646 147 177 179 255 
154 142 648 147 177 179 255 
156 142 650 144 174 176 255 
157 143 652 142 172 174 255 
159 143 654 146 176 178 255 
161 144 656 148 178 180 255 
162 144 658 146 176 178 255 
164 145 661 144 174 176 255 
165 145 663 141 171 173 255 
167 146 666 142 172 174 255 
169 146 667 144 174 176 255 
170 147 670 144 174 176 255 
172 147 673 144 174 176 255 
174 148 675 145 175 177 255 
175 148 677 145 175 177 255 
177 148 678 145 176 178 255 
178 149 680 143 174 176 255 
180 149 681 148 176 179 255 
181 149 681 152 180 183 255 
181 148 678 150 180 180 255 
-68 162 733 25 20 17 255 
-52 134 604 29 24 20 255 
-50 132 595 28 23 19 255 
-49 131 590 29 24 20 255 
-47 130 586 31 26 22 255 
-46 129 582 30 25 21 255 
-45 129 580 27 22 18 255 
-44 128 577 27 22 18 255 
-43 127 575 27 24 17 255 
-42 127 574 28 25 18 255 
-41 127 573 27 24 17 255 
-40 127 571 26 23 16 255 
-39 126 569 26 23 16 255 
-38 126 568 26 23 16 255 
-37 126 567 27 24 19 255 
-36 125 565 28 25 20 255 
-35 125 564 28 23 19 255 
-34 125 563 28 23 19 255 
-33 124 561 22 17 13 255 
-32 124 560 19 14 10 255 
-31 124 559 24 19 15 255 
-30 124 558 27 22 18 255 
-29 124 558 25 20 16 255 
-28 123 557 24 19 15 255 
-27 123 556 25 22 15 255 
-26 123 555 26 23 16 255 
-25 123 554 26 23 16 255 
-24 123 553 24 21 14 255 
-23 122 551 23 20 13 255 
-22 122 550 24 21 14 255 
-21 122 550 24 21 14 255 
-21 122 549 24 21 14 255 
-20 122 548 24 21 14 255 
-19 121 547 25 22 15 255 
-18 121 547 29 26 19 255 
-17 121 547 28 25 18 255 
-16 121 547 22 19 12 255 
-15 121 547 23 20 13 255 
-14 121 547 28 25 18 255 
-13 121 547 32 29 22 255 
-13 122 548 50 43 33 255 
-12 122 550 85 78 68 255 
-11 122 551 107 103 76 255 
-10 123 553 109 105 78 255 
-9 123 555 105 101 72 255 
-8 124 558 102 98 69 255 
-7 124 559 102 96 72 255 
-6 124 560 103 97 73 255 
-6 125 562 108 103 74 255 
-5 125 563 106 101 72 255 
-4 125 564 108 101 73 255 
-3 125 565 110 103 75 255 
-2 126 567 108 101 75 255 
-1 126 568 106 99 73 255 
0 126 570 107 100 72 255 
1 127 571 106 99 71 255 
2 127 573 105 98 69 255 
3 128 575 108 101 72 255 
4 128 577 110 103 77 255 
5 128 578 111 104 78 255 
6 129 581 110 104 80 255 
7 129 583 111 105 81 255 
7 130 586 114 110 81 255 
8 131 589 115 111 82 255 
9 131 592 114 114 80 255 
11 132 596 110 110 76 255 
12 134 603 109 108 78 255 
13 135 608 102 101 71 255 
19 144 649 46 48 43 255 
20 145 655 43 45 40 255 
21 146 660 41 44 37 255 
22 147 663 45 48 41 255 
24 148 666 44 47 40 255 
25 148 667 40 43 36 255 
26 148 667 41 43 38 255 
27 148 666 39 41 36 255 
28 148 666 40 45 41 255 
29 147 665 38 43 39 255 
30 147 665 41 46 40 255 
31 147 664 45 50 44 255 
32 147 663 44 49 43 255 
33 147 661 41 46 40 255 
34 146 660 41 46 42 255 
35 146 659 41 46 42 255 
36 146 658 43 45 42 255 
37 146 658 44 46 43 255 
38 146 657 46 48 45 255 
39 145 656 44 46 43 255 
40 145 655 38 40 37 255 
41 145 654 38 40 37 255 
42 145 653 40 42 39 255 
43 145 652 39 41 38 255 
44 144 650 41 43 40 255 
45 144 649 37 39 36 255 
46 144 648 37 39 36 255 
47 144 648 43 45 42 255 
48 143 646 42 44 41 255 
49 143 645 42 44 41 255 
50 143 645 40 42 39 255 
51 143 643 41 43 40 255 
52 143 643 41 43 40 255 
53 142 642 40 42 39 255 
54 142 641 42 44 41 255 
55 142 640 44 46 43 255 
56 141 638 42 44 41 255 
57 141 638 40 42 39 255 
58 141 637 42 44 41 255 
59 141 636 43 45 42 255 
59 141 635 42 44 41 255 
60 140 634 40 42 39 255 
61 140 634 45 47 44 255 
62 140 633 49 51 48 255 
63 140 632 45 47 44 255 
64 140 631 40 42 39 255 
65 140 630 42 44 41 255 
66 139 629 44 46 43 255 
67 139 629 43 45 40 255 
68 139 627 41 43 38 255 
69 139 626 45 47 42 255 
70 138 625 46 48 43 255 
71 138 624 43 45 42 255 
72 138 624 41 43 40 255 
72 138 623 41 43 40 255 
73 138 622 45 47 44 255 
74 138 621 43 45 42 255 
75 137 620 42 44 41 255 
76 137 619 42 44 41 255 
77 137 618 43 45 42 255 
78 137 617 44 46 45 255 
79 136 616 43 45 44 255 
79 136 615 43 45 44 255 
80 136 615 43 45 44 255 
81 136 614 43 45 44 255 
82 136 613 47 49 48 255 
83 136 612 49 51 50 255 
84 135 611 47 49 48 255 
85 135 610 45 47 46 255 
86 135 609 46 48 47 255 
86 134 607 49 51 50 255 
87 134 606 50 52 51 255 
88 134 606 47 49 48 255 
89 134 605 46 48 47 255 
90 134 604 45 47 46 255 
91 134 604 49 51 50 255 
92 134 604 52 54 53 255 
92 133 603 49 51 50 255 
93 133 603 46 48 47 255 
94 133 603 47 49 48 255 
95 133 601 47 49 48 255 
96 133 600 49 51 50 255 
97 133 600 50 52 51 255 
98 133 599 51 53 52 255 
98 132 598 50 52 51 255 
99 132 597 51 53 52 255 
100 132 597 55 57 56 255 
101 132 597 57 59 58 255 
102 132 596 58 60 59 255 
103 132 596 51 53 52 255 
104 132 595 50 52 51 255 
105 132 595 55 57 56 255 
106 132 595 56 58 57 255 
106 131 594 52 54 53 255 
107 131 594 46 48 47 255 
108 131 594 19 21 20 255 
109 131 594 2 4 1 255 
110 131 594 10 12 9 255 
111 131 593 7 10 3 255 
112 131 593 13 16 9 255 
113 131 593 14 21 13 255 
114 131 594 10 17 9 255 
115 131 594 35 52 46 255 
116 132 595 140 157 151 255 
117 132 596 132 161 159 255 
119 132 598 145 174 172 255 
120 133 600 147 178 180 255 
121 133 602 144 175 177 255 
122 133 603 146 177 179 255 
124 134 605 147 178 180 255 
125 134 608 148 176 177 255 
127 135 610 148 176 177 255 
128 135 613 147 177 179 255 
130 136 615 146 176 178 255 
131 136 617 148 178 180 255 
133 137 619 150 180 182 255 
134 137 622 145 175 177 255 
136 138 624 139 169 171 255 
137 138 626 139 169 171 255 
139 139 628 140 170 172 255 
140 139 629 145 175 177 255 
141 139 631 147 177 179 255 
143 140 633 147 177 179 255 
144 140 635 148 178 180 255 
146 141 637 148 178 180 255 
147 141 639 147 177 179 255 
149 141 641 148 178 180 255 
150 142 642 148 178 180 255 
151 142 644 147 177 179 255 
153 143 646 146 176 178 255 
154 143 648 146 176 178 255 
156 143 650 143 173 175 255 
158 144 653 141 171 173 255 
159 144 654 145 175 177 255 
160 145 656 146 176 178 255 
162 145 659 145 175 177 255 
164 146 661 144 174 176 255 
166 146 664 141 171 173 255 
167 147 666 143 173 175 255 
169 147 668 146 176 178 255 
171 148 671 146 176 178 255 
172 149 674 144 174 176 255 
174 149 676 144 174 176 255 
176 149 678 144 174 176 255 
177 150 679 143 174 176 255 
179 150 681 140 171 173 255 
180 150 682 145 173 176 255 
181 150 682 150 178 181 255 
181 150 679 151 181 181 255 
-65 164 733 25 21 18 255 
-63 162 725 28 23 20 255 
-50 135 604 29 21 18 255 
-48 133 595 31 23 20 255 
-47 132 590 30 22 19 255 
-46 131 585 26 21 17 255 
-44 130 581 24 19 15 255 
-43 129 579 26 23 16 255 
-42 129 576 26 23 16 255 
-41 128 574 26 23 16 255 
-40 128 573 26 23 16 255 
-39 127 571 26 23 16 255 
-38 127 569 26 23 16 255 
-37 127 568 27 24 17 255 
-36 127 567 28 25 18 255 
-35 126 565 26 21 17 255 
-34 126 563 27 22 18 255 
-33 125 562 25 20 16 255 
-32 125 561 25 20 16 255 
-31 125 561 29 24 20 255 
-30 125 560 30 25 21 255 
-29 125 559 27 22 18 255 
-28 125 558 26 21 17 255 
-27 124 557 23 20 13 255 
-26 124 556 24 21 14 255 
-25 124 555 26 23 16 255 
-24 124 554 25 22 15 255 
-23 124 553 24 21 14 255 
-22 123 551 24 21 14 255 
-21 123 550 24 21 14 255 
-21 123 550 23 20 13 255 
-20 123 549 26 23 16 255 
-19 122 548 25 22 15 255 
-18 122 547 30 27 20 255 
-17 122 547 28 25 18 255 
-16 122 547 20 17 10 255 
-15 122 547 20 17 10 255 
-14 122 547 28 25 18 255 
-13 122 548 33 30 23 255 
-13 122 548 48 41 31 255 
-12 123 550 83 76 66 255 
-11 123 552 107 103 74 255 
-10 124 554 108 104 75 255 
-9 124 556 106 103 72 255 
-8 125 558 102 99 68 255 
-7 125 560 104 98 74 255 
-6 125 561 106 100 76 255 
-6 126 562 108 103 74 255 
-5 126 564 106 101 72 255 
-4 126 565 110 103 75 255 
-3 126 566 111 104 76 255 
-2 127 567 107 100 74 255 
-1 127 569 105 98 72 255 
0 127 570 104 97 69 255 
1 128 572 105 98 70 255 
2 128 574 108 98 73 255 
3 128 575 109 99 74 255 
4 129 577 109 98 76 255 
5 129 579 109 98 76 255 
6 130 581 110 102 79 255 
7 130 584 112 104 81 255 
8 131 587 110 106 77 255 
8 132 590 113 109 80 255 
10 133 594 114 113 82 255 
11 134 600 107 106 75 255 
13 137 614 88 88 64 255 
20 147 660 44 46 41 255 
21 148 664 42 45 38 255 
23 149 667 47 50 43 255 
24 149 668 47 49 44 255 
25 149 668 43 45 40 255 
26 149 668 43 48 44 255 
27 149 667 41 46 42 255 
28 149 667 44 49 45 255 
29 149 666 40 45 41 255 
30 149 665 40 45 39 255 
31 148 664 43 48 42 255 
32 148 663 42 47 43 255 
33 148 662 41 46 42 255 
34 148 661 42 48 46 255 
35 147 660 42 48 46 255 
36 147 659 43 45 42 255 
37 147 659 42 44 41 255 
38 147 658 43 45 42 255 
39 147 657 41 43 40 255 
40 146 656 38 40 37 255 
41 146 655 37 39 36 255 
42 146 653 40 42 39 255 
43 146 652 40 42 39 255 
44 145 651 41 43 40 255 
45 145 650 42 44 41 255 
46 145 648 41 43 40 255 
47 145 648 44 46 43 255 
48 144 647 43 45 42 255 
49 144 646 43 45 42 255 
50 144 645 41 43 40 255 
51 144 644 43 45 42 255 
52 144 644 44 46 43 255 
53 144 643 43 45 42 255 
54 143 642 45 47 44 255 
55 143 641 46 48 45 255 
56 143 639 43 45 42 255 
57 142 638 40 42 39 255 
58 142 637 41 43 40 255 
59 142 637 42 44 41 255 
60 142 636 39 41 38 255 
60 142 635 39 41 38 255 
61 142 634 44 46 43 255 
62 141 633 48 50 47 255 
63 141 633 45 47 44 255 
64 141 632 41 43 40 255 
65 141 631 41 43 40 255 
66 141 630 41 43 40 255 
67 140 629 44 46 41 255 
68 140 628 42 44 39 255 
69 140 627 41 43 38 255 
70 140 626 40 42 37 255 
71 139 625 39 41 38 255 
72 139 624 39 41 38 255 
72 139 623 40 42 39 255 
73 139 623 40 42 39 255 
74 139 621 38 40 37 255 
75 138 620 38 40 37 255 
76 138 619 40 42 39 255 
77 138 618 43 45 42 255 
78 138 618 44 46 45 255 
79 138 617 44 46 45 255 
80 137 616 43 45 44 255 
80 137 615 41 43 42 255 
81 137 614 43 45 44 255 
82 137 614 46 48 47 255 
83 137 613 48 50 49 255 
84 136 612 44 46 45 255 
85 136 611 40 42 41 255 
86 136 609 43 45 44 255 
86 136 608 47 49 48 255 
87 135 607 48 50 49 255 
88 135 606 49 51 50 255 
89 135 605 47 49 48 255 
90 135 604 46 48 47 255 
91 135 604 49 51 50 255 
92 135 604 52 54 53 255 
93 135 604 47 49 48 255 
93 134 603 43 45 44 255 
94 134 603 43 45 44 255 
95 134 601 47 49 48 255 
96 134 601 46 48 47 255 
97 134 600 46 48 47 255 
98 133 599 46 48 47 255 
99 133 599 45 47 46 255 
99 133 598 46 48 47 255 
100 133 597 47 49 48 255 
101 133 597 51 53 52 255 
102 133 596 52 54 53 255 
103 133 595 53 55 54 255 
103 132 594 59 61 60 255 
104 132 594 57 59 58 255 
105 132 594 54 56 55 255 
106 132 594 50 52 51 255 
107 132 594 52 54 53 255 
108 132 594 48 50 49 255 
109 132 594 19 23 22 255 
110 132 593 4 8 7 255 
111 132 593 6 11 5 255 
112 132 593 11 16 10 255 
113 132 593 6 16 8 255 
114 132 594 14 24 16 255 
115 132 594 118 137 133 255 
116 133 596 152 171 167 255 
117 133 597 142 170 171 255 
119 133 598 149 177 178 255 
120 134 600 146 180 181 255 
121 134 602 142 176 177 255 
123 134 604 144 175 177 255 
124 135 606 144 175 177 255 
125 135 608 142 173 175 255 
127 136 611 141 172 174 255 
128 136 613 141 171 173 255 
130 137 615 143 173 175 255 
131 137 617 146 176 178 255 
133 138 620 149 179 181 255 
134 138 622 146 176 178 255 
136 139 624 141 171 173 255 
137 139 626 141 171 173 255 
139 140 628 141 171 173 255 
140 140 631 145 175 177 255 
141 141 632 144 174 176 255 
143 141 634 144 174 176 255 
144 141 636 145 175 177 255 
146 142 638 146 176 178 255 
147 142 640 146 176 178 255 
149 143 642 145 175 177 255 
150 143 643 147 177 179 255 
152 143 645 150 180 182 255 
153 144 647 148 178 180 255 
155 144 649 148 178 180 255 
156 145 651 145 175 177 255 
158 145 653 143 173 175 255 
159 146 656 146 176 178 255 
161 146 657 146 176 178 255 
163 147 660 142 172 174 255 
164 147 662 141 171 173 255 
166 148 665 140 170 172 255 
167 148 667 144 174 176 255 
169 149 669 147 177 179 255 
171 149 672 146 176 178 255 
173 150 675 146 176 178 255 
174 150 677 146 176 178 255 
176 151 679 144 174 176 255 
177 151 680 143 174 176 255 
179 151 682 142 173 175 255 
180 152 683 146 174 177 255 
181 151 682 147 175 178 255 
181 151 678 151 181 181 255 
-63 165 732 27 23 20 255 
-61 163 724 26 21 18 255 
-59 160 710 25 20 17 255 
-48 135 602 29 21 18 255 
-46 134 595 25 20 16 255 
-45 132 589 23 18 14 255 
-44 131 584 24 19 13 255 
-42 131 581 24 19 13 255 
-41 130 578 25 22 15 255 
-40 130 576 27 24 17 255 
-39 129 574 28 25 18 255 
-38 128 571 28 25 18 255 
-37 128 570 27 24 17 255 
-36 128 568 26 23 16 255 
-35 128 567 27 24 19 255 
-34 127 565 27 24 19 255 
-33 127 564 27 24 19 255 
-32 127 563 27 24 19 255 
-31 126 562 29 26 21 255 
-30 126 561 28 25 20 255 
-29 126 561 25 22 17 255 
-28 126 560 23 20 15 255 
-27 126 558 28 23 19 255 
-26 125 557 28 23 19 255 
-25 125 556 27 22 18 255 
-24 125 555 26 21 17 255 
-23 125 554 25 20 16 255 
-22 124 553 24 19 15 255 
-21 124 551 24 19 15 255 
-21 124 550 22 17 13 255 
-20 123 549 26 21 17 255 
-19 123 549 22 17 13 255 
-18 123 548 26 21 17 255 
-17 123 548 25 20 16 255 
-16 123 547 17 12 8 255 
-15 123 547 20 15 11 255 
-14 123 547 29 24 20 255 
-13 123 548 34 29 25 255 
-13 124 549 48 42 30 255 
-12 124 551 82 76 64 255 
-11 124 553 105 101 72 255 
-10 125 554 106 102 73 255 
-9 125 557 106 103 72 255 
-8 126 559 104 101 70 255 
-7 126 561 108 102 76 255 
-6 126 562 113 107 81 255 
-6 127 563 112 107 78 255 
-5 127 564 109 104 75 255 
-4 127 566 111 104 75 255 
-3 127 566 110 103 74 255 
-2 128 568 106 99 73 255 
-1 128 569 105 98 72 255 
0 128 571 106 99 71 255 
1 129 572 110 103 75 255 
2 129 575 111 98 79 255 
3 130 577 113 100 81 255 
4 130 578 114 101 82 255 
5 130 580 112 99 80 255 
6 131 583 114 104 79 255 
7 132 585 114 104 79 255 
8 133 589 108 103 74 255 
9 134 594 113 108 79 255 
10 135 599 110 109 81 255 
11 136 606 106 105 77 255 
12 138 614 83 82 64 255 
18 148 656 37 39 36 255 
19 148 660 37 39 34 255 
20 150 665 44 46 41 255 
22 150 668 42 45 38 255 
23 151 669 44 47 40 255 
24 151 670 44 49 43 255 
25 151 670 42 47 41 255 
26 150 669 44 50 48 255 
27 150 668 43 49 47 255 
28 150 668 45 49 48 255 
29 150 667 40 44 43 255 
30 150 666 40 45 39 255 
31 150 665 40 45 39 255 
32 149 664 37 43 41 255 
33 149 662 38 44 42 255 
34 149 662 41 49 51 255 
35 149 661 41 49 51 255 
36 148 660 42 44 41 255 
37 148 659 41 43 40 255 
38 148 658 40 42 39 255 
39 148 658 42 44 41 255 
40 148 657 44 46 43 255 
41 147 655 44 46 43 255 
42 147 654 43 45 42 255 
43 147 653 43 45 42 255 
44 147 652 41 43 40 255 
45 146 651 43 45 42 255 
46 146 649 42 44 41 255 
47 146 649 44 46 43 255 
48 146 648 45 47 44 255 
49 145 646 46 48 45 255 
50 145 646 43 45 42 255 
51 145 645 46 48 45 255 
52 145 645 41 43 40 255 
53 145 644 40 42 39 255 
54 144 642 41 43 40 255 
55 144 642 44 46 43 255 
56 144 640 44 46 43 255 
57 144 640 41 43 40 255 
58 143 638 41 43 40 255 
59 143 638 43 45 42 255 
60 143 637 40 42 39 255 
61 143 636 41 43 40 255 
62 143 635 43 45 42 255 
62 143 634 44 46 43 255 
63 142 633 41 43 40 255 
64 142 632 40 42 39 255 
65 142 631 41 43 40 255 
66 142 631 42 44 41 255 
67 142 630 42 44 39 255 
68 141 629 42 44 39 255 
69 141 627 41 43 38 255 
70 141 627 41 43 38 255 
71 141 626 42 44 41 255 
72 140 625 45 47 44 255 
72 140 623 43 45 42 255 
73 140 623 35 37 34 255 
74 140 622 33 35 32 255 
75 140 621 35 37 34 255 
76 139 620 41 43 40 255 
77 139 619 46 48 45 255 
78 139 618 45 47 46 255 
79 139 618 44 46 45 255 
80 139 617 42 44 43 255 
81 138 616 39 41 40 255 
81 138 615 42 44 43 255 
82 138 615 47 49 48 255 
83 138 614 51 53 52 255 
84 137 612 50 52 51 255 
85 137 612 46 48 47 255 
86 137 610 47 49 48 255 
86 137 609 48 50 49 255 
87 137 608 45 47 46 255 
88 136 607 50 52 51 255 
89 136 606 51 53 52 255 
90 136 605 47 49 48 255 
91 136 604 44 46 45 255 
92 136 604 45 47 46 255 
93 136 604 46 48 47 255 
93 135 603 45 47 46 255 
94 135 603 45 47 46 255 
95 135 602 43 47 46 255 
96 135 601 43 47 46 255 
97 135 601 45 49 48 255 
98 135 600 46 50 49 255 
99 134 599 48 52 51 255 
99 134 598 47 51 50 255 
100 134 598 43 47 46 255 
101 134 597 45 49 48 255 
102 134 596 49 53 52 255 
103 134 595 46 50 49 255 
103 133 594 49 53 52 255 
104 133 593 46 50 49 255 
105 133 593 53 57 56 255 
106 133 593 53 57 56 255 
107 133 593 53 57 56 255 
108 133 593 57 61 60 255 
109 133 593 41 45 46 255 
110 133 593 20 24 25 255 
111 133 593 3 9 5 255 
112 133 593 3 9 5 255 
113 133 593 6 17 11 255 
114 133 593 51 62 56 255 
115 133 595 145 167 164 255 
116 134 596 155 177 174 255 
118 134 598 151 181 183 255 
119 134 599 151 181 183 255 
120 135 601 147 181 183 255 
121 135 603 144 178 180 255 
123 136 605 144 178 180 255 
124 136 607 144 178 180 255 
126 137 609 142 176 177 255 
127 137 612 141 175 176 255 
129 138 614 141 171 173 255 
130 138 616 143 173 175 255 
131 138 618 146 176 178 255 
133 139 620 149 179 181 255 
134 140 623 148 178 180 255 
136 140 625 146 176 178 255 
137 140 627 149 179 181 255 
139 141 629 153 183 185 255 
140 141 631 146 176 178 255 
142 142 633 141 171 173 255 
143 142 635 141 171 173 255 
145 143 637 142 172 174 255 
146 143 638 145 175 177 255 
147 143 640 145 175 177 255 
149 144 642 142 172 174 255 
150 144 644 142 172 174 255 
152 145 646 153 183 185 255 
153 145 648 150 180 182 255 
155 146 650 149 179 181 255 
156 146 652 147 177 179 255 
158 146 654 146 176 178 255 
160 147 657 149 179 181 255 
161 147 659 147 177 179 255 
163 148 661 139 169 171 255 
165 149 664 138 168 170 255 
166 149 666 139 169 171 255 
168 150 669 143 173 175 255 
169 150 671 144 174 176 255 
171 151 673 143 173 175 255 
173 151 676 147 177 179 255 
175 152 678 149 179 181 255 
176 152 680 145 175 177 255 
178 153 682 144 175 177 255 
179 153 683 149 180 182 255 
180 153 683 152 182 184 255 
181 153 682 147 177 179 255 
180 151 674 150 180 180 255 
-62 167 736 26 16 15 255 
-60 165 730 25 15 14 255 
-44 135 594 24 20 17 255 
-43 133 589 25 21 18 255 
-42 132 585 25 21 18 255 
-41 132 581 25 21 18 255 
-39 131 578 27 24 19 255 
-38 130 575 27 24 19 255 
-37 130 573 27 22 18 255 
-36 129 570 28 23 19 255 
-35 129 569 28 23 17 255 
-34 128 567 27 22 16 255 
-33 128 565 27 22 16 255 
-32 128 564 25 20 14 255 
-31 128 564 21 17 8 255 
-30 128 563 21 17 8 255 
-29 127 561 25 18 10 255 
-28 127 561 24 17 9 255 
-27 127 559 27 22 16 255 
-26 126 558 26 21 15 255 
-25 126 557 24 19 13 255 
-24 126 555 23 18 12 255 
-23 126 555 24 19 13 255 
-23 126 554 23 18 12 255 
-22 125 552 23 18 12 255 
-21 125 551 25 20 14 255 
-20 125 550 26 21 15 255 
-19 124 549 26 21 15 255 
-18 124 549 26 21 15 255 
-17 124 549 29 24 18 255 
-16 124 548 17 12 6 255 
-15 124 548 14 9 3 255 
-14 124 548 22 17 11 255 
-13 124 549 29 24 18 255 
-13 125 550 45 37 26 255 
-12 125 551 81 73 62 255 
-11 125 553 107 102 73 255 
-10 126 555 106 101 72 255 
-9 126 557 108 103 73 255 
-8 127 560 109 104 74 255 
-7 127 562 110 104 78 255 
-6 127 562 112 106 80 255 
-6 128 564 113 108 79 255 
-5 128 565 108 103 74 255 
-4 128 566 109 102 74 255 
-3 128 567 107 100 72 255 
-2 129 568 106 98 75 255 
-1 129 570 108 100 77 255 
0 130 572 107 100 72 255 
1 130 573 109 102 74 255 
2 131 576 117 105 83 255 
3 131 578 118 106 84 255 
4 131 580 114 109 79 255 
5 132 582 107 102 72 255 
6 133 585 105 100 71 255 
7 133 588 109 104 75 255 
8 135 594 115 103 77 255 
9 135 598 120 108 82 255 
10 137 606 118 108 83 255 
17 148 655 43 51 40 255 
18 150 661 42 50 39 255 
19 151 666 43 45 42 255 
20 152 669 43 45 42 255 
22 152 671 41 43 40 255 
23 152 671 38 40 37 255 
24 152 671 43 45 42 255 
25 152 671 40 42 39 255 
26 152 670 42 44 41 255 
27 152 669 47 49 46 255 
28 151 668 45 47 44 255 
29 151 667 42 44 41 255 
30 151 667 41 43 40 255 
31 151 666 42 44 41 255 
32 150 664 39 41 38 255 
33 150 664 40 42 39 255 
34 150 662 46 48 45 255 
35 150 662 46 48 45 255 
36 150 661 42 44 41 255 
37 150 660 40 42 39 255 
38 149 659 40 42 39 255 
39 149 658 40 42 39 255 
40 149 657 40 42 39 255 
41 149 656 43 45 42 255 
42 148 655 45 47 44 255 
43 148 654 43 45 42 255 
44 148 653 40 45 41 255 
45 148 652 41 46 42 255 
46 147 650 40 45 41 255 
47 147 649 38 43 39 255 
48 147 649 40 45 41 255 
49 147 647 42 47 43 255 
50 146 646 42 47 43 255 
51 146 646 39 44 40 255 
52 146 645 37 42 38 255 
53 146 644 37 42 38 255 
54 146 643 38 43 39 255 
55 145 642 39 44 40 255 
56 145 641 41 46 42 255 
57 145 641 42 47 43 255 
58 145 639 42 47 43 255 
59 145 639 42 47 43 255 
60 144 638 40 45 41 255 
61 144 636 40 45 41 255 
62 144 636 45 47 44 255 
63 144 635 46 48 45 255 
63 144 634 44 46 43 255 
64 143 633 43 45 42 255 
65 143 632 43 45 42 255 
66 143 632 40 42 39 255 
67 143 630 41 46 40 255 
68 142 629 42 47 41 255 
69 142 628 42 47 41 255 
70 142 627 43 48 42 255 
71 142 627 44 49 45 255 
72 141 625 41 46 42 255 
73 141 624 38 40 37 255 
73 141 623 36 38 35 255 
74 141 622 37 39 36 255 
75 141 622 39 41 38 255 
76 141 621 43 45 42 255 
77 140 620 45 47 44 255 
78 140 619 43 45 44 255 
79 140 618 39 41 40 255 
80 140 618 38 38 38 255 
81 140 617 39 39 39 255 
81 139 615 42 44 43 255 
82 139 615 50 52 51 255 
83 139 614 49 51 50 255 
84 139 613 49 51 50 255 
85 138 612 50 52 51 255 
86 138 611 30 32 31 255 
87 138 610 38 40 39 255 
87 138 609 48 50 49 255 
88 138 608 51 53 52 255 
89 137 607 48 50 49 255 
90 137 606 44 46 45 255 
91 137 605 44 46 45 255 
92 137 605 46 48 47 255 
93 137 604 48 50 49 255 
94 137 604 49 51 50 255 
94 136 603 46 48 47 255 
95 136 602 44 46 45 255 
96 136 602 47 49 48 255 
97 136 601 51 53 52 255 
98 136 600 47 49 48 255 
99 136 600 46 48 47 255 
100 135 599 49 51 50 255 
100 135 598 48 50 49 255 
101 135 598 48 50 49 255 
102 135 597 46 48 47 255 
103 135 596 46 48 47 255 
103 134 594 48 50 49 255 
104 134 593 49 51 50 255 
105 134 593 49 51 50 255 
106 134 593 51 53 52 255 
107 134 592 53 55 54 255 
108 134 592 52 54 53 255 
109 134 592 48 55 48 255 
110 134 592 37 44 37 255 
111 134 592 9 19 18 255 
112 134 593 0 3 2 255 
113 134 593 38 58 59 255 
114 134 594 124 144 145 255 
115 134 595 150 180 182 255 
116 135 597 149 179 181 255 
118 135 599 147 179 178 255 
119 135 600 149 181 180 255 
120 136 602 154 183 181 255 
122 136 604 150 179 177 255 
123 137 606 150 179 177 255 
124 137 608 151 180 178 255 
126 138 610 151 182 184 255 
127 138 612 142 173 175 255 
129 139 614 145 175 177 255 
130 139 616 143 173 175 255 
132 140 619 148 178 180 255 
133 140 621 148 178 180 255 
134 141 623 142 173 175 255 
136 141 625 142 173 175 255 
137 141 627 141 172 174 255 
139 142 630 140 171 173 255 
140 143 632 136 167 169 255 
142 143 634 142 173 175 255 
143 143 636 147 178 180 255 
145 144 638 147 178 180 255 
146 144 639 145 176 178 255 
148 145 641 141 172 174 255 
149 145 643 136 167 169 255 
151 145 645 137 168 170 255 
152 146 647 149 179 179 255 
154 146 649 149 179 179 255 
155 147 651 149 179 179 255 
157 147 653 148 178 178 255 
158 148 656 149 179 179 255 
160 148 658 149 179 179 255 
161 149 660 146 176 176 255 
163 149 662 142 172 172 255 
165 150 665 138 168 168 255 
167 151 668 146 176 176 255 
168 151 670 143 173 173 255 
170 151 672 139 169 169 255 
171 152 674 145 175 175 255 
173 153 677 149 179 179 255 
175 153 679 145 175 175 255 
176 153 681 143 173 173 255 
178 154 683 150 180 182 255 
179 154 684 152 182 184 255 
180 154 684 148 182 181 255 
181 154 682 148 182 181 255 
181 153 679 151 179 180 255 
-59 167 734 22 14 12 255 
-58 166 727 25 17 15 255 
-56 164 721 28 20 18 255 
-41 134 589 25 20 17 255 
-40 133 584 26 21 18 255 
-39 132 580 26 21 18 255 
-37 132 577 27 22 18 255 
-36 131 574 28 23 19 255 
-35 130 571 27 22 18 255 
-34 130 569 26 21 17 255 
-33 130 568 26 21 15 255 
-32 129 566 25 20 14 255 
-31 129 565 25 20 14 255 
-30 129 564 24 19 13 255 
-29 128 563 26 19 13 255 
-28 128 562 25 18 12 255 
-27 128 560 25 20 16 255 
-26 128 559 23 18 14 255 
-25 127 558 23 18 14 255 
-24 127 556 24 19 15 255 
-23 127 556 25 20 16 255 
-23 126 554 25 20 16 255 
-22 126 553 25 20 16 255 
-21 126 552 28 23 19 255 
-20 126 551 30 25 21 255 
-19 125 550 32 27 23 255 
-18 125 549 32 27 23 255 
-17 125 549 35 30 26 255 
-16 125 549 23 18 14 255 
-15 125 548 18 13 9 255 
-14 125 549 23 18 14 255 
-13 125 549 31 26 22 255 
-13 125 550 46 38 27 255 
-12 126 552 81 73 62 255 
-11 126 554 107 101 75 255 
-10 127 555 106 100 74 255 
-9 127 558 109 104 75 255 
-8 128 560 109 104 75 255 
-7 128 562 108 102 78 255 
-6 128 563 108 102 78 255 
-6 129 564 106 101 72 255 
-5 129 566 105 100 71 255 
-4 129 567 106 99 71 255 
-3 130 568 105 98 70 255 
-2 130 569 104 96 73 255 
-1 130 571 105 97 74 255 
0 131 573 107 100 72 255 
1 131 575 109 102 74 255 
2 131 576 117 108 79 255 
3 132 579 117 108 79 255 
4 133 581 114 107 79 255 
5 133 585 111 104 76 255 
6 134 588 104 97 69 255 
7 135 593 108 101 73 255 
8 136 598 116 109 83 255 
9 138 605 112 105 79 255 
16 149 655 40 47 40 255 
17 151 663 38 48 40 255 
18 152 667 39 49 41 255 
19 153 670 42 44 41 255 
21 154 673 43 45 42 255 
22 154 673 41 43 40 255 
23 154 673 37 39 36 255 
24 154 673 42 44 41 255 
25 153 672 41 43 40 255 
26 153 672 42 44 41 255 
27 153 670 44 46 43 255 
28 153 669 45 47 44 255 
29 152 668 44 46 43 255 
30 152 667 44 46 43 255 
31 152 666 43 45 42 255 
32 152 666 40 42 39 255 
33 152 665 41 43 40 255 
34 151 663 47 49 46 255 
35 151 662 48 50 47 255 
36 151 661 43 45 42 255 
37 151 661 41 43 40 255 
38 151 660 40 42 39 255 
39 150 659 42 44 41 255 
40 150 658 42 44 41 255 
41 150 657 41 43 40 255 
42 150 656 39 41 38 255 
43 149 655 37 39 36 255 
44 149 654 35 40 36 255 
45 149 652 37 42 38 255 
46 148 651 40 45 41 255 
47 148 650 43 48 44 255 
48 148 649 43 48 44 255 
49 148 648 43 48 44 255 
50 148 647 41 46 42 255 
51 147 646 39 44 40 255 
52 147 646 41 46 42 255 
53 147 645 40 45 41 255 
54 147 644 39 44 40 255 
55 147 644 39 44 40 255 
56 146 642 41 46 42 255 
57 146 641 43 48 44 255 
58 146 640 44 49 45 255 
59 146 639 44 49 45 255 
60 146 639 43 48 44 255 
61 145 637 44 49 45 255 
62 145 636 46 51 47 255 
63 145 636 47 52 48 255 
64 145 635 47 52 48 255 
64 145 634 46 51 47 255 
65 144 633 46 51 47 255 
66 144 632 45 50 46 255 
67 144 632 42 47 41 255 
68 144 631 44 49 43 255 
69 143 629 43 50 43 255 
70 143 628 43 50 43 255 
71 143 627 44 49 45 255 
72 143 626 41 46 42 255 
73 142 625 40 45 41 255 
74 142 624 40 45 41 255 
74 142 623 44 46 43 255 
75 142 622 42 44 41 255 
76 142 621 40 45 41 255 
77 142 621 42 47 43 255 
78 141 620 44 46 45 255 
79 141 619 42 44 43 255 
80 141 618 42 44 43 255 
81 141 617 45 47 46 255 
82 140 616 42 46 45 255 
82 140 615 43 47 46 255 
83 140 614 51 55 54 255 
84 140 613 53 57 56 255 
85 139 612 41 43 42 255 
86 139 612 15 17 16 255 
87 139 611 27 29 28 255 
88 139 610 38 40 39 255 
88 139 609 45 47 46 255 
89 138 608 46 48 47 255 
90 138 607 48 50 49 255 
91 138 606 49 51 50 255 
92 138 606 47 49 48 255 
93 138 605 45 47 46 255 
94 138 604 45 47 46 255 
95 138 604 46 48 47 255 
95 138 604 47 49 48 255 
96 137 603 51 53 52 255 
97 137 602 52 54 53 255 
98 137 601 47 49 48 255 
99 137 601 46 48 47 255 
100 137 600 51 53 52 255 
100 136 599 52 54 53 255 
101 136 598 49 51 50 255 
102 136 597 50 52 51 255 
103 136 596 49 51 50 255 
104 135 595 49 51 50 255 
104 135 594 48 50 49 255 
105 135 593 47 49 48 255 
106 135 593 48 50 49 255 
107 135 592 51 53 52 255 
108 135 592 52 54 53 255 
109 135 592 42 48 44 255 
110 135 592 48 54 50 255 
111 135 592 33 43 42 255 
112 135 593 35 45 44 255 
113 135 593 93 114 117 255 
114 135 594 152 173 176 255 
115 136 596 147 178 180 255 
116 136 597 147 178 180 255 
118 136 599 146 178 177 255 
119 137 601 150 182 181 255 
121 137 603 155 184 182 255 
122 138 605 151 180 178 255 
123 138 607 151 179 180 255 
125 138 609 152 180 181 255 
126 139 611 151 182 185 255 
127 139 613 144 175 178 255 
129 140 615 145 175 177 255 
130 140 617 143 173 175 255 
132 141 619 149 179 181 255 
133 141 622 151 181 183 255 
134 142 623 146 177 179 255 
136 142 626 145 176 178 255 
138 143 628 145 176 178 255 
139 143 630 141 172 174 255 
140 144 632 140 171 173 255 
142 144 634 144 175 177 255 
143 144 636 149 180 182 255 
145 145 638 150 181 183 255 
146 145 640 151 182 184 255 
148 146 642 146 177 179 255 
149 146 644 139 170 172 255 
151 147 646 139 170 172 255 
152 147 648 142 174 173 255 
154 148 650 144 176 175 255 
155 148 652 144 176 175 255 
157 148 654 145 177 176 255 
159 149 657 148 180 179 255 
160 150 659 148 180 179 255 
162 150 661 144 176 175 255 
163 151 663 141 173 172 255 
165 151 666 139 171 170 255 
167 152 668 145 177 176 255 
168 152 671 143 175 174 255 
170 153 673 140 172 171 255 
172 153 676 146 176 176 255 
173 154 678 148 178 178 255 
175 154 680 145 175 175 255 
177 155 682 142 172 172 255 
178 155 684 148 178 180 255 
180 155 685 152 182 184 255 
180 155 684 149 183 182 255 
181 155 682 149 183 182 255 
181 154 678 152 181 179 255 
-57 168 732 29 23 23 255 
-55 167 728 27 21 21 255 
-54 166 721 28 23 20 255 
-42 139 605 28 23 20 255 
-41 137 595 27 22 19 255 
-39 135 589 27 22 19 255 
-38 134 583 29 24 21 255 
-37 133 578 31 26 23 255 
-35 132 574 28 23 19 255 
-34 131 572 27 22 18 255 
-33 131 570 28 20 17 255 
-32 130 568 29 21 18 255 
-31 130 567 30 22 19 255 
-30 130 566 29 21 18 255 
-29 130 564 27 19 16 255 
-28 129 563 26 18 15 255 
-27 129 562 25 20 16 255 
-26 129 560 23 18 14 255 
-25 128 559 23 18 14 255 
-24 128 558 25 20 16 255 
-24 128 557 27 22 18 255 
-23 128 555 26 21 17 255 
-22 127 554 28 23 19 255 
-21 127 553 32 27 23 255 
-20 127 552 33 28 24 255 
-19 127 552 33 28 24 255 
-18 126 550 33 28 24 255 
-17 126 550 36 31 27 255 
-16 126 550 26 21 17 255 
-15 126 549 18 13 9 255 
-14 126 549 23 18 14 255 
-13 126 550 30 25 21 255 
-13 127 551 43 34 25 255 
-12 127 553 80 71 62 255 
-11 127 554 108 102 76 255 
-10 128 556 108 102 76 255 
-9 128 558 110 105 76 255 
-8 129 561 108 103 74 255 
-7 129 563 107 101 77 255 
-6 130 564 107 101 77 255 
-6 130 565 107 102 73 255 
-5 130 566 107 102 73 255 
-4 131 568 106 99 71 255 
-3 131 569 105 98 70 255 
-2 131 571 103 95 72 255 
-1 131 572 104 96 73 255 
0 132 574 107 100 72 255 
1 132 576 108 101 73 255 
2 133 578 112 106 72 255 
3 133 580 119 113 79 255 
4 134 583 115 108 82 255 
5 135 587 108 101 75 255 
6 136 591 103 96 68 255 
16 152 663 39 47 36 255 
17 153 667 35 44 39 255 
18 154 671 37 46 41 255 
19 155 673 43 45 42 255 
21 155 675 44 46 43 255 
22 155 674 44 46 43 255 
23 155 674 40 42 39 255 
24 155 674 44 46 43 255 
25 155 673 45 47 44 255 
26 154 672 46 48 45 255 
27 154 671 45 47 44 255 
28 154 671 46 48 45 255 
29 154 669 46 48 45 255 
30 153 668 45 47 44 255 
31 153 667 44 46 43 255 
32 153 665 42 44 41 255 
33 153 665 42 44 41 255 
34 153 664 47 49 46 255 
35 152 663 47 49 46 255 
36 152 662 48 50 47 255 
37 152 661 45 47 44 255 
38 152 661 42 44 41 255 
39 152 660 44 46 43 255 
40 151 659 44 46 43 255 
41 151 658 41 43 40 255 
42 151 657 38 40 37 255 
43 150 655 38 40 37 255 
44 150 655 36 41 37 255 
45 150 653 35 40 36 255 
46 150 652 41 46 42 255 
47 150 651 44 49 45 255 
48 149 650 44 49 45 255 
49 149 649 43 48 44 255 
50 149 648 40 45 41 255 
51 149 647 41 46 42 255 
52 149 647 45 47 44 255 
53 148 646 43 45 42 255 
54 148 645 41 43 40 255 
55 148 645 40 42 39 255 
56 148 643 39 44 40 255 
57 147 642 40 45 41 255 
58 147 641 42 47 43 255 
59 147 639 44 49 45 255 
60 147 639 43 48 44 255 
61 146 638 43 48 44 255 
62 146 637 45 50 46 255 
63 146 636 46 51 47 255 
64 146 635 46 51 47 255 
65 146 635 44 49 45 255 
66 146 634 42 47 43 255 
66 145 633 41 46 42 255 
67 145 632 41 48 41 255 
68 145 631 42 49 42 255 
69 145 630 42 49 42 255 
70 144 629 42 49 42 255 
71 144 627 41 47 43 255 
72 144 626 40 46 42 255 
73 144 626 40 45 41 255 
74 143 625 42 47 43 255 
75 143 624 43 48 44 255 
75 143 623 41 46 42 255 
76 143 622 41 46 42 255 
77 143 621 43 48 44 255 
78 143 621 44 48 47 255 
79 142 620 42 46 45 255 
80 142 619 45 47 46 255 
81 142 618 49 51 50 255 
82 142 617 48 53 49 255 
83 141 616 44 49 45 255 
83 141 615 52 57 53 255 
84 141 615 55 60 56 255 
85 141 614 37 42 38 255 
86 141 613 8 13 9 255 
87 140 612 20 24 23 255 
88 140 611 34 38 37 255 
89 140 611 33 35 34 255 
90 140 610 27 29 28 255 
90 139 608 28 30 29 255 
91 139 607 33 35 34 255 
92 139 606 41 43 42 255 
93 139 606 49 51 50 255 
94 139 605 51 53 52 255 
95 138 604 51 53 52 255 
95 138 604 49 51 50 255 
96 138 603 50 52 51 255 
97 138 602 49 51 50 255 
98 138 601 45 47 46 255 
99 138 601 45 47 46 255 
100 138 600 51 53 52 255 
100 137 599 54 56 55 255 
101 137 598 48 50 49 255 
102 137 597 50 52 51 255 
103 137 596 51 53 52 255 
104 137 596 50 52 51 255 
105 136 595 49 51 50 255 
105 136 594 47 49 48 255 
106 136 593 47 49 48 255 
107 136 592 49 51 50 255 
108 136 592 53 55 54 255 
109 136 592 49 55 51 255 
110 136 592 48 54 50 255 
111 136 592 47 59 59 255 
112 136 593 65 77 77 255 
113 136 594 107 131 133 255 
114 136 595 150 174 176 255 
115 137 597 147 178 181 255 
117 137 599 146 177 180 255 
118 137 600 142 173 175 255 
119 138 602 147 178 180 255 
121 138 604 153 181 182 255 
122 139 606 151 179 180 255 
123 139 608 152 180 181 255 
125 140 610 151 179 180 255 
126 140 611 150 181 184 255 
128 141 614 144 175 178 255 
129 141 616 144 174 176 255 
130 141 618 141 171 173 255 
132 142 621 145 175 177 255 
133 143 623 149 179 181 255 
135 143 624 147 178 180 255 
136 143 626 148 179 181 255 
138 144 629 150 181 183 255 
139 144 631 145 176 178 255 
141 145 633 142 173 175 255 
142 145 635 144 175 177 255 
143 146 636 146 177 179 255 
145 146 639 149 180 182 255 
147 147 641 153 184 186 255 
148 147 642 148 179 181 255 
149 147 644 142 173 175 255 
151 148 646 144 175 177 255 
153 148 649 142 173 175 255 
154 149 651 144 175 177 255 
156 149 653 144 175 177 255 
157 150 655 144 175 177 255 
159 150 658 145 176 178 255 
160 151 660 144 175 177 255 
162 151 662 140 171 173 255 
163 152 664 140 171 173 255 
165 152 666 143 174 176 255 
167 153 669 146 177 179 255 
169 154 672 145 175 177 255 
170 154 675 142 172 174 255 
172 155 677 145 175 177 255 
174 155 679 146 176 178 255 
175 156 681 144 174 176 255 
177 156 683 143 173 175 255 
178 156 684 148 176 179 255 
180 156 685 152 180 183 255 
181 156 685 152 184 183 255 
181 156 682 150 182 181 255 
-56 170 736 28 26 27 255 
-55 169 732 30 22 20 255 
-53 168 727 29 21 19 255 
-51 167 721 29 21 19 255 
-39 137 594 28 20 18 255 
-37 136 588 29 21 19 255 
-36 135 582 30 22 19 255 
-35 134 578 30 22 19 255 
-34 133 574 29 24 20 255 
-32 132 572 29 24 20 255 
-31 132 569 29 24 20 255 
-30 131 567 27 22 18 255 
-29 131 566 25 20 16 255 
-28 130 564 26 21 17 255 
-27 130 562 27 22 18 255 
-26 130 561 25 20 16 255 
-25 130 560 25 20 16 255 
-24 129 558 28 23 19 255 
-24 129 558 28 23 19 255 
-23 129 556 27 22 18 255 
-22 128 555 29 24 20 255 
-21 128 554 32 27 23 255 
-20 128 553 32 27 23 255 
-19 128 552 29 24 20 255 
-18 128 552 28 23 19 255 
-17 127 551 32 27 23 255 
-16 127 551 25 20 16 255 
-15 127 551 18 13 9 255 
-14 127 551 22 17 13 255 
-13 127 551 27 22 18 255 
-13 127 551 38 29 22 255 
-12 128 553 77 68 61 255 
-11 128 555 109 103 77 255 
-10 129 556 109 103 77 255 
-9 129 559 107 102 73 255 
-8 130 561 105 100 71 255 
-7 130 563 108 102 78 255 
-6 131 565 111 105 81 255 
-6 131 566 107 102 73 255 
-5 131 567 107 102 73 255 
-4 131 568 105 98 70 255 
-3 132 570 105 98 70 255 
-2 132 571 106 99 73 255 
-1 133 573 107 100 74 255 
0 133 575 110 103 75 255 
1 134 577 108 101 73 255 
2 134 579 106 103 68 255 
3 135 582 115 112 77 255 
4 136 586 113 106 77 255 
5 137 590 112 105 76 255 
6 138 595 113 105 82 255 
15 153 663 43 48 41 255 
16 155 669 40 45 38 255 
17 155 672 37 46 41 255 
18 156 675 38 47 42 255 
20 156 676 42 44 41 255 
21 156 676 44 46 43 255 
22 156 676 45 47 44 255 
23 156 675 42 44 41 255 
24 156 675 47 49 46 255 
25 156 674 46 48 45 255 
26 156 673 48 50 47 255 
27 155 672 48 50 47 255 
28 155 671 49 51 48 255 
29 155 670 47 49 46 255 
30 155 669 44 46 43 255 
31 155 668 42 44 41 255 
32 154 667 41 43 40 255 
33 154 666 43 45 42 255 
34 154 664 47 49 46 255 
35 154 664 46 48 45 255 
36 153 663 47 52 48 255 
37 153 662 45 50 46 255 
38 153 661 43 48 44 255 
39 153 660 42 47 43 255 
40 153 660 42 47 43 255 
41 152 659 41 46 42 255 
42 152 658 41 46 42 255 
43 152 657 42 47 43 255 
44 152 655 39 44 40 255 
45 151 654 40 45 41 255 
46 151 653 43 48 44 255 
47 151 652 41 46 42 255 
48 151 651 41 46 42 255 
49 150 649 42 47 43 255 
50 150 648 40 45 41 255 
51 150 648 43 48 44 255 
52 150 647 44 46 43 255 
53 150 647 44 46 43 255 
54 149 646 43 45 42 255 
55 149 645 42 44 41 255 
56 149 644 38 43 39 255 
57 149 643 39 44 40 255 
58 148 642 41 46 42 255 
59 148 640 43 48 44 255 
60 148 639 47 52 48 255 
61 148 639 46 51 47 255 
62 148 638 45 51 47 255 
63 147 637 47 53 49 255 
64 147 636 47 53 49 255 
65 147 635 45 51 47 255 
66 147 635 43 49 45 255 
67 147 634 42 48 44 255 
67 146 633 42 49 42 255 
68 146 632 41 48 41 255 
69 146 631 40 47 40 255 
70 145 629 40 47 40 255 
71 145 628 40 46 42 255 
72 145 627 39 45 41 255 
73 145 626 40 45 41 255 
74 144 625 42 47 43 255 
75 144 624 39 44 40 255 
76 144 624 42 47 43 255 
76 144 623 46 51 47 255 
77 144 623 47 52 48 255 
78 143 621 47 51 50 255 
79 143 620 45 49 48 255 
80 143 620 47 49 48 255 
81 143 619 48 50 49 255 
82 143 617 49 54 50 255 
83 142 616 49 54 50 255 
83 142 615 49 54 50 255 
84 142 615 50 55 51 255 
85 142 614 43 48 44 255 
86 142 614 19 24 20 255 
87 142 613 16 20 19 255 
88 142 613 27 31 30 255 
89 141 612 20 22 21 255 
90 141 611 12 14 13 255 
90 141 609 13 15 14 255 
91 140 608 16 18 17 255 
92 140 607 28 30 29 255 
93 140 606 45 47 46 255 
94 140 606 51 52 54 255 
95 140 605 51 52 54 255 
95 139 604 47 49 48 255 
96 139 603 48 50 49 255 
97 139 603 46 48 47 255 
98 139 602 45 47 46 255 
99 139 601 48 50 49 255 
100 138 600 51 53 52 255 
100 138 599 53 55 54 255 
101 138 599 47 49 48 255 
102 138 598 46 48 47 255 
103 138 597 48 50 49 255 
104 138 596 50 52 51 255 
105 138 596 50 52 51 255 
106 137 595 49 51 50 255 
106 137 594 48 50 49 255 
107 137 593 50 52 51 255 
108 137 593 54 56 55 255 
109 137 593 47 53 49 255 
110 137 593 47 53 49 255 
111 137 593 45 61 60 255 
112 137 593 69 85 84 255 
113 137 594 112 138 139 255 
114 137 596 145 171 172 255 
116 138 598 143 174 177 255 
117 138 599 143 174 177 255 
118 139 601 140 171 173 255 
120 139 603 144 175 177 255 
121 140 605 150 178 179 255 
122 140 608 149 177 178 255 
124 140 609 151 179 180 255 
125 141 611 150 178 179 255 
126 141 613 149 180 183 255 
128 142 615 144 175 178 255 
129 142 617 148 178 180 255 
131 143 619 145 175 177 255 
132 143 621 145 175 177 255 
133 144 623 149 179 181 255 
135 144 625 147 178 180 255 
136 144 627 147 178 180 255 
138 145 629 150 181 183 255 
139 146 632 146 177 179 255 
141 146 634 145 176 178 255 
142 147 636 147 178 180 255 
144 147 637 146 177 179 255 
145 147 639 146 177 179 255 
147 148 641 150 181 183 255 
148 148 643 145 176 178 255 
150 149 645 139 170 172 255 
151 149 647 145 176 178 255 
153 150 650 142 173 175 255 
154 150 652 144 175 177 255 
156 151 654 144 175 177 255 
157 151 656 144 175 177 255 
159 152 659 143 174 176 255 
161 152 661 142 173 175 255 
162 153 663 142 173 175 255 
164 153 665 143 174 176 255 
165 154 667 145 175 177 255 
167 154 670 147 177 179 255 
169 155 673 145 175 177 255 
171 156 676 144 174 176 255 
172 156 678 145 175 177 255 
174 156 680 145 175 177 255 
176 157 683 143 173 175 255 
177 157 684 143 173 175 255 
178 158 685 150 178 179 255 
180 158 686 153 181 182 255 
181 158 685 151 183 182 255 
181 157 683 150 182 181 255 
-54 171 735 29 24 21 255 
-52 170 731 27 22 19 255 
-51 169 727 27 22 19 255 
-49 168 721 28 23 20 255 
-47 166 713 29 24 21 255 
-45 163 699 28 23 20 255 
-37 138 594 29 24 20 255 
-35 137 587 29 24 20 255 
-34 136 582 29 24 20 255 
-33 135 578 29 24 20 255 
-32 134 574 27 22 18 255 
-31 133 571 26 21 17 255 
-30 133 569 26 21 17 255 
-28 132 566 26 21 17 255 
-27 131 564 27 22 18 255 
-27 131 563 26 21 17 255 
-26 131 562 28 23 19 255 
-25 130 560 30 25 21 255 
-24 130 559 29 24 20 255 
-23 130 558 27 22 18 255 
-22 130 556 27 22 18 255 
-21 129 555 29 24 20 255 
-20 129 554 29 24 20 255 
-19 129 553 24 19 15 255 
-18 129 552 25 20 16 255 
-17 129 552 30 25 21 255 
-16 128 551 26 21 17 255 
-15 128 551 20 15 11 255 
-14 128 551 25 20 16 255 
-13 128 551 28 23 19 255 
-13 129 552 35 26 19 255 
-12 129 553 72 63 56 255 
-11 129 555 107 101 75 255 
-10 130 557 108 102 76 255 
-9 130 559 102 97 68 255 
-8 131 561 102 97 68 255 
-7 131 563 109 103 79 255 
-6 132 565 113 107 83 255 
-6 132 567 108 103 74 255 
-5 132 568 109 104 75 255 
-4 133 569 107 100 72 255 
-3 133 571 107 100 72 255 
-2 134 573 108 101 75 255 
-1 134 575 107 100 74 255 
0 134 577 107 100 72 255 
1 135 579 104 97 69 255 
2 136 582 105 102 71 255 
3 137 586 101 98 67 255 
4 137 590 105 99 67 255 
5 139 596 110 104 72 255 
14 154 663 52 54 49 255 
15 156 670 48 50 47 255 
16 157 673 43 45 42 255 
17 157 675 42 49 42 255 
19 158 677 41 48 41 255 
20 158 678 44 46 43 255 
21 158 677 44 46 43 255 
22 158 677 44 46 43 255 
23 157 676 43 45 42 255 
24 157 675 46 48 45 255 
25 157 674 43 45 42 255 
26 157 674 45 47 44 255 
27 157 673 50 52 49 255 
28 157 672 53 55 52 255 
29 156 671 49 51 48 255 
30 156 670 46 48 45 255 
31 156 669 44 46 43 255 
32 156 668 40 42 39 255 
33 155 667 43 45 42 255 
34 155 666 48 50 47 255 
35 155 664 47 49 46 255 
36 154 663 43 48 44 255 
37 154 663 44 49 45 255 
38 154 662 45 50 46 255 
39 154 661 44 49 45 255 
40 154 660 43 48 44 255 
41 153 659 45 50 46 255 
43 153 659 44 49 45 255 
44 153 658 42 47 43 255 
45 153 657 41 46 42 255 
45 153 655 45 50 46 255 
46 152 654 47 52 48 255 
47 152 653 40 45 41 255 
48 152 652 41 46 42 255 
49 151 650 43 48 44 255 
50 151 650 39 44 40 255 
51 151 649 41 46 42 255 
52 151 648 41 46 42 255 
53 151 648 42 47 43 255 
54 151 647 43 48 44 255 
55 150 646 43 48 44 255 
56 150 645 42 47 43 255 
57 150 644 41 46 42 255 
58 149 642 42 47 43 255 
59 149 642 43 48 44 255 
60 149 640 41 47 43 255 
61 149 639 40 46 42 255 
62 149 638 41 47 43 255 
63 149 638 41 47 43 255 
64 148 637 42 48 44 255 
65 148 636 42 48 44 255 
66 148 635 42 48 44 255 
67 148 634 43 49 45 255 
68 148 634 45 52 45 255 
68 147 633 43 50 43 255 
69 147 632 42 47 41 255 
70 147 630 41 46 40 255 
71 146 629 41 46 42 255 
72 146 628 42 47 43 255 
73 146 627 43 48 44 255 
74 146 626 44 49 45 255 
75 145 625 41 46 42 255 
76 145 624 46 51 47 255 
77 145 624 52 54 51 255 
78 145 624 51 53 50 255 
78 145 623 49 51 50 255 
79 144 621 50 52 51 255 
80 144 620 50 52 51 255 
81 144 620 47 49 48 255 
82 144 618 46 51 47 255 
83 144 617 49 54 50 255 
83 143 616 46 51 47 255 
84 143 615 45 50 46 255 
85 143 615 50 52 49 255 
86 143 614 33 35 32 255 
87 143 613 16 18 17 255 
88 143 613 13 15 14 255 
89 143 613 8 10 9 255 
90 142 612 15 17 16 255 
91 142 610 27 29 28 255 
91 142 609 22 24 23 255 
92 141 608 17 17 17 255 
93 141 607 32 32 32 255 
94 141 606 45 45 47 255 
95 141 605 48 48 50 255 
95 140 604 48 50 49 255 
96 140 604 49 51 50 255 
97 140 603 47 49 48 255 
98 140 603 51 53 52 255 
99 140 602 53 55 54 255 
100 140 601 51 53 52 255 
101 139 600 49 51 50 255 
101 139 599 47 49 48 255 
102 139 599 44 46 45 255 
103 139 598 44 46 45 255 
104 139 597 47 49 48 255 
105 138 596 49 51 50 255 
106 138 595 50 52 51 255 
106 138 595 51 53 52 255 
107 138 594 53 55 54 255 
108 138 593 54 56 55 255 
109 138 593 41 47 43 255 
110 138 593 50 56 52 255 
111 138 594 51 67 66 255 
