ply
format ascii 1.0
comment VCGLIB generated
element vertex 1859
property float x
property float y
property float z
property uchar red
property uchar green
property uchar blue
property uchar alpha
element face 0
property list uchar int vertex_indices
end_header
-54 -31 602 50 50 48 255 
-53 -31 603 47 47 45 255 
-52 -31 603 47 47 45 255 
-51 -31 603 45 45 45 255 
-50 -31 603 46 46 46 255 
-49 -31 603 47 47 47 255 
-48 -31 602 48 48 48 255 
-47 -31 602 50 50 50 255 
-46 -31 602 49 49 49 255 
-45 -31 602 49 49 47 255 
-44 -31 603 49 49 47 255 
-43 -31 603 49 49 49 255 
-42 -31 603 47 47 47 255 
-41 -31 603 44 44 44 255 
-40 -31 603 43 43 43 255 
-39 -31 603 44 46 45 255 
-38 -31 603 45 47 46 255 
-37 -31 603 45 47 46 255 
-36 -31 603 46 48 47 255 
-35 -31 603 49 50 52 255 
-34 -31 603 49 50 52 255 
-33 -31 603 49 50 52 255 
-32 -31 603 46 47 49 255 
-32 -31 604 37 38 40 255 
-31 -31 604 14 15 17 255 
-30 -31 604 15 16 18 255 
-29 -31 604 29 30 32 255 
-28 -31 604 41 42 44 255 
-27 -31 604 46 47 49 255 
-26 -31 604 46 47 49 255 
-25 -31 604 46 47 49 255 
-24 -31 604 30 31 33 255 
-23 -31 603 19 20 22 255 
-22 -31 603 31 32 34 255 
-21 -31 603 26 27 29 255 
-20 -31 603 10 11 13 255 
-19 -31 603 18 19 21 255 
-18 -31 603 37 38 40 255 
-17 -31 603 43 44 46 255 
-16 -31 603 41 42 44 255 
-15 -31 603 47 48 50 255 
-14 -31 603 39 40 42 255 
-13 -31 602 16 17 19 255 
-12 -31 602 14 15 17 255 
-11 -31 602 32 33 35 255 
-10 -31 602 20 21 23 255 
-9 -31 602 9 10 12 255 
-8 -31 603 27 28 30 255 
-7 -31 603 47 48 50 255 
-6 -31 603 43 44 46 255 
-5 -31 602 28 29 31 255 
-4 -31 602 19 21 20 255 
-3 -31 602 12 14 13 255 
-2 -31 602 12 14 13 255 
-1 -31 601 27 29 28 255 
0 -31 601 49 51 50 255 
1 -31 601 47 49 48 255 
2 -31 601 47 49 48 255 
3 -31 601 43 45 44 255 
4 -31 601 23 23 23 255 
5 -31 601 12 12 12 255 
6 -31 601 33 33 33 255 
7 -31 601 48 48 48 255 
8 -31 601 49 47 48 255 
9 -31 601 48 46 47 255 
10 -31 601 46 46 46 255 
11 -31 602 48 48 48 255 
12 -31 603 48 52 51 255 
13 -31 604 54 58 57 255 
14 -32 606 81 90 87 255 
15 -32 610 88 97 94 255 
16 -32 617 85 96 92 255 
28 -38 723 54 56 51 255 
30 -38 731 53 55 50 255 
31 -38 736 49 51 46 255 
32 -38 739 50 52 47 255 
34 -39 742 51 53 48 255 
35 -39 744 52 54 49 255 
36 -39 745 53 54 49 255 
37 -39 745 52 53 48 255 
39 -39 746 53 54 49 255 
40 -39 745 56 57 52 255 
41 -39 744 58 59 54 255 
42 -39 743 59 60 55 255 
43 -39 742 115 116 111 255 
44 -39 740 111 112 107 255 
-110 -38 759 34 34 34 255 
-108 -38 756 39 39 39 255 
-107 -38 755 49 49 49 255 
-105 -38 752 48 48 48 255 
-104 -38 752 46 46 46 255 
-102 -38 749 45 47 46 255 
-83 -31 617 43 45 44 255 
-81 -31 607 45 47 46 255 
-79 -30 603 45 47 46 255 
-78 -30 601 45 47 46 255 
-77 -30 601 46 48 47 255 
-76 -30 600 47 49 48 255 
-75 -30 601 48 50 49 255 
-74 -30 601 48 50 49 255 
-73 -30 601 48 50 49 255 
-72 -30 601 46 48 47 255 
-71 -30 602 46 48 47 255 
-71 -30 602 48 50 49 255 
-70 -30 602 48 50 49 255 
-69 -30 602 48 50 49 255 
-68 -30 602 49 51 50 255 
-67 -30 601 47 49 48 255 
-66 -30 601 47 49 48 255 
-65 -30 602 49 51 48 255 
-64 -30 602 48 50 47 255 
-63 -30 602 47 49 46 255 
-62 -30 602 48 50 47 255 
-61 -30 603 51 51 49 255 
-60 -30 603 52 52 50 255 
-59 -30 603 52 52 50 255 
-58 -30 603 48 48 46 255 
-57 -30 603 50 50 48 255 
-56 -30 603 49 49 47 255 
-55 -30 603 49 49 47 255 
-54 -30 603 50 50 48 255 
-53 -30 603 53 53 53 255 
-52 -30 604 53 53 53 255 
-51 -30 604 50 50 50 255 
-50 -30 604 50 50 50 255 
-49 -30 604 50 50 50 255 
-48 -30 603 50 50 50 255 
-47 -30 603 50 50 50 255 
-46 -30 603 47 47 47 255 
-45 -30 603 47 47 47 255 
-44 -30 604 49 49 49 255 
-43 -30 604 49 49 49 255 
-42 -30 604 45 45 45 255 
-41 -30 604 41 41 41 255 
-40 -30 604 44 44 44 255 
-39 -30 604 46 48 47 255 
-38 -30 604 45 47 46 255 
-37 -30 604 48 50 49 255 
-36 -30 604 46 48 47 255 
-35 -30 604 49 50 52 255 
-35 -30 604 49 50 52 255 
-34 -30 604 49 50 52 255 
-33 -30 604 46 47 49 255 
-32 -30 604 38 39 41 255 
-31 -31 605 17 18 20 255 
-30 -31 605 15 16 18 255 
-29 -31 605 24 25 27 255 
-28 -31 605 35 36 38 255 
-27 -31 605 42 43 45 255 
-26 -31 605 42 43 45 255 
-25 -31 605 39 40 42 255 
-24 -31 605 22 23 25 255 
-23 -30 604 10 11 13 255 
-22 -30 604 28 29 31 255 
-21 -30 604 29 30 32 255 
-20 -30 604 13 14 16 255 
-19 -30 604 19 20 22 255 
-18 -30 604 41 42 44 255 
-17 -30 604 48 49 51 255 
-16 -30 604 44 45 47 255 
-15 -30 604 52 53 55 255 
-14 -30 603 43 43 45 255 
-13 -30 603 15 15 17 255 
-12 -30 602 18 18 20 255 
-11 -30 603 34 34 36 255 
-10 -30 603 24 24 26 255 
-9 -30 603 12 12 14 255 
-8 -30 603 26 26 28 255 
-7 -30 603 52 52 54 255 
-6 -30 603 49 50 52 255 
-5 -30 603 43 44 46 255 
-4 -30 602 31 32 34 255 
-3 -30 602 13 14 16 255 
-2 -30 602 12 14 13 255 
-1 -30 602 28 30 29 255 
0 -30 602 46 48 47 255 
1 -30 602 46 48 47 255 
2 -30 602 46 50 51 255 
3 -30 602 42 46 47 255 
4 -30 602 25 25 27 255 
5 -30 602 14 14 16 255 
6 -30 602 34 34 36 255 
7 -30 602 47 47 49 255 
8 -30 601 48 48 48 255 
9 -30 602 48 48 48 255 
10 -30 602 50 50 50 255 
11 -30 602 51 51 51 255 
12 -30 603 53 55 54 255 
13 -31 605 57 59 58 255 
14 -31 607 83 89 87 255 
15 -31 611 90 96 94 255 
16 -31 617 85 96 92 255 
28 -36 722 53 55 50 255 
30 -37 729 52 54 49 255 
31 -37 733 51 53 48 255 
32 -37 737 52 54 49 255 
34 -37 740 52 54 49 255 
35 -37 742 52 54 49 255 
36 -37 743 53 54 49 255 
37 -37 743 53 54 49 255 
39 -37 743 52 53 48 255 
40 -38 744 55 56 51 255 
41 -37 743 57 58 53 255 
42 -37 743 55 56 51 255 
43 -37 741 106 107 102 255 
44 -37 741 127 128 123 255 
-111 -37 761 37 39 38 255 
-109 -37 756 41 43 42 255 
-108 -37 754 46 48 47 255 
-106 -37 752 48 50 49 255 
-105 -37 751 52 54 53 255 
-104 -37 750 54 56 55 255 
-102 -36 748 49 51 50 255 
-100 -36 743 47 49 48 255 
-81 -30 608 47 47 47 255 
-80 -29 604 47 47 47 255 
-78 -29 602 47 47 47 255 
-77 -29 602 48 48 48 255 
-76 -29 601 46 50 49 255 
-75 -29 601 46 50 49 255 
-74 -29 602 47 49 48 255 
-73 -29 602 46 48 47 255 
-72 -29 602 45 47 46 255 
-71 -29 602 46 48 47 255 
-71 -29 603 47 49 48 255 
-70 -29 602 43 45 44 255 
-69 -29 602 45 47 46 255 
-68 -29 602 46 48 47 255 
-67 -29 602 49 49 49 255 
-66 -29 602 49 49 49 255 
-65 -29 602 51 51 49 255 
-64 -29 603 51 51 49 255 
-63 -29 603 49 51 48 255 
-62 -29 603 49 51 48 255 
-61 -29 603 51 51 49 255 
-60 -29 604 51 51 49 255 
-59 -29 604 51 51 49 255 
-58 -29 604 47 47 45 255 
-57 -29 604 50 50 50 255 
-56 -29 604 48 48 48 255 
-55 -29 604 51 51 51 255 
-54 -29 604 52 52 52 255 
-53 -29 604 52 52 52 255 
-52 -29 604 53 53 53 255 
-51 -29 604 51 51 51 255 
-50 -29 604 49 49 49 255 
-49 -29 604 49 49 49 255 
-48 -29 604 48 48 48 255 
-47 -29 604 48 48 48 255 
-46 -29 604 46 46 46 255 
-45 -29 604 48 48 48 255 
-44 -30 605 48 48 48 255 
-43 -30 605 48 48 48 255 
-42 -30 605 45 45 45 255 
-41 -30 605 43 43 43 255 
-40 -30 605 45 45 45 255 
-39 -30 605 47 49 48 255 
-38 -30 605 47 49 48 255 
-38 -30 605 50 52 51 255 
-37 -30 605 49 51 50 255 
-36 -30 605 51 51 53 255 
-35 -30 605 51 51 53 255 
-34 -30 605 51 51 53 255 
-33 -30 605 49 49 51 255 
-32 -30 605 45 46 48 255 
-31 -30 606 30 31 33 255 
-30 -30 606 15 15 17 255 
-29 -30 606 19 19 21 255 
-28 -30 606 24 24 26 255 
-27 -30 606 26 26 28 255 
-26 -30 606 24 24 26 255 
-25 -30 605 24 24 26 255 
-24 -30 605 17 17 19 255 
-23 -30 605 16 16 18 255 
-22 -30 605 29 29 31 255 
-21 -30 605 33 33 35 255 
-20 -30 605 20 20 22 255 
-19 -30 605 23 23 25 255 
-18 -30 605 40 40 42 255 
-17 -30 605 47 47 49 255 
-16 -29 604 46 46 48 255 
-15 -30 605 53 53 55 255 
-14 -29 604 42 42 44 255 
-13 -29 604 22 22 24 255 
-12 -29 603 29 29 31 255 
-11 -29 604 43 43 45 255 
-10 -29 604 36 36 38 255 
-9 -29 604 24 24 26 255 
-8 -29 604 31 31 33 255 
-7 -29 604 46 46 48 255 
-6 -29 604 46 47 49 255 
-5 -29 604 46 47 49 255 
-4 -29 604 42 43 45 255 
-3 -29 604 28 29 31 255 
-2 -29 604 25 26 28 255 
-1 -30 604 33 34 36 255 
0 -29 603 44 46 45 255 
1 -29 603 44 46 45 255 
2 -29 603 45 49 50 255 
3 -29 603 44 48 49 255 
4 -29 603 37 38 40 255 
5 -29 603 30 31 33 255 
6 -29 602 47 47 49 255 
7 -29 602 52 52 54 255 
8 -29 602 51 51 51 255 
9 -29 602 50 50 50 255 
10 -29 602 53 53 53 255 
11 -29 602 53 53 53 255 
12 -29 603 54 56 55 255 
13 -30 605 58 60 59 255 
14 -30 607 83 89 87 255 
15 -30 611 91 97 95 255 
16 -30 618 88 97 92 255 
28 -35 721 50 52 47 255 
29 -36 728 54 56 51 255 
31 -36 732 53 55 50 255 
32 -36 736 54 56 51 255 
33 -36 738 53 55 50 255 
35 -36 740 51 53 48 255 
36 -36 741 52 53 48 255 
37 -36 742 52 53 48 255 
38 -36 742 54 55 49 255 
40 -36 742 56 57 51 255 
41 -36 742 61 62 57 255 
42 -36 741 53 54 49 255 
43 -36 741 92 93 87 255 
44 -36 739 134 135 129 255 
-111 -36 758 41 43 42 255 
-109 -36 754 50 52 51 255 
-108 -35 752 51 53 52 255 
-106 -35 751 42 44 43 255 
-105 -35 750 47 49 48 255 
-103 -35 749 54 56 55 255 
-102 -35 746 47 49 48 255 
-100 -35 741 47 49 48 255 
-81 -29 610 47 49 48 255 
-80 -29 605 49 51 50 255 
-78 -28 602 47 49 48 255 
-77 -28 602 49 51 50 255 
-76 -28 602 47 51 50 255 
-75 -28 602 47 51 50 255 
-74 -28 602 46 48 47 255 
-73 -28 602 44 46 45 255 
-72 -28 602 43 45 44 255 
-71 -28 602 45 47 46 255 
-71 -28 603 44 48 47 255 
-70 -28 603 41 45 44 255 
-69 -28 602 40 42 39 255 
-68 -28 602 43 45 42 255 
-67 -28 602 48 48 46 255 
-66 -28 602 49 49 47 255 
-65 -28 603 50 50 48 255 
-64 -28 603 52 52 50 255 
-63 -28 603 49 51 48 255 
-62 -28 603 49 51 48 255 
-61 -28 604 53 53 53 255 
-60 -28 604 50 50 50 255 
-59 -28 604 51 51 51 255 
-58 -28 604 47 47 47 255 
-57 -28 604 49 49 49 255 
-56 -28 604 47 47 47 255 
-55 -28 604 49 49 49 255 
-54 -28 604 49 49 49 255 
-53 -28 604 49 49 49 255 
-52 -28 604 52 52 52 255 
-51 -28 604 50 50 50 255 
-50 -28 604 48 48 48 255 
-49 -28 604 48 48 48 255 
-48 -28 604 48 48 48 255 
-47 -28 604 49 49 49 255 
-46 -28 604 50 50 50 255 
-45 -28 604 50 50 50 255 
-44 -29 605 48 48 48 255 
-43 -29 605 46 46 46 255 
-42 -29 605 45 45 45 255 
-41 -29 605 45 45 45 255 
-40 -29 605 46 46 46 255 
-39 -29 605 48 50 49 255 
-39 -29 606 49 51 50 255 
-38 -29 606 50 52 51 255 
-37 -29 606 52 54 53 255 
-36 -29 606 55 55 57 255 
-35 -29 606 53 53 55 255 
-34 -29 606 52 52 54 255 
-33 -29 606 51 51 53 255 
-32 -29 606 51 52 54 255 
-31 -29 606 42 43 45 255 
-30 -29 607 33 33 35 255 
-29 -29 607 30 30 32 255 
-28 -29 607 27 27 29 255 
-27 -29 607 27 27 29 255 
-26 -29 606 27 27 29 255 
-25 -29 606 30 30 32 255 
-24 -29 606 27 27 29 255 
-23 -29 605 30 30 32 255 
-22 -29 605 39 39 41 255 
-21 -29 605 44 44 46 255 
-20 -29 605 33 33 35 255 
-19 -29 605 35 35 37 255 
-18 -29 605 43 43 45 255 
-17 -29 605 48 48 50 255 
-16 -29 605 47 47 49 255 
-15 -29 605 50 50 52 255 
-14 -29 605 48 48 50 255 
-13 -29 604 46 46 48 255 
-12 -29 604 49 49 51 255 
-11 -29 604 49 49 51 255 
-10 -29 604 46 46 48 255 
-9 -29 604 47 47 49 255 
-8 -29 604 52 52 54 255 
-7 -29 604 48 48 50 255 
-6 -29 604 48 49 51 255 
-5 -29 604 45 46 48 255 
-4 -29 605 50 51 53 255 
-3 -29 604 47 48 50 255 
-2 -29 604 44 45 47 255 
-1 -29 604 44 45 47 255 
0 -29 604 47 48 50 255 
1 -29 604 48 49 51 255 
2 -29 604 44 48 49 255 
3 -29 604 45 49 50 255 
4 -28 603 44 45 47 255 
5 -28 603 40 41 43 255 
6 -28 603 51 51 53 255 
7 -28 603 52 52 54 255 
8 -28 603 52 52 54 255 
9 -28 603 51 51 53 255 
10 -28 603 53 53 53 255 
11 -28 603 52 52 52 255 
12 -29 604 53 55 54 255 
13 -29 605 59 61 60 255 
14 -29 607 85 90 86 255 
15 -29 611 93 98 94 255 
16 -29 618 90 99 94 255 
28 -34 720 47 49 44 255 
29 -34 727 56 58 53 255 
31 -35 731 53 55 50 255 
32 -35 734 54 56 51 255 
33 -35 737 54 57 50 255 
35 -35 738 52 55 48 255 
36 -35 739 51 52 46 255 
37 -35 739 52 53 47 255 
38 -35 740 55 56 50 255 
40 -35 741 56 57 51 255 
41 -35 740 60 61 55 255 
42 -35 739 49 50 44 255 
43 -35 738 80 81 75 255 
44 -35 738 138 139 133 255 
45 -35 734 64 65 59 255 
-111 -34 756 41 41 41 255 
-109 -34 753 46 46 46 255 
-107 -34 751 49 49 49 255 
-106 -34 750 55 55 55 255 
-105 -34 749 44 44 44 255 
-103 -34 747 40 40 40 255 
-102 -34 744 45 45 45 255 
-100 -34 740 50 50 50 255 
-81 -28 611 48 48 48 255 
-80 -28 607 44 44 44 255 
-78 -27 603 43 43 43 255 
-77 -27 603 47 47 47 255 
-76 -27 603 48 48 48 255 
-76 -27 603 47 47 47 255 
-75 -27 603 46 46 46 255 
-74 -27 603 46 46 46 255 
-73 -27 603 47 47 47 255 
-72 -27 603 45 45 45 255 
-71 -27 603 44 44 44 255 
-70 -27 603 47 47 47 255 
-69 -27 603 45 45 45 255 
-68 -27 603 46 46 46 255 
-67 -27 603 48 48 48 255 
-66 -27 603 50 50 50 255 
-65 -27 603 51 51 51 255 
-64 -27 604 51 51 51 255 
-63 -27 604 51 51 51 255 
-62 -27 604 51 51 51 255 
-61 -28 605 49 49 49 255 
-60 -28 605 46 46 46 255 
-59 -28 605 49 49 49 255 
-58 -28 605 52 52 52 255 
-57 -28 605 52 52 52 255 
-56 -28 605 50 50 50 255 
-55 -28 605 47 47 47 255 
-54 -28 605 46 46 46 255 
-53 -28 605 45 47 46 255 
-52 -28 605 50 52 51 255 
-51 -28 605 52 54 53 255 
-50 -28 605 48 50 49 255 
-49 -28 605 47 49 48 255 
-48 -28 605 48 50 49 255 
-47 -28 605 47 49 48 255 
-46 -28 605 46 48 47 255 
-45 -28 605 46 48 47 255 
-44 -28 606 47 49 48 255 
-43 -28 606 47 49 48 255 
-42 -28 606 46 48 47 255 
-42 -28 606 45 47 46 255 
-41 -28 606 44 46 45 255 
-40 -28 606 44 45 47 255 
-39 -28 607 44 45 47 255 
-38 -28 607 47 48 50 255 
-37 -28 607 50 51 53 255 
-36 -28 607 51 52 54 255 
-35 -28 607 50 51 53 255 
-34 -28 607 50 51 53 255 
-33 -28 607 52 53 55 255 
-32 -28 607 51 52 54 255 
-31 -28 607 48 49 51 255 
-30 -28 607 48 49 53 255 
-29 -28 608 39 40 44 255 
-28 -28 608 35 36 40 255 
-27 -28 608 37 38 42 255 
-26 -28 608 39 40 44 255 
-25 -28 607 42 43 47 255 
-24 -28 607 43 44 48 255 
-23 -28 606 43 44 48 255 
-22 -28 606 38 39 43 255 
-21 -28 606 40 41 45 255 
-20 -28 606 46 47 51 255 
-19 -28 606 49 50 54 255 
-18 -28 606 45 46 50 255 
-17 -28 606 40 41 45 255 
-16 -28 606 41 42 46 255 
-15 -28 606 43 44 48 255 
-14 -28 606 43 47 50 255 
-13 -28 605 44 48 51 255 
-12 -28 605 39 43 46 255 
-11 -28 605 39 43 46 255 
-10 -28 605 45 46 50 255 
-9 -28 605 45 46 50 255 
-8 -28 605 42 43 47 255 
-7 -28 605 41 42 46 255 
-6 -28 605 42 43 47 255 
-5 -28 605 39 40 44 255 
-4 -28 605 43 42 47 255 
-3 -28 605 46 45 50 255 
-2 -28 604 41 40 45 255 
-1 -28 604 39 38 43 255 
0 -28 604 43 42 47 255 
1 -28 604 44 43 48 255 
2 -28 604 39 43 46 255 
3 -28 604 36 40 43 255 
4 -28 604 31 35 36 255 
5 -27 603 29 33 34 255 
6 -27 603 39 40 42 255 
7 -28 604 47 48 50 255 
8 -28 604 51 49 52 255 
9 -27 603 52 50 53 255 
10 -28 604 49 49 51 255 
11 -28 604 47 47 49 255 
12 -28 605 46 50 49 255 
13 -28 606 51 55 54 255 
14 -28 608 77 83 81 255 
15 -28 611 96 102 100 255 
16 -28 618 88 97 94 255 
28 -33 719 55 57 52 255 
29 -33 724 54 56 51 255 
31 -33 729 55 58 51 255 
32 -33 732 54 57 50 255 
33 -33 734 55 56 51 255 
35 -34 736 52 53 48 255 
36 -34 737 50 51 45 255 
37 -34 737 51 52 46 255 
38 -34 738 54 55 49 255 
39 -34 738 57 58 52 255 
41 -34 738 59 59 51 255 
42 -34 737 54 54 46 255 
43 -34 736 76 75 70 255 
44 -33 735 131 130 125 255 
45 -33 733 86 87 81 255 
-113 -33 761 43 45 44 255 
-110 -33 753 42 44 43 255 
-108 -33 750 47 49 48 255 
-107 -33 749 52 52 52 255 
-106 -33 748 55 55 55 255 
-104 -33 747 50 50 50 255 
-103 -33 745 52 52 52 255 
-101 -33 742 51 53 52 255 
-100 -32 738 50 52 51 255 
-82 -27 613 46 48 47 255 
-80 -27 608 41 43 42 255 
-79 -27 605 43 43 43 255 
-78 -26 604 48 48 48 255 
-77 -27 604 47 49 48 255 
-76 -27 604 48 50 49 255 
-75 -27 604 48 50 49 255 
-74 -27 604 47 49 48 255 
-73 -27 605 45 47 46 255 
-72 -27 605 42 44 43 255 
-71 -27 604 42 44 43 255 
-70 -27 604 44 46 45 255 
-69 -27 604 45 47 46 255 
-68 -27 604 47 49 48 255 
-67 -27 604 48 50 49 255 
-66 -27 604 48 50 49 255 
-65 -27 604 47 49 48 255 
-64 -27 604 47 49 48 255 
-63 -27 605 47 49 48 255 
-62 -27 605 48 50 49 255 
-61 -27 605 47 47 47 255 
-60 -27 606 47 47 47 255 
-59 -27 606 49 49 49 255 
-58 -27 606 51 51 51 255 
-57 -27 606 52 52 52 255 
-56 -27 606 52 52 52 255 
-55 -27 606 47 49 48 255 
-54 -27 606 45 47 46 255 
-53 -27 606 46 48 47 255 
-52 -27 606 51 53 52 255 
-51 -27 606 52 54 53 255 
-50 -27 606 49 51 50 255 
-49 -27 606 47 49 48 255 
-48 -27 606 49 51 50 255 
-47 -27 606 50 52 51 255 
-46 -27 606 49 51 50 255 
-45 -27 606 45 49 48 255 
-44 -27 606 45 49 48 255 
-43 -27 606 45 49 48 255 
-42 -27 606 44 48 47 255 
-42 -27 607 44 48 47 255 
-41 -27 607 44 48 47 255 
-40 -27 607 44 48 47 255 
-39 -27 607 44 48 47 255 
-38 -27 608 44 48 47 255 
-37 -27 608 46 50 49 255 
-36 -27 608 47 51 52 255 
-35 -27 608 46 50 51 255 
-34 -27 608 47 51 52 255 
-33 -27 608 48 52 53 255 
-32 -27 608 47 51 52 255 
-31 -27 608 44 48 49 255 
-30 -27 608 44 48 49 255 
-29 -27 609 39 43 44 255 
-28 -27 609 36 40 41 255 
-27 -27 609 36 40 41 255 
-26 -27 608 37 41 42 255 
-25 -27 608 38 42 43 255 
-24 -27 608 39 43 44 255 
-23 -27 608 40 44 45 255 
-22 -27 607 40 41 45 255 
-21 -27 607 38 39 43 255 
-20 -27 607 38 39 43 255 
-19 -27 607 41 42 46 255 
-18 -27 607 41 42 46 255 
-17 -27 607 41 42 46 255 
-16 -27 606 42 43 47 255 
-15 -27 606 42 43 47 255 
-14 -27 607 36 40 43 255 
-13 -27 606 31 35 38 255 
-12 -27 606 30 34 37 255 
-11 -27 606 34 38 41 255 
-10 -27 606 39 43 46 255 
-9 -27 606 37 41 44 255 
-8 -27 606 34 35 39 255 
-7 -27 606 32 33 37 255 
-6 -27 606 32 33 37 255 
-5 -27 606 30 31 35 255 
-4 -27 606 35 36 40 255 
-3 -27 605 39 40 44 255 
-2 -27 605 34 35 39 255 
-1 -27 605 28 29 33 255 
0 -27 605 26 27 31 255 
1 -27 605 24 25 29 255 
2 -27 605 23 27 28 255 
3 -27 605 24 28 29 255 
4 -27 605 23 27 28 255 
5 -27 604 26 30 31 255 
6 -27 604 39 40 42 255 
7 -27 605 47 48 50 255 
8 -27 604 49 49 51 255 
9 -27 604 51 51 53 255 
10 -27 604 49 49 51 255 
11 -27 605 49 49 51 255 
12 -27 605 47 51 50 255 
13 -27 607 52 56 55 255 
14 -27 609 76 85 82 255 
15 -27 612 93 102 99 255 
16 -27 619 85 96 92 255 
26 -31 710 65 67 64 255 
28 -32 717 55 57 52 255 
29 -32 723 55 57 52 255 
31 -32 726 57 58 53 255 
32 -32 729 55 56 51 255 
33 -32 732 54 55 50 255 
34 -32 734 52 53 48 255 
36 -32 734 52 53 48 255 
37 -32 735 52 53 48 255 
38 -32 735 53 52 47 255 
39 -32 736 54 53 48 255 
41 -32 735 53 53 45 255 
42 -32 734 44 44 36 255 
43 -32 734 64 63 58 255 
44 -32 733 128 127 122 255 
45 -32 731 96 97 91 255 
-112 -32 758 43 45 44 255 
-110 -32 750 47 49 48 255 
-108 -32 748 51 53 52 255 
-107 -32 747 49 51 50 255 
-105 -32 746 49 51 50 255 
-104 -31 745 63 65 64 255 
-103 -31 743 67 69 68 255 
-101 -31 741 53 55 54 255 
-99 -31 737 40 42 41 255 
-83 -26 620 43 45 44 255 
-80 -26 610 48 50 49 255 
-79 -26 606 48 50 49 255 
-78 -26 605 46 48 47 255 
-77 -26 604 48 50 49 255 
-76 -26 604 49 51 50 255 
-75 -26 604 50 52 51 255 
-74 -26 604 49 51 50 255 
-73 -26 605 45 47 46 255 
-72 -26 605 43 45 44 255 
-71 -26 605 44 46 45 255 
-70 -26 604 44 46 45 255 
-69 -26 604 47 49 48 255 
-68 -26 604 48 50 49 255 
-67 -26 604 49 51 50 255 
-66 -26 604 48 50 49 255 
-65 -26 605 46 48 47 255 
-64 -26 605 45 47 46 255 
-63 -26 605 46 48 47 255 
-62 -26 605 47 49 48 255 
-61 -26 606 50 50 50 255 
-60 -26 606 50 50 50 255 
-59 -26 606 47 49 48 255 
-58 -26 606 44 46 45 255 
-57 -26 606 47 49 48 255 
-56 -26 606 50 52 51 255 
-55 -26 606 50 52 51 255 
-54 -26 606 51 53 52 255 
-53 -26 606 43 45 44 255 
-52 -26 606 44 46 45 255 
-51 -26 606 46 48 47 255 
-50 -26 606 45 47 46 255 
-49 -26 606 44 46 45 255 
-48 -26 607 47 49 48 255 
-47 -26 607 49 51 50 255 
-47 -26 607 49 51 50 255 
-46 -26 607 46 51 47 255 
-45 -26 607 46 51 47 255 
-44 -26 607 46 51 47 255 
-43 -26 607 46 51 47 255 
-42 -26 608 46 51 47 255 
-41 -26 608 46 51 47 255 
-40 -26 608 44 48 47 255 
-39 -26 608 44 48 47 255 
-38 -26 609 45 49 48 255 
-37 -26 609 45 49 48 255 
-36 -26 609 46 50 49 255 
-35 -26 609 46 50 49 255 
-34 -26 609 45 51 49 255 
-33 -26 609 44 50 48 255 
-32 -26 609 42 48 48 255 
-31 -26 609 41 47 47 255 
-30 -26 609 42 46 47 255 
-29 -26 609 40 44 45 255 
-28 -26 610 36 40 41 255 
-27 -26 610 31 35 36 255 
-26 -26 609 28 32 33 255 
-25 -26 609 26 30 31 255 
-24 -26 609 26 30 31 255 
-23 -26 609 27 31 32 255 
-22 -26 609 24 28 29 255 
-21 -26 608 19 23 24 255 
-20 -26 608 17 21 22 255 
-19 -26 608 22 26 27 255 
-18 -26 608 33 34 38 255 
-17 -26 608 40 41 45 255 
-16 -26 608 43 44 48 255 
-15 -26 608 42 43 47 255 
-14 -26 607 35 39 42 255 
-13 -26 607 24 28 31 255 
-12 -26 607 24 28 31 255 
-11 -26 607 31 35 38 255 
-10 -26 607 34 38 41 255 
-9 -26 607 32 36 39 255 
-8 -26 607 27 31 34 255 
-7 -26 607 28 32 35 255 
-6 -26 607 27 31 34 255 
-5 -26 607 24 28 31 255 
-4 -26 607 31 35 36 255 
-3 -26 606 36 40 41 255 
-2 -26 606 37 38 40 255 
-1 -26 606 34 35 37 255 
0 -26 606 32 33 35 255 
1 -26 605 32 33 35 255 
2 -26 605 29 33 34 255 
3 -26 605 29 33 34 255 
4 -26 605 27 31 32 255 
5 -26 605 28 32 33 255 
6 -26 605 38 39 41 255 
7 -26 606 44 45 47 255 
8 -26 605 47 47 49 255 
9 -26 605 52 52 54 255 
10 -26 605 48 49 51 255 
11 -26 606 50 51 53 255 
12 -26 607 48 54 52 255 
13 -26 607 52 58 56 255 
14 -26 609 75 86 82 255 
15 -26 613 91 102 98 255 
16 -26 620 83 94 90 255 
23 -29 684 70 75 71 255 
25 -30 697 69 71 68 255 
26 -30 708 66 68 65 255 
28 -30 715 52 54 49 255 
29 -31 721 53 55 50 255 
31 -31 725 56 57 52 255 
32 -31 728 52 53 48 255 
33 -31 730 52 53 48 255 
34 -31 731 53 54 49 255 
36 -31 732 56 55 51 255 
37 -31 733 56 55 51 255 
38 -31 733 54 53 48 255 
39 -31 734 55 54 49 255 
40 -31 733 58 58 50 255 
42 -31 733 47 47 39 255 
43 -31 733 58 57 52 255 
44 -31 731 121 120 115 255 
45 -31 729 111 110 105 255 
-112 -31 755 40 42 41 255 
-110 -30 749 49 51 50 255 
-108 -30 746 55 57 56 255 
-107 -30 745 52 54 53 255 
-105 -30 744 51 53 52 255 
-104 -30 743 66 68 67 255 
-103 -30 742 66 68 67 255 
-101 -30 740 50 52 51 255 
-99 -30 736 44 46 45 255 
-84 -26 631 50 52 51 255 
-80 -25 611 49 51 50 255 
-79 -25 607 48 50 49 255 
-78 -25 605 49 51 50 255 
-77 -25 605 46 48 47 255 
-76 -25 605 48 50 49 255 
-75 -25 605 49 51 50 255 
-74 -25 605 48 50 49 255 
-73 -25 605 47 49 48 255 
-72 -25 605 47 49 48 255 
-71 -25 605 47 49 48 255 
-70 -25 605 47 49 48 255 
-69 -25 605 48 50 49 255 
-68 -25 605 50 52 51 255 
-67 -25 605 51 53 52 255 
-66 -25 605 50 52 51 255 
-65 -25 606 47 49 48 255 
-64 -25 606 46 48 47 255 
-63 -25 606 46 48 47 255 
-62 -25 606 47 49 48 255 
-61 -25 606 48 50 49 255 
-60 -25 607 47 49 48 255 
-59 -25 607 47 49 48 255 
-58 -25 607 46 48 47 255 
-57 -25 607 48 50 49 255 
-56 -25 607 51 53 52 255 
-55 -25 607 50 52 51 255 
-54 -25 607 50 52 51 255 
-53 -25 607 50 52 51 255 
-52 -25 607 50 52 51 255 
-51 -25 606 50 52 51 255 
-50 -25 607 48 50 49 255 
-49 -25 607 49 51 50 255 
-48 -25 607 51 53 52 255 
-48 -25 608 52 54 53 255 
-47 -25 608 50 52 51 255 
-46 -25 608 50 52 49 255 
-45 -25 608 49 51 48 255 
-44 -25 608 47 52 48 255 
-43 -25 608 47 52 48 255 
-42 -25 608 46 51 47 255 
-41 -25 609 46 51 47 255 
-40 -25 609 45 49 48 255 
-39 -25 609 44 48 47 255 
-38 -25 609 46 50 49 255 
-37 -25 609 46 50 49 255 
-36 -25 609 46 52 50 255 
-35 -25 609 47 53 51 255 
-34 -25 609 45 51 49 255 
-33 -25 609 41 47 45 255 
-32 -25 609 39 45 45 255 
-31 -25 609 39 45 45 255 
-30 -25 609 42 48 46 255 
-29 -25 609 41 47 45 255 
-28 -25 610 37 43 41 255 
-27 -25 610 31 37 35 255 
-26 -25 610 29 33 34 255 
-25 -25 609 29 33 34 255 
-24 -25 609 30 34 35 255 
-23 -25 609 32 36 37 255 
-22 -25 609 27 31 32 255 
-21 -25 609 24 28 29 255 
-20 -25 609 24 28 29 255 
-19 -25 609 30 34 35 255 
-18 -25 608 41 42 46 255 
-17 -25 608 49 50 54 255 
-16 -25 608 50 51 55 255 
-15 -25 608 49 50 54 255 
-14 -25 608 42 46 49 255 
-13 -25 607 32 36 39 255 
-12 -25 607 33 37 40 255 
-11 -25 607 36 40 43 255 
-10 -25 607 37 41 44 255 
-9 -25 607 36 40 43 255 
-8 -25 607 33 37 40 255 
-7 -25 607 38 42 45 255 
-6 -25 607 40 44 45 255 
-5 -25 607 35 39 40 255 
-4 -25 607 41 45 46 255 
-3 -25 607 44 48 49 255 
-2 -25 606 44 48 49 255 
-1 -25 606 44 48 49 255 
0 -25 606 43 47 48 255 
1 -25 606 46 50 51 255 
2 -25 605 45 49 50 255 
3 -25 605 45 49 50 255 
4 -25 605 45 49 50 255 
5 -25 605 44 48 49 255 
6 -25 606 47 48 50 255 
7 -25 606 47 48 50 255 
8 -25 606 48 48 50 255 
9 -25 606 51 51 53 255 
10 -25 606 48 50 49 255 
11 -25 607 51 53 52 255 
12 -25 607 46 52 50 255 
13 -25 608 50 56 54 255 
14 -25 609 73 84 80 255 
15 -25 613 90 101 97 255 
16 -25 620 81 93 89 255 
23 -28 685 69 74 70 255 
25 -28 697 67 69 66 255 
26 -29 708 68 70 67 255 
28 -29 715 52 54 49 255 
29 -29 720 56 58 53 255 
30 -29 723 57 58 53 255 
32 -30 726 53 54 49 255 
33 -30 728 53 54 48 255 
34 -30 729 54 55 49 255 
35 -30 729 55 54 49 255 
37 -30 730 54 53 48 255 
38 -30 731 53 52 47 255 
39 -30 731 54 53 48 255 
40 -30 731 58 57 52 255 
41 -30 730 52 51 46 255 
43 -30 730 53 52 47 255 
44 -30 729 106 105 100 255 
45 -30 728 122 123 117 255 
-109 -29 747 43 45 44 255 
-108 -29 745 53 55 54 255 
-106 -29 744 62 64 63 255 
-105 -29 743 63 65 64 255 
-104 -29 742 48 50 49 255 
-102 -29 741 59 61 60 255 
-101 -29 739 57 59 58 255 
-99 -29 735 54 56 55 255 
-97 -28 727 52 54 53 255 
-81 -24 612 45 47 46 255 
-79 -24 608 45 47 46 255 
-78 -24 606 49 51 50 255 
-77 -24 606 46 48 47 255 
-76 -24 606 47 49 48 255 
-75 -24 606 47 49 48 255 
-74 -24 606 47 49 48 255 
-73 -24 606 47 49 48 255 
-72 -24 606 49 51 50 255 
-71 -24 606 50 52 51 255 
-70 -24 606 50 52 51 255 
-69 -24 606 49 51 50 255 
-68 -24 606 50 52 51 255 
-67 -24 606 51 53 52 255 
-66 -24 606 51 53 52 255 
-65 -24 606 49 51 50 255 
-64 -24 607 48 50 49 255 
-63 -24 607 47 49 48 255 
-62 -24 607 47 49 48 255 
-61 -24 607 50 52 51 255 
-60 -24 607 46 48 47 255 
-59 -24 608 46 48 47 255 
-58 -24 608 48 50 49 255 
-57 -24 608 49 51 50 255 
-56 -24 608 49 51 50 255 
-55 -24 608 48 50 49 255 
-54 -24 608 50 52 51 255 
-53 -24 607 50 52 51 255 
-52 -24 607 49 51 50 255 
-51 -24 607 46 50 49 255 
-51 -24 608 45 49 48 255 
-50 -24 608 46 50 49 255 
-49 -24 608 47 51 50 255 
-48 -24 608 46 50 49 255 
-47 -24 609 45 49 48 255 
-46 -24 609 51 53 50 255 
-45 -24 609 50 52 49 255 
-44 -24 609 46 50 49 255 
-43 -24 609 45 49 48 255 
-42 -24 609 44 48 47 255 
-41 -24 609 44 48 47 255 
-40 -24 610 45 49 48 255 
-39 -24 610 46 50 49 255 
-38 -24 610 46 50 49 255 
-37 -24 610 46 50 49 255 
-36 -24 610 46 52 52 255 
-35 -24 610 48 54 54 255 
-34 -24 610 47 53 53 255 
-33 -24 610 43 49 49 255 
-32 -24 610 41 47 47 255 
-31 -24 610 41 47 47 255 
-30 -24 610 44 50 48 255 
-29 -24 610 44 50 48 255 
-28 -24 610 42 48 46 255 
-27 -24 611 39 45 43 255 
-26 -24 611 39 43 44 255 
-25 -24 610 42 46 47 255 
-24 -24 610 44 48 49 255 
-23 -24 611 44 48 49 255 
-22 -24 610 38 42 43 255 
-21 -24 610 39 43 44 255 
-20 -24 610 39 43 44 255 
-19 -24 610 41 45 46 255 
-18 -24 610 47 48 52 255 
-17 -24 609 51 52 56 255 
-16 -24 609 50 51 55 255 
-15 -24 609 48 49 53 255 
-14 -24 609 51 52 56 255 
-13 -24 608 46 47 51 255 
-12 -24 609 46 47 51 255 
-11 -24 608 45 46 50 255 
-10 -24 608 46 47 51 255 
-9 -24 608 47 48 52 255 
-8 -24 608 44 45 47 255 
-7 -24 608 48 49 51 255 
-6 -24 608 49 50 52 255 
-5 -24 608 46 47 49 255 
-4 -24 608 51 52 54 255 
-3 -24 607 51 52 54 255 
-2 -24 607 48 50 49 255 
-1 -24 607 48 50 49 255 
0 -24 606 46 48 47 255 
1 -24 606 49 51 50 255 
2 -24 606 48 52 53 255 
3 -24 606 45 49 50 255 
4 -24 606 48 49 51 255 
5 -24 606 47 48 50 255 
6 -24 606 47 47 49 255 
7 -24 606 47 47 49 255 
8 -24 606 49 49 51 255 
9 -24 607 51 51 53 255 
10 -24 607 47 49 48 255 
11 -24 607 49 51 50 255 
12 -24 608 43 47 46 255 
13 -24 609 48 52 51 255 
14 -24 611 72 81 78 255 
15 -24 614 93 102 99 255 
16 -24 621 84 96 92 255 
23 -27 684 68 73 67 255 
25 -27 696 65 70 64 255 
26 -28 707 68 73 67 255 
28 -28 713 54 57 50 255 
29 -28 718 57 60 53 255 
30 -28 722 57 60 53 255 
32 -28 724 53 56 49 255 
33 -28 726 54 55 47 255 
34 -28 727 54 55 47 255 
35 -28 727 52 53 45 255 
37 -28 728 50 51 43 255 
38 -28 728 50 51 43 255 
39 -28 728 54 55 47 255 
40 -28 728 56 55 50 255 
41 -28 728 56 55 50 255 
42 -28 728 51 52 46 255 
44 -28 727 89 90 84 255 
45 -28 728 127 128 122 255 
-109 -28 743 36 36 36 255 
-107 -28 742 45 45 45 255 
-106 -28 741 63 65 64 255 
-105 -28 741 66 68 67 255 
-104 -28 741 40 42 41 255 
-102 -28 740 55 57 56 255 
-101 -28 738 58 58 58 255 
-99 -27 734 51 51 51 255 
-97 -27 726 48 48 48 255 
-81 -23 613 47 47 47 255 
-79 -23 609 46 48 47 255 
-78 -23 607 43 45 44 255 
-77 -23 607 45 47 46 255 
-76 -23 607 47 49 48 255 
-75 -23 607 47 49 48 255 
-74 -23 607 46 48 47 255 
-73 -23 607 47 49 48 255 
-72 -23 607 48 50 49 255 
-71 -23 607 49 51 50 255 
-70 -23 607 50 52 51 255 
-69 -23 607 50 52 51 255 
-68 -23 607 50 52 51 255 
-67 -23 607 51 53 52 255 
-66 -23 607 51 53 52 255 
-65 -23 607 49 51 50 255 
-64 -23 607 47 49 48 255 
-63 -23 607 46 48 47 255 
-62 -23 608 46 48 47 255 
-61 -23 608 48 50 49 255 
-60 -23 608 45 47 46 255 
-59 -23 608 47 49 48 255 
-58 -23 608 50 52 51 255 
-57 -23 608 50 52 51 255 
-56 -23 608 49 51 50 255 
-55 -23 608 45 49 48 255 
-54 -23 608 45 49 48 255 
-53 -23 608 45 49 48 255 
-53 -23 608 46 50 49 255 
-52 -23 608 45 49 48 255 
-51 -23 608 44 48 47 255 
-50 -23 609 46 50 49 255 
-49 -23 609 47 51 50 255 
-48 -23 610 46 50 49 255 
-47 -23 610 45 49 48 255 
-46 -23 610 47 52 48 255 
-45 -23 610 46 51 47 255 
-44 -23 610 45 49 48 255 
-43 -23 610 44 48 47 255 
-42 -23 610 44 48 47 255 
-41 -23 610 44 48 47 255 
-40 -23 610 45 49 48 255 
-39 -23 610 46 50 49 255 
-38 -23 611 44 48 47 255 
-37 -23 611 44 48 47 255 
-36 -23 611 45 51 51 255 
-35 -23 610 47 53 53 255 
-34 -23 610 48 54 54 255 
-33 -23 610 46 52 52 255 
-32 -23 611 44 50 50 255 
-31 -23 611 44 50 50 255 
-30 -23 611 45 51 49 255 
-29 -23 611 46 52 50 255 
-28 -23 611 48 52 53 255 
-27 -23 611 47 51 52 255 
-26 -23 611 46 50 51 255 
-25 -23 611 46 50 51 255 
-24 -23 611 45 49 50 255 
-23 -23 611 43 47 48 255 
-22 -23 611 47 51 52 255 
-21 -23 611 47 51 52 255 
-20 -23 611 46 50 51 255 
-19 -23 611 44 48 49 255 
-18 -23 610 46 50 51 255 
-17 -23 610 48 52 53 255 
-16 -23 609 49 53 54 255 
-15 -23 609 49 53 54 255 
-14 -23 609 51 55 56 255 
-13 -23 609 48 52 53 255 
-12 -23 609 45 49 50 255 
-11 -23 609 41 45 46 255 
-10 -23 609 45 46 48 255 
-9 -23 609 48 49 51 255 
-8 -23 609 47 48 50 255 
-7 -23 609 49 50 52 255 
-6 -23 609 46 47 49 255 
-5 -23 609 46 47 49 255 
-4 -23 608 51 52 54 255 
-3 -23 608 51 52 54 255 
-2 -23 608 47 49 48 255 
-1 -23 608 46 48 47 255 
0 -23 607 46 48 47 255 
1 -23 607 49 51 50 255 
2 -23 607 47 51 52 255 
3 -23 607 44 48 49 255 
4 -23 607 49 50 52 255 
5 -23 607 50 51 53 255 
6 -23 607 50 50 52 255 
7 -23 607 52 52 54 255 
8 -23 607 53 53 53 255 
9 -23 607 53 53 53 255 
10 -23 608 47 49 48 255 
11 -23 608 46 48 47 255 
12 -23 609 39 43 42 255 
13 -23 610 46 50 49 255 
14 -23 612 69 78 75 255 
15 -23 615 96 105 102 255 
16 -23 622 89 100 96 255 
23 -26 684 68 73 66 255 
25 -26 695 68 73 66 255 
26 -26 706 70 75 68 255 
28 -27 712 59 62 55 255 
29 -27 716 57 60 53 255 
30 -27 720 57 60 53 255 
32 -27 722 53 56 49 255 
33 -27 723 53 54 46 255 
34 -27 724 52 53 45 255 
35 -27 725 51 52 44 255 
36 -27 725 50 51 43 255 
38 -27 726 50 51 43 255 
39 -27 726 54 55 47 255 
40 -27 726 58 57 52 255 
41 -27 726 59 58 53 255 
42 -27 726 54 53 48 255 
43 -27 725 77 76 71 255 
45 -27 726 125 126 120 255 
46 -27 726 66 67 61 255 
-110 -27 744 47 49 48 255 
-108 -26 741 40 42 41 255 
-107 -26 739 41 43 42 255 
-106 -26 739 52 54 53 255 
-105 -26 739 62 64 63 255 
-103 -26 738 57 59 58 255 
-102 -26 737 50 52 51 255 
-100 -26 735 45 47 46 255 
-99 -26 732 46 48 47 255 
-97 -26 724 47 49 48 255 
-81 -22 614 46 48 47 255 
-79 -22 609 44 46 45 255 
-78 -22 608 44 46 45 255 
-77 -22 607 44 46 45 255 
-76 -22 607 45 47 46 255 
-75 -22 607 47 49 48 255 
-74 -22 607 47 49 48 255 
-73 -22 607 45 47 46 255 
-72 -22 607 46 48 47 255 
-71 -22 607 48 50 49 255 
-70 -22 607 48 50 49 255 
-69 -22 607 49 51 50 255 
-68 -22 607 50 52 51 255 
-67 -22 607 50 52 51 255 
-66 -22 607 50 52 51 255 
-65 -22 607 48 50 49 255 
-64 -22 607 46 48 47 255 
-63 -22 607 46 48 47 255 
-62 -22 608 46 48 47 255 
-61 -22 608 50 52 51 255 
-60 -22 608 48 50 49 255 
-59 -22 608 44 48 47 255 
-58 -22 608 43 47 46 255 
-57 -22 608 43 47 46 255 
-56 -22 608 46 50 49 255 
-55 -22 608 47 51 50 255 
-54 -22 608 47 51 50 255 
-53 -22 608 46 50 49 255 
-53 -22 608 46 50 49 255 
-52 -22 609 46 50 49 255 
-51 -22 609 45 49 48 255 
-50 -22 609 45 49 48 255 
-49 -22 610 46 50 49 255 
-48 -22 610 45 49 48 255 
-47 -22 610 43 47 46 255 
-46 -22 610 44 50 46 255 
-45 -22 610 44 50 46 255 
-44 -22 610 45 51 47 255 
-43 -22 610 45 51 47 255 
-42 -22 610 45 51 47 255 
-41 -22 611 44 50 46 255 
-40 -22 611 44 50 48 255 
-39 -22 611 44 50 48 255 
-38 -22 611 42 48 46 255 
-37 -22 611 42 48 46 255 
-36 -22 611 44 50 48 255 
-35 -22 611 46 52 50 255 
-34 -22 610 47 53 51 255 
-33 -22 610 47 53 51 255 
-32 -22 611 46 52 52 255 
-31 -22 611 46 52 52 255 
-30 -22 611 44 50 48 255 
-29 -22 611 47 53 51 255 
-28 -22 611 49 55 53 255 
-27 -22 611 49 55 53 255 
-26 -22 611 48 54 52 255 
-25 -22 611 46 52 50 255 
-24 -22 611 43 49 47 255 
-23 -22 611 43 49 47 255 
-22 -22 612 48 52 53 255 
-21 -22 612 47 51 52 255 
-20 -22 612 45 49 50 255 
-19 -22 612 42 46 47 255 
-18 -22 611 43 47 48 255 
-17 -22 611 45 49 50 255 
-16 -22 610 47 51 52 255 
-15 -22 610 48 52 53 255 
-14 -22 610 49 53 54 255 
-13 -22 610 47 51 52 255 
-12 -22 610 44 48 49 255 
-11 -22 610 41 45 46 255 
-10 -22 610 42 46 47 255 
-9 -22 610 44 48 49 255 
-8 -22 610 46 50 51 255 
-7 -22 610 45 49 50 255 
-6 -22 610 45 49 50 255 
-5 -22 610 46 50 51 255 
-4 -22 609 50 51 53 255 
-3 -22 609 49 50 52 255 
-2 -22 609 46 47 49 255 
-1 -22 609 47 48 50 255 
0 -22 609 49 50 52 255 
1 -22 608 49 50 52 255 
2 -22 608 49 55 55 255 
3 -22 608 44 50 50 255 
4 -22 608 45 49 50 255 
5 -22 608 44 48 49 255 
6 -22 608 45 46 48 255 
7 -22 608 49 50 52 255 
8 -22 608 52 54 53 255 
9 -22 608 52 54 53 255 
10 -22 608 47 49 48 255 
11 -22 608 46 48 47 255 
12 -22 609 41 45 44 255 
13 -22 610 47 51 50 255 
14 -22 612 66 75 72 255 
15 -22 616 95 104 101 255 
16 -22 623 89 101 97 255 
17 -23 630 74 86 82 255 
23 -25 685 68 73 66 255 
25 -25 696 69 74 67 255 
26 -25 705 71 76 69 255 
28 -25 711 65 68 61 255 
29 -26 715 57 60 53 255 
30 -26 718 59 60 54 255 
31 -26 720 55 56 50 255 
33 -26 721 54 55 47 255 
34 -26 722 53 54 46 255 
35 -26 723 52 53 45 255 
36 -26 724 50 51 43 255 
38 -26 724 51 51 43 255 
39 -26 724 54 54 46 255 
40 -26 724 56 56 48 255 
41 -26 724 56 56 48 255 
42 -26 724 53 53 45 255 
43 -26 723 65 65 57 255 
45 -26 723 123 122 117 255 
46 -26 723 85 84 79 255 
-112 -26 748 27 29 28 255 
-110 -25 741 40 42 41 255 
-108 -25 739 51 53 52 255 
-107 -25 738 46 48 47 255 
-105 -25 737 42 46 45 255 
-104 -25 737 63 67 66 255 
-103 -25 736 63 67 66 255 
-102 -25 735 48 52 51 255 
-100 -25 733 44 46 45 255 
-99 -25 730 47 49 48 255 
-96 -25 723 48 50 49 255 
-81 -21 617 46 48 47 255 
-79 -21 610 42 46 45 255 
-78 -21 608 42 46 45 255 
-77 -21 607 43 45 44 255 
-76 -21 607 43 45 44 255 
-75 -21 607 46 48 47 255 
-74 -21 607 47 49 48 255 
-73 -21 607 45 47 46 255 
-72 -21 608 46 48 47 255 
-71 -21 608 48 50 49 255 
-70 -21 608 48 50 49 255 
-69 -21 608 48 50 49 255 
-68 -21 608 49 51 50 255 
-67 -21 609 50 52 51 255 
-66 -21 608 49 51 50 255 
-65 -21 608 47 49 48 255 
-64 -21 608 46 48 47 255 
-63 -21 608 46 48 47 255 
-62 -21 608 47 49 48 255 
-61 -21 608 46 50 49 255 
-60 -21 609 47 51 50 255 
-60 -21 609 46 50 49 255 
-59 -21 609 42 46 45 255 
-58 -21 609 44 48 47 255 
-57 -21 609 49 53 52 255 
-56 -21 609 47 51 50 255 
-55 -21 609 45 49 48 255 
-54 -21 609 44 48 47 255 
-53 -21 609 44 48 47 255 
-52 -21 609 44 48 47 255 
-51 -21 610 43 47 46 255 
-50 -21 610 45 49 48 255 
-49 -21 610 47 51 50 255 
-48 -21 611 46 50 49 255 
-47 -21 611 43 47 46 255 
-46 -21 611 44 50 46 255 
-45 -21 611 45 51 47 255 
-44 -21 611 46 52 48 255 
-43 -21 611 46 52 48 255 
-42 -21 611 46 52 48 255 
-41 -21 611 45 51 47 255 
-40 -21 612 44 50 46 255 
-39 -21 612 43 49 45 255 
-38 -21 612 43 49 47 255 
-37 -21 612 43 49 47 255 
-36 -21 612 44 50 48 255 
-35 -21 611 45 51 49 255 
-34 -21 611 45 51 49 255 
-33 -21 611 46 52 50 255 
-32 -21 611 46 52 50 255 
-31 -21 611 46 52 50 255 
-30 -21 611 43 49 47 255 
-29 -21 612 46 52 50 255 
-28 -21 612 47 53 51 255 
-27 -21 612 46 52 50 255 
-26 -21 612 46 52 50 255 
-25 -21 612 44 50 48 255 
-24 -21 612 44 50 48 255 
-23 -21 612 48 54 52 255 
-22 -21 612 45 51 49 255 
-21 -21 612 46 52 50 255 
-20 -21 612 45 51 49 255 
-19 -21 612 43 49 47 255 
-18 -21 611 45 51 49 255 
-17 -21 611 46 52 50 255 
-16 -21 611 47 53 51 255 
-15 -21 611 48 54 52 255 
-14 -21 610 47 53 51 255 
-13 -21 610 46 52 50 255 
-12 -21 610 47 53 51 255 
-11 -21 610 48 54 52 255 
-10 -21 610 45 51 51 255 
-9 -21 610 45 51 51 255 
-8 -21 610 48 52 53 255 
-7 -21 610 45 49 50 255 
-6 -21 610 47 51 52 255 
-5 -21 610 47 51 52 255 
-4 -21 610 46 50 51 255 
-3 -21 609 46 50 51 255 
-2 -21 609 48 49 51 255 
-1 -21 609 49 50 52 255 
0 -21 609 51 52 54 255 
1 -21 609 49 50 52 255 
2 -21 608 43 52 51 255 
3 -21 608 41 50 49 255 
4 -21 608 46 50 51 255 
5 -21 608 46 50 51 255 
6 -21 608 47 48 50 255 
7 -21 608 48 49 51 255 
8 -21 608 49 51 50 255 
9 -21 608 48 50 49 255 
10 -21 608 46 50 49 255 
11 -21 608 45 49 48 255 
12 -21 609 44 48 47 255 
13 -21 610 49 53 52 255 
14 -21 612 63 72 69 255 
15 -21 616 93 102 99 255 
16 -21 624 89 102 95 255 
17 -22 632 72 85 78 255 
23 -23 685 68 73 67 255 
25 -24 696 71 74 67 255 
26 -24 705 70 73 66 255 
28 -24 710 65 67 62 255 
29 -24 713 54 56 51 255 
30 -24 716 56 57 51 255 
31 -25 718 54 55 49 255 
33 -25 719 54 55 47 255 
34 -25 720 54 55 47 255 
35 -25 721 55 55 47 255 
36 -25 722 55 55 47 255 
37 -25 722 55 55 47 255 
39 -25 722 58 58 50 255 
40 -25 722 59 56 47 255 
41 -25 722 59 56 47 255 
42 -25 721 56 53 46 255 
43 -25 720 59 56 49 255 
44 -25 721 119 119 111 255 
46 -25 720 96 96 88 255 
-111 -24 745 28 30 29 255 
-109 -24 739 38 40 39 255 
-108 -24 736 51 53 52 255 
-106 -24 736 58 60 59 255 
-105 -24 735 54 56 55 255 
-104 -24 734 58 60 59 255 
-103 -24 734 58 60 59 255 
-101 -24 733 64 66 65 255 
-100 -24 731 55 57 56 255 
-98 -24 728 45 47 46 255 
-96 -23 722 52 54 53 255 
-81 -20 618 46 48 47 255 
-80 -20 612 45 47 46 255 
-78 -20 609 45 47 46 255 
-77 -20 608 47 47 47 255 
-76 -20 608 47 47 47 255 
-75 -20 608 46 46 46 255 
-74 -20 608 45 45 45 255 
-73 -20 608 47 47 47 255 
-72 -20 608 50 50 50 255 
-71 -20 609 50 52 51 255 
-70 -20 609 49 51 50 255 
-69 -20 609 47 49 48 255 
-68 -20 609 50 52 51 255 
-67 -20 609 49 51 50 255 
-67 -20 610 48 50 49 255 
-65 -20 609 46 50 49 255 
-64 -20 609 46 50 49 255 
-63 -20 609 46 50 49 255 
-62 -20 609 46 50 49 255 
-61 -20 609 49 54 50 255 
-60 -20 609 49 54 50 255 
-60 -20 610 50 55 51 255 
-59 -20 609 48 53 49 255 
-58 -20 609 46 51 47 255 
-57 -20 609 46 51 47 255 
-56 -20 609 48 53 49 255 
-55 -20 609 47 52 48 255 
-54 -20 609 46 51 47 255 
-53 -20 610 44 49 45 255 
-52 -20 610 43 48 44 255 
-51 -20 610 44 49 45 255 
-50 -20 611 46 51 47 255 
-49 -20 611 45 50 46 255 
-48 -20 611 45 50 46 255 
-47 -20 612 47 52 48 255 
-46 -20 612 45 51 47 255 
-45 -20 612 44 50 46 255 
-44 -20 612 44 50 46 255 
-43 -20 612 44 50 46 255 
-42 -20 612 46 52 48 255 
-41 -20 612 46 52 48 255 
-40 -20 612 45 50 46 255 
-39 -20 612 43 48 44 255 
-38 -20 612 44 49 45 255 
-37 -20 612 44 49 45 255 
-36 -20 612 46 51 47 255 
-35 -20 612 47 52 48 255 
-34 -20 612 46 51 47 255 
-33 -20 612 47 52 48 255 
-32 -20 612 49 54 50 255 
-31 -20 612 49 54 50 255 
-30 -20 612 45 51 49 255 
-29 -20 613 46 52 50 255 
-28 -20 613 48 53 49 255 
-27 -20 613 47 52 48 255 
-26 -20 613 46 51 47 255 
-25 -20 613 46 51 47 255 
-24 -20 613 45 51 49 255 
-23 -20 613 43 49 47 255 
-22 -20 613 42 48 46 255 
-21 -20 613 44 50 48 255 
-20 -20 613 46 51 47 255 
-19 -20 613 48 53 49 255 
-18 -20 612 49 54 50 255 
-17 -20 612 46 51 47 255 
-16 -20 612 44 50 48 255 
-15 -20 611 46 52 50 255 
-14 -20 611 48 54 54 255 
-13 -20 611 47 53 53 255 
-12 -20 611 46 52 52 255 
-11 -20 611 46 52 52 255 
-10 -20 611 47 53 53 255 
-9 -20 611 46 52 52 255 
-8 -20 611 45 49 50 255 
-7 -20 610 45 49 50 255 
-6 -20 610 47 51 52 255 
-5 -20 610 47 51 52 255 
-4 -20 610 48 52 53 255 
-3 -20 610 47 51 52 255 
-2 -20 610 47 48 50 255 
-1 -20 610 48 49 51 255 
0 -20 610 50 51 53 255 
1 -20 609 49 50 52 255 
2 -20 609 50 54 55 255 
3 -20 609 48 52 53 255 
4 -20 609 48 52 51 255 
5 -20 609 46 50 49 255 
6 -20 609 43 47 46 255 
7 -20 609 42 46 45 255 
8 -20 609 44 48 47 255 
9 -20 609 45 49 48 255 
10 -20 609 41 47 45 255 
11 -20 609 44 50 48 255 
12 -20 609 44 48 47 255 
13 -20 610 49 53 52 255 
14 -20 612 66 70 69 255 
15 -20 616 93 97 96 255 
16 -20 624 94 100 98 255 
17 -21 633 81 87 85 255 
23 -22 686 72 78 74 255 
25 -23 696 69 74 68 255 
26 -23 704 70 75 69 255 
28 -23 708 67 69 64 255 
29 -23 712 54 56 51 255 
30 -23 715 57 60 53 255 
31 -23 716 52 55 48 255 
33 -23 718 52 53 47 255 
34 -23 719 54 55 49 255 
35 -23 719 58 58 50 255 
36 -23 720 58 58 50 255 
37 -23 720 55 55 47 255 
39 -23 720 55 55 47 255 
40 -23 720 54 53 48 255 
41 -23 720 54 53 48 255 
42 -23 720 54 54 46 255 
43 -23 719 55 55 47 255 
44 -23 720 114 113 108 255 
45 -23 719 114 113 108 255 
-111 -23 742 42 42 42 255 
-109 -23 737 39 39 39 255 
-107 -23 734 45 45 45 255 
-106 -23 733 64 64 64 255 
-105 -23 733 61 63 62 255 
-104 -23 732 45 47 46 255 
-102 -23 731 61 63 62 255 
-101 -23 730 68 70 69 255 
-100 -23 729 60 62 61 255 
-98 -22 725 42 44 43 255 
-96 -22 720 48 50 49 255 
-82 -19 621 47 49 48 255 
-80 -19 613 42 44 43 255 
-78 -19 609 44 46 45 255 
-77 -19 609 47 47 47 255 
-76 -19 608 48 48 48 255 
-75 -19 608 50 50 50 255 
-74 -19 608 49 49 49 255 
-73 -19 609 48 48 48 255 
-72 -19 609 49 49 49 255 
-71 -19 609 48 50 49 255 
-70 -19 610 46 48 47 255 
-69 -19 610 50 52 51 255 
-69 -19 610 49 51 50 255 
-68 -19 610 47 49 48 255 
-67 -19 611 45 47 46 255 
-66 -19 611 44 48 47 255 
-65 -19 611 45 49 48 255 
-64 -19 611 46 50 49 255 
-63 -19 611 46 50 49 255 
-62 -19 610 48 52 51 255 
-61 -19 610 50 54 53 255 
-60 -19 610 52 56 55 255 
-59 -19 610 51 55 54 255 
-58 -19 610 48 52 51 255 
-57 -19 610 47 51 50 255 
-56 -19 610 47 51 50 255 
-55 -19 610 46 50 49 255 
-54 -19 610 45 49 48 255 
-53 -19 610 44 48 47 255 
-52 -19 611 42 48 46 255 
-51 -19 611 43 49 47 255 
-50 -19 611 44 50 48 255 
-49 -19 612 44 50 48 255 
-48 -19 612 43 49 47 255 
-47 -19 612 44 50 48 255 
-46 -19 612 44 50 46 255 
-45 -19 612 44 50 46 255 
-44 -19 612 41 47 43 255 
-43 -19 612 40 46 42 255 
-42 -19 612 41 47 43 255 
-41 -19 612 42 48 44 255 
-40 -19 612 44 50 46 255 
-39 -19 612 46 52 48 255 
-38 -19 613 47 53 49 255 
-37 -19 613 45 51 47 255 
-36 -19 613 44 50 46 255 
-35 -19 613 45 51 47 255 
-34 -19 613 45 51 47 255 
-33 -19 613 45 51 47 255 
-32 -19 613 46 52 48 255 
-31 -19 613 46 52 48 255 
-30 -19 613 45 51 49 255 
-29 -19 613 47 53 51 255 
-28 -19 614 50 55 51 255 
-27 -19 614 49 54 50 255 
-26 -19 614 48 53 49 255 
-25 -19 614 49 54 50 255 
-24 -19 614 48 54 52 255 
-23 -19 614 46 52 50 255 
-22 -19 614 46 52 50 255 
-21 -19 614 46 52 50 255 
-20 -19 614 47 52 48 255 
-19 -19 614 47 52 48 255 
-18 -19 613 46 51 47 255 
-17 -19 613 44 49 45 255 
-16 -19 612 44 50 48 255 
-15 -19 612 48 54 52 255 
-14 -19 612 44 50 48 255 
-13 -19 612 45 51 49 255 
-12 -19 612 45 51 49 255 
-11 -19 612 44 50 48 255 
-10 -19 612 45 51 49 255 
-9 -19 612 43 49 47 255 
-8 -19 612 44 48 47 255 
-7 -19 612 45 49 48 255 
-6 -19 612 49 53 54 255 
-5 -19 612 48 52 53 255 
-4 -19 611 48 52 53 255 
-3 -19 611 47 51 52 255 
-2 -19 611 47 51 52 255 
-1 -19 611 49 53 54 255 
0 -19 611 51 55 56 255 
1 -19 611 50 54 55 255 
2 -19 611 50 54 55 255 
3 -19 610 48 52 53 255 
4 -19 610 46 50 49 255 
5 -19 610 45 49 48 255 
6 -19 610 43 47 46 255 
7 -19 610 43 47 46 255 
8 -19 610 44 48 47 255 
9 -19 610 44 48 47 255 
10 -19 609 43 49 47 255 
11 -19 609 45 51 49 255 
12 -19 610 46 50 49 255 
13 -19 610 49 53 52 255 
14 -19 612 64 68 67 255 
15 -19 616 93 97 96 255 
16 -19 624 95 101 99 255 
17 -20 634 82 88 86 255 
23 -21 685 73 80 73 255 
25 -21 694 71 76 70 255 
26 -22 702 71 76 70 255 
27 -22 707 68 70 65 255 
29 -22 710 52 54 49 255 
30 -22 712 56 59 52 255 
31 -22 714 51 54 47 255 
32 -22 715 52 53 47 255 
34 -22 716 54 55 49 255 
35 -22 717 56 56 48 255 
36 -22 718 56 56 48 255 
37 -22 718 55 55 47 255 
38 -22 718 55 55 47 255 
40 -22 718 55 54 49 255 
41 -22 718 54 53 48 255 
42 -22 718 52 52 44 255 
43 -22 718 52 52 44 255 
44 -22 718 102 101 96 255 
45 -22 717 117 116 111 255 
47 -22 718 53 54 49 255 
-110 -22 739 42 42 42 255 
-109 -21 734 50 50 50 255 
-107 -21 732 52 52 52 255 
-106 -21 731 56 56 56 255 
-104 -21 730 57 59 58 255 
-103 -21 729 57 59 58 255 
-102 -21 728 63 65 64 255 
-100 -21 727 59 61 60 255 
-99 -21 725 64 66 65 255 
-97 -21 722 53 55 54 255 
-96 -21 718 49 51 50 255 
-82 -18 624 50 52 51 255 
-80 -18 615 46 48 47 255 
-79 -18 611 44 46 45 255 
-77 -18 609 46 48 47 255 
-76 -18 609 47 49 48 255 
-75 -18 608 49 51 50 255 
-74 -18 608 49 51 50 255 
-73 -18 609 47 49 48 255 
-72 -18 609 47 49 48 255 
-71 -18 609 47 49 48 255 
-70 -18 610 45 47 46 255 
-69 -18 610 50 52 51 255 
-69 -18 610 49 51 50 255 
-68 -18 611 47 49 48 255 
-67 -18 611 45 47 46 255 
-66 -18 611 44 48 47 255 
-65 -18 611 46 50 49 255 
-64 -18 611 46 50 49 255 
-63 -18 611 47 51 50 255 
-62 -18 611 48 52 51 255 
-61 -18 610 49 53 52 255 
-60 -18 610 52 56 55 255 
-59 -18 610 51 55 54 255 
-58 -18 610 48 52 51 255 
-57 -18 610 47 51 50 255 
-56 -18 610 47 51 50 255 
-55 -18 610 46 50 49 255 
-54 -18 610 45 51 49 255 
-53 -18 611 44 50 48 255 
-52 -18 611 45 51 49 255 
-51 -18 611 44 50 48 255 
-50 -18 612 43 49 47 255 
-49 -18 612 44 50 48 255 
-48 -18 612 44 50 48 255 
-47 -18 613 43 49 47 255 
-46 -18 613 44 53 48 255 
-45 -18 612 43 52 47 255 
-44 -18 612 39 48 43 255 
-43 -18 612 37 46 41 255 
-42 -18 612 38 47 42 255 
-41 -18 612 38 47 42 255 
-40 -18 612 40 49 44 255 
-39 -18 612 43 52 47 255 
-38 -18 613 46 55 50 255 
-37 -18 613 44 53 48 255 
-36 -18 613 45 51 47 255 
-35 -18 613 46 52 48 255 
-34 -18 613 47 53 49 255 
-33 -18 613 45 51 47 255 
-32 -18 613 45 51 47 255 
-31 -18 613 46 52 48 255 
-30 -18 613 45 51 49 255 
-29 -18 613 47 53 51 255 
-28 -18 614 49 54 50 255 
-27 -18 614 48 53 49 255 
-26 -18 614 47 52 48 255 
-25 -18 614 49 54 50 255 
-24 -18 614 50 54 53 255 
-23 -18 614 47 51 50 255 
-22 -18 614 47 51 50 255 
-21 -18 614 46 50 49 255 
-20 -18 614 47 52 48 255 
-19 -18 614 47 52 48 255 
-18 -18 614 45 50 46 255 
-17 -18 613 44 49 45 255 
-16 -18 613 45 49 48 255 
-15 -18 612 48 52 51 255 
-14 -18 612 47 51 50 255 
-13 -18 612 48 52 51 255 
-12 -18 612 47 51 50 255 
-11 -18 612 46 50 49 255 
-10 -18 612 45 49 48 255 
-9 -18 612 45 49 48 255 
-8 -18 613 46 50 49 255 
-7 -18 612 47 51 50 255 
-6 -18 612 49 53 52 255 
-5 -18 612 48 52 51 255 
-4 -18 612 47 51 50 255 
-3 -18 612 47 51 50 255 
-2 -18 612 47 51 52 255 
-1 -18 612 50 54 55 255 
0 -18 612 52 56 57 255 
1 -18 611 51 55 56 255 
2 -18 611 49 53 54 255 
3 -18 611 47 51 52 255 
4 -18 611 45 49 50 255 
5 -18 611 44 48 49 255 
6 -18 610 44 48 49 255 
7 -18 610 45 49 50 255 
8 -18 610 46 50 49 255 
9 -18 610 46 50 49 255 
10 -18 610 45 51 49 255 
11 -18 610 45 51 49 255 
12 -18 610 47 51 50 255 
13 -18 611 48 52 51 255 
14 -18 613 62 66 65 255 
15 -18 617 94 98 97 255 
16 -18 626 96 102 100 255 
17 -19 635 82 88 86 255 
23 -20 685 73 80 73 255 
25 -20 694 71 76 70 255 
26 -21 701 72 77 71 255 
27 -21 705 71 73 68 255 
29 -21 708 55 57 52 255 
30 -21 710 54 57 50 255 
31 -21 712 49 52 45 255 
32 -21 713 51 52 46 255 
34 -21 714 54 55 49 255 
35 -21 715 56 55 50 255 
36 -21 716 55 54 49 255 
37 -21 716 53 52 47 255 
38 -21 716 52 51 46 255 
39 -21 716 54 53 48 255 
41 -21 716 53 52 47 255 
42 -21 716 52 52 44 255 
43 -21 716 51 51 43 255 
44 -21 715 88 87 82 255 
45 -21 714 123 122 117 255 
46 -21 716 58 59 54 255 
-110 -20 736 43 43 43 255 
-108 -20 732 56 56 56 255 
-107 -20 730 52 54 53 255 
-106 -20 730 48 50 49 255 
-104 -20 729 57 59 58 255 
-103 -20 727 68 70 69 255 
-102 -20 726 51 53 52 255 
-100 -20 725 57 59 58 255 
-99 -20 723 67 69 68 255 
-97 -20 719 56 58 57 255 
-95 -20 715 41 45 44 255 
-82 -17 625 45 49 48 255 
-80 -17 616 46 50 49 255 
-79 -17 612 37 41 40 255 
-77 -17 610 44 46 45 255 
