ply
format ascii 1.0
comment VCGLIB generated
element vertex 1930
property float x
property float y
property float z
property uchar red
property uchar green
property uchar blue
property uchar alpha
element face 0
property list uchar int vertex_indices
end_header
5 83 566 35 39 40 255 
6 83 566 37 41 42 255 
7 83 566 38 42 43 255 
8 83 566 38 42 43 255 
9 83 566 38 42 41 255 
10 83 566 40 44 43 255 
11 83 566 41 45 44 255 
12 83 565 40 44 43 255 
13 83 565 38 42 41 255 
14 83 565 38 42 41 255 
15 82 564 40 44 43 255 
15 82 564 40 44 43 255 
16 82 564 38 42 43 255 
17 82 564 37 41 42 255 
18 83 565 41 47 47 255 
19 83 565 41 47 47 255 
20 83 565 43 49 49 255 
21 83 565 37 43 43 255 
22 83 565 40 44 45 255 
23 83 565 43 47 48 255 
24 83 565 41 47 47 255 
25 83 565 44 50 50 255 
26 83 566 44 53 52 255 
26 83 565 44 53 52 255 
27 83 565 42 51 50 255 
28 83 565 40 49 48 255 
29 83 565 42 48 48 255 
30 82 564 42 48 48 255 
31 82 564 43 49 49 255 
32 82 563 44 50 50 255 
33 82 563 45 51 51 255 
34 82 563 43 49 49 255 
35 82 563 38 47 46 255 
35 82 562 39 48 47 255 
36 82 562 40 49 48 255 
37 82 562 39 48 47 255 
38 82 562 42 51 50 255 
39 82 562 41 50 49 255 
40 82 562 44 53 52 255 
41 82 561 43 52 51 255 
42 82 561 41 51 50 255 
43 82 561 41 51 50 255 
44 82 561 41 51 50 255 
45 82 561 41 51 50 255 
45 82 560 41 50 49 255 
46 82 560 42 51 50 255 
47 82 560 45 54 53 255 
48 82 560 45 54 53 255 
49 82 559 44 53 50 255 
50 82 559 44 53 50 255 
51 81 558 43 52 49 255 
51 81 558 41 50 47 255 
52 81 558 42 51 48 255 
53 81 557 41 50 47 255 
54 81 558 42 51 48 255 
55 81 558 45 54 51 255 
56 81 558 48 57 54 255 
57 81 558 48 57 54 255 
58 81 558 48 57 54 255 
59 81 558 50 59 56 255 
60 81 558 47 56 53 255 
61 81 558 43 52 49 255 
61 81 558 42 51 48 255 
62 81 557 42 51 48 255 
63 81 558 43 52 49 255 
64 81 558 46 55 52 255 
65 81 558 50 59 56 255 
66 81 558 50 59 56 255 
67 81 558 49 58 53 255 
68 81 558 51 60 55 255 
69 81 558 53 59 55 255 
70 81 558 51 57 53 255 
70 81 558 50 56 52 255 
71 81 558 49 55 51 255 
72 81 558 50 56 52 255 
73 81 558 52 58 54 255 
74 81 557 51 57 53 255 
75 81 557 53 59 55 255 
76 81 556 54 59 55 255 
76 81 556 55 60 56 255 
77 81 556 56 61 57 255 
78 81 556 54 59 55 255 
79 81 557 51 56 52 255 
80 81 557 51 56 52 255 
81 81 557 58 60 55 255 
82 81 556 51 53 48 255 
83 81 556 44 46 41 255 
84 81 556 45 47 42 255 
85 81 556 49 51 46 255 
85 81 555 47 49 44 255 
86 81 556 46 48 43 255 
87 81 556 51 53 48 255 
88 81 556 54 55 49 255 
89 81 557 54 55 49 255 
90 81 556 56 57 51 255 
91 81 556 57 58 52 255 
92 81 556 55 54 49 255 
92 81 555 56 55 50 255 
93 81 555 58 58 50 255 
94 81 555 58 58 50 255 
95 81 555 58 58 50 255 
96 81 555 56 56 48 255 
97 81 555 54 54 46 255 
98 81 554 53 53 45 255 
99 81 554 55 55 47 255 
99 81 554 57 57 49 255 
100 81 553 57 57 49 255 
101 81 553 57 57 49 255 
102 81 553 56 56 48 255 
103 81 553 57 57 49 255 
104 80 552 57 56 51 255 
104 80 552 55 54 49 255 
105 80 552 54 53 48 255 
106 80 551 54 53 48 255 
107 80 551 55 54 49 255 
108 80 551 55 54 49 255 
109 80 551 55 54 49 255 
110 80 551 52 51 46 255 
110 80 550 47 46 41 255 
111 80 550 38 37 32 255 
112 80 550 31 27 24 255 
113 80 550 25 21 18 255 
114 80 550 22 19 14 255 
115 80 550 23 20 15 255 
116 80 550 40 36 33 255 
116 80 550 61 57 54 255 
117 80 550 69 65 62 255 
118 80 550 56 52 49 255 
119 80 550 42 39 34 255 
120 80 550 36 33 28 255 
121 80 550 32 28 25 255 
122 80 550 25 21 18 255 
123 80 551 22 18 17 255 
124 80 552 20 16 15 255 
125 80 552 19 15 14 255 
126 80 553 21 17 16 255 
127 81 554 22 18 17 255 
128 81 554 19 15 14 255 
129 81 555 16 12 11 255 
130 81 556 17 13 12 255 
131 81 556 18 17 13 255 
132 81 557 17 16 12 255 
133 81 558 18 14 11 255 
134 81 559 17 13 10 255 
135 81 559 18 14 11 255 
136 81 560 18 14 11 255 
138 81 561 15 14 10 255 
138 81 561 17 16 12 255 
140 82 562 18 14 11 255 
141 82 563 19 15 12 255 
142 82 563 19 15 12 255 
143 82 564 18 14 11 255 
144 82 565 17 13 10 255 
145 82 565 17 13 10 255 
146 82 565 18 14 11 255 
147 82 566 17 13 10 255 
148 82 566 11 11 11 255 
-133 96 651 32 34 33 255 
-132 96 652 26 28 27 255 
-131 96 654 29 31 30 255 
-131 96 656 35 37 36 255 
-130 97 657 31 33 32 255 
-129 97 657 29 31 30 255 
-128 97 658 32 34 33 255 
-127 97 659 30 32 31 255 
-126 97 660 32 34 33 255 
-125 97 660 34 36 35 255 
-124 97 661 36 38 37 255 
-123 97 662 34 36 35 255 
-122 97 662 33 35 34 255 
-121 97 662 34 36 35 255 
-120 98 663 33 35 34 255 
-119 98 663 34 36 35 255 
-118 98 664 35 35 33 255 
-117 98 663 36 36 34 255 
-116 98 663 35 36 31 255 
-115 98 663 38 39 34 255 
-114 98 663 35 36 31 255 
-113 98 664 37 38 33 255 
-112 98 664 36 36 34 255 
-111 98 663 37 37 35 255 
-110 98 664 36 36 34 255 
-109 98 664 35 35 33 255 
-108 98 664 33 33 31 255 
-106 98 663 36 36 34 255 
-105 98 663 38 38 36 255 
-104 98 663 34 34 32 255 
-103 98 662 30 30 30 255 
-102 98 662 32 32 32 255 
-101 98 662 33 33 33 255 
-100 98 662 32 32 32 255 
-99 98 662 32 32 32 255 
-98 98 662 32 32 32 255 
-97 98 662 31 31 31 255 
-96 98 662 30 30 30 255 
-94 98 662 29 29 27 255 
-93 98 662 29 29 27 255 
-92 97 661 30 30 28 255 
-91 97 661 30 30 28 255 
-90 97 661 32 31 29 255 
-89 97 661 32 31 29 255 
-88 97 661 29 28 26 255 
-87 97 661 30 29 27 255 
-86 97 661 31 30 28 255 
-85 97 661 29 28 26 255 
-84 97 660 29 30 25 255 
-82 97 660 27 28 23 255 
-81 97 659 27 28 22 255 
-80 97 658 29 30 24 255 
-79 97 658 29 30 24 255 
-78 97 657 29 30 24 255 
-77 97 657 26 27 22 255 
-76 97 657 23 24 19 255 
-75 97 656 19 18 14 255 
-73 97 655 18 17 13 255 
-72 96 654 18 17 12 255 
-71 96 653 16 15 10 255 
-70 96 651 16 15 10 255 
-69 96 650 20 19 14 255 
-67 96 648 22 21 17 255 
-66 95 646 20 19 15 255 
-65 95 645 16 15 11 255 
-64 95 643 18 17 13 255 
-63 95 642 18 17 13 255 
-61 94 640 17 16 12 255 
-60 94 639 17 16 12 255 
-59 94 636 20 19 15 255 
-58 94 635 24 23 21 255 
-57 93 633 27 26 24 255 
-55 93 631 26 28 27 255 
-54 93 628 27 29 28 255 
-53 93 627 28 32 31 255 
-52 92 626 29 33 32 255 
-51 92 624 31 33 32 255 
-50 92 622 31 33 32 255 
-48 92 620 32 33 35 255 
-47 91 619 34 35 37 255 
-46 91 616 36 37 39 255 
-45 91 614 30 31 33 255 
-44 90 612 26 27 29 255 
-43 90 610 27 28 30 255 
-42 90 608 29 30 32 255 
-40 89 605 32 33 35 255 
-39 89 602 31 35 34 255 
-38 89 600 29 33 32 255 
-37 88 598 28 32 31 255 
-36 88 595 27 31 30 255 
-35 87 592 26 30 29 255 
-34 87 588 26 30 29 255 
-32 86 583 28 32 31 255 
-31 85 577 29 33 32 255 
-30 84 572 31 37 33 255 
-29 84 569 33 39 35 255 
-28 84 566 34 38 39 255 
-27 83 565 37 41 42 255 
-26 83 564 41 42 44 255 
-25 83 564 42 43 45 255 
-24 83 564 42 43 45 255 
-23 83 565 43 44 46 255 
-22 84 566 40 44 45 255 
-21 84 566 38 42 43 255 
-20 84 566 34 38 39 255 
-19 83 565 34 38 39 255 
-18 84 566 37 38 40 255 
-18 84 566 37 38 40 255 
-17 83 565 37 38 40 255 
-16 83 565 37 38 40 255 
-15 83 565 35 39 40 255 
-14 83 565 33 37 38 255 
-13 83 565 35 39 38 255 
-12 83 565 35 39 38 255 
-11 83 565 34 40 38 255 
-10 83 565 32 38 36 255 
-9 83 565 31 37 35 255 
-8 83 565 32 38 36 255 
-7 83 565 35 39 38 255 
-7 83 565 36 40 39 255 
-6 83 565 41 45 44 255 
-5 83 565 38 42 41 255 
-4 83 565 35 39 38 255 
-3 83 565 35 39 38 255 
-2 83 565 36 40 39 255 
-1 83 564 39 43 42 255 
0 83 564 42 43 45 255 
1 83 564 40 41 43 255 
2 83 564 39 43 44 255 
3 83 564 38 42 43 255 
4 83 564 38 42 43 255 
4 83 565 37 41 42 255 
5 83 565 37 41 42 255 
6 83 565 38 42 43 255 
7 83 565 38 42 43 255 
8 83 565 37 41 42 255 
9 83 565 35 39 38 255 
10 83 565 36 40 39 255 
11 83 565 36 40 39 255 
12 83 564 37 41 40 255 
13 83 564 39 43 42 255 
14 83 564 40 44 43 255 
15 83 564 42 44 43 255 
15 83 564 42 44 43 255 
16 83 564 38 42 43 255 
17 83 564 37 41 42 255 
18 83 564 40 46 46 255 
19 83 564 42 48 48 255 
20 83 563 45 51 51 255 
21 83 564 39 45 45 255 
22 83 564 41 47 47 255 
23 83 564 45 51 51 255 
24 83 564 42 48 48 255 
25 83 564 43 49 49 255 
26 83 564 44 53 52 255 
26 83 564 45 54 53 255 
27 83 564 43 53 52 255 
28 83 564 42 52 51 255 
29 83 564 41 50 49 255 
30 83 563 38 47 46 255 
31 83 563 43 49 49 255 
32 83 562 44 50 50 255 
33 83 562 46 52 52 255 
34 83 561 44 50 50 255 
34 83 561 39 48 47 255 
35 83 561 39 48 47 255 
36 83 561 40 49 48 255 
37 83 561 39 48 47 255 
38 83 561 43 52 51 255 
39 83 561 42 51 50 255 
40 83 560 43 52 51 255 
41 83 560 42 51 50 255 
42 83 560 40 50 49 255 
43 83 560 41 51 50 255 
43 83 559 41 51 50 255 
44 83 559 40 50 49 255 
45 83 559 43 52 51 255 
46 83 559 43 52 51 255 
47 83 559 46 55 52 255 
48 83 559 45 54 51 255 
49 82 558 45 54 51 255 
50 82 558 46 55 52 255 
51 82 557 43 52 49 255 
51 82 557 42 51 48 255 
52 82 557 44 53 50 255 
53 82 556 43 52 49 255 
54 82 557 43 52 49 255 
55 82 557 45 54 51 255 
56 82 557 47 56 53 255 
57 82 557 44 53 50 255 
58 82 557 43 52 49 255 
59 82 557 46 55 52 255 
60 82 557 47 56 53 255 
60 82 557 43 52 49 255 
61 82 557 43 52 49 255 
62 82 556 46 55 52 255 
63 82 557 47 53 51 255 
64 82 557 47 53 51 255 
65 82 556 49 55 53 255 
66 82 556 51 57 55 255 
67 82 556 51 57 53 255 
68 82 556 52 58 54 255 
68 82 556 52 58 54 255 
69 82 556 50 56 52 255 
70 82 556 50 56 52 255 
71 82 556 49 55 51 255 
72 82 556 49 55 51 255 
73 82 556 51 57 53 255 
74 82 556 53 58 54 255 
75 82 556 53 58 54 255 
75 82 555 53 58 54 255 
76 82 555 53 58 54 255 
77 82 555 55 60 56 255 
78 82 555 52 57 53 255 
79 82 556 46 51 47 255 
80 82 556 43 48 44 255 
81 82 556 43 45 40 255 
82 82 556 45 47 42 255 
83 82 555 48 50 45 255 
84 82 555 51 53 48 255 
84 82 555 55 56 51 255 
85 82 555 53 54 49 255 
86 82 555 50 51 46 255 
87 82 555 48 49 44 255 
88 82 555 55 56 50 255 
89 82 555 54 55 49 255 
90 82 555 58 59 53 255 
91 82 555 62 63 57 255 
92 82 555 60 59 54 255 
92 82 554 57 56 51 255 
93 82 554 57 57 49 255 
94 82 554 56 56 48 255 
95 81 553 56 56 48 255 
96 82 554 54 54 46 255 
97 82 554 53 52 47 255 
97 81 553 54 53 48 255 
98 81 553 56 55 50 255 
99 81 552 57 56 51 255 
100 81 552 56 56 48 255 
101 81 551 56 56 48 255 
102 81 551 55 56 50 255 
102 81 551 57 58 52 255 
103 81 550 58 57 52 255 
104 81 550 54 53 48 255 
105 81 550 50 49 44 255 
106 81 550 51 50 45 255 
107 81 550 54 53 48 255 
108 81 550 55 54 49 255 
108 81 549 48 47 42 255 
109 81 549 39 38 33 255 
110 81 549 32 28 25 255 
111 81 549 25 21 18 255 
112 81 549 21 17 14 255 
113 81 549 22 18 15 255 
114 81 549 39 36 31 255 
114 81 549 63 60 55 255 
115 81 549 59 56 49 255 
116 81 549 57 54 47 255 
117 81 549 39 36 31 255 
118 81 549 23 20 15 255 
119 81 549 21 17 16 255 
120 81 549 22 18 17 255 
121 81 549 22 18 19 255 
122 81 550 22 18 19 255 
123 81 551 20 16 17 255 
124 81 552 20 16 17 255 
125 81 552 18 14 13 255 
126 81 553 17 13 12 255 
127 81 554 18 14 13 255 
128 82 555 16 12 11 255 
129 82 555 16 12 11 255 
130 82 556 18 14 13 255 
131 82 556 15 14 9 255 
132 82 558 15 14 9 255 
133 82 558 18 15 10 255 
134 82 559 18 15 10 255 
136 82 560 19 16 11 255 
136 82 560 17 14 9 255 
138 82 561 13 12 7 255 
138 82 561 14 13 8 255 
140 83 562 19 16 11 255 
141 83 563 19 16 11 255 
142 83 564 18 15 10 255 
143 83 565 16 13 8 255 
144 83 565 17 12 8 255 
145 83 566 18 13 9 255 
146 83 566 18 15 10 255 
147 83 566 17 14 9 255 
148 83 566 12 12 12 255 
-135 97 651 25 27 24 255 
-134 97 652 24 26 23 255 
-133 97 654 25 27 24 255 
-132 97 655 27 29 26 255 
-132 98 656 31 33 30 255 
-131 98 657 34 36 33 255 
-130 98 657 34 36 33 255 
-129 98 658 32 34 31 255 
-128 98 658 33 35 32 255 
-127 98 659 34 36 33 255 
-126 98 660 35 37 32 255 
-125 98 660 36 38 33 255 
-124 98 660 35 37 34 255 
-123 98 661 33 35 32 255 
-122 99 662 33 35 32 255 
-121 99 662 32 34 31 255 
-120 99 662 31 33 28 255 
-119 99 662 34 36 31 255 
-118 99 662 33 38 34 255 
-117 99 662 33 38 34 255 
-116 99 662 34 39 35 255 
-115 99 662 34 39 35 255 
-114 99 662 36 38 35 255 
-113 99 662 36 38 35 255 
-112 99 662 35 37 34 255 
-110 99 662 34 36 33 255 
-109 99 662 31 33 30 255 
-109 99 663 31 33 30 255 
-107 99 663 33 33 31 255 
-106 99 662 37 37 35 255 
-105 99 662 38 38 36 255 
-104 99 662 32 32 30 255 
-103 98 661 28 28 26 255 
-102 98 661 33 33 31 255 
-101 98 661 32 34 31 255 
-100 98 661 30 32 29 255 
-99 98 661 31 33 30 255 
-98 98 661 31 33 30 255 
-96 98 660 29 31 28 255 
-95 98 660 28 30 27 255 
-94 98 660 28 30 27 255 
-93 98 659 26 28 25 255 
-92 98 659 33 33 31 255 
-91 98 659 32 32 30 255 
-90 98 660 30 30 28 255 
-89 98 660 29 29 27 255 
-88 98 660 30 30 28 255 
-87 98 660 28 28 26 255 
-86 98 660 28 28 26 255 
-85 98 660 31 31 29 255 
-84 98 660 31 30 28 255 
-82 98 659 26 25 23 255 
-81 98 658 29 28 26 255 
-80 98 657 26 25 23 255 
-79 98 657 32 31 29 255 
-78 98 657 34 33 31 255 
-77 98 656 32 31 29 255 
-76 98 656 29 28 26 255 
-74 98 655 22 21 19 255 
-73 98 654 20 19 17 255 
-72 97 653 17 17 15 255 
-71 97 653 16 16 14 255 
-70 97 651 15 15 13 255 
-69 97 650 17 17 15 255 
-67 97 648 20 20 18 255 
-66 96 646 20 20 18 255 
-65 96 645 19 18 14 255 
-64 96 643 19 18 14 255 
-63 96 642 19 18 16 255 
-61 95 640 20 19 17 255 
-60 95 639 19 19 17 255 
-59 95 637 19 19 17 255 
-58 95 635 20 20 18 255 
-57 94 633 22 22 20 255 
-55 94 631 25 27 24 255 
-54 94 629 31 33 30 255 
-53 94 627 31 33 32 255 
-52 93 626 28 30 29 255 
-51 93 624 31 33 32 255 
-50 93 622 32 34 33 255 
-48 93 620 33 35 34 255 
-47 92 619 37 39 38 255 
-46 92 617 35 37 36 255 
-45 92 615 32 34 33 255 
-44 91 612 31 33 32 255 
-43 91 611 30 32 31 255 
-42 91 608 29 31 30 255 
-40 90 606 30 32 31 255 
-39 90 603 32 34 33 255 
-38 90 601 32 34 33 255 
-37 89 599 29 33 34 255 
-36 89 597 27 31 32 255 
-35 89 594 27 31 32 255 
-34 88 591 24 28 29 255 
-32 88 587 25 29 30 255 
-31 87 581 28 32 33 255 
-30 86 576 28 32 33 255 
-29 85 571 35 39 40 255 
-28 85 567 35 39 38 255 
-27 84 565 36 40 39 255 
-26 84 564 36 40 39 255 
-25 84 563 40 44 43 255 
-24 84 563 41 45 44 255 
-23 84 563 38 42 41 255 
-22 84 564 40 42 41 255 
-21 84 564 39 41 40 255 
-20 84 564 38 40 39 255 
-19 84 564 37 39 38 255 
-18 84 564 37 39 38 255 
-17 84 564 37 39 38 255 
-17 84 564 36 38 37 255 
-16 84 564 35 37 36 255 
-15 84 564 36 38 37 255 
-14 84 564 38 40 39 255 
-13 84 564 37 38 40 255 
-12 84 564 39 40 42 255 
-11 84 564 40 41 43 255 
-10 84 563 41 42 44 255 
-9 84 563 41 42 44 255 
-8 84 564 39 40 42 255 
-7 84 564 40 41 43 255 
-7 84 564 41 42 44 255 
-6 84 564 41 42 44 255 
-5 84 564 38 39 41 255 
-4 84 564 36 37 39 255 
-3 84 564 36 37 39 255 
-2 84 563 41 42 44 255 
-1 84 563 37 38 40 255 
0 84 563 42 43 45 255 
1 84 563 38 39 41 255 
2 84 563 39 40 42 255 
3 84 563 38 39 41 255 
4 84 563 38 39 41 255 
4 84 563 40 41 43 255 
5 84 563 41 42 44 255 
6 84 564 40 41 43 255 
7 84 564 36 40 41 255 
8 84 564 35 39 40 255 
9 84 564 36 40 41 255 
10 84 564 35 39 40 255 
11 84 564 39 40 42 255 
12 84 564 40 41 43 255 
13 84 563 40 41 43 255 
14 84 563 40 41 43 255 
15 84 563 39 43 44 255 
15 84 562 38 42 43 255 
16 84 562 38 42 43 255 
17 84 562 37 41 42 255 
18 84 562 40 44 45 255 
19 84 562 43 47 48 255 
20 84 562 43 47 48 255 
21 84 562 43 47 48 255 
22 84 563 44 48 49 255 
23 84 563 44 48 49 255 
24 84 563 43 49 49 255 
25 84 563 40 46 46 255 
25 84 563 37 43 43 255 
26 84 563 39 45 45 255 
27 84 563 45 51 51 255 
28 84 562 47 53 53 255 
29 84 562 45 51 51 255 
30 84 562 45 51 51 255 
31 84 561 43 52 51 255 
32 84 561 43 52 51 255 
33 84 560 43 52 51 255 
34 84 560 41 50 49 255 
34 84 560 41 50 49 255 
35 83 559 40 49 48 255 
36 83 559 40 49 48 255 
37 83 559 40 49 48 255 
38 83 559 42 51 48 255 
39 83 559 41 50 47 255 
40 83 558 40 49 46 255 
41 83 558 39 48 45 255 
42 83 558 39 48 45 255 
42 83 558 40 49 46 255 
43 83 558 41 50 47 255 
44 83 558 43 52 49 255 
45 83 558 43 53 52 255 
46 83 558 42 52 51 255 
47 83 557 41 51 50 255 
48 83 557 40 50 49 255 
49 83 556 45 55 54 255 
50 83 556 47 57 56 255 
50 83 556 43 52 49 255 
51 83 556 39 48 45 255 
52 83 555 42 51 48 255 
53 83 555 41 50 47 255 
54 83 556 41 50 47 255 
55 83 556 44 53 50 255 
56 83 556 47 56 53 255 
57 83 556 45 54 51 255 
58 83 556 43 52 49 255 
59 83 556 43 52 49 255 
59 83 556 44 53 50 255 
60 83 556 43 52 49 255 
61 83 556 45 54 51 255 
62 83 555 48 57 54 255 
63 83 555 47 56 53 255 
64 83 555 45 54 51 255 
65 83 555 46 52 50 255 
66 83 555 47 53 51 255 
66 83 555 48 54 52 255 
67 83 555 51 57 55 255 
68 83 555 52 58 56 255 
69 83 555 51 57 55 255 
70 83 555 52 58 56 255 
71 83 555 53 59 57 255 
72 83 555 51 57 53 255 
73 83 555 48 54 50 255 
74 83 555 52 57 53 255 
75 83 555 55 60 56 255 
75 83 555 53 58 54 255 
76 83 555 51 56 52 255 
77 83 555 52 54 51 255 
78 83 555 47 49 46 255 
79 83 555 44 46 41 255 
80 83 555 45 47 42 255 
81 83 555 49 51 46 255 
82 83 555 47 49 44 255 
82 83 554 50 52 47 255 
83 83 554 53 55 50 255 
84 83 554 55 56 51 255 
85 82 553 54 55 50 255 
86 82 553 51 52 46 255 
87 82 553 52 53 47 255 
88 82 553 53 55 52 255 
89 82 553 56 58 55 255 
89 82 553 58 59 53 255 
90 82 553 59 60 54 255 
91 82 553 60 62 51 255 
92 82 553 58 60 49 255 
93 82 552 54 55 47 255 
94 82 552 54 55 47 255 
95 82 552 58 59 51 255 
96 82 552 55 56 48 255 
96 82 552 60 59 54 255 
97 82 551 62 61 56 255 
98 82 551 59 58 53 255 
99 82 551 57 56 51 255 
100 82 550 57 56 52 255 
100 82 550 54 53 49 255 
101 82 549 53 54 49 255 
102 82 549 53 54 49 255 
103 82 549 54 55 49 255 
104 82 549 52 53 47 255 
105 82 549 52 53 45 255 
106 82 549 53 54 46 255 
106 82 549 47 46 41 255 
107 82 549 33 32 27 255 
108 82 548 29 28 26 255 
109 82 548 29 28 26 255 
110 82 548 22 21 19 255 
111 82 548 23 22 20 255 
111 81 547 47 43 42 255 
112 82 548 68 64 63 255 
113 82 548 66 62 59 255 
114 81 548 54 50 47 255 
115 81 548 43 39 38 255 
116 81 548 35 31 30 255 
117 81 548 24 20 19 255 
118 82 549 19 15 14 255 
119 82 549 19 15 14 255 
120 82 549 19 15 14 255 
121 82 550 20 16 13 255 
122 82 550 18 14 11 255 
123 82 551 17 13 10 255 
124 82 552 18 14 11 255 
125 82 553 17 13 10 255 
126 82 553 17 13 10 255 
127 82 554 16 12 9 255 
128 82 555 17 13 10 255 
129 83 556 19 15 12 255 
130 83 556 19 15 12 255 
131 83 557 17 13 10 255 
132 83 557 17 13 10 255 
133 83 558 18 14 11 255 
134 83 559 17 13 10 255 
136 83 560 15 11 8 255 
137 83 561 15 11 8 255 
138 83 561 17 13 10 255 
139 83 562 17 13 10 255 
140 84 563 17 13 10 255 
141 84 564 16 12 9 255 
142 84 565 16 12 9 255 
143 84 565 16 12 9 255 
144 84 566 18 14 11 255 
145 84 567 19 15 12 255 
146 84 567 18 14 11 255 
147 84 567 15 11 8 255 
148 84 567 11 13 12 255 
149 84 567 16 18 17 255 
-136 98 649 26 28 25 255 
-136 98 652 26 28 25 255 
-135 98 653 27 29 26 255 
-134 98 654 29 31 28 255 
-133 98 655 31 33 30 255 
-133 99 656 32 34 31 255 
-132 99 657 34 36 33 255 
-131 99 657 34 36 33 255 
-130 99 657 33 35 32 255 
-129 99 657 32 34 31 255 
-128 99 658 33 35 32 255 
-127 99 659 36 38 35 255 
-126 99 659 35 37 32 255 
-125 99 660 36 38 33 255 
-124 99 660 35 37 34 255 
-123 99 661 35 37 34 255 
-122 99 661 33 38 34 255 
-121 99 660 33 38 34 255 
-120 99 661 34 39 33 255 
-119 99 661 35 40 34 255 
-118 99 661 35 37 34 255 
-117 99 660 35 37 34 255 
-115 99 660 36 38 35 255 
-114 99 660 36 38 35 255 
-113 99 661 36 38 35 255 
-112 99 661 36 38 35 255 
-111 99 661 35 37 34 255 
-110 99 661 34 36 33 255 
-109 99 661 31 33 30 255 
-108 99 661 31 33 30 255 
-107 99 661 32 34 31 255 
-106 100 661 36 38 35 255 
-105 100 661 37 37 35 255 
-104 99 660 31 31 29 255 
-103 99 660 28 28 26 255 
-102 99 660 31 31 29 255 
-100 99 659 31 33 30 255 
-99 99 659 30 32 29 255 
-98 99 659 32 34 31 255 
-97 99 659 32 34 31 255 
-96 99 659 31 33 30 255 
-95 99 659 29 31 28 255 
-94 99 659 29 31 28 255 
-93 99 658 28 30 27 255 
-92 99 658 31 33 30 255 
-91 99 658 32 34 31 255 
-90 99 658 29 31 28 255 
-89 99 659 26 28 25 255 
-88 99 659 27 29 26 255 
-87 99 659 31 33 30 255 
-86 99 659 32 34 31 255 
-84 99 659 32 34 31 255 
-83 99 659 30 30 28 255 
-82 99 659 25 25 23 255 
-81 99 658 26 26 24 255 
-80 99 657 23 23 21 255 
-79 99 656 27 27 25 255 
-78 99 656 30 30 28 255 
-77 99 655 30 30 28 255 
-75 99 654 26 26 24 255 
-74 99 654 25 24 22 255 
-73 98 653 22 21 19 255 
-72 98 652 20 19 17 255 
-71 98 652 18 17 15 255 
-70 98 651 17 16 14 255 
-69 98 649 18 17 15 255 
-67 98 648 20 19 17 255 
-66 97 646 20 19 17 255 
-65 97 645 21 20 15 255 
-64 97 644 20 19 14 255 
-63 97 642 19 18 14 255 
-61 97 640 18 17 13 255 
-60 96 639 17 18 13 255 
-59 96 637 17 18 13 255 
-58 96 635 18 19 14 255 
-57 95 633 18 19 14 255 
-55 95 632 23 24 19 255 
-54 95 629 28 29 24 255 
-53 95 628 30 32 29 255 
-52 94 626 31 33 30 255 
-51 94 624 32 34 33 255 
-50 94 623 32 34 33 255 
-48 94 621 32 34 31 255 
-47 93 619 34 36 33 255 
-46 93 617 35 37 36 255 
-45 93 615 33 35 34 255 
-44 92 613 31 33 32 255 
-43 92 611 30 32 31 255 
-42 92 609 29 31 30 255 
-40 91 606 29 31 30 255 
-39 91 604 31 33 32 255 
-38 91 602 32 34 33 255 
-37 91 600 27 31 32 255 
-36 90 597 28 32 33 255 
-35 90 595 29 33 34 255 
-34 89 593 26 30 31 255 
-33 89 590 25 29 30 255 
-31 88 585 25 29 30 255 
-30 88 580 25 29 30 255 
-29 87 575 33 37 38 255 
-28 86 570 33 37 38 255 
-27 85 566 34 38 39 255 
-26 85 564 33 37 38 255 
-25 85 562 34 38 39 255 
-24 85 562 35 39 40 255 
-23 85 562 34 38 39 255 
-22 85 562 33 37 38 255 
-21 85 562 33 37 38 255 
-20 85 563 34 38 39 255 
-19 85 563 33 37 38 255 
-18 85 563 33 37 38 255 
-17 85 563 33 37 38 255 
-17 85 563 32 36 37 255 
-16 85 563 34 38 39 255 
-15 85 563 35 39 40 255 
-14 85 563 35 39 40 255 
-13 85 563 38 39 41 255 
-12 85 563 40 41 43 255 
-11 85 563 40 41 43 255 
-10 85 562 39 40 42 255 
-9 85 562 38 39 41 255 
-8 85 562 38 39 41 255 
-7 85 563 39 40 42 255 
-6 85 562 41 42 44 255 
-6 85 563 41 42 44 255 
-5 85 563 38 39 41 255 
-4 85 563 37 38 40 255 
-3 85 563 37 38 40 255 
-2 85 562 40 41 43 255 
-1 85 562 38 39 41 255 
0 85 562 42 43 45 255 
1 85 562 40 41 43 255 
2 85 562 41 42 44 255 
3 85 562 39 40 42 255 
4 85 562 38 39 41 255 
4 85 562 38 39 41 255 
5 85 562 39 40 42 255 
6 85 562 39 40 42 255 
7 85 563 37 41 42 255 
8 85 563 37 41 42 255 
9 85 563 38 42 43 255 
10 85 562 37 41 42 255 
11 85 562 41 42 44 255 
12 85 562 43 44 46 255 
13 85 561 42 43 45 255 
14 85 561 43 44 46 255 
14 85 561 41 45 44 255 
15 85 561 39 43 42 255 
16 85 560 36 40 41 255 
17 85 560 37 41 42 255 
18 85 560 39 43 44 255 
19 85 560 41 45 46 255 
20 85 560 43 47 48 255 
21 85 560 43 47 48 255 
22 85 561 44 48 49 255 
23 85 561 45 49 50 255 
24 85 561 45 49 50 255 
24 85 561 42 46 47 255 
25 85 561 38 44 44 255 
26 85 561 40 46 46 255 
27 85 561 45 51 51 255 
28 85 560 47 53 53 255 
29 85 560 46 52 52 255 
30 85 560 45 51 51 255 
31 85 560 40 49 48 255 
32 84 559 41 50 49 255 
33 84 559 41 50 49 255 
33 84 558 41 50 49 255 
34 84 558 41 50 49 255 
35 84 558 40 49 48 255 
36 84 558 39 48 47 255 
37 84 557 37 46 45 255 
38 84 557 37 46 45 255 
39 84 557 39 48 47 255 
40 84 557 40 49 46 255 
41 84 557 38 47 44 255 
41 84 557 39 48 45 255 
42 84 556 39 48 45 255 
43 84 556 41 50 47 255 
44 84 556 43 52 49 255 
45 84 556 41 52 48 255 
46 84 556 42 53 49 255 
47 84 556 41 52 48 255 
48 84 555 40 51 47 255 
49 84 555 44 55 51 255 
49 84 554 46 57 53 255 
50 84 554 41 52 48 255 
51 84 554 40 51 47 255 
52 84 554 39 50 46 255 
53 84 554 39 50 46 255 
54 84 555 41 50 47 255 
55 84 555 43 52 49 255 
56 84 555 45 54 51 255 
57 84 555 44 53 50 255 
58 84 555 42 51 48 255 
58 84 554 43 52 49 255 
59 84 554 43 52 49 255 
60 84 554 43 52 49 255 
61 84 554 42 51 48 255 
62 84 554 42 51 48 255 
63 84 554 44 53 50 255 
64 84 554 46 55 52 255 
64 83 553 48 54 50 255 
65 83 553 48 54 50 255 
66 83 553 49 55 51 255 
67 83 553 51 57 53 255 
68 83 553 51 57 53 255 
69 83 553 49 55 51 255 
70 84 554 49 55 51 255 
71 83 554 51 57 53 255 
72 83 554 51 57 53 255 
73 83 554 49 55 51 255 
74 83 554 50 55 51 255 
74 83 554 49 54 50 255 
75 83 554 46 50 49 255 
76 83 554 45 49 48 255 
77 83 554 47 52 48 255 
78 83 554 48 53 49 255 
79 83 554 51 53 48 255 
80 83 554 51 53 48 255 
81 83 554 50 52 47 255 
82 83 554 49 51 46 255 
82 83 553 52 54 49 255 
83 83 553 56 58 53 255 
84 83 553 57 59 54 255 
85 83 552 56 58 53 255 
86 83 552 54 57 50 255 
87 83 552 53 56 49 255 
88 83 552 52 55 48 255 
88 83 552 54 57 50 255 
89 83 552 56 57 49 255 
90 83 552 56 57 49 255 
91 83 552 56 57 51 255 
92 83 552 55 56 50 255 
93 83 551 53 54 48 255 
94 83 551 54 55 49 255 
94 83 551 54 55 50 255 
95 83 551 60 61 56 255 
96 83 550 61 60 55 255 
97 83 550 59 58 53 255 
98 83 550 58 57 52 255 
99 83 549 55 54 49 255 
99 83 549 52 51 46 255 
100 82 548 53 52 47 255 
101 82 548 48 49 41 255 
102 82 548 50 51 43 255 
103 82 548 49 50 42 255 
104 82 548 48 49 41 255 
105 82 548 46 45 40 255 
105 82 548 37 36 31 255 
106 83 549 27 26 21 255 
107 82 548 23 22 17 255 
108 82 548 20 19 14 255 
109 82 548 27 26 21 255 
110 82 548 40 39 34 255 
110 82 547 56 55 50 255 
111 82 547 62 61 57 255 
112 82 547 49 48 44 255 
113 82 547 34 33 29 255 
114 82 548 31 30 26 255 
115 82 548 25 21 20 255 
116 82 548 23 19 18 255 
117 82 548 17 13 12 255 
118 83 549 14 10 9 255 
119 83 549 15 11 10 255 
120 83 550 16 12 11 255 
121 83 550 17 13 10 255 
122 83 551 17 13 10 255 
123 83 551 17 13 10 255 
124 83 552 19 15 12 255 
125 83 553 17 13 10 255 
126 83 554 17 13 10 255 
127 83 555 17 13 10 255 
128 83 555 18 14 11 255 
129 84 556 19 15 12 255 
130 84 557 18 14 11 255 
131 84 557 17 13 10 255 
132 84 558 17 13 10 255 
133 84 559 17 13 10 255 
134 84 559 15 11 8 255 
136 84 560 14 10 7 255 
137 84 561 15 11 8 255 
138 84 561 16 12 9 255 
139 84 562 18 14 11 255 
140 84 563 16 12 9 255 
141 85 564 15 11 8 255 
142 85 565 15 11 8 255 
143 85 566 16 12 9 255 
144 85 566 18 14 11 255 
145 85 567 19 15 12 255 
146 85 567 18 14 11 255 
147 85 567 16 12 9 255 
148 85 567 12 14 13 255 
149 85 567 16 18 17 255 
-137 99 649 25 27 24 255 
-137 99 651 28 30 27 255 
-136 99 652 29 31 28 255 
-135 99 654 31 33 30 255 
-135 99 655 34 36 33 255 
-133 99 655 37 39 36 255 
-132 100 655 37 39 36 255 
-132 100 656 36 38 35 255 
-131 100 657 35 37 34 255 
-130 100 657 34 36 33 255 
-129 100 657 34 36 33 255 
-128 100 658 33 38 34 255 
-127 100 659 35 40 36 255 
-126 100 659 35 40 34 255 
-125 100 659 34 39 33 255 
-124 100 659 34 39 35 255 
-123 100 660 33 38 34 255 
-122 100 660 33 38 34 255 
-121 100 659 34 39 35 255 
-119 100 659 34 39 33 255 
-119 100 660 33 38 32 255 
-118 100 660 36 38 35 255 
-116 100 659 36 38 35 255 
-115 100 659 35 37 34 255 
-114 100 659 35 37 34 255 
-113 100 659 35 37 34 255 
-112 100 659 35 37 34 255 
-111 100 659 36 38 35 255 
-110 100 659 37 39 36 255 
-109 100 660 35 37 34 255 
-108 100 660 33 35 32 255 
-107 100 660 33 35 32 255 
-106 100 660 35 37 34 255 
-105 100 660 35 37 34 255 
-104 100 659 32 34 31 255 
-103 100 659 30 32 29 255 
-101 100 659 31 33 30 255 
-100 100 658 29 31 28 255 
-99 100 658 30 32 29 255 
-98 100 658 30 32 29 255 
-97 100 658 31 33 30 255 
-96 100 658 30 32 29 255 
-95 100 658 29 31 28 255 
-94 100 657 28 30 27 255 
-93 100 657 27 29 26 255 
-92 100 657 30 32 29 255 
-91 100 657 30 32 29 255 
-90 100 657 29 31 28 255 
-88 100 657 26 28 25 255 
-87 100 657 27 29 26 255 
-86 100 658 31 33 30 255 
-85 100 658 33 35 32 255 
-84 100 658 31 33 30 255 
-83 100 658 28 28 26 255 
-82 100 657 24 24 22 255 
-81 100 657 24 24 22 255 
-80 100 656 22 22 20 255 
-79 100 656 25 25 23 255 
-78 100 655 30 30 28 255 
-76 100 654 33 33 31 255 
-75 99 653 27 27 25 255 
-74 99 653 27 26 24 255 
-73 99 652 24 23 21 255 
-72 99 651 21 20 18 255 
-71 99 651 18 17 15 255 
-70 99 651 16 15 13 255 
-69 99 650 17 16 14 255 
-67 99 648 19 18 16 255 
-66 99 647 19 18 16 255 
-65 98 645 23 22 17 255 
-64 98 643 21 20 15 255 
-63 98 642 18 17 13 255 
-61 98 641 17 16 12 255 
-60 97 639 16 17 12 255 
-59 97 638 17 18 13 255 
-58 97 636 17 18 13 255 
-57 97 634 16 17 12 255 
-55 96 632 20 21 16 255 
-54 96 630 23 24 19 255 
-53 96 629 29 31 28 255 
-52 96 627 32 34 31 255 
-51 95 625 32 34 31 255 
-50 95 623 31 33 30 255 
-48 95 621 30 32 29 255 
-47 95 620 30 32 29 255 
-46 94 617 33 35 34 255 
-45 94 616 32 34 33 255 
-44 94 614 31 33 32 255 
-43 93 612 30 32 31 255 
-42 93 610 31 33 32 255 
-40 93 607 30 32 31 255 
-39 92 605 30 32 31 255 
-38 92 603 32 34 33 255 
-37 92 600 28 32 33 255 
-36 91 598 30 34 35 255 
-35 91 596 30 34 35 255 
-34 91 594 27 31 32 255 
-33 90 592 25 29 30 255 
-32 90 588 23 27 28 255 
-30 89 584 25 29 30 255 
-29 88 579 31 35 36 255 
-28 87 573 35 39 40 255 
-27 87 568 35 39 40 255 
-26 86 564 35 39 40 255 
-25 86 562 34 38 39 255 
-24 86 561 37 41 42 255 
-23 86 561 38 42 43 255 
-22 86 561 35 39 40 255 
-21 86 561 35 39 40 255 
-20 86 561 34 38 39 255 
-19 86 562 34 38 39 255 
-18 86 563 36 40 41 255 
-17 86 563 37 41 42 255 
-17 86 562 34 38 39 255 
-16 86 562 36 40 41 255 
-15 86 561 36 42 42 255 
-14 86 561 34 40 40 255 
-13 86 561 36 40 41 255 
-12 86 561 37 41 42 255 
-11 86 561 38 42 43 255 
-10 86 561 35 39 40 255 
-9 86 561 35 39 40 255 
-8 86 561 35 39 40 255 
-7 86 561 33 37 38 255 
-6 86 562 36 40 41 255 
-6 86 562 39 43 44 255 
-5 86 562 35 39 40 255 
-4 86 562 36 40 41 255 
-3 86 561 35 39 40 255 
-2 86 561 37 41 42 255 
-1 86 561 37 41 42 255 
0 85 560 40 44 45 255 
1 86 561 38 42 43 255 
2 86 561 41 42 44 255 
3 85 560 39 40 42 255 
4 85 560 37 38 40 255 
4 86 561 36 37 39 255 
5 86 561 38 39 41 255 
6 86 561 39 40 42 255 
7 86 561 38 42 43 255 
8 86 561 38 42 43 255 
9 86 561 38 42 43 255 
10 86 561 37 41 42 255 
11 86 561 39 43 44 255 
12 86 561 40 44 45 255 
13 85 560 38 42 41 255 
14 85 560 39 43 42 255 
14 85 560 41 45 44 255 
15 85 559 40 44 43 255 
16 85 559 37 41 44 255 
17 85 559 38 42 45 255 
18 85 559 38 42 43 255 
19 85 559 38 42 43 255 
20 85 559 41 45 46 255 
21 85 559 43 47 48 255 
22 85 559 45 49 50 255 
23 85 560 47 51 52 255 
24 85 560 46 50 51 255 
24 85 560 42 46 47 255 
25 85 560 41 45 46 255 
26 85 560 43 47 48 255 
27 85 559 47 51 52 255 
28 85 559 49 53 54 255 
29 85 559 47 51 50 255 
30 85 559 45 49 48 255 
31 85 558 39 48 47 255 
32 85 558 40 49 48 255 
32 85 558 41 50 49 255 
33 85 557 42 51 50 255 
34 85 557 42 51 50 255 
35 85 557 41 50 49 255 
36 85 557 40 49 48 255 
37 85 556 38 47 46 255 
38 85 556 38 47 46 255 
39 85 556 42 51 50 255 
40 85 556 42 51 50 255 
40 85 556 40 49 48 255 
41 85 556 40 49 46 255 
42 85 555 42 51 48 255 
43 85 555 42 51 48 255 
44 85 555 43 52 49 255 
45 85 555 41 52 46 255 
46 85 555 41 52 46 255 
47 84 554 41 52 46 255 
48 84 554 41 52 46 255 
48 84 554 44 55 51 255 
49 84 553 44 55 51 255 
50 84 553 40 51 47 255 
51 84 553 41 52 48 255 
52 84 553 39 50 46 255 
53 84 553 40 51 47 255 
54 84 554 42 51 48 255 
55 84 554 42 51 48 255 
56 84 554 42 51 48 255 
57 84 554 42 51 48 255 
57 84 554 43 52 49 255 
58 84 554 45 54 51 255 
59 84 553 43 52 49 255 
60 84 553 44 53 50 255 
61 84 553 42 51 48 255 
62 84 553 40 49 46 255 
63 84 553 43 52 47 255 
64 84 553 46 55 50 255 
64 84 552 49 55 51 255 
65 84 552 48 54 50 255 
66 84 552 50 56 52 255 
67 84 552 51 57 53 255 
68 84 552 51 58 51 255 
69 84 552 48 55 48 255 
70 84 553 46 53 46 255 
71 84 553 49 56 49 255 
72 84 553 51 56 50 255 
72 84 553 49 54 48 255 
73 84 553 43 47 46 255 
74 84 553 43 47 46 255 
75 84 554 43 47 46 255 
76 84 553 45 49 48 255 
77 84 553 47 52 48 255 
78 84 553 49 54 50 255 
79 84 553 52 57 51 255 
80 84 553 49 54 48 255 
81 84 553 52 54 49 255 
81 84 553 50 52 47 255 
82 84 552 54 57 50 255 
83 84 551 58 61 54 255 
84 84 551 58 61 54 255 
85 84 551 58 61 54 255 
85 84 550 56 59 50 255 
86 84 550 55 58 49 255 
87 84 550 53 56 47 255 
88 84 551 52 55 46 255 
89 84 551 53 54 46 255 
90 84 550 55 56 48 255 
91 84 550 55 56 51 255 
92 84 550 55 56 51 255 
93 84 550 55 55 53 255 
93 84 550 55 55 53 255 
94 84 549 58 58 56 255 
95 84 549 56 56 54 255 
96 84 549 57 56 52 255 
97 83 548 56 55 51 255 
97 83 548 55 54 49 255 
98 83 548 59 58 53 255 
99 83 548 56 57 51 255 
100 83 547 49 50 44 255 
101 83 547 56 56 48 255 
102 83 547 54 54 46 255 
103 83 547 39 38 33 255 
103 83 547 32 31 26 255 
104 83 547 36 35 31 255 
105 83 547 27 26 22 255 
106 83 547 18 17 13 255 
107 83 547 28 27 23 255 
108 83 547 47 46 41 255 
109 83 547 63 62 57 255 
110 83 547 66 66 58 255 
110 83 546 50 50 42 255 
111 83 546 38 37 32 255 
112 83 546 31 30 25 255 
113 83 547 24 23 21 255 
114 83 547 19 18 16 255 
115 83 547 20 16 15 255 
116 83 548 23 19 18 255 
117 83 548 20 16 15 255 
118 83 549 16 12 11 255 
119 83 549 17 13 12 255 
120 84 550 17 13 12 255 
121 84 550 18 14 11 255 
122 84 551 18 14 11 255 
123 84 551 17 13 10 255 
124 84 552 19 15 12 255 
125 84 553 18 14 11 255 
126 84 554 17 13 10 255 
127 84 555 18 14 11 255 
128 84 556 19 15 12 255 
129 85 557 20 16 13 255 
130 85 557 18 14 11 255 
131 85 558 18 14 11 255 
133 85 559 18 14 11 255 
133 85 559 17 13 10 255 
135 85 560 15 11 8 255 
136 85 561 14 10 7 255 
137 85 561 14 10 7 255 
138 85 562 15 11 8 255 
139 85 563 18 14 11 255 
140 85 563 17 13 10 255 
141 86 564 15 11 8 255 
142 86 566 14 10 7 255 
143 86 566 16 12 9 255 
144 86 566 18 14 11 255 
146 86 568 19 15 12 255 
147 86 568 19 15 12 255 
147 86 568 19 15 12 255 
149 86 569 13 15 14 255 
150 86 569 15 17 16 255 
-140 99 648 26 28 25 255 
-140 100 650 27 29 26 255 
-139 100 651 30 32 29 255 
-138 100 652 34 36 33 255 
-137 100 653 38 40 37 255 
-136 100 654 39 41 38 255 
-135 100 654 40 42 39 255 
-135 101 655 42 44 41 255 
-133 101 655 39 41 38 255 
-132 101 655 38 40 37 255 
-132 101 656 36 38 35 255 
-131 101 656 35 37 34 255 
-129 101 656 36 38 35 255 
-128 101 656 36 38 35 255 
-128 101 657 34 39 35 255 
-127 101 658 35 40 36 255 
-126 101 658 34 39 33 255 
-125 101 658 33 38 32 255 
-124 101 658 32 37 33 255 
-122 101 658 32 37 33 255 
-121 101 658 33 38 32 255 
-120 101 658 35 40 34 255 
-119 101 658 35 40 34 255 
-118 101 658 34 39 33 255 
-117 101 658 35 37 34 255 
-116 101 658 35 37 34 255 
-115 101 658 35 37 34 255 
-114 101 658 34 36 33 255 
-113 101 658 34 36 33 255 
-112 101 658 35 37 34 255 
-111 101 658 37 39 36 255 
-110 101 658 38 40 37 255 
-109 101 658 37 39 36 255 
-108 101 659 34 36 33 255 
-107 101 659 33 35 32 255 
-106 101 659 34 36 33 255 
-105 101 659 35 37 34 255 
-103 101 658 34 36 33 255 
-102 101 658 33 35 32 255 
-101 101 658 33 35 32 255 
-100 101 657 30 32 29 255 
-99 101 657 30 32 29 255 
-98 101 657 30 32 29 255 
-97 101 657 30 32 29 255 
-96 101 657 30 32 29 255 
-95 101 657 29 31 28 255 
-94 101 656 28 30 27 255 
-93 101 656 28 30 27 255 
-91 101 656 28 30 27 255 
-90 101 656 27 29 26 255 
-89 101 656 29 31 28 255 
-88 101 656 30 32 29 255 
-87 101 657 28 28 26 255 
-86 101 656 22 22 20 255 
-85 101 656 20 20 18 255 
-84 101 656 20 20 18 255 
-83 101 656 17 17 15 255 
-82 101 656 17 17 15 255 
-81 101 655 18 18 16 255 
-80 101 655 20 20 18 255 
-79 101 655 25 25 23 255 
-77 101 654 32 32 30 255 
-76 101 653 35 35 33 255 
-75 100 652 29 29 27 255 
-74 100 652 28 27 25 255 
-73 100 651 26 25 23 255 
-72 100 651 23 22 20 255 
-71 100 650 20 19 17 255 
-70 100 650 17 16 14 255 
-69 100 649 17 16 14 255 
-67 100 648 18 17 15 255 
-66 100 647 18 17 15 255 
-65 99 645 22 21 17 255 
-64 99 643 21 20 16 255 
-63 99 642 19 18 14 255 
-61 99 641 17 16 12 255 
-60 98 639 17 16 12 255 
-59 98 638 18 17 13 255 
-58 98 636 18 18 16 255 
-57 98 635 18 18 16 255 
-56 98 633 17 17 15 255 
-54 97 630 20 20 18 255 
-53 97 629 25 27 26 255 
-52 97 628 31 33 32 255 
-51 96 626 32 34 33 255 
-50 96 624 31 33 32 255 
-49 96 622 29 31 30 255 
-47 96 620 28 30 29 255 
-46 95 618 30 32 31 255 
-45 95 615 30 32 31 255 
-44 95 614 29 31 30 255 
-43 94 612 30 32 31 255 
-42 94 610 30 32 31 255 
-41 94 608 30 32 31 255 
-39 93 606 30 32 31 255 
-38 93 603 32 34 33 255 
-37 93 601 29 33 34 255 
-36 92 599 31 35 36 255 
-35 92 596 29 33 34 255 
-34 92 595 28 32 33 255 
-33 91 593 26 30 31 255 
-32 91 590 25 29 30 255 
-31 90 587 28 32 33 255 
-29 90 582 31 35 36 255 
-28 89 577 34 35 37 255 
-27 88 571 33 34 36 255 
-26 87 566 35 36 38 255 
-25 87 563 34 35 37 255 
-24 86 561 37 41 42 255 
-23 86 560 41 45 46 255 
-22 86 559 37 41 42 255 
-21 86 559 36 40 41 255 
-20 86 559 35 39 40 255 
-19 86 560 37 41 42 255 
-18 86 561 41 45 46 255 
-17 86 561 40 44 45 255 
-16 86 561 34 40 40 255 
-16 86 561 35 41 41 255 
-15 86 561 37 43 43 255 
-14 86 561 35 41 41 255 
-13 86 561 35 39 40 255 
-12 86 561 35 39 40 255 
-11 86 561 38 42 43 255 
-10 86 561 35 39 40 255 
-9 86 561 34 38 39 255 
-8 86 561 34 38 39 255 
-7 86 561 28 32 33 255 
-6 86 561 27 31 32 255 
-6 86 561 36 40 41 255 
-5 86 561 34 38 39 255 
-4 86 561 36 40 41 255 
-3 86 561 36 40 41 255 
-2 86 560 37 41 42 255 
-1 86 560 38 42 43 255 
0 86 560 38 42 43 255 
1 86 560 38 42 43 255 
2 86 560 39 40 42 255 
3 86 560 38 39 41 255 
4 86 560 36 37 39 255 
4 86 560 35 36 38 255 
5 86 560 37 38 40 255 
6 86 560 39 40 42 255 
7 86 560 38 42 43 255 
8 86 560 38 42 43 255 
9 86 559 38 42 43 255 
10 86 559 38 42 43 255 
11 86 559 38 42 41 255 
12 86 559 38 42 41 255 
13 86 559 37 41 40 255 
13 86 558 38 42 41 255 
14 86 558 40 44 43 255 
15 86 558 40 44 43 255 
16 86 558 38 44 44 255 
17 86 558 38 44 44 255 
18 86 558 37 43 43 255 
19 86 558 37 43 43 255 
20 86 558 40 46 46 255 
21 86 558 43 49 49 255 
22 86 558 44 50 50 255 
23 86 558 45 51 51 255 
23 86 558 46 52 50 255 
24 86 558 43 49 47 255 
25 86 559 42 48 46 255 
26 86 558 43 49 47 255 
27 86 558 46 52 50 255 
28 86 557 47 53 51 255 
29 86 557 46 52 50 255 
30 86 557 44 50 48 255 
31 86 557 44 50 50 255 
31 86 556 44 50 50 255 
32 86 556 42 51 50 255 
33 86 556 42 51 50 255 
34 86 555 42 51 50 255 
35 86 555 42 51 50 255 
36 86 555 42 51 48 255 
37 86 555 42 51 48 255 
38 86 555 43 52 49 255 
39 86 555 46 55 52 255 
39 85 554 45 54 51 255 
40 85 554 41 50 47 255 
41 85 554 41 50 47 255 
42 85 554 43 52 49 255 
43 85 554 44 53 50 255 
44 85 553 43 52 49 255 
45 85 553 41 52 46 255 
46 85 553 41 52 46 255 
47 85 553 42 53 47 255 
47 85 552 44 55 49 255 
48 85 552 46 57 51 255 
49 85 552 44 55 49 255 
50 85 552 40 49 46 255 
51 85 551 40 49 46 255 
52 85 551 40 49 46 255 
53 85 552 42 51 48 255 
54 85 552 43 52 49 255 
55 85 552 43 52 49 255 
55 85 552 41 50 47 255 
56 85 552 42 51 48 255 
57 85 552 44 53 50 255 
58 85 552 46 55 52 255 
59 85 553 43 52 49 255 
60 85 552 45 54 51 255 
61 85 552 47 56 53 255 
62 85 552 47 56 53 255 
63 85 552 49 55 51 255 
63 85 552 49 55 51 255 
64 85 551 48 54 50 255 
65 85 551 48 54 50 255 
66 85 551 49 56 49 255 
67 85 552 51 58 51 255 
68 85 551 50 57 50 255 
69 85 552 47 54 47 255 
70 85 552 47 52 46 255 
71 85 552 48 53 47 255 
71 85 552 49 54 48 255 
72 85 553 47 52 46 255 
73 85 553 42 47 43 255 
74 85 553 45 50 46 255 
75 85 553 48 53 49 255 
76 85 553 49 54 50 255 
77 85 553 49 54 50 255 
78 85 552 49 54 50 255 
79 85 552 50 55 49 255 
79 85 552 47 52 46 255 
80 85 552 52 55 48 255 
81 85 551 51 54 47 255 
82 85 551 54 57 50 255 
83 85 550 56 59 52 255 
84 85 550 57 60 51 255 
85 85 550 57 60 51 255 
85 85 550 55 58 49 255 
86 85 550 55 58 49 255 
87 85 550 54 57 46 255 
88 85 550 52 55 44 255 
89 85 550 52 53 45 255 
90 84 549 54 55 47 255 
91 84 549 56 57 52 255 
91 84 549 56 57 52 255 
92 84 548 55 56 51 255 
93 84 548 55 56 51 255 
94 84 548 52 53 48 255 
95 84 548 54 55 50 255 
96 84 547 54 53 48 255 
96 84 547 54 53 48 255 
97 84 547 58 57 52 255 
98 84 547 59 58 53 255 
99 84 546 54 53 48 255 
100 84 546 51 50 45 255 
101 84 546 46 45 40 255 
101 84 546 33 32 27 255 
102 84 546 25 24 20 255 
103 84 546 19 18 14 255 
104 84 546 15 14 12 255 
105 84 546 29 28 26 255 
106 84 546 52 51 47 255 
107 84 546 62 61 57 255 
108 84 546 62 61 57 255 
109 84 547 55 54 50 255 
109 84 546 41 40 35 255 
110 84 546 29 28 23 255 
111 84 546 24 23 19 255 
112 84 546 19 18 14 255 
113 84 547 15 14 12 255 
114 84 547 16 15 13 255 
115 84 547 18 14 13 255 
116 84 548 22 18 17 255 
117 84 549 20 16 15 255 
118 84 549 17 13 12 255 
119 84 550 17 13 12 255 
120 84 550 18 14 13 255 
121 85 551 20 16 13 255 
122 85 551 18 14 11 255 
123 85 552 17 13 10 255 
124 85 553 19 15 12 255 
125 85 553 18 14 11 255 
126 85 553 17 13 10 255 
127 85 555 18 14 11 255 
128 85 556 20 16 13 255 
129 85 557 21 18 13 255 
131 86 558 18 15 10 255 
132 86 559 18 14 11 255 
133 86 559 19 15 12 255 
134 86 560 19 15 12 255 
135 86 561 17 13 10 255 
136 86 561 16 12 9 255 
137 86 562 15 11 8 255 
138 86 563 16 12 9 255 
139 86 563 17 13 10 255 
140 86 564 16 12 9 255 
141 87 565 16 12 9 255 
142 87 566 16 12 9 255 
144 87 567 18 14 11 255 
144 87 567 19 15 12 255 
145 87 567 19 15 12 255 
147 87 568 19 15 12 255 
148 87 569 20 16 13 255 
149 87 569 17 19 18 255 
-143 100 646 30 32 29 255 
-142 100 648 26 28 25 255 
-142 101 649 32 34 31 255 
-141 101 650 37 39 36 255 
-140 101 651 39 41 38 255 
-139 101 652 43 45 42 255 
-138 101 653 46 48 45 255 
-137 101 653 47 49 46 255 
-136 101 654 45 47 44 255 
-135 101 654 43 45 42 255 
-134 101 654 42 44 41 255 
-133 101 654 39 41 38 255 
-132 102 655 37 39 36 255 
-131 102 655 36 38 35 255 
-130 102 655 35 37 34 255 
-129 102 655 35 37 34 255 
-128 102 656 36 38 35 255 
-127 102 656 37 39 36 255 
-127 102 657 36 38 35 255 
-125 102 657 37 39 34 255 
-124 102 657 36 38 33 255 
-123 102 657 34 39 33 255 
-122 102 657 33 38 32 255 
-121 102 656 34 39 33 255 
-120 102 656 35 40 34 255 
-119 102 656 36 41 35 255 
-118 102 656 35 40 34 255 
-117 102 656 35 37 32 255 
-116 102 656 35 37 32 255 
-115 102 656 36 38 33 255 
-114 102 656 35 37 32 255 
-113 102 656 35 37 32 255 
-112 102 656 35 37 32 255 
-111 102 656 35 37 32 255 
-110 102 657 36 38 33 255 
-109 102 657 34 36 31 255 
-108 102 657 34 36 31 255 
-106 102 657 34 36 31 255 
-105 102 657 34 36 31 255 
-104 102 657 34 36 31 255 
-103 102 657 34 36 31 255 
-102 102 657 33 35 30 255 
-101 102 657 33 35 30 255 
-100 102 656 35 37 34 255 
-99 102 656 34 36 33 255 
-98 102 656 32 34 31 255 
-97 102 656 31 33 30 255 
-96 102 656 32 32 30 255 
-95 102 656 32 32 30 255 
-93 102 655 31 31 29 255 
-92 102 655 30 30 28 255 
-91 102 655 29 29 27 255 
-90 102 655 26 26 24 255 
-89 102 655 25 25 23 255 
-88 102 655 25 25 23 255 
-87 102 655 21 21 19 255 
-86 102 655 14 14 12 255 
-85 102 654 9 9 7 255 
-84 102 654 8 8 6 255 
-83 102 654 9 9 7 255 
-82 102 655 10 10 8 255 
-81 102 654 10 10 8 255 
-80 102 654 14 14 12 255 
-78 102 653 20 20 18 255 
-77 102 653 29 29 27 255 
-76 101 652 32 32 30 255 
-75 101 651 27 27 25 255 
-74 101 651 30 29 27 255 
-73 101 650 29 28 26 255 
-72 101 650 27 26 24 255 
-71 101 650 24 23 21 255 
-70 101 649 21 20 18 255 
-68 101 648 19 18 16 255 
-67 101 647 18 17 15 255 
-66 101 646 18 17 15 255 
-65 100 645 20 19 15 255 
-64 100 644 20 19 15 255 
-63 100 642 19 18 14 255 
-61 100 641 17 16 12 255 
-60 100 640 16 15 11 255 
-59 99 638 17 16 12 255 
-58 99 637 18 18 16 255 
-57 99 635 20 20 18 255 
-56 99 634 18 18 16 255 
-54 98 631 18 18 16 255 
-53 98 629 21 21 19 255 
-52 98 629 27 27 25 255 
-51 98 627 32 34 33 255 
-50 97 625 32 34 33 255 
-49 97 623 30 32 31 255 
-47 97 621 29 31 30 255 
-46 96 619 30 32 31 255 
-45 96 616 29 31 30 255 
-44 96 614 28 30 29 255 
-43 95 613 29 31 30 255 
-42 95 611 29 31 30 255 
-41 95 609 30 32 31 255 
-40 95 607 31 33 32 255 
-38 94 604 31 33 32 255 
-37 94 601 30 34 35 255 
-36 93 599 30 34 35 255 
-35 93 597 30 34 35 255 
-34 93 595 29 33 34 255 
-33 93 594 28 32 33 255 
-32 92 592 28 32 33 255 
-31 92 589 30 34 35 255 
-30 91 585 30 34 35 255 
-28 90 581 32 34 33 255 
-27 90 575 30 32 31 255 
-26 89 570 32 34 33 255 
-25 88 565 33 35 34 255 
-24 88 562 37 39 38 255 
-23 87 559 42 44 43 255 
-22 87 558 39 41 40 255 
-21 87 558 37 39 38 255 
-20 87 558 36 40 39 255 
-19 87 558 38 42 41 255 
-18 87 559 40 44 43 255 
-17 87 559 39 43 42 255 
-16 87 559 35 39 38 255 
-16 87 560 35 39 38 255 
-15 87 560 38 42 41 255 
-14 87 560 37 41 40 255 
-13 87 560 35 39 40 255 
-12 87 560 34 38 39 255 
-11 87 560 37 41 42 255 
-10 87 560 34 38 39 255 
-9 87 560 31 35 36 255 
-8 87 560 29 33 34 255 
-7 87 560 24 28 29 255 
-6 87 560 23 27 28 255 
-6 87 560 33 37 38 255 
-5 87 560 35 39 40 255 
-4 87 560 37 41 42 255 
-3 87 560 37 41 42 255 
-2 87 559 37 41 42 255 
-1 87 559 38 42 43 255 
0 87 559 36 40 41 255 
1 87 559 36 40 41 255 
2 87 559 39 40 42 255 
3 87 558 38 39 41 255 
4 87 558 35 39 40 255 
4 87 558 34 38 39 255 
5 87 558 34 38 39 255 
6 87 558 36 40 41 255 
7 87 558 38 42 43 255 
8 87 558 39 43 44 255 
9 87 558 39 43 42 255 
10 87 558 39 43 42 255 
11 87 558 38 42 41 255 
12 87 558 38 42 41 255 
13 87 557 41 45 44 255 
13 87 557 41 45 44 255 
14 87 557 42 46 45 255 
15 87 557 42 46 45 255 
16 87 557 40 46 46 255 
17 87 557 40 46 46 255 
18 87 557 41 47 47 255 
19 87 557 41 47 47 255 
20 87 557 42 48 46 255 
21 87 557 44 50 48 255 
22 87 557 44 50 48 255 
22 87 557 42 48 46 255 
23 87 557 46 52 50 255 
24 87 557 44 50 48 255 
25 87 557 43 49 45 255 
26 87 557 42 48 44 255 
27 87 556 44 50 46 255 
28 87 556 46 52 48 255 
29 87 556 46 52 48 255 
30 86 555 46 52 48 255 
31 86 555 46 52 50 255 
31 86 555 45 51 49 255 
32 86 555 43 49 47 255 
33 86 554 42 48 46 255 
34 86 554 41 47 45 255 
35 86 554 42 48 46 255 
36 86 554 42 51 48 255 
37 86 553 44 53 50 255 
38 86 554 46 55 52 255 
38 86 553 47 56 53 255 
39 86 553 46 55 50 255 
40 86 553 40 49 44 255 
41 86 553 38 47 42 255 
42 86 553 41 50 45 255 
43 86 552 44 53 48 255 
44 86 552 43 52 47 255 
45 86 552 43 52 47 255 
46 86 552 41 50 45 255 
46 86 551 44 53 50 255 
47 86 551 46 55 52 255 
48 86 551 46 55 52 255 
49 86 551 44 53 50 255 
50 86 550 41 50 47 255 
51 86 550 41 50 47 255 
52 86 551 41 50 47 255 
53 86 551 43 52 49 255 
54 86 551 46 52 50 255 
54 86 551 45 51 49 255 
55 86 551 45 51 49 255 
56 86 551 45 51 49 255 
57 86 551 45 51 49 255 
58 86 551 45 51 49 255 
59 86 551 41 50 47 255 
60 86 551 43 52 49 255 
61 86 550 50 56 54 255 
61 86 550 54 60 58 255 
62 86 550 53 59 55 255 
63 86 550 49 55 51 255 
64 86 550 49 55 51 255 
65 86 550 50 56 52 255 
66 86 550 48 54 50 255 
67 86 550 49 55 51 255 
68 86 550 50 55 49 255 
69 86 550 47 52 46 255 
70 86 551 46 51 45 255 
70 86 551 47 52 46 255 
71 86 551 47 52 46 255 
72 86 551 45 50 44 255 
73 86 552 48 53 47 255 
74 86 552 51 56 50 255 
75 86 552 51 56 50 255 
76 86 552 50 55 49 255 
77 86 552 51 53 48 255 
78 86 551 51 53 48 255 
78 86 551 53 56 49 255 
79 86 551 53 56 49 255 
80 86 551 52 55 46 255 
81 86 550 50 53 44 255 
82 85 549 51 54 43 255 
83 85 549 53 56 45 255 
83 85 549 57 59 48 255 
84 85 549 57 59 48 255 
85 85 549 55 57 46 255 
86 85 549 55 57 46 255 
87 85 549 56 57 49 255 
88 85 549 56 57 49 255 
89 85 548 56 57 51 255 
90 85 548 56 57 51 255 
90 85 548 56 57 51 255 
91 85 548 54 55 49 255 
92 85 547 53 53 45 255 
93 85 547 53 53 45 255 
94 85 547 54 54 44 255 
95 85 547 51 51 41 255 
95 85 546 50 50 42 255 
96 85 546 53 53 45 255 
97 85 546 56 55 50 255 
98 85 546 50 49 44 255 
99 85 545 40 36 33 255 
100 85 545 32 28 25 255 
100 85 545 24 23 21 255 
101 85 545 27 26 24 255 
102 84 544 23 22 18 255 
103 84 544 24 23 19 255 
104 84 544 43 42 37 255 
105 84 544 60 59 54 255 
106 85 545 58 57 53 255 
107 85 545 49 48 44 255 
107 85 545 41 40 38 255 
109 85 546 35 34 32 255 
109 85 546 26 25 23 255 
110 85 546 22 21 19 255 
111 85 546 23 22 20 255 
112 85 546 21 20 18 255 
113 85 547 17 16 12 255 
114 85 547 17 16 12 255 
115 85 547 18 14 13 255 
116 85 548 21 17 16 255 
117 85 549 20 16 13 255 
118 85 549 18 14 11 255 
119 85 550 16 12 9 255 
120 85 550 19 15 12 255 
121 85 550 21 17 14 255 
122 85 551 17 13 10 255 
123 86 552 19 15 12 255 
124 86 553 21 17 14 255 
125 86 554 20 16 13 255 
126 86 555 17 13 10 255 
127 86 555 18 15 10 255 
129 86 557 20 17 12 255 
130 86 558 22 19 14 255 
131 86 558 19 16 11 255 
132 87 559 17 13 10 255 
133 87 560 18 14 11 255 
134 87 560 19 15 12 255 
135 87 561 19 15 12 255 
136 87 561 17 13 10 255 
137 87 562 16 12 9 255 
138 87 563 16 12 9 255 
139 87 564 16 12 9 255 
140 88 565 15 11 8 255 
141 88 565 17 13 10 255 
142 88 566 20 16 13 255 
144 88 567 22 18 15 255 
144 88 567 21 17 14 255 
145 88 567 19 15 12 255 
147 88 568 18 14 11 255 
148 88 569 18 14 11 255 
149 88 570 18 20 19 255 
-146 100 641 26 28 25 255 
-146 101 644 23 25 22 255 
-145 101 645 25 27 24 255 
-144 101 647 29 31 28 255 
-143 101 648 30 32 29 255 
-143 102 649 35 37 34 255 
