ply
format ascii 1.0
comment VCGLIB generated
element vertex 1839
property float x
property float y
property float z
property uchar red
property uchar green
property uchar blue
property uchar alpha
element face 0
property list uchar int vertex_indices
end_header
3 272 678 28 34 30 255 
4 273 682 27 33 29 255 
5 275 685 25 31 27 255 
7 277 690 27 33 29 255 
8 278 694 27 33 29 255 
9 280 699 24 30 26 255 
10 282 704 23 29 25 255 
-128 260 647 27 29 26 255 
-127 259 646 27 29 26 255 
-126 259 645 24 26 23 255 
-125 259 645 23 25 22 255 
-124 259 645 23 25 20 255 
-123 258 644 22 24 19 255 
-122 258 644 26 27 22 255 
-120 258 642 24 25 20 255 
-119 258 642 24 25 20 255 
-118 258 642 25 26 21 255 
-117 257 641 24 25 20 255 
-116 257 640 24 25 20 255 
-115 257 640 24 25 19 255 
-114 257 639 22 23 17 255 
-113 257 639 23 24 19 255 
-111 256 638 23 24 19 255 
-110 256 637 24 25 20 255 
-109 255 636 24 25 20 255 
-108 255 635 24 24 22 255 
-107 255 635 23 23 21 255 
-106 255 634 22 22 20 255 
-104 254 633 23 23 21 255 
-103 254 633 23 23 21 255 
-102 254 632 23 23 21 255 
-101 254 632 25 25 23 255 
-100 253 631 26 26 24 255 
-99 253 630 25 25 25 255 
-98 253 629 26 26 26 255 
-97 252 628 26 26 26 255 
-96 252 628 24 24 24 255 
-94 252 627 29 31 30 255 
-93 252 626 30 32 31 255 
-92 252 626 28 30 29 255 
-91 251 625 25 27 26 255 
-90 251 625 22 24 23 255 
-89 251 625 16 18 17 255 
-88 251 625 10 12 11 255 
-87 251 625 9 11 10 255 
-86 251 624 7 7 7 255 
-85 250 623 3 3 3 255 
-84 250 623 7 7 7 255 
-83 250 622 11 11 11 255 
-82 250 622 9 9 9 255 
-80 249 620 6 6 6 255 
-79 249 619 11 11 11 255 
-78 248 618 23 23 23 255 
-77 248 617 23 25 24 255 
-76 248 617 22 24 23 255 
-75 247 615 20 22 21 255 
-74 247 615 21 23 22 255 
-73 247 615 23 25 24 255 
-72 247 614 25 27 26 255 
-71 246 613 24 26 25 255 
-70 246 613 21 23 22 255 
-69 246 612 21 23 22 255 
-68 246 612 22 24 23 255 
-67 246 612 23 25 24 255 
-66 246 611 23 25 24 255 
-65 245 610 22 24 23 255 
-64 245 610 20 22 21 255 
-63 245 610 21 23 22 255 
-61 244 608 25 27 26 255 
-60 244 608 22 26 25 255 
-59 244 607 22 26 25 255 
-58 244 607 20 24 23 255 
-57 244 607 20 24 23 255 
-56 244 606 21 25 24 255 
-55 243 605 21 25 24 255 
-54 243 605 22 26 25 255 
-53 243 604 24 28 27 255 
-52 243 604 25 27 26 255 
-51 243 603 24 26 25 255 
-50 243 603 23 25 24 255 
-49 243 603 22 24 23 255 
-48 243 603 21 23 22 255 
-47 242 602 21 23 22 255 
-46 242 602 23 25 24 255 
-45 242 601 22 24 23 255 
-44 241 600 20 25 21 255 
-43 241 600 20 25 21 255 
-42 241 599 22 27 21 255 
-41 241 598 24 29 23 255 
-40 240 597 23 28 22 255 
-39 240 597 21 26 20 255 
-38 240 597 20 25 21 255 
-37 240 596 21 26 22 255 
-36 240 596 21 26 20 255 
-35 240 596 23 28 22 255 
-34 239 595 25 30 24 255 
-33 239 595 25 30 24 255 
-32 239 595 23 28 22 255 
-31 239 594 20 25 19 255 
-31 239 594 22 27 21 255 
-30 239 593 25 30 24 255 
-29 239 593 26 31 25 255 
-28 239 593 26 31 25 255 
-27 239 593 27 32 28 255 
-26 239 594 26 31 27 255 
-25 240 596 26 31 27 255 
-24 241 598 27 32 28 255 
-23 242 601 27 32 26 255 
-22 243 604 27 32 26 255 
-21 244 607 28 33 29 255 
-21 245 609 26 31 27 255 
-20 246 612 25 30 26 255 
-19 247 615 27 32 28 255 
-18 248 617 27 31 30 255 
-17 249 620 23 27 26 255 
-16 250 622 23 28 24 255 
-15 252 625 27 32 28 255 
-14 253 629 27 32 28 255 
-13 254 632 28 33 29 255 
-12 256 635 31 36 32 255 
-11 257 638 29 34 30 255 
-10 258 641 25 30 26 255 
-9 259 644 25 30 26 255 
-8 260 647 27 32 28 255 
-7 262 650 25 30 26 255 
-6 263 653 29 34 30 255 
-5 264 655 27 32 28 255 
-4 265 658 27 32 28 255 
-3 266 661 27 32 28 255 
-2 267 664 27 32 28 255 
-1 268 667 27 32 28 255 
0 270 670 27 32 28 255 
1 271 673 24 29 25 255 
2 272 675 25 30 26 255 
3 273 679 29 34 30 255 
4 274 682 27 32 28 255 
5 276 686 22 27 23 255 
7 278 690 21 27 23 255 
8 280 695 22 28 24 255 
9 281 699 23 29 25 255 
-129 261 648 27 27 25 255 
-127 261 647 29 29 27 255 
-126 260 646 26 26 24 255 
-125 260 646 22 22 20 255 
-124 260 645 22 22 20 255 
-123 260 645 24 24 22 255 
-122 260 645 25 25 23 255 
-120 259 643 23 23 21 255 
-119 259 643 22 22 20 255 
-118 259 643 24 24 22 255 
-117 259 642 25 27 24 255 
-116 259 642 24 26 23 255 
-115 258 640 23 25 22 255 
-114 258 640 22 24 21 255 
-113 258 640 23 24 19 255 
-111 258 639 24 25 20 255 
-110 257 638 24 25 20 255 
-109 257 637 24 25 20 255 
-108 256 636 25 26 21 255 
-107 256 636 25 26 21 255 
-106 256 635 24 24 22 255 
-105 256 635 24 24 22 255 
-104 256 634 22 22 20 255 
-102 255 633 24 24 22 255 
-101 255 633 25 25 23 255 
-100 255 632 24 24 22 255 
-99 254 631 24 24 24 255 
-98 254 630 25 25 25 255 
-97 254 629 26 26 26 255 
-96 253 628 27 27 27 255 
-94 253 627 27 29 28 255 
-93 253 627 25 27 26 255 
-92 253 627 24 26 25 255 
-91 253 626 23 25 24 255 
-90 253 626 21 23 22 255 
-89 252 625 17 19 18 255 
-88 252 625 10 12 11 255 
-87 252 625 5 7 6 255 
-86 252 624 8 10 9 255 
-85 252 624 11 13 12 255 
-84 251 623 7 9 8 255 
-83 251 622 5 7 6 255 
-82 251 622 6 8 7 255 
-81 251 621 3 5 4 255 
-79 250 620 6 8 7 255 
-78 250 620 12 14 13 255 
-77 250 619 16 16 14 255 
-76 249 618 17 17 15 255 
-75 249 617 21 21 19 255 
-74 249 616 25 25 23 255 
-73 249 616 22 22 20 255 
-72 248 615 22 22 20 255 
-71 248 615 25 27 24 255 
-70 248 614 24 26 23 255 
-69 248 614 24 26 25 255 
-68 248 614 24 26 25 255 
-67 247 612 24 26 25 255 
-66 247 612 23 25 24 255 
-65 247 611 22 24 23 255 
-64 246 610 22 24 23 255 
-63 246 610 23 25 24 255 
-62 246 609 25 27 26 255 
-61 246 609 27 29 28 255 
-60 246 609 25 27 26 255 
-59 245 608 25 27 26 255 
-57 245 607 24 26 25 255 
-56 245 607 23 25 24 255 
-55 245 606 25 27 26 255 
-54 245 606 25 27 26 255 
-53 244 605 21 23 22 255 
-52 244 605 21 23 22 255 
-51 244 604 22 24 23 255 
-50 244 604 23 25 24 255 
-49 244 604 23 25 24 255 
-48 243 603 23 25 24 255 
-47 243 603 24 26 25 255 
-46 243 602 24 26 25 255 
-45 243 602 24 26 25 255 
-44 243 601 20 25 21 255 
-43 243 601 21 26 22 255 
-42 242 600 21 26 20 255 
-41 242 599 21 26 20 255 
-40 242 599 22 27 21 255 
-39 242 598 21 26 20 255 
-38 242 598 19 24 18 255 
-37 242 598 19 24 18 255 
-36 241 597 22 27 21 255 
-35 241 596 20 25 19 255 
-34 241 596 21 28 21 255 
-33 240 595 24 31 24 255 
-32 240 595 22 29 22 255 
-32 240 595 20 27 20 255 
-31 240 594 21 28 21 255 
-30 240 593 23 30 23 255 
-29 240 593 21 27 23 255 
-28 240 593 24 30 26 255 
-27 240 593 24 30 26 255 
-26 240 594 26 32 28 255 
-25 241 596 27 33 29 255 
-24 242 599 27 33 29 255 
-23 243 601 29 35 31 255 
-22 244 604 27 33 29 255 
-21 245 607 28 34 30 255 
-21 246 610 25 31 27 255 
-20 248 613 27 33 29 255 
-19 249 616 30 36 32 255 
-18 250 618 27 33 29 255 
-17 251 621 24 30 26 255 
-16 252 623 24 30 26 255 
-15 253 626 25 31 27 255 
-14 255 630 27 32 28 255 
-13 256 633 27 32 28 255 
-12 257 636 28 33 29 255 
-11 258 639 27 32 28 255 
-10 259 642 26 31 27 255 
-9 261 645 26 31 27 255 
-8 262 648 27 32 28 255 
-7 263 651 27 32 28 255 
-6 264 654 27 32 28 255 
-5 265 656 25 30 26 255 
-4 266 658 26 31 27 255 
-3 267 661 27 32 28 255 
-2 268 664 25 30 26 255 
-1 270 668 24 29 25 255 
0 271 670 25 30 26 255 
1 272 673 25 30 26 255 
2 273 676 22 28 24 255 
3 274 679 26 32 28 255 
4 276 683 27 33 29 255 
5 277 686 23 29 25 255 
7 279 690 20 26 22 255 
8 281 695 21 27 23 255 
9 283 700 24 30 26 255 
-129 262 649 26 26 24 255 
-127 262 648 27 27 25 255 
-126 262 647 23 25 22 255 
-125 261 646 20 22 19 255 
-124 261 646 20 22 19 255 
-123 261 645 20 22 19 255 
-122 261 645 19 21 18 255 
-121 261 645 18 20 17 255 
-120 261 644 20 22 19 255 
-118 260 643 22 24 21 255 
-117 260 642 22 24 21 255 
-116 260 643 22 24 21 255 
-115 259 641 22 24 21 255 
-114 259 641 22 24 21 255 
-113 259 641 23 25 20 255 
-112 259 640 23 25 20 255 
-110 259 639 23 25 20 255 
-109 258 638 23 25 20 255 
-108 258 637 24 26 23 255 
-107 258 637 24 26 23 255 
-106 258 637 24 26 23 255 
-105 257 636 24 26 23 255 
-104 257 635 22 24 21 255 
-103 257 634 23 25 22 255 
-101 256 633 24 26 23 255 
-100 256 633 24 26 23 255 
-99 256 632 24 26 23 255 
-98 255 631 24 26 23 255 
-97 255 630 23 25 22 255 
-96 255 629 22 24 21 255 
-95 255 629 20 22 21 255 
-94 254 628 20 22 21 255 
-92 254 627 22 24 23 255 
-91 254 627 23 25 24 255 
-90 254 627 22 24 23 255 
-89 254 626 20 22 21 255 
-88 254 626 14 14 14 255 
-87 254 626 7 7 7 255 
-86 253 624 13 13 13 255 
-85 253 624 17 17 17 255 
-84 252 623 15 15 15 255 
-83 252 623 13 13 13 255 
-82 252 623 12 12 12 255 
-81 252 622 5 5 5 255 
-80 252 621 3 3 3 255 
-79 252 621 7 7 7 255 
-77 251 620 7 7 5 255 
-76 251 619 12 12 10 255 
-75 250 618 19 21 18 255 
-74 250 617 25 27 24 255 
-73 250 616 25 27 24 255 
-72 250 616 23 25 22 255 
-71 249 615 26 28 25 255 
-70 249 615 26 28 25 255 
-69 249 615 26 28 27 255 
-68 249 615 25 27 26 255 
-67 248 613 24 26 25 255 
-66 248 613 23 25 24 255 
-65 248 612 21 25 24 255 
-64 248 611 22 26 25 255 
-63 248 611 22 26 25 255 
-62 247 610 23 27 26 255 
-61 247 610 25 27 26 255 
-60 247 610 25 27 26 255 
-59 247 609 26 28 27 255 
-58 247 609 25 27 26 255 
-56 246 607 25 27 26 255 
-55 246 607 25 27 26 255 
-55 246 607 24 26 25 255 
-53 246 606 21 23 22 255 
-52 245 605 22 24 23 255 
-51 245 605 23 25 24 255 
-50 245 605 23 25 24 255 
-50 245 605 23 25 24 255 
-48 244 603 23 25 24 255 
-47 244 603 23 25 24 255 
-46 244 603 24 26 25 255 
-45 244 603 24 26 25 255 
-44 244 602 22 27 23 255 
-43 244 601 22 27 23 255 
-42 244 601 23 28 22 255 
-41 243 600 24 29 23 255 
-40 243 599 24 29 23 255 
-39 243 599 23 28 22 255 
-38 243 599 21 26 20 255 
-37 242 598 21 26 20 255 
-36 242 598 21 26 20 255 
-35 242 597 18 23 17 255 
-35 242 597 19 26 19 255 
-33 242 596 22 29 22 255 
-33 242 596 22 29 22 255 
-32 241 595 20 27 20 255 
-31 241 594 19 26 19 255 
-30 241 594 20 27 20 255 
-29 241 594 21 27 23 255 
-28 241 594 23 29 25 255 
-27 241 594 25 31 27 255 
-26 241 594 26 32 28 255 
-25 242 596 26 32 28 255 
-24 243 599 26 32 28 255 
-23 244 602 28 34 30 255 
-22 245 605 26 32 28 255 
-22 247 608 26 32 28 255 
-21 248 611 25 31 27 255 
-20 249 613 27 33 29 255 
-19 250 616 29 35 31 255 
-18 251 619 28 34 30 255 
-17 252 622 24 30 26 255 
-16 253 624 23 29 25 255 
-15 254 626 24 30 26 255 
-14 255 629 25 30 26 255 
-13 256 632 28 33 29 255 
-12 258 636 28 33 29 255 
-11 259 639 27 32 28 255 
-10 260 642 27 32 28 255 
-9 262 645 26 31 27 255 
-8 263 649 26 31 27 255 
-7 264 652 29 34 30 255 
-6 265 654 29 34 30 255 
-5 266 657 28 33 29 255 
-4 267 659 27 32 28 255 
-3 268 662 27 32 28 255 
-2 270 665 26 31 27 255 
-1 271 668 25 30 26 255 
0 272 671 26 31 27 255 
1 273 674 27 32 28 255 
2 274 676 24 30 26 255 
3 276 680 27 33 29 255 
4 277 683 26 32 28 255 
5 279 687 22 28 24 255 
7 280 691 21 27 23 255 
8 282 696 23 29 25 255 
-129 264 650 21 23 20 255 
-128 263 649 21 23 20 255 
-126 263 648 20 22 19 255 
-125 263 647 21 23 20 255 
-124 263 647 23 25 22 255 
-123 262 646 22 24 21 255 
-122 262 646 19 21 18 255 
-121 262 646 19 21 18 255 
-120 262 645 21 23 20 255 
-118 262 644 23 25 22 255 
-117 262 644 22 24 21 255 
-116 262 644 22 24 21 255 
-115 261 643 21 26 22 255 
-114 261 642 21 26 22 255 
-113 261 642 20 25 21 255 
-112 260 641 19 24 20 255 
-111 260 640 22 24 21 255 
-109 260 639 23 25 22 255 
-108 259 638 23 25 22 255 
-107 259 637 22 24 21 255 
-106 259 637 21 26 22 255 
-105 259 637 21 26 22 255 
-104 258 636 21 26 22 255 
-103 258 636 21 26 22 255 
-101 258 634 21 26 22 255 
-100 257 633 22 27 23 255 
-99 257 632 22 27 23 255 
-98 257 632 21 26 22 255 
-97 256 631 18 24 20 255 
-96 256 630 16 22 18 255 
-95 256 630 21 23 22 255 
-94 256 629 19 21 20 255 
-93 255 628 21 23 22 255 
-92 255 628 24 26 25 255 
-90 255 627 26 26 26 255 
-89 255 627 26 26 26 255 
-88 255 627 20 20 20 255 
-87 255 627 9 9 9 255 
-86 255 626 14 14 14 255 
-85 254 625 18 18 18 255 
-84 254 624 20 20 20 255 
-83 254 624 20 20 20 255 
-82 254 624 18 18 18 255 
-81 253 622 10 10 10 255 
-80 253 621 5 5 5 255 
-79 253 621 9 9 9 255 
-78 253 621 9 11 8 255 
-77 252 620 13 15 12 255 
-75 252 619 18 20 17 255 
-74 251 618 24 26 23 255 
-73 251 618 24 26 23 255 
-72 251 617 20 22 19 255 
-71 251 616 23 25 22 255 
-70 251 616 25 27 24 255 
-69 250 615 28 30 29 255 
-68 250 615 26 28 27 255 
-67 250 614 21 25 24 255 
-66 250 614 20 24 23 255 
-65 249 613 20 24 23 255 
-64 249 612 22 26 25 255 
-63 249 612 24 28 27 255 
-62 249 612 24 28 27 255 
-61 249 611 27 29 28 255 
-60 249 611 27 29 28 255 
-59 248 610 25 27 26 255 
-58 248 610 24 26 25 255 
-57 247 608 25 27 26 255 
-56 247 608 25 27 26 255 
-55 247 608 23 25 24 255 
-54 247 607 22 24 23 255 
-52 247 606 23 25 24 255 
-52 247 606 23 25 24 255 
-51 247 606 23 25 24 255 
-50 247 606 24 26 25 255 
-48 246 604 25 27 26 255 
-47 246 604 25 27 26 255 
-47 246 604 25 27 26 255 
-46 246 604 25 27 26 255 
-45 245 603 22 27 23 255 
-43 245 602 22 27 23 255 
-43 245 602 23 28 24 255 
-41 245 601 24 29 25 255 
-40 244 600 24 29 25 255 
-39 244 600 23 28 24 255 
-38 244 599 23 28 22 255 
-38 244 599 22 27 21 255 
-36 243 598 23 28 22 255 
-36 243 598 20 25 19 255 
-35 243 597 19 26 19 255 
-34 243 597 22 29 22 255 
-33 243 596 22 29 22 255 
-32 243 596 21 28 21 255 
-31 242 595 20 27 20 255 
-30 242 594 20 27 20 255 
-29 242 594 21 27 23 255 
-28 242 595 22 28 24 255 
-27 242 595 26 32 28 255 
-26 242 595 26 32 28 255 
-25 243 597 27 32 28 255 
-24 244 599 28 33 29 255 
-23 245 602 27 32 28 255 
-22 246 605 24 29 25 255 
-22 248 608 25 30 26 255 
-21 249 611 25 30 26 255 
-20 250 614 27 32 28 255 
-19 251 617 29 34 30 255 
-18 252 620 29 34 30 255 
-17 253 622 26 31 27 255 
-16 254 625 24 29 25 255 
-15 255 627 25 30 26 255 
-14 256 630 25 30 26 255 
-13 258 633 28 33 29 255 
-12 259 636 28 33 29 255 
-11 260 639 28 33 29 255 
-10 261 642 28 33 29 255 
-9 263 645 26 31 27 255 
-8 264 649 26 31 27 255 
-7 265 652 29 34 30 255 
-6 267 655 30 35 31 255 
-5 267 657 29 34 30 255 
-4 268 659 27 32 28 255 
-3 270 662 26 31 27 255 
-2 271 666 26 31 27 255 
-1 272 668 27 32 28 255 
0 273 671 28 33 29 255 
1 274 674 29 34 30 255 
2 276 677 26 32 28 255 
3 277 681 28 34 30 255 
4 278 684 26 32 28 255 
5 280 688 23 29 25 255 
7 282 692 24 30 26 255 
8 284 697 26 32 28 255 
-128 265 651 20 22 19 255 
-127 265 649 20 22 19 255 
-125 264 648 22 24 21 255 
-124 264 648 24 26 23 255 
-123 264 647 23 25 22 255 
-122 264 647 22 24 21 255 
-121 263 646 22 24 21 255 
-120 263 646 23 25 22 255 
-119 263 645 23 25 22 255 
-117 263 644 19 24 20 255 
-117 263 645 19 24 20 255 
-115 263 644 21 26 22 255 
-114 262 643 22 27 23 255 
-113 262 643 20 25 21 255 
-112 262 642 19 24 20 255 
-111 261 641 19 24 20 255 
-110 261 640 20 25 21 255 
-108 261 639 20 25 21 255 
-107 261 639 20 25 21 255 
-106 261 639 20 25 21 255 
-105 260 638 21 26 22 255 
-104 260 637 19 25 21 255 
-103 259 636 19 25 21 255 
-102 259 635 20 26 22 255 
-100 259 634 20 26 22 255 
-99 258 633 20 26 22 255 
-98 258 632 18 24 20 255 
-97 258 632 17 23 19 255 
-96 257 631 17 23 19 255 
-95 257 631 24 26 25 255 
-94 257 630 22 24 23 255 
-93 257 630 22 24 23 255 
-92 257 629 24 26 25 255 
-91 256 628 26 28 27 255 
-90 256 628 27 29 28 255 
-89 256 628 20 22 21 255 
-88 256 628 8 10 9 255 
-86 256 627 10 10 10 255 
-85 256 627 12 12 12 255 
-84 256 626 15 15 15 255 
-83 255 625 15 15 15 255 
-82 255 625 15 15 15 255 
-81 254 623 13 13 13 255 
-80 254 622 11 11 11 255 
-79 253 621 18 18 18 255 
-78 254 621 18 20 17 255 
-77 254 621 19 21 18 255 
-75 253 619 20 22 19 255 
-74 252 618 24 26 23 255 
-73 252 618 24 26 23 255 
-72 252 618 21 23 20 255 
-71 252 617 23 25 22 255 
-70 252 616 27 29 26 255 
-69 252 616 27 29 28 255 
-68 252 616 25 27 26 255 
-67 251 615 22 26 25 255 
-66 251 615 20 24 23 255 
-65 251 614 20 24 23 255 
-64 250 613 21 25 24 255 
-63 251 614 23 27 26 255 
-62 250 613 25 29 28 255 
-61 250 613 28 30 29 255 
-60 250 612 26 28 27 255 
-59 250 611 24 26 25 255 
-58 249 610 23 25 24 255 
-57 249 610 23 25 24 255 
-56 249 609 24 26 25 255 
-55 249 609 22 24 23 255 
-54 248 608 21 23 22 255 
-53 248 607 21 23 22 255 
-52 248 607 21 23 22 255 
-51 248 606 21 23 22 255 
-50 248 606 22 24 23 255 
-49 248 606 24 26 25 255 
-48 247 605 25 27 26 255 
-47 247 604 25 27 26 255 
-46 247 604 24 26 25 255 
-45 247 604 20 25 21 255 
-44 246 603 20 25 21 255 
-43 246 603 22 27 23 255 
-42 246 602 22 27 23 255 
-41 246 602 22 27 23 255 
-40 246 601 22 27 23 255 
-39 245 600 22 27 23 255 
-38 245 600 22 27 23 255 
-37 245 600 23 28 22 255 
-36 245 599 22 27 21 255 
-35 244 598 22 29 22 255 
-34 244 597 23 30 23 255 
-33 244 597 22 29 22 255 
-32 244 597 21 28 21 255 
-31 244 596 21 28 21 255 
-30 243 595 21 28 21 255 
-29 243 595 23 29 25 255 
-28 243 595 22 28 24 255 
-27 244 596 24 30 26 255 
-26 244 597 23 29 25 255 
-25 244 598 24 30 26 255 
-24 245 600 26 32 28 255 
-23 246 603 24 30 26 255 
-22 248 606 23 29 25 255 
-22 249 609 24 30 26 255 
-21 250 612 24 30 26 255 
-20 251 614 25 30 26 255 
-19 252 617 28 33 29 255 
-18 253 620 29 34 30 255 
-17 255 623 28 33 29 255 
-16 255 625 25 30 26 255 
-15 257 628 25 30 26 255 
-14 258 631 26 31 27 255 
-13 259 633 27 32 28 255 
-12 260 637 27 32 28 255 
-11 262 640 27 32 28 255 
-10 262 642 27 32 28 255 
-9 264 645 26 31 27 255 
-8 265 649 25 30 26 255 
-7 266 652 27 32 28 255 
-6 268 655 28 33 29 255 
-5 269 657 27 32 28 255 
-4 270 660 26 31 27 255 
-3 271 663 25 30 26 255 
-2 272 666 26 31 27 255 
-1 273 668 28 33 29 255 
0 274 671 28 33 29 255 
1 275 674 28 33 29 255 
2 277 678 27 33 29 255 
3 278 681 27 33 29 255 
4 280 685 25 31 27 255 
5 281 688 23 29 25 255 
7 283 692 25 31 27 255 
8 285 697 27 33 29 255 
-128 267 652 22 24 21 255 
-127 266 651 22 24 21 255 
-126 266 649 24 26 23 255 
-124 265 648 24 26 23 255 
-123 265 648 24 26 23 255 
-122 265 648 23 25 22 255 
-121 265 647 23 25 22 255 
-120 264 646 22 24 21 255 
-119 264 646 20 22 19 255 
-118 264 645 19 21 18 255 
-117 264 645 20 22 19 255 
-116 264 645 20 25 21 255 
-114 264 644 22 27 23 255 
-113 263 643 25 27 24 255 
-112 263 643 24 26 23 255 
-111 263 642 21 26 22 255 
-110 262 641 21 26 22 255 
-109 262 641 21 26 22 255 
-108 262 640 21 26 22 255 
-107 262 640 21 26 22 255 
-105 262 639 23 28 24 255 
-104 261 638 21 26 22 255 
-103 261 637 20 25 21 255 
-102 260 636 19 25 21 255 
-101 260 635 20 26 22 255 
-99 260 634 20 26 22 255 
-98 259 633 18 24 20 255 
-97 259 632 18 24 20 255 
-96 259 632 19 25 21 255 
-95 259 632 22 26 25 255 
-94 259 632 20 24 23 255 
-93 258 631 21 25 24 255 
-92 258 630 21 25 24 255 
-91 258 629 24 26 25 255 
-90 258 629 25 27 26 255 
-89 258 629 20 22 21 255 
-88 258 629 10 12 11 255 
-87 258 629 11 13 12 255 
-85 257 628 8 10 9 255 
-84 257 627 7 9 8 255 
-83 256 626 7 9 8 255 
-82 256 626 9 9 9 255 
-81 256 625 10 10 10 255 
-80 255 623 11 11 11 255 
-79 255 622 18 18 18 255 
-78 255 622 25 25 23 255 
-77 254 621 23 23 21 255 
-75 254 620 23 23 21 255 
-74 254 619 27 27 25 255 
-73 254 619 28 28 26 255 
-72 254 619 25 25 23 255 
-71 253 618 25 27 24 255 
-70 253 618 28 30 27 255 
-69 252 616 26 28 27 255 
-68 252 616 26 28 27 255 
-67 252 616 26 28 27 255 
-66 252 615 25 27 26 255 
-65 252 615 24 26 25 255 
-64 252 614 24 26 25 255 
-63 252 615 24 26 25 255 
-62 252 614 24 26 25 255 
-61 251 613 25 27 26 255 
-60 251 613 24 26 25 255 
-59 251 612 22 24 23 255 
-58 251 611 22 24 23 255 
-57 250 610 22 24 23 255 
-56 250 610 22 24 23 255 
-55 250 610 21 23 22 255 
-54 250 609 21 23 22 255 
-53 249 608 21 23 22 255 
-52 249 607 20 22 21 255 
-51 249 607 19 21 20 255 
-50 249 607 20 22 21 255 
-49 248 606 21 23 22 255 
-48 248 605 22 24 23 255 
-47 248 605 23 25 24 255 
-46 248 604 24 26 25 255 
-45 248 604 21 26 22 255 
-44 247 603 21 26 22 255 
-43 247 603 20 25 21 255 
-42 247 603 20 25 21 255 
-41 247 602 21 26 22 255 
-40 247 602 22 27 23 255 
-39 246 601 22 27 23 255 
-38 246 601 22 27 23 255 
-37 246 600 20 25 21 255 
-36 246 599 21 26 22 255 
-35 246 599 21 28 21 255 
-34 245 598 22 29 22 255 
-33 245 597 21 28 21 255 
-32 245 597 19 26 19 255 
-31 244 596 19 26 19 255 
-30 244 596 20 27 20 255 
-29 244 596 23 30 23 255 
-28 244 596 21 28 21 255 
-27 244 596 21 28 21 255 
-26 245 597 19 26 19 255 
-25 246 599 20 27 20 255 
-24 247 601 24 31 24 255 
-23 247 603 23 30 23 255 
-22 249 606 26 33 26 255 
-22 250 610 27 34 27 255 
-21 251 612 24 31 24 255 
-20 252 615 24 31 24 255 
-19 253 617 26 33 26 255 
-18 255 621 27 34 27 255 
-17 256 623 27 34 27 255 
-16 257 626 26 31 25 255 
-15 258 629 25 30 24 255 
-14 259 631 26 31 27 255 
-13 260 634 25 30 26 255 
-12 261 637 26 31 27 255 
-11 263 640 27 32 28 255 
-10 263 642 25 30 26 255 
-9 265 646 25 30 26 255 
-8 266 649 27 32 28 255 
-7 267 652 27 32 28 255 
-6 269 655 26 31 27 255 
-5 270 657 26 31 27 255 
-4 271 660 27 32 28 255 
-3 272 663 27 32 28 255 
-2 273 666 27 32 28 255 
-1 274 669 28 33 29 255 
0 276 672 29 34 30 255 
1 277 675 28 33 29 255 
2 278 678 28 34 30 255 
3 279 681 27 33 29 255 
4 281 685 25 31 27 255 
5 283 689 24 30 26 255 
7 284 693 24 30 26 255 
-128 268 653 23 25 22 255 
-127 268 652 24 26 23 255 
-126 267 650 24 26 23 255 
-125 267 649 24 26 23 255 
-124 267 649 25 27 24 255 
-122 266 648 23 25 22 255 
-121 266 648 23 25 22 255 
-120 266 647 21 23 20 255 
-119 266 647 19 21 18 255 
-118 265 646 18 23 19 255 
-117 265 646 20 25 21 255 
-116 265 645 22 27 23 255 
-115 265 645 24 29 25 255 
-113 265 644 25 27 24 255 
-112 265 644 25 27 24 255 
-111 264 643 24 26 23 255 
-110 264 642 23 25 22 255 
-109 264 642 21 26 22 255 
-108 263 641 21 26 22 255 
-107 263 640 22 24 21 255 
-105 263 640 24 26 23 255 
-104 263 639 23 28 24 255 
-103 262 637 21 26 22 255 
-102 261 636 21 25 24 255 
-101 261 635 21 25 24 255 
-99 261 634 21 25 24 255 
-98 261 634 21 25 24 255 
-97 260 633 20 24 23 255 
-96 260 633 20 24 23 255 
-95 260 633 20 24 23 255 
-94 260 633 21 25 24 255 
-93 260 632 22 26 25 255 
-92 259 631 22 26 25 255 
-91 259 631 21 25 24 255 
-90 259 630 22 26 25 255 
-89 259 630 22 24 23 255 
-88 259 629 17 19 18 255 
-87 259 629 18 20 19 255 
-85 258 628 13 15 14 255 
-84 258 628 9 11 10 255 
-83 258 627 8 10 9 255 
-82 258 627 9 11 10 255 
-81 257 626 8 10 9 255 
-80 257 624 7 9 8 255 
-79 256 623 10 12 11 255 
-78 256 623 20 20 18 255 
-77 256 622 19 19 17 255 
-76 256 622 19 19 17 255 
-75 255 621 23 23 21 255 
-74 255 620 26 26 24 255 
-73 255 620 25 25 23 255 
-71 255 619 25 27 24 255 
-70 254 618 26 28 25 255 
-69 254 617 27 29 28 255 
-68 254 617 27 29 28 255 
-67 253 616 27 29 28 255 
-66 253 616 26 28 27 255 
-65 253 616 26 28 27 255 
-64 253 615 24 26 25 255 
-63 253 616 23 25 24 255 
-62 253 615 22 24 23 255 
-61 253 615 22 24 23 255 
-60 253 614 21 23 22 255 
-59 252 613 21 23 22 255 
-58 252 612 21 23 22 255 
-57 251 611 21 23 22 255 
-56 251 610 20 22 21 255 
-55 251 610 21 23 22 255 
-54 251 609 22 24 23 255 
-53 251 609 23 25 24 255 
-52 250 608 23 25 24 255 
-51 250 607 24 26 25 255 
-50 250 607 23 25 24 255 
-49 250 607 22 24 23 255 
-48 249 606 22 24 23 255 
-47 249 605 24 26 25 255 
-46 249 605 25 27 26 255 
-45 249 605 24 29 25 255 
-44 249 604 23 28 24 255 
-43 249 604 21 26 22 255 
-42 249 604 20 25 21 255 
-41 248 603 22 27 23 255 
-40 248 603 23 28 24 255 
-39 248 602 23 28 24 255 
-38 248 602 23 28 24 255 
-37 247 601 20 25 21 255 
-36 247 600 20 25 21 255 
-35 247 599 20 26 22 255 
-34 246 598 21 27 23 255 
-33 246 598 21 28 21 255 
-32 246 597 19 26 19 255 
-31 245 596 18 25 18 255 
-30 245 596 20 27 20 255 
-29 245 596 19 26 19 255 
-28 245 596 19 26 19 255 
-27 246 597 19 26 19 255 
-26 246 598 18 25 18 255 
-25 247 599 20 27 20 255 
-24 248 602 22 29 22 255 
-23 249 604 23 30 23 255 
-22 250 607 27 34 27 255 
-22 251 610 28 35 28 255 
-21 252 613 26 33 26 255 
-20 253 615 26 33 26 255 
-19 254 618 26 33 26 255 
-18 256 621 26 33 26 255 
-17 257 624 25 32 25 255 
-16 258 626 25 32 25 255 
-15 259 629 25 32 25 255 
-14 260 632 25 30 26 255 
-13 261 634 24 29 25 255 
-12 262 637 26 31 27 255 
-11 264 640 27 32 28 255 
-10 265 643 24 29 25 255 
-9 266 646 24 29 25 255 
-8 267 649 27 32 28 255 
-7 269 653 27 32 28 255 
-6 270 655 26 31 27 255 
-5 271 658 28 33 29 255 
-4 272 660 29 34 30 255 
-3 273 663 28 33 29 255 
-2 274 666 27 32 28 255 
-1 276 669 28 33 29 255 
0 277 672 28 33 29 255 
1 278 675 29 34 30 255 
2 279 678 27 33 29 255 
3 281 682 26 32 28 255 
4 282 685 26 32 28 255 
5 284 689 26 32 28 255 
7 285 693 26 32 28 255 
-129 270 654 24 26 25 255 
-127 269 653 21 25 24 255 
-126 269 652 20 24 23 255 
-125 268 650 20 24 23 255 
-124 268 650 21 25 24 255 
-122 268 649 22 26 25 255 
-121 267 648 22 26 25 255 
-120 267 647 20 24 23 255 
-119 267 647 19 23 22 255 
-118 267 647 21 25 24 255 
-117 266 646 23 27 26 255 
-116 266 646 24 28 27 255 
-115 266 645 25 29 28 255 
-113 266 645 23 25 22 255 
-112 266 644 24 26 23 255 
-111 266 644 22 27 23 255 
-110 265 643 22 27 23 255 
-109 265 642 21 26 22 255 
-108 265 642 21 26 22 255 
-107 264 641 22 24 21 255 
-105 264 640 21 23 20 255 
-104 264 639 24 26 25 255 
-103 263 638 23 25 24 255 
-102 263 637 22 26 25 255 
-101 262 636 22 26 25 255 
-100 262 635 22 26 25 255 
-98 262 634 21 25 24 255 
-97 262 634 22 24 23 255 
-96 262 634 22 24 23 255 
-95 262 634 24 26 25 255 
-94 262 634 22 24 23 255 
-93 261 633 23 25 24 255 
-92 261 633 24 26 25 255 
-91 261 632 22 24 23 255 
-90 260 631 25 27 26 255 
-89 260 630 24 26 25 255 
-88 260 630 18 20 19 255 
-87 260 630 16 18 17 255 
-86 260 629 14 16 15 255 
-84 259 628 11 13 12 255 
-83 259 628 11 13 12 255 
-82 259 628 12 14 13 255 
-81 259 627 11 13 12 255 
-80 258 625 11 13 12 255 
-79 258 624 12 14 13 255 
-78 258 624 14 14 12 255 
-77 257 623 13 13 11 255 
-76 257 623 10 10 8 255 
-75 257 622 15 15 13 255 
-74 256 621 23 23 21 255 
-73 256 621 26 26 24 255 
-72 256 621 26 28 25 255 
-70 256 619 27 29 26 255 
-69 255 618 27 29 28 255 
-68 255 617 27 29 28 255 
-67 255 617 26 28 27 255 
-66 255 617 26 28 27 255 
-65 254 616 25 27 26 255 
-64 254 616 24 26 25 255 
-63 254 616 21 25 24 255 
-62 254 616 20 24 23 255 
-61 254 615 22 24 23 255 
-60 254 614 21 23 22 255 
-59 254 614 20 22 21 255 
-58 253 613 21 23 22 255 
-57 253 612 22 24 23 255 
-56 252 611 21 23 22 255 
-55 252 611 21 23 22 255 
-54 252 610 22 24 23 255 
-53 252 610 25 27 26 255 
-52 252 609 25 27 26 255 
-51 252 609 26 28 27 255 
-50 251 608 26 28 27 255 
-49 251 607 25 27 26 255 
-48 251 607 24 26 25 255 
-47 250 606 24 26 25 255 
-46 250 606 24 26 25 255 
-45 250 605 23 28 24 255 
-44 250 605 22 27 23 255 
-43 250 605 21 26 22 255 
-42 250 604 21 26 22 255 
-41 250 604 22 27 23 255 
-40 250 604 23 28 24 255 
-39 249 603 24 29 25 255 
-38 249 602 24 29 25 255 
-37 249 602 22 27 23 255 
-36 248 601 21 26 22 255 
-35 248 600 19 25 21 255 
-34 248 599 21 27 23 255 
-33 247 598 21 27 23 255 
-32 247 598 19 25 21 255 
-31 247 597 18 25 18 255 
-30 247 597 20 27 20 255 
-29 247 597 16 23 16 255 
-28 247 597 18 25 18 255 
-27 247 598 20 27 20 255 
-26 247 598 23 30 23 255 
-25 248 600 25 32 25 255 
-24 249 602 24 31 24 255 
-23 250 604 25 32 25 255 
-22 251 607 26 33 26 255 
-22 253 611 28 35 28 255 
-21 253 613 27 34 27 255 
-20 255 616 26 33 26 255 
-19 255 618 26 33 26 255 
-18 257 621 26 33 26 255 
-17 258 624 24 31 24 255 
-16 259 627 25 32 25 255 
-15 260 629 27 34 27 255 
-14 261 632 26 31 27 255 
-13 262 635 27 32 28 255 
-12 264 638 28 33 29 255 
-11 265 641 27 32 28 255 
-10 266 644 25 30 26 255 
-9 267 647 25 30 26 255 
-8 269 650 27 32 28 255 
-7 270 653 26 31 27 255 
-6 271 656 27 32 28 255 
-5 272 658 28 33 29 255 
-4 273 660 27 32 28 255 
-3 274 663 27 32 28 255 
-2 275 666 27 32 28 255 
-1 277 669 27 32 28 255 
0 278 672 28 33 29 255 
1 279 676 29 34 30 255 
2 281 679 26 32 28 255 
3 282 682 26 32 28 255 
4 283 685 27 33 29 255 
5 285 689 28 34 30 255 
7 286 693 26 35 30 255 
-129 271 656 23 27 26 255 
-128 271 654 22 26 25 255 
-126 270 653 21 25 24 255 
-125 270 652 20 24 23 255 
-124 269 651 21 25 24 255 
-123 269 650 21 25 24 255 
-122 269 650 21 25 24 255 
-120 268 648 20 24 23 255 
-119 268 647 19 23 22 255 
-118 268 647 21 25 24 255 
-117 268 647 23 27 26 255 
-116 267 646 22 28 26 255 
-115 267 646 21 27 25 255 
-113 267 645 25 27 24 255 
-112 267 645 25 27 24 255 
-111 267 645 24 29 25 255 
-110 267 644 24 29 25 255 
-109 266 643 23 28 24 255 
-108 266 642 23 28 24 255 
-107 265 641 25 27 24 255 
-106 265 641 22 24 21 255 
-104 265 639 20 22 21 255 
-103 265 639 22 24 23 255 
-102 264 638 22 26 25 255 
-101 264 637 22 26 25 255 
-100 263 636 22 26 25 255 
-99 263 635 21 25 24 255 
-98 263 635 22 24 23 255 
-97 263 635 22 24 23 255 
-96 263 635 24 26 25 255 
-95 263 635 19 21 20 255 
-93 263 634 20 22 21 255 
-92 263 634 22 24 23 255 
-91 262 633 22 24 23 255 
-90 262 632 24 26 25 255 
-89 261 631 21 23 22 255 
-88 261 631 11 13 12 255 
-87 261 631 7 9 8 255 
-86 261 631 8 10 9 255 
-85 261 630 6 8 7 255 
-84 261 629 9 11 10 255 
-83 261 629 11 13 12 255 
-81 260 628 12 14 13 255 
-80 260 627 17 19 18 255 
-79 259 625 20 22 21 255 
-78 259 625 17 19 16 255 
-77 259 624 15 17 14 255 
-76 258 623 8 10 7 255 
-75 258 622 10 12 9 255 
-74 258 622 21 23 20 255 
-73 258 622 25 27 24 255 
-72 257 621 26 28 25 255 
-71 257 620 26 28 25 255 
-69 257 619 25 27 26 255 
-68 256 618 25 27 26 255 
-67 256 618 24 28 27 255 
-66 256 617 24 28 27 255 
-65 256 617 23 27 26 255 
-64 256 617 21 25 24 255 
-63 256 617 21 25 24 255 
-62 256 617 20 24 23 255 
-61 255 616 23 25 24 255 
-60 255 615 22 24 23 255 
-59 255 614 20 22 21 255 
-58 255 614 22 24 23 255 
-57 254 613 25 27 26 255 
-56 254 612 24 26 25 255 
-55 254 612 20 22 21 255 
-54 253 611 20 22 21 255 
-53 253 610 24 26 25 255 
-52 253 610 24 26 25 255 
-51 253 609 24 26 25 255 
-50 253 609 24 26 25 255 
-49 252 608 25 27 26 255 
-48 252 608 24 26 25 255 
-47 252 607 23 25 24 255 
-46 252 607 22 24 23 255 
-45 252 607 19 24 20 255 
-44 251 606 19 24 20 255 
-43 251 606 20 25 21 255 
-42 251 605 20 25 21 255 
-41 251 605 19 24 20 255 
-40 251 605 21 26 22 255 
-39 251 604 23 28 24 255 
-38 250 603 25 30 26 255 
-37 250 603 22 27 23 255 
-36 250 602 21 26 22 255 
-35 249 600 20 26 22 255 
-34 249 600 21 27 23 255 
-33 249 599 21 27 23 255 
-32 249 599 17 23 19 255 
-31 248 598 15 21 17 255 
-30 248 598 17 23 19 255 
-29 248 598 19 24 18 255 
-28 248 598 20 25 19 255 
-27 249 599 22 27 21 255 
-26 249 600 28 33 27 255 
-25 249 601 30 35 29 255 
-24 250 603 27 32 26 255 
-23 251 605 27 32 26 255 
-22 252 608 26 31 25 255 
-22 254 611 26 33 26 255 
-21 255 614 26 33 26 255 
-20 256 617 25 32 25 255 
-19 257 620 25 32 25 255 
-18 258 622 26 33 26 255 
-17 259 625 24 31 24 255 
-16 260 627 25 32 25 255 
-15 261 630 29 36 29 255 
-14 263 633 27 32 28 255 
-13 264 636 29 34 30 255 
-12 265 639 29 34 30 255 
-11 266 642 27 32 28 255 
-10 268 645 26 31 27 255 
-9 269 648 26 31 27 255 
-8 270 651 25 30 26 255 
-7 271 654 25 30 26 255 
-6 273 657 27 32 28 255 
-5 273 659 26 31 27 255 
-4 274 661 24 29 25 255 
-3 276 664 23 28 24 255 
-2 277 667 26 31 27 255 
-1 278 670 27 32 28 255 
0 279 673 27 32 28 255 
1 281 676 28 33 29 255 
2 282 679 26 32 28 255 
3 283 683 27 33 29 255 
4 285 686 25 34 29 255 
5 286 690 25 34 29 255 
-129 273 658 21 25 24 255 
-128 273 656 22 26 25 255 
-127 272 655 21 25 24 255 
-125 271 653 20 24 23 255 
-124 271 652 20 24 23 255 
-123 271 652 25 30 26 255 
-122 270 651 23 28 24 255 
-121 270 650 23 25 22 255 
-119 270 649 21 23 20 255 
-118 269 648 21 23 20 255 
-117 269 648 23 25 22 255 
-116 269 647 23 25 22 255 
-115 269 647 22 24 21 255 
-114 268 646 22 26 25 255 
-112 268 645 25 29 28 255 
-111 268 645 27 29 28 255 
-110 268 645 25 27 26 255 
-109 268 644 25 27 26 255 
-108 268 644 26 28 27 255 
-107 267 642 25 27 26 255 
-106 266 641 25 27 26 255 
-105 266 641 23 25 24 255 
-103 266 640 20 22 21 255 
-102 266 639 21 21 21 255 
-101 265 638 23 23 23 255 
-100 265 637 22 22 22 255 
-99 264 636 23 23 23 255 
-98 264 636 23 25 24 255 
-97 264 636 22 24 23 255 
-96 264 635 25 25 25 255 
-95 264 635 27 27 27 255 
-94 264 635 26 26 26 255 
-92 264 634 26 26 26 255 
-91 264 634 27 27 27 255 
-90 263 633 27 27 27 255 
-89 263 632 22 22 22 255 
-88 263 632 11 11 11 255 
-87 263 632 7 7 7 255 
-86 262 631 6 6 6 255 
-85 262 631 9 9 9 255 
-84 262 630 9 9 9 255 
-83 262 630 7 7 7 255 
-82 262 629 10 10 10 255 
-80 261 627 16 16 16 255 
-79 260 626 22 22 22 255 
-78 260 625 18 20 19 255 
-77 260 624 17 19 18 255 
-76 260 624 15 17 16 255 
-75 259 623 15 17 16 255 
-74 259 622 22 24 23 255 
-73 259 622 25 27 26 255 
-72 259 622 23 25 24 255 
-71 258 621 24 26 25 255 
-70 258 620 25 29 28 255 
-68 258 619 24 28 27 255 
-67 257 618 24 26 25 255 
-66 257 618 22 24 23 255 
-65 257 618 21 23 22 255 
-64 257 618 21 23 22 255 
-63 257 618 20 24 23 255 
-62 257 617 21 25 24 255 
-61 256 616 19 23 22 255 
-60 256 616 20 24 23 255 
-59 256 615 19 23 22 255 
-58 256 614 19 23 22 255 
-57 255 613 23 27 26 255 
-56 255 613 25 29 28 255 
-55 255 613 20 24 23 255 
-54 255 612 18 22 21 255 
-53 254 611 20 24 23 255 
-52 254 611 20 24 23 255 
-51 254 610 20 25 21 255 
-50 254 610 22 27 23 255 
-49 254 610 22 27 23 255 
-48 254 609 21 26 22 255 
-47 253 608 19 24 20 255 
-46 253 608 19 24 20 255 
-45 253 608 19 21 18 255 
-44 253 608 22 24 21 255 
-43 253 607 24 26 23 255 
-42 253 607 26 28 25 255 
-41 253 607 23 28 24 255 
-40 252 606 22 27 23 255 
-39 252 605 21 26 22 255 
-38 252 604 21 26 22 255 
-37 251 603 21 26 22 255 
-36 251 603 22 27 23 255 
-35 251 602 21 27 23 255 
-34 250 601 21 27 23 255 
-33 250 600 22 28 24 255 
-32 250 600 21 27 23 255 
-31 249 599 17 23 19 255 
-30 249 599 15 21 17 255 
-29 249 599 18 23 19 255 
-28 249 599 19 24 20 255 
-27 250 600 21 26 22 255 
-26 250 601 24 29 25 255 
-25 251 602 26 31 27 255 
-24 251 603 26 31 27 255 
-23 252 606 27 32 28 255 
-22 253 608 28 33 29 255 
-22 254 611 26 31 25 255 
-21 256 614 25 30 24 255 
-20 257 617 25 30 24 255 
-19 258 620 26 31 25 255 
-18 259 623 27 32 26 255 
-17 260 625 26 31 25 255 
-16 262 628 27 32 26 255 
-15 263 631 28 33 27 255 
-14 264 634 28 35 28 255 
-13 265 636 29 36 29 255 
-12 266 639 28 35 28 255 
-11 268 643 25 32 25 255 
-10 269 645 22 29 22 255 
-9 270 648 24 31 24 255 
-8 272 652 27 34 27 255 
-7 272 654 23 30 23 255 
-6 274 657 25 32 25 255 
-5 275 660 25 32 25 255 
-4 276 662 24 31 24 255 
-3 277 665 24 31 24 255 
-2 278 668 26 33 26 255 
-1 279 671 26 33 26 255 
0 280 673 25 32 25 255 
1 282 677 25 32 25 255 
2 283 680 25 35 27 255 
3 284 683 24 34 26 255 
4 286 687 24 34 26 255 
5 287 690 25 35 27 255 
-130 275 659 21 25 24 255 
-128 274 658 20 24 23 255 
-127 274 656 20 24 23 255 
-126 273 655 20 24 23 255 
-124 272 653 21 25 24 255 
-123 272 652 23 28 24 255 
-122 272 652 23 28 24 255 
-121 272 651 22 27 23 255 
-120 271 650 20 25 21 255 
-118 271 649 19 24 20 255 
-117 271 649 20 25 21 255 
-116 270 648 20 25 21 255 
-115 270 648 20 25 21 255 
-114 270 647 22 27 23 255 
-113 270 647 25 30 26 255 
-112 270 647 27 29 26 255 
-111 270 646 26 28 25 255 
-109 269 645 26 28 25 255 
-108 269 644 26 28 25 255 
-107 268 643 25 27 26 255 
-106 268 643 24 26 25 255 
-105 268 642 23 25 24 255 
-103 267 640 21 23 22 255 
-102 267 640 21 21 21 255 
-101 267 639 23 23 23 255 
-100 266 638 25 25 25 255 
-99 266 637 25 25 25 255 
-98 266 637 24 26 25 255 
-97 266 637 24 26 25 255 
-96 265 636 25 25 25 255 
-95 265 636 27 27 27 255 
-94 265 636 27 27 27 255 
-92 265 635 26 26 26 255 
-91 265 634 26 26 26 255 
-90 265 634 26 26 26 255 
-89 264 633 22 22 22 255 
-88 264 633 13 13 13 255 
-87 264 633 6 6 6 255 
-86 264 632 5 5 5 255 
-85 263 631 12 12 12 255 
-84 263 631 16 16 16 255 
-83 263 631 12 12 12 255 
-82 263 630 9 9 9 255 
-80 262 628 11 11 11 255 
-79 262 627 15 15 15 255 
-78 261 626 20 22 21 255 
-77 261 625 24 26 25 255 
-76 261 624 24 24 24 255 
-75 260 623 22 22 22 255 
-74 260 623 24 24 24 255 
-73 260 623 24 24 24 255 
-72 260 622 23 25 24 255 
-71 260 622 25 27 26 255 
-70 259 621 25 27 26 255 
-69 259 620 23 25 24 255 
-67 259 619 21 23 22 255 
-66 259 619 20 22 21 255 
-65 258 618 19 21 20 255 
-64 258 618 21 23 22 255 
-63 258 618 21 25 24 255 
-62 258 618 23 27 26 255 
-61 258 617 24 26 25 255 
-60 257 616 23 25 24 255 
-59 257 615 22 24 23 255 
-58 257 615 21 23 22 255 
-57 257 614 24 26 25 255 
-56 256 613 26 28 27 255 
-55 256 613 22 24 23 255 
-54 256 613 19 21 20 255 
-53 256 612 21 23 20 255 
-52 256 612 22 24 21 255 
-51 255 611 24 26 23 255 
-50 255 611 25 27 24 255 
-49 255 611 25 27 24 255 
-48 255 610 24 26 23 255 
-47 255 610 24 26 23 255 
-46 255 610 24 26 23 255 
-45 255 609 20 25 21 255 
-44 254 608 23 28 24 255 
-43 254 608 24 29 25 255 
-42 254 608 25 30 26 255 
-41 254 608 24 29 25 255 
-40 254 607 22 27 23 255 
-39 253 606 20 25 21 255 
-38 253 605 21 26 22 255 
-37 252 604 20 25 21 255 
-36 252 603 22 27 23 255 
-35 252 603 22 27 23 255 
-34 252 602 21 26 22 255 
-33 251 601 21 27 23 255 
-32 251 601 20 26 22 255 
-31 251 600 19 25 21 255 
-30 251 600 19 25 21 255 
-29 250 599 17 23 19 255 
-28 250 599 18 24 20 255 
-27 251 601 20 26 22 255 
-26 252 602 22 28 24 255 
-25 252 603 25 31 27 255 
-24 252 604 25 31 27 255 
-23 253 606 25 31 27 255 
-23 255 609 25 31 27 255 
-22 255 611 24 31 24 255 
-21 257 614 23 30 23 255 
-20 258 617 24 31 24 255 
-19 259 620 26 33 26 255 
-18 260 623 28 35 28 255 
-17 262 626 28 35 28 255 
-16 263 629 28 35 28 255 
-15 264 632 26 33 26 255 
-14 265 635 26 31 25 255 
-13 267 638 29 34 28 255 
-12 268 640 28 33 27 255 
-11 269 643 25 30 24 255 
-10 270 646 23 28 22 255 
-9 271 649 25 30 24 255 
-8 273 652 28 33 27 255 
-7 274 655 25 30 24 255 
-6 275 657 25 30 26 255 
-5 276 660 26 31 27 255 
-4 277 662 26 32 28 255 
-3 278 665 26 32 28 255 
-2 279 668 26 32 28 255 
-1 281 671 27 33 29 255 
0 282 674 27 33 29 255 
1 283 678 27 33 29 255 
2 284 680 24 30 26 255 
3 286 683 24 30 26 255 
4 287 687 25 31 27 255 
-130 276 660 21 25 24 255 
-128 276 659 19 23 22 255 
-127 275 657 19 23 22 255 
-126 275 656 19 23 22 255 
-124 274 654 21 25 24 255 
-123 273 653 21 26 22 255 
-122 273 652 21 26 22 255 
-121 273 652 22 27 23 255 
-120 273 651 21 26 22 255 
-118 272 649 20 25 21 255 
-117 272 649 20 25 21 255 
-116 272 649 19 25 21 255 
-115 271 648 19 25 21 255 
-114 271 648 21 26 22 255 
-113 271 648 22 27 23 255 
-112 271 647 25 27 24 255 
-111 271 647 24 26 23 255 
-109 270 645 24 26 23 255 
-108 270 645 24 26 23 255 
-107 270 644 24 26 23 255 
-106 269 643 25 27 24 255 
-105 269 643 24 26 25 255 
-104 268 641 24 26 25 255 
-103 269 641 25 25 25 255 
-101 268 640 26 26 26 255 
-100 268 639 29 29 29 255 
-99 268 639 29 29 29 255 
-98 267 638 26 28 27 255 
-97 267 637 25 27 26 255 
-96 267 637 26 26 26 255 
-95 266 636 26 26 26 255 
-94 266 636 25 25 25 255 
-93 266 636 24 24 24 255 
-91 266 635 24 24 24 255 
-90 266 634 24 24 24 255 
-89 266 634 23 23 23 255 
-88 266 634 17 17 17 255 
-87 265 633 11 11 11 255 
-86 265 632 6 6 6 255 
-85 265 632 14 14 14 255 
-84 265 632 22 22 22 255 
-83 265 632 19 19 19 255 
-82 264 631 13 13 13 255 
-81 264 629 10 10 10 255 
-79 263 628 9 9 9 255 
-78 263 627 16 16 16 255 
-77 262 626 25 25 25 255 
-76 262 625 26 26 26 255 
-75 262 624 24 24 24 255 
-74 262 624 24 24 24 255 
-73 261 623 23 23 23 255 
-72 261 623 24 26 25 255 
-71 261 622 26 28 27 255 
-70 261 622 29 31 30 255 
-69 260 621 26 28 27 255 
-68 260 620 24 26 25 255 
-66 260 619 23 25 24 255 
-65 260 619 23 25 24 255 
-64 260 619 23 25 24 255 
-63 260 619 22 26 25 255 
-62 259 618 23 27 26 255 
-61 259 618 26 28 27 255 
-60 259 617 25 27 26 255 
-59 258 616 24 26 25 255 
-58 258 615 22 24 23 255 
-57 257 614 23 25 24 255 
-56 258 614 26 28 27 255 
-55 258 614 23 25 24 255 
-54 258 614 19 21 20 255 
-53 257 613 21 23 20 255 
-52 257 612 23 25 22 255 
-51 257 612 25 27 24 255 
-50 257 612 25 27 24 255 
-49 256 611 25 27 24 255 
-48 256 611 25 27 24 255 
-47 256 610 26 28 25 255 
-46 256 610 26 28 25 255 
-45 256 610 24 29 25 255 
-44 255 609 23 28 24 255 
-43 255 609 21 26 22 255 
-42 255 609 21 26 22 255 
-41 255 608 23 28 24 255 
-40 255 608 22 27 23 255 
-39 255 607 20 25 21 255 
-38 254 606 21 26 22 255 
-37 254 605 21 26 22 255 
-36 254 605 22 27 23 255 
-35 253 604 21 26 22 255 
-34 253 603 20 25 21 255 
-33 253 602 20 25 21 255 
-32 253 602 20 25 21 255 
-31 252 601 21 26 22 255 
-30 252 601 23 28 24 255 
-29 252 601 18 24 20 255 
-28 252 601 20 26 22 255 
-27 252 601 22 28 24 255 
-26 253 602 26 32 28 255 
-25 253 603 28 34 30 255 
-24 253 604 28 34 30 255 
-23 255 607 27 33 29 255 
-22 256 609 26 32 28 255 
-22 257 612 25 32 25 255 
-21 258 615 23 30 23 255 
-20 259 618 24 31 24 255 
-19 261 621 27 34 27 255 
-18 262 624 28 35 28 255 
-17 263 627 30 37 30 255 
-16 264 629 29 36 29 255 
-15 265 632 25 32 25 255 
-14 266 635 24 29 23 255 
-13 268 638 27 32 26 255 
-12 269 641 27 32 26 255 
-11 270 644 25 30 24 255 
-10 271 646 24 29 25 255 
-9 272 649 25 30 26 255 
-8 274 652 27 32 28 255 
-7 275 656 26 31 27 255 
-6 276 658 27 32 28 255 
-5 277 661 26 31 27 255 
-4 279 664 27 32 28 255 
-3 279 666 26 31 27 255 
-2 281 669 23 29 25 255 
-1 282 672 24 30 26 255 
0 283 675 25 31 27 255 
1 285 678 25 31 27 255 
2 286 681 24 30 26 255 
3 287 684 24 30 26 255 
4 288 687 26 32 28 255 
-128 277 659 21 23 22 255 
-127 276 658 21 23 22 255 
-126 276 657 19 23 22 255 
-125 276 656 20 24 23 255 
-123 275 654 20 25 21 255 
-122 274 653 20 25 21 255 
-121 274 653 21 26 22 255 
-120 274 652 20 25 21 255 
-119 274 651 20 25 21 255 
-118 274 651 21 26 22 255 
-116 273 650 20 26 22 255 
-115 273 649 19 25 21 255 
-114 273 649 19 24 18 255 
-113 272 648 18 23 17 255 
-112 272 647 18 23 17 255 
-111 272 647 18 23 17 255 
-110 272 646 21 23 20 255 
-108 271 645 22 24 21 255 
-107 271 645 23 25 22 255 
-106 271 644 24 26 23 255 
-105 270 643 24 26 23 255 
-104 270 643 25 27 24 255 
-103 270 642 25 27 26 255 
-102 270 641 26 28 27 255 
-100 269 640 28 28 28 255 
-99 269 640 28 28 28 255 
-98 269 639 26 28 27 255 
-97 268 638 25 27 26 255 
-96 268 637 24 24 24 255 
-95 268 637 25 25 25 255 
-94 267 636 23 23 23 255 
-93 267 636 23 23 23 255 
-92 267 636 23 23 23 255 
-90 267 635 24 24 24 255 
-89 267 634 24 24 24 255 
-88 267 634 22 22 22 255 
-87 267 634 16 16 16 255 
-86 266 633 9 9 9 255 
-85 266 632 11 11 11 255 
-84 266 632 16 16 16 255 
-83 266 633 17 17 17 255 
-82 266 632 15 15 15 255 
-81 265 631 10 10 10 255 
-80 265 629 7 7 7 255 
-78 264 628 12 12 12 255 
-77 264 628 23 23 23 255 
-76 264 627 24 24 24 255 
-75 263 626 23 23 23 255 
-74 263 625 23 23 23 255 
-73 263 625 22 22 22 255 
-72 263 624 24 26 25 255 
-71 263 624 23 25 24 255 
-70 262 623 25 27 26 255 
-69 262 622 23 25 24 255 
-68 261 621 21 25 24 255 
-67 261 621 21 25 24 255 
-66 261 620 21 25 24 255 
-65 261 620 21 25 24 255 
-63 261 619 21 25 24 255 
-62 261 619 22 26 25 255 
-61 260 618 21 25 24 255 
-60 260 618 22 26 25 255 
-59 260 617 23 27 26 255 
-58 259 616 20 24 23 255 
-57 259 615 21 25 24 255 
-56 259 615 24 28 27 255 
-55 259 615 22 27 23 255 
-54 259 615 20 25 21 255 
-53 258 614 21 26 22 255 
-52 258 614 21 26 22 255 
-51 258 613 22 27 23 255 
-50 258 613 22 27 23 255 
-49 258 612 22 27 23 255 
-48 257 611 23 28 24 255 
-47 257 611 23 28 24 255 
-46 257 611 22 27 23 255 
-45 257 611 25 30 26 255 
-44 257 610 22 27 23 255 
-43 257 610 19 24 20 255 
-42 257 610 20 25 21 255 
-41 256 609 22 27 23 255 
-40 256 609 22 27 23 255 
-39 256 608 21 26 22 255 
-38 256 607 21 26 22 255 
-37 256 607 22 27 23 255 
-36 255 606 21 26 22 255 
-35 255 605 20 25 21 255 
-34 254 604 19 24 20 255 
-33 254 603 19 24 20 255 
-32 254 603 19 24 20 255 
-31 254 602 21 26 22 255 
-30 253 601 22 27 23 255 
-29 253 601 19 25 21 255 
-28 253 601 21 27 23 255 
-27 254 602 25 31 27 255 
-26 254 602 28 34 30 255 
-25 254 603 29 35 31 255 
-24 254 604 28 34 30 255 
-23 256 607 28 34 30 255 
-22 256 609 28 34 30 255 
-22 258 612 28 35 28 255 
-21 259 615 26 33 26 255 
-20 260 618 25 32 25 255 
-19 262 621 25 32 25 255 
-18 263 624 26 33 26 255 
-17 264 627 28 35 28 255 
-16 265 630 28 35 28 255 
-15 267 633 26 33 26 255 
-14 267 635 23 28 22 255 
-13 269 638 27 32 26 255 
-12 270 641 27 32 26 255 
-11 271 644 25 30 24 255 
-10 273 647 24 29 23 255 
-9 274 650 24 29 23 255 
-8 275 653 26 31 27 255 
-7 276 656 26 31 27 255 
-6 278 659 24 30 26 255 
-5 279 662 23 29 25 255 
-4 280 665 23 29 25 255 
-3 281 668 23 29 25 255 
-2 282 670 23 29 25 255 
-1 283 673 24 30 26 255 
0 285 676 25 31 27 255 
1 286 679 25 31 27 255 
2 287 682 23 29 25 255 
3 288 684 25 31 27 255 
-127 278 659 23 25 24 255 
-126 277 657 23 25 24 255 
-125 277 657 22 24 23 255 
-124 276 655 22 24 21 255 
-122 276 654 22 24 21 255 
-121 276 654 20 25 21 255 
-120 275 653 20 25 21 255 
-119 275 653 20 25 21 255 
-118 275 652 20 25 21 255 
-117 275 651 20 25 21 255 
-115 274 650 21 26 22 255 
-114 274 649 20 25 19 255 
-113 274 649 17 22 16 255 
-112 274 649 16 21 15 255 
-111 273 648 18 23 17 255 
-110 273 647 20 25 19 255 
-108 273 646 20 25 19 255 
-107 273 646 22 24 21 255 
-106 272 645 22 24 21 255 
-105 272 644 22 24 21 255 
-104 272 644 22 24 21 255 
-103 271 643 22 24 21 255 
-102 271 643 21 23 20 255 
-101 271 642 22 24 23 255 
-99 271 641 24 26 25 255 
-98 270 640 25 27 26 255 
-97 270 640 25 27 26 255 
-96 269 638 24 24 24 255 
-95 269 637 25 25 25 255 
-94 269 637 24 24 24 255 
-93 269 637 24 24 24 255 
-92 268 636 25 25 25 255 
-90 268 635 24 24 24 255 
-89 268 635 24 24 24 255 
-88 268 635 22 22 22 255 
-87 268 634 19 19 19 255 
-86 268 634 13 13 13 255 
-85 267 633 10 10 10 255 
-84 267 633 8 8 8 255 
-83 267 633 8 8 8 255 
-82 267 633 9 9 9 255 
-81 267 632 8 8 8 255 
-80 266 630 6 6 6 255 
-79 266 629 11 11 11 255 
-77 265 628 21 21 21 255 
-76 265 628 22 24 23 255 
-75 265 627 23 25 24 255 
-74 264 626 24 26 25 255 
-73 264 626 23 25 24 255 
-72 264 625 25 27 26 255 
-71 264 625 23 25 24 255 
-70 264 624 22 26 25 255 
-69 263 623 22 26 25 255 
-68 263 622 22 26 25 255 
-67 262 621 23 27 26 255 
-66 262 621 22 26 25 255 
-65 262 620 21 25 24 255 
-63 261 619 21 25 24 255 
-62 261 619 21 25 24 255 
-61 262 619 18 22 21 255 
-60 262 619 20 24 23 255 
-59 261 618 22 27 23 255 
-58 261 617 20 25 21 255 
-57 260 616 21 26 22 255 
-56 260 616 24 29 25 255 
-55 260 616 23 28 24 255 
-54 260 615 21 26 22 255 
-53 260 615 22 27 23 255 
-52 259 614 22 27 23 255 
-51 259 614 21 26 22 255 
-50 259 613 21 26 22 255 
-49 259 613 21 26 22 255 
-48 259 612 22 27 23 255 
-47 258 611 22 27 23 255 
-46 258 611 21 26 22 255 
-45 258 611 23 29 25 255 
-44 258 611 21 27 23 255 
-43 258 610 21 27 23 255 
-42 258 610 22 28 24 255 
-41 258 610 22 28 24 255 
-40 258 610 22 28 24 255 
-39 257 609 22 28 24 255 
-38 257 608 21 27 23 255 
-37 257 608 21 27 23 255 
-36 257 607 20 26 22 255 
-35 256 606 19 25 21 255 
-34 256 605 18 24 20 255 
-33 255 604 19 24 20 255 
-32 255 604 19 24 20 255 
-31 255 603 20 25 21 255 
-30 255 603 21 26 22 255 
-29 254 602 22 27 23 255 
-28 254 602 23 28 24 255 
-27 255 603 25 30 26 255 
-26 255 603 26 31 27 255 
-25 255 603 26 31 27 255 
-24 256 605 27 32 28 255 
-23 257 607 28 33 29 255 
-23 258 610 29 34 30 255 
-22 259 613 30 35 29 255 
-21 260 616 30 35 29 255 
-20 262 619 27 32 26 255 
-19 263 622 24 29 23 255 
-18 264 625 25 30 24 255 
-17 265 628 26 31 25 255 
-16 267 631 27 32 26 255 
-15 268 634 27 32 26 255 
-14 269 636 24 29 23 255 
-13 270 639 26 31 25 255 
-12 271 642 27 32 26 255 
-11 273 645 26 31 25 255 
-10 274 648 25 32 25 255 
-9 275 651 25 32 25 255 
-8 276 654 27 34 27 255 
-7 278 657 26 33 26 255 
-6 279 660 25 31 27 255 
-5 280 663 25 31 27 255 
-4 282 666 25 31 27 255 
-3 283 669 25 31 27 255 
-2 284 672 24 33 28 255 
-1 285 675 24 33 28 255 
0 286 677 23 32 27 255 
1 287 680 23 32 27 255 
2 289 683 24 30 26 255 
3 290 686 26 32 28 255 
-128 279 660 25 27 26 255 
-126 278 658 26 28 27 255 
-125 278 657 24 26 25 255 
-124 278 656 23 25 22 255 
-122 277 655 23 25 22 255 
-121 277 655 22 24 21 255 
-120 277 654 22 24 21 255 
-119 277 654 21 23 20 255 
-118 276 653 21 23 20 255 
-117 276 652 22 24 21 255 
-116 276 651 23 25 22 255 
-114 275 650 25 30 24 255 
-113 275 650 20 25 19 255 
-112 275 649 16 21 15 255 
-111 275 649 18 23 17 255 
-110 274 648 21 26 20 255 
