ply
format ascii 1.0
comment VCGLIB generated
element vertex 1879
property float x
property float y
property float z
property uchar red
property uchar green
property uchar blue
property uchar alpha
element face 0
property list uchar int vertex_indices
end_header
-21 171 558 25 27 26 255 
-20 171 558 26 28 27 255 
-19 171 559 27 29 28 255 
-18 171 559 26 28 27 255 
-17 171 559 25 27 26 255 
-16 171 559 23 27 26 255 
-15 172 560 23 27 26 255 
-15 172 560 24 28 27 255 
-14 172 560 26 30 29 255 
-13 172 560 29 31 30 255 
-12 172 560 29 31 30 255 
-11 172 561 27 29 28 255 
-10 172 561 26 28 27 255 
-9 172 561 27 29 28 255 
-8 172 561 25 27 26 255 
-7 172 562 23 25 24 255 
-6 172 563 23 25 24 255 
-6 172 563 22 24 23 255 
-5 173 564 24 26 25 255 
-4 173 564 27 29 28 255 
-3 173 565 26 28 27 255 
-2 173 565 27 29 28 255 
-1 173 565 27 29 28 255 
0 173 565 26 28 27 255 
1 173 566 25 27 26 255 
2 173 566 23 25 24 255 
3 173 566 24 26 25 255 
4 174 567 27 29 28 255 
4 174 567 28 30 29 255 
5 174 567 26 28 27 255 
6 174 567 25 27 26 255 
7 174 567 26 28 27 255 
8 174 567 26 28 27 255 
9 174 568 28 30 29 255 
10 174 568 26 28 27 255 
11 174 568 29 31 30 255 
12 174 568 30 32 31 255 
13 174 569 24 26 25 255 
14 174 569 24 26 25 255 
15 174 569 25 27 26 255 
16 175 570 17 19 18 255 
16 175 571 13 15 14 255 
17 175 572 5 7 6 255 
18 175 573 5 7 6 255 
19 175 573 3 5 4 255 
20 176 574 4 6 5 255 
21 176 575 4 6 5 255 
22 176 575 7 9 8 255 
23 176 575 7 9 8 255 
24 176 575 9 11 10 255 
25 176 576 9 11 10 255 
26 176 576 9 11 10 255 
27 177 577 9 11 10 255 
28 177 577 11 13 12 255 
29 177 577 13 15 14 255 
30 177 578 18 18 18 255 
31 177 578 27 27 27 255 
32 177 578 30 32 31 255 
33 177 578 28 30 29 255 
33 177 578 27 29 28 255 
34 177 579 27 29 28 255 
35 177 579 26 28 27 255 
36 178 580 26 28 27 255 
37 178 580 26 28 27 255 
38 178 581 24 26 25 255 
39 178 581 23 25 24 255 
40 178 582 26 28 27 255 
41 178 582 28 30 29 255 
42 178 582 24 26 25 255 
43 178 582 23 25 24 255 
44 178 583 26 28 27 255 
45 178 582 27 29 28 255 
46 178 582 27 29 28 255 
47 178 582 23 25 24 255 
48 178 583 24 26 25 255 
49 179 584 25 27 26 255 
50 179 584 25 27 26 255 
51 179 585 25 27 26 255 
52 179 585 24 26 25 255 
53 179 586 24 26 25 255 
54 179 586 26 28 27 255 
55 179 586 30 32 31 255 
56 179 586 29 31 30 255 
57 180 587 25 27 26 255 
58 180 587 25 27 26 255 
59 180 587 28 30 29 255 
60 180 588 30 32 31 255 
61 180 588 28 30 29 255 
61 180 588 27 29 28 255 
63 180 589 28 30 29 255 
63 180 589 27 29 28 255 
64 180 589 26 28 27 255 
65 181 590 27 29 28 255 
66 180 589 27 29 28 255 
67 181 590 26 28 27 255 
68 181 590 27 29 28 255 
69 181 591 26 28 27 255 
70 181 592 26 28 27 255 
71 181 592 26 28 27 255 
72 181 592 26 28 27 255 
73 181 593 25 27 26 255 
74 181 593 26 28 27 255 
75 181 593 25 27 26 255 
76 181 593 23 25 24 255 
77 181 593 23 25 24 255 
78 181 593 27 29 28 255 
79 181 592 22 24 23 255 
80 181 592 19 21 20 255 
81 181 591 17 19 18 255 
-83 252 818 88 103 96 255 
-79 243 790 90 101 97 255 
-75 236 767 90 101 97 255 
-73 232 753 92 103 99 255 
-70 227 739 90 101 97 255 
-68 223 726 91 102 98 255 
-66 220 715 95 106 102 255 
-64 217 704 94 106 102 255 
-62 214 694 96 108 104 255 
-60 211 686 96 108 104 255 
-58 208 675 96 108 104 255 
-56 205 667 94 106 102 255 
-54 203 659 93 105 101 255 
-53 201 653 94 106 102 255 
-51 199 647 94 106 102 255 
-50 197 640 93 105 101 255 
-48 195 634 92 104 100 255 
-47 193 627 93 104 100 255 
-45 191 622 89 100 96 255 
-44 189 615 96 107 103 255 
-42 188 610 97 108 104 255 
-41 186 605 91 103 99 255 
-40 185 600 89 101 97 255 
-38 183 594 85 100 95 255 
-37 181 589 83 98 93 255 
-36 179 582 89 102 95 255 
-34 178 577 85 98 91 255 
-33 175 570 77 86 81 255 
-32 174 564 71 80 75 255 
-31 172 560 49 54 50 255 
-30 172 558 25 30 26 255 
-29 171 557 27 29 26 255 
-28 171 557 24 26 23 255 
-27 171 556 29 29 29 255 
-26 171 556 29 29 29 255 
-25 171 557 27 27 27 255 
-24 171 557 26 26 26 255 
-23 171 557 26 28 27 255 
-23 171 557 27 29 28 255 
-22 171 557 27 29 28 255 
-21 172 558 26 28 27 255 
-20 172 558 26 28 27 255 
-19 172 559 27 29 28 255 
-18 172 559 27 29 28 255 
-17 172 560 26 28 27 255 
-16 172 560 24 28 27 255 
-15 172 560 25 29 28 255 
-15 173 561 26 30 29 255 
-14 173 561 27 31 30 255 
-13 173 561 30 32 31 255 
-12 173 561 29 31 30 255 
-11 173 562 27 29 28 255 
-10 173 562 26 28 27 255 
-9 173 562 27 29 28 255 
-8 173 562 26 28 27 255 
-7 173 563 25 27 26 255 
-6 173 563 26 28 27 255 
-6 174 564 24 26 25 255 
-5 174 564 24 26 25 255 
-4 174 565 24 26 25 255 
-3 174 565 24 26 25 255 
-2 174 566 26 28 27 255 
-1 174 566 29 31 30 255 
0 174 566 27 29 28 255 
1 174 566 25 27 26 255 
2 175 567 26 28 27 255 
3 175 567 27 29 28 255 
4 175 567 28 30 29 255 
4 175 568 29 31 30 255 
5 175 568 29 31 30 255 
6 175 568 28 30 29 255 
7 175 568 30 32 31 255 
8 175 568 31 33 32 255 
9 175 568 28 30 29 255 
10 175 569 25 27 26 255 
11 175 569 28 30 29 255 
12 175 569 30 32 31 255 
13 175 569 25 27 26 255 
14 175 570 25 27 26 255 
15 175 570 28 30 29 255 
16 175 570 17 19 18 255 
16 176 571 10 12 11 255 
17 176 572 6 8 7 255 
18 177 574 7 9 8 255 
19 177 574 4 6 5 255 
20 177 576 4 6 5 255 
21 178 577 6 8 7 255 
22 178 577 8 10 9 255 
23 178 577 6 8 7 255 
24 178 577 6 8 7 255 
25 178 577 5 7 6 255 
26 178 577 7 9 8 255 
27 178 578 6 8 7 255 
28 178 578 5 7 6 255 
29 178 578 6 8 7 255 
30 178 578 12 14 13 255 
31 178 578 23 25 24 255 
32 178 579 28 30 29 255 
33 178 579 26 28 27 255 
34 178 579 26 28 27 255 
34 178 579 26 28 27 255 
35 179 580 26 28 27 255 
36 179 580 26 28 27 255 
37 179 580 26 28 27 255 
38 179 581 25 27 26 255 
39 179 581 25 27 26 255 
40 179 582 26 28 27 255 
41 179 582 28 30 29 255 
42 179 582 25 27 26 255 
43 179 583 25 27 26 255 
44 179 583 27 29 28 255 
45 179 583 28 30 29 255 
46 179 583 29 31 30 255 
47 179 583 28 30 29 255 
48 180 584 27 29 28 255 
49 180 584 27 29 28 255 
50 180 585 28 30 29 255 
51 180 586 28 30 29 255 
52 180 586 27 29 28 255 
53 181 587 25 27 26 255 
54 181 587 24 26 25 255 
55 181 587 27 29 28 255 
56 181 587 28 30 29 255 
57 181 587 27 29 28 255 
58 181 587 26 28 27 255 
59 181 588 28 30 29 255 
60 181 588 29 31 30 255 
61 181 589 29 31 30 255 
62 181 589 28 30 29 255 
63 181 590 27 29 28 255 
64 181 590 27 29 28 255 
65 181 590 26 28 27 255 
66 182 591 27 29 28 255 
66 181 590 27 29 28 255 
67 181 590 26 28 27 255 
68 182 591 27 29 28 255 
70 182 592 27 29 28 255 
70 182 592 27 29 28 255 
71 182 592 28 30 29 255 
72 182 592 29 31 30 255 
73 182 593 29 31 30 255 
74 182 593 29 31 30 255 
75 182 593 29 31 30 255 
76 182 593 28 30 29 255 
77 182 593 28 30 29 255 
78 183 594 25 27 26 255 
79 183 594 24 26 25 255 
80 182 593 25 27 26 255 
-79 245 792 92 103 99 255 
-76 238 770 91 102 98 255 
-73 233 755 92 104 100 255 
-71 229 742 90 102 98 255 
-68 225 729 90 102 98 255 
-66 222 717 93 105 101 255 
-64 218 706 94 106 102 255 
-62 216 697 96 108 104 255 
-60 213 688 96 108 104 255 
-58 210 679 96 108 104 255 
-56 207 669 95 107 103 255 
-54 204 661 93 105 101 255 
-53 202 654 92 104 100 255 
-51 200 648 92 104 100 255 
-50 199 642 92 104 100 255 
-48 196 635 91 103 99 255 
-47 194 628 91 102 98 255 
-45 192 622 89 100 96 255 
-44 191 616 93 105 101 255 
-42 189 611 93 105 101 255 
-41 187 606 91 103 99 255 
-40 186 600 94 106 102 255 
-38 184 594 94 106 102 255 
-37 182 589 91 103 99 255 
-36 180 582 92 104 100 255 
-34 178 577 86 98 94 255 
-33 177 571 83 92 87 255 
-32 175 565 73 82 77 255 
-31 174 561 52 57 53 255 
-30 173 560 32 37 33 255 
-29 173 558 30 32 29 255 
-28 173 558 27 29 26 255 
-27 173 558 29 29 29 255 
-26 173 558 29 29 29 255 
-25 173 558 28 28 28 255 
-24 173 558 28 28 28 255 
-23 173 558 26 28 27 255 
-23 173 558 27 29 28 255 
-22 173 558 26 28 27 255 
-21 173 558 24 26 25 255 
-20 173 559 24 26 25 255 
-19 173 559 26 28 27 255 
-18 173 560 29 31 30 255 
-17 174 561 28 30 29 255 
-16 174 561 25 29 28 255 
-15 174 561 25 29 28 255 
-15 174 561 26 30 29 255 
-14 174 562 26 30 29 255 
-13 174 562 28 30 29 255 
-12 174 562 25 27 26 255 
-11 174 562 24 26 25 255 
-10 174 563 25 27 26 255 
-9 175 564 27 29 28 255 
-8 175 564 27 29 28 255 
-7 175 564 27 29 28 255 
-6 175 564 27 29 28 255 
-6 175 565 26 28 27 255 
-5 175 565 25 27 26 255 
-4 175 565 26 28 27 255 
-3 175 566 25 27 26 255 
-2 175 567 28 30 29 255 
-1 175 567 31 33 32 255 
0 175 567 30 32 31 255 
1 175 567 29 31 30 255 
2 176 568 26 28 27 255 
3 176 568 26 28 27 255 
4 176 568 26 28 27 255 
4 176 568 27 29 28 255 
5 176 568 26 28 27 255 
6 176 568 25 27 26 255 
7 176 568 26 28 27 255 
8 176 568 28 30 29 255 
9 176 569 27 29 28 255 
10 176 570 25 27 26 255 
11 176 570 26 28 27 255 
12 176 570 28 30 29 255 
13 176 570 24 26 25 255 
14 176 570 24 26 25 255 
15 176 570 28 30 29 255 
16 176 570 22 24 23 255 
16 177 571 21 23 22 255 
17 177 572 20 22 21 255 
18 178 574 18 20 19 255 
19 178 575 6 8 7 255 
20 178 576 2 4 3 255 
21 179 577 5 7 6 255 
22 179 577 10 12 11 255 
23 179 577 9 11 10 255 
24 179 577 9 11 10 255 
25 179 577 6 8 7 255 
26 179 578 6 8 7 255 
27 179 579 6 8 7 255 
28 179 579 4 6 5 255 
29 179 579 5 7 6 255 
30 179 579 12 14 13 255 
31 179 579 22 24 23 255 
32 179 579 24 26 25 255 
33 179 579 25 27 26 255 
34 179 579 26 28 27 255 
34 179 580 26 28 27 255 
35 179 580 26 28 27 255 
36 180 581 26 28 27 255 
37 180 581 26 28 27 255 
38 180 581 27 29 28 255 
39 180 582 29 31 30 255 
40 180 582 25 27 26 255 
41 180 583 25 27 26 255 
42 180 583 26 28 27 255 
43 180 583 27 29 28 255 
44 181 584 29 31 30 255 
45 181 584 29 31 30 255 
46 181 584 31 33 32 255 
47 181 584 30 32 31 255 
48 181 584 29 31 30 255 
49 181 585 28 30 29 255 
50 181 586 28 30 29 255 
51 181 586 28 30 29 255 
52 182 587 28 30 29 255 
53 182 587 26 28 27 255 
54 182 588 24 26 25 255 
55 182 587 26 28 27 255 
56 182 587 26 28 27 255 
57 182 587 27 29 28 255 
58 182 588 28 30 29 255 
59 182 588 28 30 29 255 
60 182 589 29 31 30 255 
61 182 590 30 32 31 255 
62 182 590 29 31 30 255 
63 182 590 28 30 27 255 
64 183 591 28 30 27 255 
65 183 591 27 29 26 255 
66 183 591 26 28 25 255 
67 183 591 27 29 26 255 
67 183 591 27 29 26 255 
68 183 591 29 31 30 255 
70 183 592 29 31 30 255 
70 183 592 30 32 31 255 
72 183 593 29 31 30 255 
72 183 593 28 30 29 255 
73 183 593 27 29 28 255 
75 184 594 26 28 27 255 
75 184 594 26 28 27 255 
76 184 594 26 28 27 255 
77 184 594 26 28 27 255 
78 184 594 26 28 27 255 
79 184 594 27 29 28 255 
80 184 594 28 30 29 255 
-79 247 795 90 102 98 255 
-76 240 773 91 103 99 255 
-73 235 757 93 105 101 255 
-71 232 745 91 103 99 255 
-68 227 731 90 102 98 255 
-66 223 719 92 104 100 255 
-64 220 709 93 105 101 255 
-62 217 699 94 106 102 255 
-60 215 691 95 107 103 255 
-58 212 682 95 107 103 255 
-56 209 673 94 106 102 255 
-55 207 665 93 105 101 255 
-53 204 657 92 104 100 255 
-51 202 649 92 104 100 255 
-50 200 643 92 104 100 255 
-48 198 636 90 102 98 255 
-47 196 629 90 101 97 255 
-45 194 623 91 102 98 255 
-44 192 617 92 104 100 255 
-42 190 612 90 102 98 255 
-41 188 606 87 102 97 255 
-40 187 601 90 105 100 255 
-38 185 594 91 103 99 255 
-37 183 590 88 100 96 255 
-36 181 583 91 103 99 255 
-35 180 578 86 98 94 255 
-33 178 572 89 98 95 255 
-32 176 566 75 84 81 255 
-31 175 562 55 60 56 255 
-30 174 560 34 39 35 255 
-29 174 559 28 30 27 255 
-28 174 558 26 28 25 255 
-27 174 558 26 26 26 255 
-26 174 558 26 26 26 255 
-25 174 558 27 27 27 255 
-24 174 558 28 28 28 255 
-23 174 558 28 30 29 255 
-23 174 558 27 29 28 255 
-22 174 558 25 27 26 255 
-21 174 558 22 24 23 255 
-20 174 559 22 24 23 255 
-19 174 560 25 27 26 255 
-18 174 561 29 31 30 255 
-17 174 561 30 32 31 255 
-16 174 561 25 29 28 255 
-15 175 562 25 29 28 255 
-15 175 562 26 30 29 255 
-14 175 562 26 30 29 255 
-13 175 562 27 29 28 255 
-12 175 563 23 25 24 255 
-11 175 563 21 23 22 255 
-10 175 564 22 24 23 255 
-9 175 564 24 26 25 255 
-8 175 564 27 29 28 255 
-7 176 565 27 29 28 255 
-6 176 565 26 28 27 255 
-6 176 565 26 28 27 255 
-5 176 566 26 28 27 255 
-4 176 566 27 29 28 255 
-3 176 566 26 28 27 255 
-2 176 567 27 29 28 255 
-1 176 567 29 31 30 255 
0 176 567 29 31 30 255 
1 177 568 31 33 32 255 
2 177 568 29 31 30 255 
3 177 568 30 32 31 255 
4 177 568 30 32 31 255 
5 177 569 28 30 29 255 
5 177 569 26 28 27 255 
6 177 569 25 27 26 255 
7 177 570 25 27 26 255 
8 177 570 27 29 28 255 
9 177 570 26 28 27 255 
10 178 571 25 27 26 255 
11 178 571 26 28 27 255 
12 178 571 27 29 28 255 
13 178 571 24 26 25 255 
14 178 571 24 26 25 255 
15 178 571 26 28 27 255 
16 178 571 25 27 26 255 
16 178 571 27 29 28 255 
17 178 572 27 29 28 255 
18 179 574 26 28 27 255 
19 179 575 11 13 12 255 
20 179 575 5 7 6 255 
21 179 576 10 12 11 255 
22 179 576 20 22 21 255 
23 179 576 20 22 21 255 
24 179 577 15 17 16 255 
25 179 577 8 10 9 255 
26 180 578 7 9 8 255 
27 180 579 7 9 8 255 
28 180 580 9 11 10 255 
29 180 580 13 15 14 255 
30 180 580 20 22 21 255 
31 180 580 26 28 27 255 
32 180 580 23 25 24 255 
33 180 580 26 28 27 255 
34 180 580 26 28 27 255 
34 180 580 26 28 27 255 
35 181 581 26 28 27 255 
36 181 581 26 28 27 255 
37 181 582 25 27 26 255 
38 181 582 27 29 28 255 
39 181 582 29 31 30 255 
40 181 583 23 25 24 255 
41 181 583 22 24 23 255 
42 181 583 25 27 26 255 
43 182 584 29 31 30 255 
44 182 584 30 32 31 255 
45 182 584 29 31 30 255 
46 182 584 31 33 32 255 
47 182 585 29 31 30 255 
48 182 585 30 32 31 255 
49 182 585 30 32 31 255 
50 182 586 29 31 30 255 
51 182 587 28 30 29 255 
52 182 587 28 30 29 255 
53 182 587 28 30 29 255 
54 183 588 27 29 28 255 
55 183 588 25 27 26 255 
56 183 588 25 27 26 255 
57 183 588 27 29 28 255 
58 183 588 29 31 30 255 
59 183 589 29 31 30 255 
60 183 589 29 31 30 255 
61 183 590 30 32 31 255 
62 184 591 28 30 29 255 
63 184 591 29 31 28 255 
64 184 591 29 31 28 255 
65 184 592 27 29 26 255 
66 184 592 27 29 26 255 
67 184 592 28 30 27 255 
68 184 592 28 30 27 255 
69 184 592 28 30 27 255 
70 184 593 28 30 27 255 
71 184 593 27 29 28 255 
72 184 593 26 28 27 255 
73 185 594 27 29 28 255 
74 185 594 27 29 28 255 
75 185 594 25 27 26 255 
76 185 595 26 28 27 255 
77 185 595 28 30 29 255 
77 185 595 28 30 29 255 
78 185 595 29 31 30 255 
79 185 595 28 30 29 255 
80 185 594 26 28 27 255 
-80 251 802 88 100 96 255 
-76 242 775 91 103 99 255 
-74 237 760 92 104 100 255 
-71 233 747 91 103 99 255 
-69 229 734 90 102 98 255 
-66 226 722 91 103 99 255 
-64 222 712 92 104 100 255 
-62 219 702 91 103 99 255 
-60 217 694 93 105 101 255 
-59 214 685 92 104 100 255 
-57 211 676 92 104 100 255 
-55 209 668 93 105 101 255 
-53 206 659 94 106 102 255 
-52 204 652 93 105 101 255 
-50 202 645 92 104 100 255 
-48 199 638 89 101 97 255 
-47 197 631 91 103 99 255 
-45 195 625 92 104 100 255 
-44 193 618 89 104 99 255 
-43 192 613 88 103 98 255 
-41 190 607 88 103 98 255 
-40 188 602 86 101 96 255 
-38 186 595 83 98 93 255 
-37 184 590 81 96 91 255 
-36 183 584 90 102 98 255 
-35 181 579 87 99 95 255 
-33 179 574 90 99 96 255 
-32 177 566 77 86 83 255 
-31 176 563 57 61 60 255 
-30 175 560 30 34 33 255 
-29 175 559 27 27 25 255 
-28 174 558 25 25 23 255 
-27 174 558 26 26 26 255 
-26 174 558 24 24 24 255 
-25 174 558 25 25 25 255 
-24 175 559 27 27 27 255 
-24 175 559 27 29 28 255 
-23 175 559 27 29 28 255 
-22 175 559 26 28 27 255 
-21 175 559 24 26 25 255 
-20 175 559 23 25 24 255 
-19 175 560 26 28 27 255 
-18 175 561 29 31 30 255 
-17 176 562 30 32 31 255 
-16 176 562 26 30 29 255 
-15 176 562 26 30 29 255 
-15 176 563 26 30 29 255 
-14 176 563 26 30 29 255 
-13 176 563 27 29 28 255 
-12 176 563 23 25 24 255 
-11 176 564 20 22 21 255 
-10 177 565 21 23 22 255 
-9 177 565 24 26 25 255 
-8 177 565 27 29 28 255 
-7 177 565 28 30 29 255 
-6 177 566 27 29 28 255 
-6 177 566 27 29 28 255 
-5 177 566 27 29 28 255 
-4 177 567 28 30 29 255 
-3 177 567 28 30 29 255 
-2 177 567 26 28 27 255 
-1 178 568 25 27 26 255 
0 178 568 24 26 25 255 
1 178 568 26 28 27 255 
2 178 568 27 29 28 255 
3 178 569 29 31 30 255 
4 178 569 29 31 30 255 
5 178 569 27 29 28 255 
5 178 570 26 28 27 255 
6 178 570 24 26 25 255 
7 178 570 24 26 25 255 
8 179 571 25 27 26 255 
9 179 571 26 28 27 255 
10 179 572 26 28 27 255 
11 179 572 27 29 28 255 
12 179 572 27 29 28 255 
13 179 572 28 30 29 255 
14 179 572 26 28 27 255 
15 179 572 24 26 25 255 
16 179 572 28 30 29 255 
17 179 572 25 27 26 255 
17 179 573 24 26 25 255 
18 179 574 24 26 25 255 
19 180 575 11 13 12 255 
20 180 575 4 6 5 255 
21 180 576 6 8 7 255 
22 180 576 13 15 14 255 
23 180 576 11 13 12 255 
24 180 577 10 12 11 255 
25 181 578 5 7 6 255 
26 181 578 5 7 6 255 
27 181 579 9 11 10 255 
28 181 580 14 14 14 255 
29 181 580 20 20 20 255 
30 181 580 23 23 23 255 
31 181 580 26 26 26 255 
32 181 580 25 27 26 255 
33 181 580 26 28 27 255 
34 181 580 26 28 27 255 
35 182 581 25 27 26 255 
36 182 582 26 28 27 255 
36 182 582 26 28 27 255 
37 182 582 26 28 27 255 
38 182 583 26 28 27 255 
39 182 583 27 29 28 255 
40 182 583 24 26 25 255 
41 183 584 24 26 25 255 
42 183 584 25 27 26 255 
43 183 585 28 30 29 255 
44 183 585 29 31 30 255 
45 183 585 27 29 28 255 
46 183 585 28 30 29 255 
47 183 586 27 29 28 255 
48 183 586 29 31 30 255 
49 183 586 30 32 31 255 
50 183 587 29 31 30 255 
51 183 587 28 30 29 255 
52 184 588 29 31 30 255 
53 184 588 29 31 30 255 
54 184 588 29 31 30 255 
55 184 589 25 27 26 255 
56 184 589 25 27 26 255 
57 184 589 28 30 29 255 
58 184 589 30 32 31 255 
59 184 590 29 31 30 255 
60 184 590 29 31 30 255 
61 185 591 28 30 29 255 
62 185 591 27 29 28 255 
63 185 592 28 30 27 255 
64 185 592 28 30 27 255 
65 185 592 28 30 27 255 
66 185 592 29 31 28 255 
67 185 592 28 30 27 255 
68 185 593 28 30 27 255 
69 185 593 28 30 27 255 
70 185 593 26 28 25 255 
71 185 593 22 24 23 255 
72 186 594 23 25 24 255 
73 185 594 25 27 26 255 
74 186 595 26 28 27 255 
75 186 595 25 27 26 255 
76 186 596 27 29 28 255 
77 186 596 30 32 31 255 
78 186 596 31 33 32 255 
79 186 596 29 31 30 255 
80 186 596 27 29 28 255 
80 185 594 22 24 23 255 
-77 245 779 93 105 101 255 
-74 240 763 93 105 101 255 
-71 235 749 93 105 101 255 
-69 231 737 93 105 101 255 
-67 228 725 92 104 100 255 
-65 224 715 93 105 101 255 
-63 221 705 91 103 99 255 
-61 219 697 90 102 98 255 
-59 216 688 89 101 97 255 
-57 213 678 90 102 98 255 
-55 210 669 93 105 101 255 
-53 208 661 94 106 102 255 
-52 205 653 94 106 102 255 
-50 203 646 92 104 100 255 
-48 201 639 90 102 98 255 
-47 199 633 92 104 100 255 
-45 197 626 93 105 101 255 
-44 195 620 88 105 99 255 
-43 193 614 89 106 100 255 
-41 191 609 90 107 101 255 
-40 189 603 85 102 96 255 
-39 188 597 85 100 95 255 
-37 185 590 85 100 95 255 
-36 184 585 89 101 97 255 
-35 182 579 90 102 98 255 
-33 181 575 89 100 96 255 
-32 178 567 78 89 85 255 
-31 177 563 58 64 62 255 
-30 176 561 26 32 30 255 
-29 176 560 25 27 26 255 
-28 176 559 25 27 26 255 
-27 176 559 28 28 28 255 
-26 176 559 25 25 25 255 
-25 176 560 25 25 25 255 
-24 176 560 27 27 27 255 
-24 176 560 26 28 27 255 
-23 176 560 27 29 28 255 
-22 176 560 28 30 29 255 
-21 176 560 27 29 28 255 
-20 176 560 26 28 27 255 
-19 176 560 27 29 28 255 
-18 176 561 28 30 29 255 
-17 177 562 30 32 31 255 
-16 177 562 29 33 32 255 
-16 177 563 28 32 31 255 
-15 177 563 25 29 28 255 
-14 177 564 23 27 26 255 
-13 177 564 27 29 28 255 
-12 177 564 25 27 26 255 
-11 178 565 23 25 24 255 
-10 178 565 23 25 24 255 
-9 178 566 26 28 27 255 
-8 178 566 28 30 29 255 
-7 178 566 28 30 29 255 
-6 178 566 28 30 29 255 
-6 178 566 26 28 27 255 
-5 178 567 25 27 26 255 
-4 178 567 28 30 29 255 
-3 178 568 30 32 31 255 
-2 178 568 30 32 31 255 
-1 178 568 27 29 28 255 
0 178 568 24 26 25 255 
1 178 568 25 27 26 255 
2 178 568 25 27 26 255 
3 179 569 28 30 29 255 
4 179 569 30 32 31 255 
5 179 569 30 32 31 255 
5 179 569 30 32 31 255 
6 179 570 29 31 30 255 
7 179 570 26 28 27 255 
8 179 571 25 27 26 255 
9 179 571 27 29 28 255 
10 180 572 26 28 27 255 
11 180 572 26 28 27 255 
12 180 572 27 29 28 255 
13 180 572 31 33 32 255 
14 180 573 29 31 30 255 
15 180 573 25 27 26 255 
16 180 573 30 32 31 255 
17 180 573 27 29 28 255 
17 180 573 22 24 23 255 
18 181 575 21 23 22 255 
19 181 576 12 14 13 255 
20 181 576 6 8 7 255 
21 181 576 5 7 6 255 
22 181 577 8 8 8 255 
23 182 578 5 5 5 255 
24 182 578 7 7 7 255 
25 182 578 7 7 7 255 
26 182 579 13 13 13 255 
27 182 580 19 19 19 255 
28 182 580 25 25 25 255 
29 182 580 28 28 28 255 
30 182 580 27 27 27 255 
31 183 581 27 27 27 255 
32 183 581 26 28 27 255 
33 183 581 26 28 27 255 
34 183 581 25 27 26 255 
35 183 582 25 27 26 255 
36 183 582 26 28 27 255 
37 183 583 27 29 28 255 
38 183 584 26 28 27 255 
38 183 583 26 28 27 255 
39 183 584 25 27 26 255 
40 183 584 27 29 28 255 
41 184 585 27 29 28 255 
42 184 585 25 27 26 255 
43 184 585 26 28 27 255 
44 184 586 27 29 28 255 
45 184 586 25 27 26 255 
46 184 586 26 28 27 255 
47 184 586 26 28 27 255 
48 184 587 27 29 28 255 
49 184 587 27 29 28 255 
50 184 587 25 27 26 255 
51 185 588 26 28 27 255 
52 185 589 28 30 29 255 
53 185 589 29 31 30 255 
54 185 589 28 30 29 255 
55 185 589 27 29 28 255 
56 185 590 27 29 28 255 
57 185 590 28 30 29 255 
58 185 590 29 31 30 255 
59 186 591 29 31 30 255 
60 186 591 27 29 28 255 
61 186 592 27 29 28 255 
62 186 592 28 30 29 255 
63 186 593 27 29 26 255 
64 186 593 27 29 26 255 
65 186 593 28 30 27 255 
66 186 593 29 31 28 255 
67 186 593 27 29 26 255 
68 186 593 26 28 25 255 
69 186 594 28 30 27 255 
70 186 594 26 28 25 255 
71 186 594 25 27 26 255 
72 186 594 26 28 27 255 
73 187 595 27 29 28 255 
74 187 596 26 28 27 255 
75 187 596 25 27 26 255 
76 187 596 27 29 28 255 
77 187 597 30 32 31 255 
78 187 597 33 35 34 255 
79 187 597 32 34 33 255 
80 187 596 31 33 32 255 
80 187 595 24 26 25 255 
-77 248 785 90 102 98 255 
-74 242 766 94 106 102 255 
-72 237 752 94 106 102 255 
-69 234 740 95 107 103 255 
-67 230 729 95 107 103 255 
-65 227 718 92 104 100 255 
-63 223 708 89 101 97 255 
-61 221 700 89 101 97 255 
-59 218 690 87 99 95 255 
-57 215 681 90 102 98 255 
-55 212 671 93 105 101 255 
-53 209 662 93 105 101 255 
-52 206 654 92 104 100 255 
-50 204 647 91 103 99 255 
-49 202 640 90 102 98 255 
-47 200 633 89 104 99 255 
-46 198 627 89 104 99 255 
-44 196 620 93 104 100 255 
-43 194 615 93 104 100 255 
-41 193 610 93 104 100 255 
-40 191 604 92 103 99 255 
-39 189 598 87 102 97 255 
-37 187 591 85 100 95 255 
-36 185 585 88 105 99 255 
-35 183 580 87 104 98 255 
-33 182 575 85 100 95 255 
-32 180 569 79 94 89 255 
-31 178 564 62 68 66 255 
-30 177 562 24 30 28 255 
-29 177 561 25 27 26 255 
-28 177 560 27 29 28 255 
-27 176 559 27 27 27 255 
-26 176 559 28 28 28 255 
-25 177 560 28 28 28 255 
-24 177 560 28 28 28 255 
-24 177 560 28 28 28 255 
-23 177 560 26 26 26 255 
-22 177 560 25 27 26 255 
-21 177 560 26 28 27 255 
-20 177 560 26 28 27 255 
-19 177 561 31 33 32 255 
-18 177 561 31 33 32 255 
-17 177 562 30 32 31 255 
-16 178 563 30 32 31 255 
-16 178 563 29 31 30 255 
-15 178 563 28 30 29 255 
-14 178 564 27 29 28 255 
-13 178 564 28 30 29 255 
-12 178 565 27 29 28 255 
-11 178 565 28 30 29 255 
-10 178 565 26 28 27 255 
-9 179 566 27 29 28 255 
-8 179 566 31 33 32 255 
-7 179 566 31 33 32 255 
-6 179 567 29 31 30 255 
-6 179 567 30 32 31 255 
-5 179 567 26 28 27 255 
-4 179 568 23 25 24 255 
-3 179 568 26 28 27 255 
-2 180 569 30 32 31 255 
-1 179 568 26 28 27 255 
0 180 569 22 24 23 255 
1 180 569 24 26 25 255 
2 180 569 27 29 28 255 
3 180 570 26 28 27 255 
4 180 570 27 29 28 255 
5 180 570 30 32 31 255 
5 180 570 30 32 31 255 
6 180 571 30 32 31 255 
7 180 571 28 30 29 255 
8 181 572 27 29 28 255 
9 181 572 24 26 25 255 
10 181 572 28 30 29 255 
11 181 573 23 27 26 255 
12 181 573 20 24 23 255 
13 181 573 23 27 26 255 
14 181 574 25 29 28 255 
15 181 574 25 29 28 255 
16 181 574 26 30 29 255 
17 182 575 23 25 24 255 
18 182 575 21 23 22 255 
18 182 576 18 20 19 255 
19 182 577 11 13 12 255 
20 182 577 5 7 6 255 
21 182 577 4 6 5 255 
22 182 577 6 8 7 255 
23 183 578 9 11 10 255 
24 183 579 10 12 11 255 
25 183 579 15 17 16 255 
26 183 579 19 23 22 255 
27 183 580 27 31 30 255 
28 183 581 26 30 29 255 
29 183 581 26 30 29 255 
30 183 581 25 29 28 255 
31 183 581 26 30 29 255 
32 183 581 28 30 29 255 
33 183 581 26 28 27 255 
34 183 581 25 27 26 255 
35 184 582 24 26 25 255 
36 184 583 25 27 26 255 
37 184 583 27 29 28 255 
38 184 584 27 29 28 255 
38 184 584 26 28 27 255 
39 185 585 25 27 26 255 
40 185 585 25 27 26 255 
41 185 585 24 26 25 255 
42 185 585 27 29 28 255 
43 185 586 26 28 27 255 
44 185 586 26 28 27 255 
45 185 586 28 30 29 255 
46 185 587 26 28 27 255 
47 185 587 27 29 28 255 
48 185 587 25 27 26 255 
49 186 588 24 26 25 255 
50 186 588 25 27 26 255 
51 186 589 26 28 27 255 
52 186 589 29 31 30 255 
53 186 590 29 31 30 255 
54 186 590 26 28 27 255 
55 186 590 26 28 27 255 
56 186 590 27 29 28 255 
57 187 591 27 29 28 255 
58 187 591 27 29 28 255 
59 187 591 28 30 29 255 
60 187 592 30 32 31 255 
61 187 593 29 31 30 255 
62 187 593 28 30 29 255 
63 187 593 26 28 25 255 
64 187 594 27 29 26 255 
65 187 594 27 29 26 255 
66 187 594 29 31 28 255 
67 187 594 29 31 30 255 
68 187 594 27 29 28 255 
69 187 594 30 32 31 255 
70 187 594 30 32 31 255 
71 188 595 28 30 29 255 
72 188 595 26 28 27 255 
73 188 596 26 28 27 255 
74 188 596 25 27 26 255 
75 188 596 24 26 25 255 
76 188 597 25 27 26 255 
77 188 597 27 29 28 255 
78 188 597 28 30 29 255 
79 188 596 27 28 30 255 
80 188 596 30 31 33 255 
80 188 595 25 26 28 255 
81 187 594 17 18 20 255 
-78 252 794 91 103 99 255 
-74 244 769 92 104 100 255 
-72 239 755 92 104 100 255 
-69 235 742 94 106 102 255 
-67 232 731 96 108 104 255 
-65 229 721 93 105 101 255 
-63 225 710 90 102 98 255 
-61 222 701 89 101 97 255 
-59 219 691 88 100 96 255 
-57 216 682 89 101 97 255 
-55 213 672 90 102 98 255 
-53 210 663 91 103 99 255 
-52 208 655 91 103 99 255 
-50 206 648 92 104 100 255 
-49 203 641 92 104 100 255 
-47 201 634 89 106 100 255 
-46 199 628 88 105 99 255 
-44 197 622 90 102 98 255 
-43 195 616 91 103 99 255 
-41 194 611 93 104 100 255 
-40 192 605 94 105 101 255 
-39 190 599 90 105 100 255 
-37 188 593 86 101 96 255 
-36 186 587 88 105 99 255 
-35 184 581 88 105 99 255 
-33 183 576 90 102 98 255 
-32 181 570 82 94 90 255 
-31 179 565 65 71 69 255 
-30 178 562 25 31 29 255 
-29 178 561 26 28 27 255 
-28 178 560 26 28 27 255 
-27 178 560 28 28 28 255 
-26 178 560 28 28 28 255 
-25 178 561 29 29 29 255 
-24 178 561 30 30 30 255 
-24 178 561 29 29 29 255 
-23 178 561 27 27 27 255 
-22 178 561 25 27 26 255 
-21 178 561 25 27 26 255 
-20 178 561 28 30 29 255 
-19 178 562 31 33 32 255 
-18 178 562 30 32 31 255 
-17 179 563 29 31 30 255 
-16 179 563 29 31 30 255 
-16 179 564 29 31 30 255 
-15 179 564 31 33 32 255 
-14 179 565 31 33 32 255 
-13 179 565 27 29 28 255 
-12 179 565 27 29 28 255 
-11 180 566 29 31 30 255 
-10 180 566 27 29 28 255 
-9 180 566 28 30 29 255 
-8 180 567 30 32 31 255 
-7 180 567 29 31 30 255 
-6 180 568 27 29 28 255 
-6 180 568 29 31 30 255 
-5 180 568 27 29 28 255 
-4 180 568 25 27 26 255 
-3 181 569 26 28 27 255 
-2 181 569 29 31 30 255 
-1 181 570 29 31 30 255 
0 181 569 27 29 28 255 
1 181 570 26 28 27 255 
2 181 570 24 28 27 255 
3 181 570 23 27 26 255 
4 181 570 23 27 26 255 
5 181 570 25 29 28 255 
5 181 571 28 32 31 255 
6 181 571 28 32 31 255 
7 182 572 27 31 30 255 
8 182 572 26 30 29 255 
9 182 573 27 29 28 255 
10 182 573 28 30 29 255 
11 182 573 26 28 27 255 
12 182 574 24 26 25 255 
13 182 574 25 27 26 255 
14 182 574 24 26 25 255 
15 182 575 25 27 26 255 
16 182 575 28 30 29 255 
17 183 576 22 24 23 255 
18 183 576 17 19 18 255 
19 183 577 13 15 14 255 
19 183 577 8 10 9 255 
20 183 578 5 7 6 255 
21 183 577 8 10 9 255 
22 183 578 13 15 14 255 
23 183 578 16 18 17 255 
24 184 579 19 21 20 255 
25 184 579 21 23 22 255 
26 184 580 25 27 26 255 
27 184 581 30 32 31 255 
28 184 581 26 30 29 255 
29 184 581 25 29 28 255 
30 184 581 23 27 26 255 
31 184 581 25 29 28 255 
32 184 581 25 27 26 255 
33 185 582 24 26 25 255 
34 185 582 24 26 25 255 
35 185 583 25 27 26 255 
36 185 583 26 28 27 255 
37 185 584 26 28 27 255 
38 186 585 26 28 27 255 
39 186 585 24 26 25 255 
39 186 585 25 27 26 255 
41 186 586 25 27 26 255 
41 186 586 26 28 27 255 
42 186 586 27 29 28 255 
43 186 586 26 28 27 255 
44 186 587 25 27 26 255 
45 186 587 27 29 28 255 
46 186 587 27 29 28 255 
47 187 588 28 30 29 255 
48 187 588 26 28 27 255 
49 187 589 24 26 25 255 
50 187 589 25 27 26 255 
51 187 590 28 30 29 255 
52 187 590 30 32 31 255 
53 187 590 29 31 30 255 
54 187 591 26 28 27 255 
55 187 591 26 28 27 255 
56 187 591 27 29 28 255 
57 187 591 28 30 29 255 
58 187 591 28 30 29 255 
59 188 592 27 29 28 255 
60 188 593 28 30 29 255 
61 188 593 28 30 29 255 
62 188 593 28 30 29 255 
63 188 594 26 28 25 255 
64 188 594 26 28 25 255 
65 188 594 26 28 25 255 
66 188 594 27 29 26 255 
67 188 594 27 29 26 255 
68 188 594 27 29 26 255 
69 188 594 28 30 29 255 
70 189 595 29 31 30 255 
71 189 596 27 29 28 255 
72 189 596 26 28 27 255 
73 189 596 25 27 26 255 
74 189 597 24 26 25 255 
75 189 597 25 27 26 255 
76 189 597 26 28 27 255 
77 190 598 26 28 27 255 
78 189 597 27 29 28 255 
79 189 597 29 30 32 255 
80 189 596 27 28 30 255 
80 189 595 20 21 23 255 
-79 256 803 89 101 97 255 
-75 247 774 90 102 98 255 
-72 242 758 90 102 98 255 
-70 237 745 92 104 100 255 
-67 234 733 94 106 102 255 
-65 230 723 93 105 101 255 
-63 227 713 90 102 98 255 
-61 224 703 90 102 98 255 
-59 221 692 90 102 98 255 
-57 218 683 89 101 97 255 
-55 215 673 88 100 96 255 
-54 212 664 88 100 96 255 
-52 209 656 90 102 98 255 
-50 207 649 91 103 99 255 
-49 205 642 92 104 100 255 
-47 202 635 90 107 101 255 
-46 201 629 88 105 99 255 
-44 199 623 90 102 98 255 
-43 197 617 90 102 98 255 
-41 195 612 91 103 99 255 
-40 193 606 94 106 102 255 
-39 191 600 92 107 102 255 
-37 189 594 89 104 99 255 
-36 187 588 87 104 98 255 
-35 186 582 88 105 99 255 
-34 184 577 90 105 100 255 
-32 182 571 83 98 93 255 
-31 180 566 72 78 76 255 
-30 180 563 30 36 34 255 
-29 179 562 30 30 30 255 
-28 179 561 27 27 27 255 
-27 179 561 28 28 28 255 
-26 179 561 27 27 27 255 
-25 179 562 28 28 28 255 
-25 179 562 29 29 29 255 
-24 179 562 28 28 28 255 
-23 179 562 27 27 27 255 
-22 179 562 25 27 26 255 
-21 179 562 23 25 24 255 
-20 179 562 26 28 27 255 
-19 180 563 27 29 28 255 
-18 180 563 28 30 29 255 
-17 180 564 29 31 30 255 
-16 180 564 28 30 29 255 
-16 180 564 28 30 29 255 
-15 180 565 30 32 31 255 
-14 180 565 30 32 31 255 
-13 180 565 28 30 29 255 
-12 181 566 27 29 28 255 
-11 181 566 28 30 29 255 
-10 181 566 27 29 28 255 
-9 181 567 28 30 29 255 
-8 181 567 29 31 30 255 
-7 181 568 27 29 28 255 
-6 181 568 25 27 26 255 
-6 181 568 25 27 26 255 
-5 181 569 27 29 28 255 
-4 181 569 28 30 29 255 
-3 181 569 27 29 28 255 
-2 182 570 27 29 28 255 
-1 182 570 29 31 30 255 
0 182 570 28 30 29 255 
1 182 570 24 26 25 255 
2 182 570 25 29 28 255 
3 182 571 22 26 25 255 
4 182 571 20 24 23 255 
5 182 570 22 26 25 255 
5 182 571 25 29 28 255 
6 182 572 26 30 29 255 
7 182 572 25 29 28 255 
8 182 572 26 30 29 255 
9 183 573 26 28 27 255 
10 183 574 24 26 25 255 
11 183 574 24 26 25 255 
12 183 574 26 28 27 255 
13 183 575 25 27 26 255 
14 183 575 21 23 22 255 
15 184 576 22 24 23 255 
16 184 576 25 27 26 255 
17 184 577 11 13 12 255 
18 184 577 5 7 6 255 
19 184 577 5 7 6 255 
19 184 578 5 7 6 255 
20 184 578 7 9 8 255 
21 184 577 14 16 15 255 
22 184 578 19 21 20 255 
23 184 578 20 22 21 255 
24 185 579 23 25 24 255 
25 185 580 21 23 22 255 
26 185 580 26 28 27 255 
27 185 581 31 33 32 255 
28 186 582 29 31 30 255 
29 186 582 28 30 29 255 
30 186 582 22 26 25 255 
31 186 582 25 29 28 255 
32 186 582 26 28 27 255 
33 186 583 24 26 25 255 
34 186 583 24 26 25 255 
35 186 583 24 26 25 255 
36 186 584 25 27 26 255 
37 187 585 26 28 27 255 
38 187 585 26 28 27 255 
39 187 586 26 28 27 255 
40 187 586 25 27 26 255 
40 187 586 23 25 24 255 
41 187 586 24 26 25 255 
42 187 586 24 26 25 255 
43 187 586 24 26 25 255 
44 187 587 25 27 26 255 
45 187 587 27 29 28 255 
46 187 588 29 31 30 255 
47 187 588 30 32 31 255 
48 187 588 27 29 28 255 
49 188 589 25 27 26 255 
50 188 590 25 27 26 255 
51 188 590 28 30 29 255 
52 188 590 30 32 31 255 
53 188 591 29 31 30 255 
54 188 591 28 30 29 255 
55 189 592 27 29 28 255 
56 189 592 28 30 29 255 
57 189 593 29 31 30 255 
58 189 593 28 30 29 255 
59 189 593 27 29 28 255 
60 189 593 27 29 28 255 
61 189 594 27 29 28 255 
62 189 594 27 29 28 255 
63 189 594 24 26 23 255 
64 189 594 24 26 23 255 
65 189 594 26 28 25 255 
66 189 594 27 29 26 255 
67 190 595 28 30 27 255 
68 190 595 29 31 28 255 
69 190 595 28 30 29 255 
70 190 595 28 30 29 255 
71 190 596 25 27 26 255 
72 190 597 26 28 27 255 
73 190 597 24 26 25 255 
74 190 597 24 26 25 255 
75 191 598 25 26 28 255 
76 191 598 26 27 29 255 
77 191 598 26 27 29 255 
78 191 598 27 28 30 255 
79 190 597 28 29 31 255 
80 190 597 23 24 26 255 
80 190 595 15 16 18 255 
-80 260 811 87 99 95 255 
-76 251 785 89 101 97 255 
-73 244 763 89 101 97 255 
-70 240 748 91 103 99 255 
-68 236 736 93 105 101 255 
-65 232 725 93 105 101 255 
-63 229 714 92 104 100 255 
-61 226 704 92 104 100 255 
-59 222 694 93 105 101 255 
-57 219 683 92 104 100 255 
-55 216 673 89 101 97 255 
-54 213 664 89 101 97 255 
-52 210 657 90 102 98 255 
-50 208 650 91 103 99 255 
-49 206 644 91 103 99 255 
-47 204 637 90 107 101 255 
-46 202 630 89 106 100 255 
-44 200 624 89 104 99 255 
-43 198 619 88 103 98 255 
-42 196 613 90 102 98 255 
-40 195 608 92 104 100 255 
-39 193 602 91 106 101 255 
-38 191 597 90 105 100 255 
-36 189 590 88 105 99 255 
-35 187 584 87 104 98 255 
-34 186 579 89 104 99 255 
-32 183 572 85 100 95 255 
-31 182 567 80 86 84 255 
-30 181 564 36 42 40 255 
-29 180 562 31 31 31 255 
-28 180 562 29 29 29 255 
-27 180 561 29 29 29 255 
-26 180 561 28 28 28 255 
-25 180 562 28 28 28 255 
-25 180 562 28 28 28 255 
-24 180 562 28 28 28 255 
-23 180 563 27 27 27 255 
-22 180 563 25 27 26 255 
-21 180 563 24 26 25 255 
-20 180 563 22 24 23 255 
-19 180 563 25 27 26 255 
-18 181 564 27 29 28 255 
-17 181 565 30 32 31 255 
-16 181 565 30 32 31 255 
-16 181 565 28 30 29 255 
-15 181 565 28 30 29 255 
-14 181 566 28 30 29 255 
-13 181 566 27 29 28 255 
-12 181 566 26 28 27 255 
-11 181 566 26 28 27 255 
-10 182 567 26 28 27 255 
-9 182 568 27 29 28 255 
-8 182 568 28 30 29 255 
-7 182 568 26 28 27 255 
-6 182 569 24 26 25 255 
-6 182 569 26 28 27 255 
-5 182 569 30 32 31 255 
-4 183 570 31 33 32 255 
-3 183 570 29 31 30 255 
-2 183 571 26 28 27 255 
-1 183 570 27 29 28 255 
0 183 570 26 28 27 255 
1 183 571 24 26 25 255 
2 183 571 23 27 26 255 
3 183 571 22 26 25 255 
4 183 571 21 25 24 255 
5 183 571 22 26 25 255 
5 183 572 23 27 26 255 
6 183 572 22 26 25 255 
7 183 572 22 26 25 255 
8 183 572 24 28 27 255 
9 184 573 26 28 27 255 
10 184 574 24 26 25 255 
11 184 574 25 27 26 255 
12 184 575 27 29 28 255 
13 184 575 27 29 28 255 
14 185 576 25 27 26 255 
15 185 576 25 27 26 255 
16 185 577 27 29 28 255 
17 185 578 10 12 11 255 
18 185 578 7 9 8 255 
19 185 578 11 13 12 255 
19 185 578 15 17 16 255 
20 185 578 18 20 19 255 
21 185 578 22 24 23 255 
22 185 578 21 23 22 255 
23 186 579 18 20 19 255 
24 186 580 14 16 15 255 
25 186 581 11 13 12 255 
26 186 581 19 21 20 255 
27 187 582 28 30 29 255 
28 187 582 28 30 29 255 
29 187 582 29 31 30 255 
30 187 582 24 26 25 255 
31 187 583 27 29 28 255 
32 187 583 30 32 31 255 
33 187 583 27 29 28 255 
34 187 584 25 27 26 255 
35 187 584 24 26 25 255 
36 187 585 25 27 26 255 
37 187 585 27 29 28 255 
38 188 586 29 31 30 255 
39 188 586 29 31 30 255 
40 188 586 26 28 27 255 
41 188 587 22 24 23 255 
42 188 587 22 24 23 255 
42 188 587 23 25 24 255 
43 188 587 26 28 27 255 
44 188 588 29 31 30 255 
45 188 588 29 31 30 255 
46 189 589 32 34 33 255 
47 189 589 31 33 32 255 
48 189 590 28 30 29 255 
49 189 590 26 28 27 255 
50 189 590 26 28 27 255 
51 189 591 28 30 29 255 
52 189 591 28 30 29 255 
53 190 592 28 30 29 255 
54 190 592 28 30 29 255 
55 190 592 27 29 28 255 
56 190 593 27 29 28 255 
57 190 593 28 30 29 255 
58 190 594 28 30 29 255 
59 190 594 28 30 29 255 
60 190 594 27 29 28 255 
61 190 594 26 28 27 255 
62 191 595 25 27 26 255 
63 191 595 22 24 21 255 
64 191 595 23 25 22 255 
65 191 595 27 29 26 255 
66 191 595 28 30 27 255 
67 191 595 30 32 29 255 
68 191 595 32 34 31 255 
69 191 595 29 31 30 255 
70 191 596 28 30 29 255 
71 191 597 25 27 26 255 
72 191 597 25 27 26 255 
73 191 598 25 26 28 255 
74 191 598 23 24 26 255 
75 191 598 24 25 27 255 
76 191 598 25 26 28 255 
77 192 599 26 27 29 255 
78 192 599 27 28 30 255 
79 191 598 28 29 31 255 
80 191 597 26 27 29 255 
80 190 594 19 20 22 255 
81 190 593 14 15 17 255 
-76 255 791 87 102 97 255 
-73 247 768 87 102 97 255 
-70 242 752 88 103 98 255 
-68 238 739 90 105 100 255 
-66 234 727 91 106 101 255 
-64 231 717 91 106 101 255 
-61 227 705 90 105 100 255 
-59 224 695 91 106 101 255 
-57 221 685 92 107 102 255 
-55 217 674 91 106 101 255 
-54 214 665 90 105 100 255 
-52 212 657 92 107 102 255 
-50 209 650 92 107 102 255 
-49 207 644 90 105 100 255 
-47 205 637 89 106 100 255 
-46 203 632 90 107 101 255 
-44 201 625 91 106 101 255 
-43 199 619 89 104 99 255 
-42 198 614 91 103 99 255 
-40 196 608 91 103 99 255 
-39 194 603 88 103 98 255 
-38 193 598 89 104 99 255 
-36 191 592 91 108 102 255 
-35 189 586 88 105 99 255 
-34 187 580 88 103 98 255 
-32 185 574 86 101 96 255 
-31 183 568 83 89 87 255 
-30 182 564 38 44 42 255 
-29 181 563 29 29 29 255 
-28 181 562 31 31 31 255 
-27 181 562 32 32 32 255 
-26 181 562 31 31 31 255 
-25 181 562 29 29 29 255 
-25 181 563 28 28 28 255 
-24 181 563 28 28 28 255 
-23 182 564 28 28 28 255 
-22 182 564 26 28 27 255 
-21 182 564 26 28 27 255 
-20 182 564 26 28 27 255 
-19 182 564 27 29 28 255 
-18 182 565 28 30 29 255 
-17 182 565 30 32 31 255 
-16 182 566 29 31 30 255 
-16 182 566 27 29 28 255 
-15 182 566 28 30 29 255 
-14 182 566 28 30 29 255 
-13 183 567 27 29 28 255 
-12 183 567 26 28 27 255 
-11 183 567 26 28 27 255 
-10 183 567 24 26 25 255 
-9 183 568 26 28 27 255 
-8 183 568 28 30 29 255 
-7 183 569 27 29 28 255 
-6 183 569 26 28 27 255 
-6 184 570 31 33 32 255 
-5 184 570 32 34 33 255 
-4 184 571 32 34 33 255 
-3 184 571 30 32 31 255 
-2 184 571 27 29 28 255 
-1 184 571 25 27 26 255 
0 184 571 25 27 26 255 
1 184 571 26 28 27 255 
2 184 571 21 25 24 255 
3 184 572 21 25 24 255 
4 184 572 23 27 26 255 
5 184 572 26 30 29 255 
5 184 572 24 28 27 255 
6 184 572 21 25 24 255 
7 185 573 20 24 23 255 
8 185 573 22 26 25 255 
9 185 573 23 25 24 255 
10 185 574 22 24 23 255 
11 185 575 21 23 22 255 
12 185 575 21 23 22 255 
13 185 575 24 26 25 255 
14 186 576 25 27 26 255 
15 186 577 25 27 26 255 
16 186 577 23 25 24 255 
17 186 578 14 16 15 255 
18 186 578 13 15 14 255 
19 187 579 16 18 17 255 
20 187 579 18 20 19 255 
20 187 579 16 18 17 255 
21 187 580 15 17 16 255 
22 187 580 11 13 12 255 
23 187 581 6 8 7 255 
24 187 582 6 8 7 255 
25 187 582 3 5 4 255 
26 187 582 13 15 14 255 
27 187 582 25 27 26 255 
28 188 583 26 28 27 255 
29 188 583 27 29 28 255 
30 188 583 24 26 25 255 
31 188 583 28 30 29 255 
32 188 584 31 33 32 255 
33 188 584 29 31 30 255 
34 188 585 27 29 28 255 
35 188 585 27 29 28 255 
36 189 586 28 30 29 255 
37 189 586 29 31 30 255 
38 189 586 28 30 29 255 
39 189 587 28 30 29 255 
40 189 587 28 30 29 255 
41 189 588 24 26 25 255 
42 189 588 25 27 26 255 
43 189 588 27 29 28 255 
43 189 588 29 31 30 255 
44 190 589 30 32 31 255 
45 190 589 29 31 30 255 
46 190 590 32 34 33 255 
47 190 590 30 32 31 255 
48 190 590 28 30 29 255 
49 190 591 27 29 28 255 
50 190 591 28 30 29 255 
51 191 592 27 29 28 255 
52 191 592 26 28 27 255 
53 191 592 26 28 27 255 
54 191 593 26 28 27 255 
55 191 593 26 28 27 255 
56 191 593 26 28 27 255 
57 191 594 27 29 28 255 
58 191 594 28 30 29 255 
59 191 594 28 30 29 255 
60 191 594 27 29 28 255 
61 192 595 25 27 26 255 
62 192 595 24 26 25 255 
63 192 595 25 27 24 255 
64 192 595 25 27 24 255 
65 192 595 28 30 27 255 
66 192 596 28 30 27 255 
67 192 596 30 32 29 255 
68 192 596 32 34 31 255 
69 192 596 29 31 30 255 
70 192 597 28 30 29 255 
71 192 597 26 28 27 255 
72 192 598 25 27 26 255 
73 193 599 25 26 28 255 
74 193 599 23 24 26 255 
75 193 599 22 23 25 255 
76 193 599 24 25 27 255 
77 193 599 26 27 29 255 
78 192 598 26 27 29 255 
79 192 598 25 26 28 255 
80 192 597 27 28 30 255 
80 191 595 21 22 24 255 
-77 259 801 86 101 96 255 
-74 250 773 86 101 96 255 
-71 244 755 87 102 97 255 
-68 240 741 89 104 99 255 
-66 235 728 90 105 100 255 
-64 232 717 88 103 98 255 
-61 228 706 89 104 99 255 
-59 225 696 90 105 100 255 
-58 222 686 92 107 102 255 
-56 218 675 93 108 103 255 
-54 215 666 94 109 104 255 
-52 213 658 94 109 104 255 
-50 210 650 94 109 104 255 
-49 208 643 93 108 103 255 
-47 206 637 90 107 101 255 
-46 204 632 90 107 101 255 
-44 203 626 89 104 99 255 
-43 201 620 88 103 98 255 
-42 199 615 91 103 99 255 
-40 197 609 90 102 98 255 
-39 195 603 87 102 97 255 
-38 194 598 88 103 98 255 
-36 192 592 91 108 102 255 
-35 190 587 89 106 100 255 
-34 188 581 89 104 99 255 
-32 186 575 87 102 97 255 
-31 184 569 83 92 89 255 
-30 183 566 40 49 46 255 
-29 183 564 24 24 24 255 
-28 182 563 28 28 28 255 
-27 182 562 30 30 30 255 
-26 182 562 30 30 30 255 
-25 182 563 28 28 28 255 
-25 182 563 27 27 27 255 
-24 183 564 27 27 27 255 
-23 183 564 27 27 27 255 
-22 183 564 25 27 26 255 
-21 183 565 25 27 26 255 
-20 183 565 29 31 30 255 
-19 183 565 29 31 30 255 
-18 183 566 27 29 28 255 
-17 183 566 27 29 28 255 
-17 184 567 26 28 27 255 
-16 184 567 24 26 25 255 
-15 184 567 25 27 26 255 
-14 184 567 26 28 27 255 
-13 184 567 26 28 27 255 
-12 184 567 26 28 27 255 
-11 184 567 26 28 27 255 
-10 184 568 24 26 25 255 
-9 184 568 25 27 26 255 
-8 184 569 28 30 29 255 
-7 184 569 28 30 29 255 
-7 185 570 28 30 29 255 
-6 185 571 30 32 31 255 
-5 185 571 30 32 31 255 
-4 185 571 29 31 30 255 
-3 185 571 29 31 30 255 
-2 185 572 27 29 28 255 
-1 185 572 24 26 25 255 
0 185 572 24 26 25 255 
1 185 572 25 27 26 255 
2 185 572 21 25 24 255 
3 185 573 21 25 24 255 
4 185 573 24 28 27 255 
5 185 572 27 31 30 255 
5 185 573 25 29 28 255 
6 185 573 22 26 25 255 
7 185 573 22 26 25 255 
8 186 574 23 27 26 255 
9 186 574 28 30 29 255 
10 186 575 27 29 28 255 
11 186 575 26 28 27 255 
12 186 576 25 27 26 255 
13 186 576 28 30 29 255 
14 187 577 31 33 32 255 
15 187 577 29 31 30 255 
16 187 578 24 26 25 255 
17 187 578 16 16 16 255 
18 187 579 13 13 13 255 
19 188 580 12 14 13 255 
20 188 580 10 12 11 255 
20 188 580 7 9 8 255 
21 188 581 7 9 8 255 
22 188 582 6 8 7 255 
23 188 582 4 6 5 255 
24 188 582 6 8 7 255 
25 189 583 4 6 5 255 
26 189 583 15 17 16 255 
27 189 583 28 30 29 255 
28 189 583 28 30 29 255 
29 189 583 29 31 30 255 
30 189 584 27 29 28 255 
31 189 584 30 32 31 255 
32 189 585 29 31 30 255 
33 189 585 29 31 30 255 
34 189 585 28 30 29 255 
35 190 586 29 31 30 255 
36 190 586 30 32 31 255 
37 190 586 29 31 30 255 
38 190 587 26 28 27 255 
39 190 587 25 27 26 255 
40 190 587 27 29 28 255 
41 190 588 26 28 27 255 
42 190 588 27 29 28 255 
43 190 588 27 29 28 255 
43 190 588 27 29 28 255 
44 191 589 25 27 26 255 
46 191 590 25 27 26 255 
46 191 590 30 32 31 255 
47 191 590 29 31 30 255 
48 191 591 27 29 28 255 
49 191 591 27 29 28 255 
50 192 592 26 28 27 255 
51 192 592 26 28 27 255 
52 192 593 25 27 26 255 
53 192 593 24 26 25 255 
54 192 593 24 26 25 255 
55 192 594 25 27 26 255 
56 192 595 25 27 26 255 
57 192 595 26 28 27 255 
58 192 595 27 29 28 255 
59 192 595 27 29 28 255 
60 192 595 26 28 27 255 
61 192 595 25 27 26 255 
62 193 596 24 26 25 255 
63 193 596 27 29 26 255 
64 193 596 27 29 26 255 
65 193 596 29 31 28 255 
66 193 596 29 31 28 255 
67 193 597 29 31 30 255 
68 193 597 29 31 30 255 
69 193 597 26 28 27 255 
70 193 597 25 27 26 255 
71 193 598 26 28 27 255 
72 194 599 24 26 25 255 
73 194 599 24 25 27 255 
74 194 599 23 24 26 255 
75 194 599 23 24 26 255 
76 194 599 24 25 27 255 
77 194 599 26 27 29 255 
78 194 599 26 27 29 255 
79 193 598 23 24 26 255 
80 193 597 25 26 28 255 
80 192 595 18 19 21 255 
-74 253 779 85 100 95 255 
-71 247 760 86 101 96 255 
-68 242 744 89 104 99 255 
-66 237 730 89 104 99 255 
-64 233 718 88 103 98 255 
-61 230 706 89 104 99 255 
-60 227 697 89 104 99 255 
-58 223 687 90 105 100 255 
-56 220 677 91 106 101 255 
-54 217 667 93 108 103 255 
-52 214 659 93 108 103 255 
-50 212 652 93 108 103 255 
-49 210 645 94 109 104 255 
-47 208 639 93 108 103 255 
-46 206 633 90 105 100 255 
-45 204 628 86 101 96 255 
-43 202 621 86 101 96 255 
-42 200 616 89 101 97 255 
-40 198 610 89 101 97 255 
-39 196 604 87 102 97 255 
-38 195 599 88 103 98 255 
-36 193 593 90 107 101 255 
-35 191 587 89 106 100 255 
-34 190 583 87 104 98 255 
-33 188 577 87 104 98 255 
-31 186 571 84 93 90 255 
-30 184 567 49 58 55 255 
-29 184 565 22 24 23 255 
-28 183 564 21 23 22 255 
-27 183 563 25 25 25 255 
-26 183 563 26 26 26 255 
-26 183 564 26 26 26 255 
-25 183 564 26 26 26 255 
-24 183 564 26 26 26 255 
-23 184 565 26 26 26 255 
-22 184 565 25 27 26 255 
-21 184 565 24 26 25 255 
-20 184 566 26 28 27 255 
-19 184 566 26 28 27 255 
-18 184 567 26 28 27 255 
-17 184 567 26 28 27 255 
-17 184 567 23 25 24 255 
-16 185 568 21 23 22 255 
-15 185 568 22 24 23 255 
-14 185 568 22 24 23 255 
-13 185 568 24 26 25 255 
-12 185 568 26 28 27 255 
-11 185 568 26 28 27 255 
-10 185 569 24 26 25 255 
-9 185 569 26 28 27 255 
-8 185 569 29 31 30 255 
-7 185 570 28 30 29 255 
-7 186 571 27 29 28 255 
-6 186 571 26 28 27 255 
-5 186 572 25 27 26 255 
-4 186 572 27 29 28 255 
-3 186 572 27 29 28 255 
-2 186 572 26 28 27 255 
-1 186 573 24 26 25 255 
0 186 573 24 26 25 255 
1 186 573 23 25 24 255 
2 186 573 23 27 26 255 
3 186 573 22 26 25 255 
4 186 573 23 27 26 255 
5 186 573 26 30 29 255 
5 186 573 25 29 28 255 
6 187 574 22 26 25 255 
7 187 574 23 27 26 255 
8 187 575 26 30 29 255 
9 187 575 27 29 28 255 
10 187 575 25 27 26 255 
11 187 576 26 28 27 255 
12 188 577 27 29 28 255 
13 188 577 28 30 29 255 
14 188 577 30 32 31 255 
15 188 578 28 30 29 255 
16 188 579 23 25 24 255 
17 188 579 11 11 11 255 
18 189 580 5 5 5 255 
19 189 581 5 5 5 255 
20 189 581 5 5 5 255 
21 189 581 5 5 5 255 
21 189 582 8 8 8 255 
22 189 582 9 11 10 255 
23 189 582 8 10 9 255 
24 189 582 8 10 9 255 
25 190 583 5 7 6 255 
26 190 583 13 15 14 255 
27 190 583 27 29 28 255 
28 190 583 28 30 29 255 
29 190 583 30 32 31 255 
30 190 584 30 32 31 255 
31 190 584 30 32 31 255 
32 190 585 29 31 30 255 
33 190 585 28 30 29 255 
34 191 586 26 28 27 255 
35 191 586 26 28 27 255 
36 191 587 28 30 29 255 
37 191 587 27 29 28 255 
38 191 588 25 27 26 255 
39 191 588 25 27 26 255 
40 191 588 26 28 27 255 
41 192 589 25 27 26 255 
42 192 589 24 26 25 255 
43 192 589 26 28 27 255 
44 192 589 25 27 26 255 
45 192 590 22 24 23 255 
46 192 590 23 25 24 255 
47 192 591 27 29 28 255 
47 192 591 28 30 29 255 
49 192 592 27 29 28 255 
49 192 592 26 28 27 255 
50 192 592 24 26 25 255 
51 193 593 24 26 25 255 
52 193 593 24 26 25 255 
53 193 594 24 26 25 255 
54 193 594 25 27 26 255 
55 193 595 26 28 27 255 
56 193 595 26 28 27 255 
57 193 595 26 28 27 255 
58 193 595 27 29 28 255 
59 194 596 27 29 28 255 
60 194 596 25 27 26 255 
61 194 596 25 27 26 255 
62 194 596 26 28 27 255 
63 194 596 26 28 27 255 
64 194 597 27 29 28 255 
65 194 597 27 29 28 255 
66 194 597 27 29 28 255 
67 194 597 26 28 27 255 
68 194 598 24 26 25 255 
69 194 598 24 26 25 255 
70 195 599 23 25 24 255 
71 195 599 26 28 27 255 
72 195 600 25 27 26 255 
73 195 600 24 25 27 255 
74 195 600 23 24 26 255 
75 195 600 24 25 27 255 
76 195 600 25 26 28 255 
77 195 600 27 28 30 255 
78 195 600 27 28 30 255 
79 195 599 27 28 30 255 
80 194 598 27 28 30 255 
80 193 595 19 20 22 255 
-74 255 782 86 101 96 255 
-71 250 764 88 103 98 255 
-69 244 747 91 106 101 255 
-66 239 733 93 108 103 255 
-64 235 719 92 107 102 255 
-62 231 708 89 104 99 255 
-60 228 698 89 104 99 255 
-58 225 688 88 103 98 255 
-56 221 678 89 104 99 255 
-54 219 670 91 106 101 255 
-52 216 661 90 105 100 255 
-51 214 654 90 105 100 255 
-49 211 646 93 108 103 255 
-47 209 640 93 108 103 255 
-46 207 634 87 102 97 255 
