ply
format ascii 1.0
comment VCGLIB generated
element vertex 1928
property float x
property float y
property float z
property uchar red
property uchar green
property uchar blue
property uchar alpha
element face 0
property list uchar int vertex_indices
end_header
15 -5 576 31 37 33 255 
16 -5 577 31 37 33 255 
17 -5 578 33 39 37 255 
18 -5 579 32 38 36 255 
19 -5 580 32 38 36 255 
20 -5 582 33 39 37 255 
21 -5 583 33 39 37 255 
22 -5 585 33 39 37 255 
23 -5 586 31 37 35 255 
24 -5 588 29 35 33 255 
25 -5 589 33 39 37 255 
26 -5 591 36 42 40 255 
27 -5 592 39 45 43 255 
28 -5 593 38 44 42 255 
29 -5 594 36 42 40 255 
30 -5 596 35 41 39 255 
31 -5 598 35 41 39 255 
32 -5 600 34 40 38 255 
33 -5 601 35 39 38 255 
34 -5 604 40 44 43 255 
35 -5 607 38 42 41 255 
37 -5 611 39 43 42 255 
38 -5 619 43 47 46 255 
45 -5 662 54 63 60 255 
47 -5 672 49 58 55 255 
49 -6 682 54 63 60 255 
50 -6 687 53 62 59 255 
51 -6 690 50 61 57 255 
53 -6 692 53 64 60 255 
54 -6 693 50 62 58 255 
55 -6 694 54 66 62 255 
56 -6 694 53 62 59 255 
57 -6 694 49 58 55 255 
59 -6 695 56 65 62 255 
60 -6 694 59 68 65 255 
61 -6 694 53 62 59 255 
62 -6 695 52 61 58 255 
63 -6 695 53 62 59 255 
64 -6 695 53 62 59 255 
65 -6 695 55 64 61 255 
67 -6 695 54 63 60 255 
68 -6 694 54 63 60 255 
69 -6 695 53 62 59 255 
70 -6 695 51 60 57 255 
71 -6 695 52 61 58 255 
72 -6 695 54 63 60 255 
73 -6 695 55 64 61 255 
74 -6 694 54 60 58 255 
75 -6 694 53 59 57 255 
77 -6 694 47 56 53 255 
78 -6 694 49 58 55 255 
79 -6 694 50 61 57 255 
80 -6 694 50 61 57 255 
81 -6 693 51 62 58 255 
82 -6 694 52 63 59 255 
83 -6 693 52 64 60 255 
84 -6 693 52 64 60 255 
85 -6 693 50 62 58 255 
87 -6 693 51 63 59 255 
88 -6 693 48 59 55 255 
89 -6 693 53 64 60 255 
90 -6 693 57 63 61 255 
91 -6 693 56 62 60 255 
92 -6 692 53 65 61 255 
93 -6 692 52 64 60 255 
94 -6 691 53 64 60 255 
95 -6 691 52 63 59 255 
96 -6 691 51 62 58 255 
98 -6 691 52 63 59 255 
99 -6 691 51 62 58 255 
100 -6 691 49 60 56 255 
101 -6 691 54 60 58 255 
102 -6 690 50 56 54 255 
103 -6 690 49 49 49 255 
104 -6 690 44 44 44 255 
105 -6 689 42 38 39 255 
106 -6 690 40 36 37 255 
108 -6 691 39 33 35 255 
109 -6 691 38 32 34 255 
110 -6 692 42 33 36 255 
111 -6 692 39 30 33 255 
112 -6 693 40 31 34 255 
113 -6 693 43 34 37 255 
114 -6 692 43 34 37 255 
116 -6 692 40 31 34 255 
116 -6 691 36 30 32 255 
117 -6 690 38 32 34 255 
119 -6 690 38 32 34 255 
120 -6 690 39 33 35 255 
121 -6 690 39 33 35 255 
122 -6 691 40 34 36 255 
123 -6 690 41 37 38 255 
124 -6 690 39 35 36 255 
125 -6 689 35 31 32 255 
126 -6 690 34 30 31 255 
127 -6 689 31 29 30 255 
128 -6 689 31 29 30 255 
129 -6 689 31 29 30 255 
131 -6 689 27 25 26 255 
132 -6 689 27 25 26 255 
133 -6 688 33 31 32 255 
134 -6 687 38 36 37 255 
135 -6 687 43 41 42 255 
136 -6 687 42 40 41 255 
137 -6 687 38 36 37 255 
138 -6 688 35 35 35 255 
140 -6 690 35 35 35 255 
141 -6 692 30 30 30 255 
-85 -4 622 49 59 58 255 
-84 -4 619 108 118 117 255 
-82 -4 618 128 142 143 255 
-81 -4 616 127 141 142 255 
-80 -4 615 128 142 145 255 
-79 -4 614 127 141 144 255 
-78 -4 613 120 134 137 255 
-77 -4 612 121 135 138 255 
-76 -4 612 121 135 138 255 
-74 -4 610 122 136 139 255 
-73 -4 609 124 138 141 255 
-72 -4 608 123 137 140 255 
-71 -4 607 121 135 138 255 
-70 -4 605 122 136 139 255 
-69 -4 604 123 137 140 255 
-68 -4 603 123 137 140 255 
-67 -4 601 125 139 142 255 
-66 -4 601 127 141 144 255 
-64 -4 600 127 141 144 255 
-63 -4 598 128 142 145 255 
-62 -4 597 130 144 147 255 
-61 -4 596 126 140 143 255 
-60 -4 595 120 136 136 255 
-59 -4 593 114 130 130 255 
-58 -4 593 118 134 134 255 
-57 -4 592 126 142 142 255 
-56 -4 591 127 142 145 255 
-55 -4 590 125 140 143 255 
-54 -4 589 126 141 144 255 
-53 -4 588 125 140 143 255 
-52 -4 587 121 136 139 255 
-51 -4 585 117 132 135 255 
-49 -4 584 122 137 142 255 
-49 -4 584 122 137 142 255 
-47 -4 582 120 133 139 255 
-46 -4 581 122 135 141 255 
-45 -4 580 118 131 137 255 
-44 -4 579 110 123 129 255 
-43 -4 578 107 125 129 255 
-42 -4 577 117 135 139 255 
-41 -4 576 120 134 143 255 
-40 -4 575 116 130 139 255 
-39 -4 574 32 45 54 255 
-38 -4 572 67 80 89 255 
-37 -4 571 117 134 141 255 
-36 -4 570 118 135 142 255 
-35 -4 569 106 125 131 255 
-34 -4 567 42 61 67 255 
-33 -4 566 48 65 75 255 
-32 -4 566 73 90 100 255 
-31 -4 564 23 40 50 255 
-30 -4 563 58 75 85 255 
-29 -4 562 33 50 58 255 
-28 -4 561 82 99 107 255 
-27 -4 559 110 120 129 255 
-26 -4 558 36 46 55 255 
-25 -4 557 45 59 68 255 
-25 -4 556 78 92 101 255 
-24 -4 555 41 58 66 255 
-23 -4 554 30 47 55 255 
-22 -4 552 33 50 57 255 
-21 -4 551 57 74 81 255 
-20 -4 551 102 116 125 255 
-19 -4 550 117 131 140 255 
-18 -4 549 123 137 146 255 
-17 -4 548 123 137 146 255 
-16 -4 547 124 137 143 255 
-15 -4 547 112 125 131 255 
-14 -4 547 55 65 64 255 
-13 -4 546 28 38 37 255 
-13 -4 546 32 34 31 255 
-12 -4 546 34 36 33 255 
-11 -4 547 34 36 33 255 
-10 -4 548 33 35 32 255 
-9 -4 550 36 38 35 255 
-8 -4 551 40 42 39 255 
-7 -4 552 37 39 36 255 
-6 -4 553 31 33 30 255 
-6 -4 553 36 38 35 255 
-5 -4 554 39 41 38 255 
-4 -4 555 39 41 38 255 
-3 -4 555 37 39 36 255 
-2 -4 556 36 41 37 255 
-1 -4 557 36 41 37 255 
0 -4 558 36 41 37 255 
1 -4 559 36 41 37 255 
2 -4 560 35 39 38 255 
3 -4 562 35 39 38 255 
4 -4 563 36 41 37 255 
4 -4 564 37 42 38 255 
5 -4 565 34 39 35 255 
6 -4 566 33 38 34 255 
7 -4 567 37 42 38 255 
8 -4 568 38 43 39 255 
9 -4 569 36 42 38 255 
10 -4 570 34 40 36 255 
11 -4 571 33 39 35 255 
12 -4 573 32 38 34 255 
13 -4 574 30 36 32 255 
14 -4 576 29 35 31 255 
15 -4 577 30 36 32 255 
16 -4 578 32 38 34 255 
17 -4 579 32 38 36 255 
18 -4 580 34 40 38 255 
19 -4 581 33 39 37 255 
20 -4 582 33 39 37 255 
21 -4 584 33 39 37 255 
22 -4 585 30 36 34 255 
23 -4 587 30 36 34 255 
24 -4 588 31 37 35 255 
25 -4 589 31 37 35 255 
26 -4 591 36 42 40 255 
27 -4 592 39 45 43 255 
28 -4 594 38 44 42 255 
29 -4 595 38 44 42 255 
30 -4 597 34 40 38 255 
31 -4 599 33 39 37 255 
32 -4 600 34 40 38 255 
33 -4 601 35 44 41 255 
34 -4 604 37 46 43 255 
35 -4 607 35 44 41 255 
37 -4 612 34 43 40 255 
38 -4 620 45 54 51 255 
40 -4 629 49 58 55 255 
45 -4 662 52 63 59 255 
47 -4 672 49 60 56 255 
49 -4 681 50 61 57 255 
50 -4 685 56 67 63 255 
51 -4 688 57 68 64 255 
53 -5 690 52 63 59 255 
54 -5 691 51 62 58 255 
55 -5 692 55 66 62 255 
56 -5 692 52 63 57 255 
57 -5 692 48 59 53 255 
58 -5 693 52 63 57 255 
60 -5 692 56 67 61 255 
61 -5 693 54 65 61 255 
62 -5 692 53 64 60 255 
63 -5 692 52 63 59 255 
64 -5 692 51 62 58 255 
65 -5 692 54 65 61 255 
66 -5 693 52 63 59 255 
67 -5 692 53 63 62 255 
69 -5 693 54 64 63 255 
70 -5 693 52 62 61 255 
71 -5 693 51 61 60 255 
72 -5 693 52 62 61 255 
73 -5 693 52 62 61 255 
74 -5 693 50 59 56 255 
75 -5 693 49 58 55 255 
76 -5 692 47 56 53 255 
77 -5 692 52 61 58 255 
79 -5 692 56 65 62 255 
80 -5 692 53 62 59 255 
81 -5 692 52 61 58 255 
82 -5 692 49 58 55 255 
83 -5 692 53 62 59 255 
84 -5 692 54 63 60 255 
85 -5 692 56 65 62 255 
86 -5 692 54 63 60 255 
88 -5 692 51 60 57 255 
89 -5 691 53 62 59 255 
90 -5 691 56 65 62 255 
91 -5 691 54 63 60 255 
92 -5 691 54 63 58 255 
93 -5 690 54 63 58 255 
94 -4 689 54 63 58 255 
95 -4 689 53 62 57 255 
96 -4 689 51 60 57 255 
97 -4 689 49 58 55 255 
98 -4 689 52 58 56 255 
99 -4 689 55 61 59 255 
101 -4 689 57 63 61 255 
102 -4 689 51 57 55 255 
103 -4 689 50 56 54 255 
104 -4 689 51 57 55 255 
105 -4 688 51 57 55 255 
106 -4 688 47 53 51 255 
107 -4 689 39 43 42 255 
109 -4 690 35 39 38 255 
110 -4 690 43 37 39 255 
111 -4 690 35 29 31 255 
112 -5 691 36 30 32 255 
113 -5 691 39 33 35 255 
114 -4 690 39 33 35 255 
115 -4 689 38 32 34 255 
116 -4 688 32 28 29 255 
117 -4 688 31 27 28 255 
118 -4 688 33 31 32 255 
119 -4 688 36 34 35 255 
120 -4 688 37 35 36 255 
122 -4 689 37 35 36 255 
123 -4 689 38 32 34 255 
124 -4 689 36 30 32 255 
125 -4 688 38 29 32 255 
126 -4 689 40 31 34 255 
127 -4 689 36 32 33 255 
128 -4 688 36 32 33 255 
129 -4 688 38 34 33 255 
130 -4 688 33 29 28 255 
132 -4 688 29 25 24 255 
132 -4 687 30 26 25 255 
133 -4 686 32 28 29 255 
134 -4 686 36 32 33 255 
136 -4 686 37 35 36 255 
137 -4 686 41 39 40 255 
138 -4 686 44 43 41 255 
139 -4 687 39 38 36 255 
141 -4 689 27 26 24 255 
142 -5 692 20 19 17 255 
-85 -3 624 51 60 59 255 
-84 -3 620 99 108 107 255 
-82 -3 618 124 138 139 255 
-81 -3 617 128 142 143 255 
-80 -3 616 129 143 146 255 
-79 -3 615 130 144 147 255 
-78 -3 614 120 134 137 255 
-77 -3 613 120 134 137 255 
-76 -3 612 120 134 137 255 
-75 -3 611 121 135 138 255 
-73 -3 610 123 137 140 255 
-72 -3 609 123 137 140 255 
-71 -3 607 122 136 139 255 
-70 -3 606 123 137 140 255 
-69 -3 605 126 140 143 255 
-68 -3 604 128 142 145 255 
-67 -3 602 128 142 145 255 
-66 -3 601 128 142 145 255 
-65 -3 601 125 139 142 255 
-64 -3 600 126 140 143 255 
-62 -3 598 129 143 146 255 
-61 -3 597 128 142 145 255 
-60 -3 596 122 137 140 255 
-59 -3 595 116 131 134 255 
-58 -3 593 119 134 137 255 
-57 -3 592 126 141 144 255 
-56 -3 592 127 142 145 255 
-55 -3 591 126 141 144 255 
-54 -3 590 127 142 145 255 
-53 -3 589 124 139 142 255 
-52 -3 587 119 134 137 255 
-51 -3 586 120 135 138 255 
-50 -3 585 120 135 140 255 
-49 -3 584 118 133 138 255 
-48 -3 584 115 130 135 255 
-46 -3 582 116 131 136 255 
-46 -3 582 107 122 127 255 
-45 -3 581 83 98 103 255 
-43 -3 579 95 113 117 255 
-42 -3 578 103 121 125 255 
-41 -3 577 121 136 143 255 
-40 -3 576 123 138 145 255 
-39 -3 574 110 123 131 255 
-38 -3 574 105 118 126 255 
-37 -3 573 112 127 134 255 
-36 -3 572 118 133 140 255 
-35 -3 570 107 122 129 255 
-34 -3 569 46 61 68 255 
-33 -3 568 53 67 76 255 
-32 -3 566 75 89 98 255 
-31 -3 565 23 37 48 255 
-30 -3 564 87 101 112 255 
-29 -3 563 61 75 84 255 
-28 -3 562 23 37 46 255 
-27 -3 561 111 121 131 255 
-26 -3 559 25 35 45 255 
-26 -3 558 51 64 72 255 
-25 -3 556 113 126 134 255 
-24 -3 555 101 116 123 255 
-23 -3 554 73 88 95 255 
-22 -3 553 42 57 64 255 
-21 -3 552 29 44 51 255 
-20 -3 551 32 46 55 255 
-19 -3 550 49 63 72 255 
-18 -3 550 79 92 101 255 
-17 -3 549 121 134 143 255 
-16 -3 547 116 127 131 255 
-15 -3 547 114 125 129 255 
-14 -3 547 61 70 67 255 
-13 -3 546 33 42 39 255 
-13 -3 546 35 37 36 255 
-12 -3 546 36 38 37 255 
-11 -3 548 36 38 37 255 
-10 -3 549 35 37 36 255 
-9 -3 550 37 39 38 255 
-8 -3 551 41 43 42 255 
-7 -3 552 40 42 41 255 
-6 -3 553 34 36 35 255 
-6 -3 554 31 35 34 255 
-5 -3 554 34 38 37 255 
-4 -3 555 33 37 36 255 
-3 -3 556 32 36 35 255 
-2 -3 556 34 38 37 255 
-1 -3 557 36 40 39 255 
0 -3 558 35 40 36 255 
1 -3 559 35 40 36 255 
2 -3 561 34 38 37 255 
3 -3 562 35 39 38 255 
4 -3 563 36 41 37 255 
4 -3 564 36 41 37 255 
5 -3 566 35 40 36 255 
6 -3 567 33 38 34 255 
7 -3 568 36 41 37 255 
8 -3 568 36 41 37 255 
9 -3 569 36 42 38 255 
10 -3 571 36 42 38 255 
11 -3 572 35 41 37 255 
12 -3 574 35 41 37 255 
13 -3 575 34 40 36 255 
14 -3 576 32 38 34 255 
15 -3 578 32 38 34 255 
16 -3 579 32 38 34 255 
17 -3 580 33 39 37 255 
18 -3 581 35 41 39 255 
19 -3 582 35 41 39 255 
20 -3 583 35 41 39 255 
21 -3 584 34 40 38 255 
22 -3 586 30 36 34 255 
23 -3 588 31 37 35 255 
24 -3 589 31 37 35 255 
25 -3 590 34 40 38 255 
26 -3 591 37 43 41 255 
27 -3 593 37 43 41 255 
28 -3 594 35 41 39 255 
29 -3 596 33 39 37 255 
30 -3 597 30 36 34 255 
31 -3 599 30 36 34 255 
32 -3 601 30 36 34 255 
33 -3 602 36 42 40 255 
34 -3 605 39 45 43 255 
35 -3 608 39 45 43 255 
37 -3 612 38 44 42 255 
38 -3 621 47 56 53 255 
40 -3 630 51 60 57 255 
45 -3 663 52 61 58 255 
47 -3 672 45 54 51 255 
49 -3 681 44 55 51 255 
50 -3 685 51 62 58 255 
51 -3 687 53 64 60 255 
53 -3 689 53 64 60 255 
54 -3 690 55 66 62 255 
55 -3 691 56 67 63 255 
56 -3 691 52 63 59 255 
57 -3 691 49 60 56 255 
58 -3 691 51 62 58 255 
59 -3 691 53 64 60 255 
61 -3 691 53 64 60 255 
62 -3 690 53 64 60 255 
63 -3 690 54 65 61 255 
64 -3 690 56 67 63 255 
65 -3 690 49 60 56 255 
66 -3 690 50 61 57 255 
67 -3 690 54 65 61 255 
68 -3 690 56 67 63 255 
70 -3 691 53 63 62 255 
71 -3 691 50 60 59 255 
72 -3 691 49 59 58 255 
73 -3 691 48 58 57 255 
74 -3 691 46 57 53 255 
75 -3 690 47 58 54 255 
76 -3 690 47 58 54 255 
77 -3 690 51 62 58 255 
78 -3 690 55 66 62 255 
79 -3 690 54 65 61 255 
81 -3 690 53 64 60 255 
82 -3 691 52 63 59 255 
83 -3 691 55 66 62 255 
84 -3 690 54 65 61 255 
85 -3 690 53 64 60 255 
86 -3 690 53 64 60 255 
87 -3 690 52 63 59 255 
88 -3 690 52 63 59 255 
90 -3 690 53 64 60 255 
91 -3 689 54 65 61 255 
92 -3 689 54 65 59 255 
93 -3 689 53 64 58 255 
94 -3 689 51 64 57 255 
95 -3 688 51 64 57 255 
96 -3 688 50 62 58 255 
97 -3 688 51 63 59 255 
98 -3 688 53 64 60 255 
99 -3 688 52 63 59 255 
100 -3 687 54 63 60 255 
101 -3 687 52 61 58 255 
103 -3 687 52 63 59 255 
104 -3 688 54 65 61 255 
105 -3 687 56 65 62 255 
106 -3 688 52 61 58 255 
107 -3 688 46 55 52 255 
108 -3 688 43 52 49 255 
109 -3 689 47 47 47 255 
111 -3 689 40 40 40 255 
112 -3 689 38 36 37 255 
113 -3 688 38 36 37 255 
114 -3 687 40 36 37 255 
115 -3 687 38 34 35 255 
116 -3 687 35 31 32 255 
117 -3 686 35 31 32 255 
118 -3 686 33 29 30 255 
119 -3 686 36 32 33 255 
120 -3 686 39 35 36 255 
121 -3 687 39 35 36 255 
122 -3 687 38 32 34 255 
124 -3 687 36 30 32 255 
125 -3 687 36 30 32 255 
126 -3 687 39 33 35 255 
127 -3 687 41 35 35 255 
128 -3 687 38 32 32 255 
129 -3 687 39 35 34 255 
130 -3 686 36 32 31 255 
131 -3 686 32 28 27 255 
132 -3 686 32 28 27 255 
133 -3 685 34 30 29 255 
134 -3 685 38 34 33 255 
135 -3 684 37 33 32 255 
136 -3 684 38 34 33 255 
138 -3 685 36 35 33 255 
139 -3 686 29 28 26 255 
140 -3 687 19 18 16 255 
141 -3 688 15 14 12 255 
-85 -2 625 60 68 70 255 
-84 -2 621 92 100 102 255 
-83 -2 619 128 139 143 255 
-81 -2 618 132 143 147 255 
-80 -2 617 129 142 148 255 
-79 -2 616 129 142 148 255 
-78 -2 615 125 139 142 255 
-77 -2 614 125 139 142 255 
-76 -2 613 123 137 140 255 
-75 -2 611 123 137 140 255 
-73 -2 610 124 138 141 255 
-72 -2 609 124 138 141 255 
-71 -2 609 124 138 141 255 
-70 -2 607 125 139 142 255 
-69 -2 606 127 141 144 255 
-68 -2 605 128 142 145 255 
-67 -2 603 128 142 145 255 
-66 -2 602 126 140 143 255 
-65 -2 601 122 136 139 255 
-64 -2 600 122 136 139 255 
-62 -2 599 126 140 143 255 
-61 -2 598 126 140 143 255 
-60 -2 597 126 140 143 255 
-59 -2 596 121 135 138 255 
-58 -2 594 122 137 140 255 
-57 -2 593 126 141 144 255 
-56 -2 592 125 140 143 255 
-55 -2 591 126 141 144 255 
-54 -2 591 127 142 145 255 
-53 -2 590 124 139 142 255 
-52 -2 588 125 140 143 255 
-51 -2 588 128 143 146 255 
-50 -2 586 125 140 143 255 
-49 -2 585 125 140 143 255 
-48 -2 584 124 139 142 255 
-47 -2 583 125 140 143 255 
-46 -2 583 118 133 136 255 
-45 -2 582 91 106 109 255 
-44 -2 580 94 109 112 255 
-42 -2 579 86 101 104 255 
-41 -2 578 100 115 120 255 
-40 -2 577 106 121 126 255 
-39 -2 575 117 132 139 255 
-38 -2 574 128 143 150 255 
-37 -2 574 118 133 138 255 
-36 -2 573 116 131 136 255 
-35 -2 571 112 127 134 255 
-34 -2 570 53 68 75 255 
-33 -2 569 31 44 53 255 
-32 -2 567 81 94 103 255 
-31 -2 566 23 36 45 255 
-30 -2 565 79 92 101 255 
-29 -2 563 112 126 135 255 
-29 -2 563 27 41 50 255 
-28 -2 562 73 82 97 255 
-27 -2 561 44 53 68 255 
-26 -2 559 55 68 76 255 
-25 -2 558 122 135 143 255 
-24 -2 556 121 136 141 255 
-23 -2 555 112 127 132 255 
-22 -2 553 66 80 89 255 
-21 -2 552 24 38 47 255 
-20 -2 552 50 64 77 255 
-19 -2 551 45 59 72 255 
-18 -2 550 26 39 48 255 
-17 -2 549 99 112 121 255 
-16 -2 548 123 133 135 255 
-15 -2 547 118 128 130 255 
-14 -2 547 68 77 76 255 
-13 -2 547 33 42 41 255 
-13 -2 547 38 39 43 255 
-12 -2 547 37 38 42 255 
-11 -2 548 37 38 42 255 
-10 -2 549 36 37 41 255 
-9 -2 550 38 39 43 255 
-8 -2 551 42 43 47 255 
-7 -2 553 41 42 44 255 
-6 -2 554 36 37 39 255 
-6 -2 554 31 35 36 255 
-5 -2 555 32 36 37 255 
-4 -2 556 31 35 36 255 
-3 -2 557 30 34 35 255 
-2 -2 557 33 37 36 255 
-1 -2 558 35 39 38 255 
0 -2 559 34 38 37 255 
1 -2 560 35 39 38 255 
2 -2 561 34 38 37 255 
3 -2 563 35 39 38 255 
4 -2 564 34 38 37 255 
4 -2 565 35 39 38 255 
5 -2 566 35 39 38 255 
6 -2 568 34 38 37 255 
7 -2 568 35 40 36 255 
8 -2 569 35 40 36 255 
9 -2 570 36 42 38 255 
10 -2 571 37 43 39 255 
11 -2 573 37 43 39 255 
12 -2 574 37 43 39 255 
13 -2 576 37 43 39 255 
14 -2 577 36 42 38 255 
15 -2 578 35 41 37 255 
16 -2 579 33 39 35 255 
17 -2 581 33 39 37 255 
18 -2 582 34 40 38 255 
19 -2 583 35 41 39 255 
20 -2 584 36 42 40 255 
21 -2 585 35 41 39 255 
22 -2 587 33 39 37 255 
23 -2 588 34 40 38 255 
24 -2 589 33 39 37 255 
25 -2 590 33 39 37 255 
26 -2 592 34 40 38 255 
27 -2 593 35 41 39 255 
28 -2 595 34 40 38 255 
29 -2 596 34 40 38 255 
30 -2 598 35 41 39 255 
31 -2 600 36 42 40 255 
32 -2 602 36 42 40 255 
33 -2 602 38 42 41 255 
34 -2 605 38 42 41 255 
36 -2 609 38 42 41 255 
37 -2 613 36 40 39 255 
38 -2 621 48 54 52 255 
40 -2 630 55 61 59 255 
42 -2 640 55 61 59 255 
43 -2 651 55 61 59 255 
45 -2 662 56 65 62 255 
47 -2 671 55 64 61 255 
49 -2 680 50 59 56 255 
50 -2 684 50 59 56 255 
51 -2 686 56 67 63 255 
52 -2 688 54 65 61 255 
54 -2 689 49 60 56 255 
55 -2 689 54 65 61 255 
56 -2 689 51 62 58 255 
57 -2 690 50 61 57 255 
58 -2 690 52 63 59 255 
59 -2 689 55 66 62 255 
60 -2 689 56 67 63 255 
61 -2 689 55 66 62 255 
63 -2 688 53 64 60 255 
64 -2 688 54 65 61 255 
65 -2 687 52 63 59 255 
66 -2 688 53 64 60 255 
67 -2 688 55 66 62 255 
68 -2 688 56 67 63 255 
69 -2 689 57 68 64 255 
70 -2 689 55 66 62 255 
72 -2 689 54 65 61 255 
73 -2 689 53 64 60 255 
74 -2 689 53 64 60 255 
75 -2 689 56 67 63 255 
76 -2 688 58 69 65 255 
77 -2 688 57 68 64 255 
78 -2 688 56 67 63 255 
79 -2 688 54 65 61 255 
80 -2 688 50 61 57 255 
82 -2 689 50 61 57 255 
83 -2 688 55 66 62 255 
84 -2 688 53 64 60 255 
85 -2 688 52 63 59 255 
86 -2 688 54 65 61 255 
87 -2 688 52 64 60 255 
88 -2 689 50 62 58 255 
89 -2 689 50 62 58 255 
90 -2 688 53 65 61 255 
91 -2 687 53 66 59 255 
93 -2 687 51 64 57 255 
94 -2 687 51 64 57 255 
95 -2 687 51 64 57 255 
96 -2 686 51 63 59 255 
97 -2 686 53 65 61 255 
98 -2 686 54 66 62 255 
99 -2 686 52 64 60 255 
100 -2 685 55 67 63 255 
101 -2 685 54 66 62 255 
102 -2 686 53 65 61 255 
103 -2 686 54 66 62 255 
104 -2 685 54 66 62 255 
106 -2 686 52 64 60 255 
107 -2 686 51 62 58 255 
108 -2 686 49 60 56 255 
109 -2 686 56 62 60 255 
110 -2 686 53 59 57 255 
111 -2 686 49 55 53 255 
112 -2 686 46 52 50 255 
113 -2 685 46 48 47 255 
114 -2 685 39 41 40 255 
115 -2 685 35 33 34 255 
116 -2 684 30 28 29 255 
118 -2 684 34 28 30 255 
119 -2 684 37 31 33 255 
120 -2 685 40 34 36 255 
121 -2 685 42 36 38 255 
122 -2 685 40 34 36 255 
123 -2 686 38 32 34 255 
124 -2 685 37 33 34 255 
125 -2 685 39 35 36 255 
127 -2 685 43 37 37 255 
128 -2 685 39 33 33 255 
129 -2 685 44 38 38 255 
130 -2 685 44 38 38 255 
131 -2 685 39 33 33 255 
132 -2 685 38 32 32 255 
133 -2 684 36 32 31 255 
134 -2 684 38 34 33 255 
135 -2 683 41 37 36 255 
136 -2 684 41 37 36 255 
137 -2 684 40 36 35 255 
139 -2 685 33 29 28 255 
140 -2 686 22 21 19 255 
141 -2 687 21 20 18 255 
-86 -1 628 58 66 68 255 
-84 -1 623 82 90 92 255 
-83 -1 621 134 145 149 255 
-82 -1 619 133 144 148 255 
-80 -1 618 129 142 148 255 
-79 -1 617 128 141 147 255 
-78 -1 616 122 136 139 255 
-77 -1 615 124 138 141 255 
-76 -1 613 125 139 142 255 
-75 -1 612 126 140 143 255 
-74 -1 611 126 140 143 255 
-72 -1 610 126 140 143 255 
-71 -1 609 127 141 144 255 
-70 -1 608 128 142 145 255 
-69 -1 607 126 140 143 255 
-68 -1 605 128 142 145 255 
-67 -1 604 128 142 145 255 
-66 -1 603 128 142 145 255 
-65 -1 602 126 140 143 255 
-64 -1 601 125 139 142 255 
-62 -1 599 126 140 143 255 
-61 -1 598 126 140 143 255 
-60 -1 598 126 139 145 255 
-59 -1 597 124 137 143 255 
-58 -1 595 127 141 144 255 
-57 -1 594 128 142 145 255 
-56 -1 593 125 139 142 255 
-55 -1 592 125 139 142 255 
-54 -1 591 126 141 144 255 
-53 -1 590 124 139 142 255 
-52 -1 590 123 138 141 255 
-51 -1 588 123 138 141 255 
-50 -1 587 123 138 141 255 
-49 -1 586 127 142 145 255 
-48 -1 585 127 142 145 255 
-47 -1 584 126 141 144 255 
-46 -1 583 125 140 143 255 
-45 -1 582 115 130 133 255 
-44 -1 581 97 115 117 255 
-43 -1 580 86 104 106 255 
-42 -1 579 77 95 99 255 
-41 -1 578 74 92 96 255 
-40 -1 577 79 97 101 255 
-39 -1 576 111 129 133 255 
-38 -1 575 115 133 137 255 
-36 -1 573 120 138 142 255 
-35 -1 572 123 138 145 255 
-34 -1 571 94 109 116 255 
-33 -1 570 67 80 89 255 
-32 -1 568 94 107 116 255 
-31 -1 567 29 42 51 255 
-30 -1 566 63 76 85 255 
-29 -1 564 123 137 146 255 
-29 -1 563 83 97 106 255 
-28 -1 562 32 40 59 255 
-27 -1 562 38 46 65 255 
-26 -1 560 42 55 63 255 
-25 -1 559 114 127 135 255 
-24 -1 557 118 133 138 255 
-23 -1 555 121 136 141 255 
-22 -1 553 70 84 97 255 
-21 -1 552 21 35 48 255 
-20 -1 552 79 92 109 255 
-19 -1 551 116 129 146 255 
-18 -1 551 95 108 117 255 
-17 -1 550 118 131 140 255 
-16 -1 549 125 135 137 255 
-15 -1 548 124 134 136 255 
-14 -1 547 70 75 78 255 
-13 -1 547 36 41 44 255 
-13 -1 547 36 39 44 255 
-12 -1 548 36 39 44 255 
-11 -1 548 35 39 42 255 
-10 -1 549 34 38 41 255 
-9 -1 550 35 39 42 255 
-8 -1 552 38 42 45 255 
-7 -1 553 38 42 45 255 
-6 -1 554 35 39 42 255 
-6 -1 554 32 36 37 255 
-5 -1 555 33 37 38 255 
-4 -1 556 32 36 37 255 
-3 -1 557 31 35 36 255 
-2 -1 557 32 36 35 255 
-1 -1 558 33 37 36 255 
0 -1 559 35 39 38 255 
1 -1 561 36 40 39 255 
2 -1 561 34 40 38 255 
3 -1 563 35 41 39 255 
4 -1 565 33 39 37 255 
4 -1 566 33 39 37 255 
5 -1 566 33 39 37 255 
6 -1 568 33 39 37 255 
7 -1 569 36 40 39 255 
8 -1 570 35 39 38 255 
9 -1 571 36 41 37 255 
10 -1 572 37 42 38 255 
11 -1 573 37 42 38 255 
12 -1 574 38 43 39 255 
13 -1 576 38 43 39 255 
14 -1 577 39 44 40 255 
15 -1 579 37 42 38 255 
16 -1 580 35 40 36 255 
17 -1 581 35 41 39 255 
18 -1 582 36 42 40 255 
19 -1 583 36 42 40 255 
20 -1 584 37 43 41 255 
21 -1 586 36 42 40 255 
22 -1 587 34 40 38 255 
23 -1 588 34 40 38 255 
24 -1 589 33 39 37 255 
25 -1 591 37 43 41 255 
26 -1 592 37 43 41 255 
27 -1 594 37 43 41 255 
28 -1 595 36 42 40 255 
29 -1 597 36 42 40 255 
30 -1 598 37 43 41 255 
31 -1 600 38 44 42 255 
32 -1 602 37 43 41 255 
33 -1 603 39 43 42 255 
34 -1 606 35 39 38 255 
36 -1 610 35 39 38 255 
37 -1 614 34 38 37 255 
38 -1 622 48 54 52 255 
40 -1 631 58 64 62 255 
42 -1 641 58 64 62 255 
43 -1 652 58 64 62 255 
45 -1 662 55 64 61 255 
47 -1 671 54 63 60 255 
48 -1 679 53 62 59 255 
50 -1 682 53 62 59 255 
51 -1 684 52 63 59 255 
52 -1 686 51 62 58 255 
54 -1 687 51 62 58 255 
55 -1 688 52 63 59 255 
56 -1 688 53 62 59 255 
57 -1 688 52 61 58 255 
58 -1 688 53 64 60 255 
59 -1 688 55 66 62 255 
60 -1 688 56 67 63 255 
61 -1 688 53 64 60 255 
62 -1 687 50 61 57 255 
63 -1 686 50 61 57 255 
65 -1 686 52 63 59 255 
66 -1 686 51 62 58 255 
67 -1 686 49 60 56 255 
68 -1 686 50 61 57 255 
69 -1 687 53 64 60 255 
70 -1 687 56 67 63 255 
71 -1 687 56 67 63 255 
72 -1 687 55 66 62 255 
74 -1 687 55 64 61 255 
75 -1 686 59 68 65 255 
76 -1 686 64 73 70 255 
77 -1 686 61 70 67 255 
78 -1 686 55 66 62 255 
79 -1 686 53 64 60 255 
80 -1 686 50 61 57 255 
81 -1 687 51 62 58 255 
82 -1 686 51 62 58 255 
83 -1 686 52 63 59 255 
85 -1 686 52 64 60 255 
86 -1 686 52 64 60 255 
87 -1 686 50 62 58 255 
88 -1 687 48 60 56 255 
89 -1 687 49 61 57 255 
90 -1 686 53 65 61 255 
91 -1 686 52 65 58 255 
92 -1 685 49 62 55 255 
93 -1 685 49 62 55 255 
94 -1 685 51 64 57 255 
95 -1 684 52 64 60 255 
97 -1 684 52 64 60 255 
98 -1 684 54 65 61 255 
99 -1 684 55 66 62 255 
100 -1 684 55 66 62 255 
101 -1 683 55 66 62 255 
102 -1 684 52 63 59 255 
103 -1 684 52 63 59 255 
104 -1 684 53 64 60 255 
105 -1 684 52 63 59 255 
107 -1 685 54 65 61 255 
108 -1 685 52 63 59 255 
109 -1 685 53 64 60 255 
110 -1 685 56 67 63 255 
111 -1 685 55 66 62 255 
112 -1 684 55 66 62 255 
113 -1 684 54 60 58 255 
114 -1 683 47 53 51 255 
115 -1 683 44 46 45 255 
116 -1 682 37 39 38 255 
117 -1 682 40 36 37 255 
118 -1 682 40 36 37 255 
119 -1 682 42 36 38 255 
121 -1 683 42 36 38 255 
122 -1 683 41 35 37 255 
123 -1 683 39 33 35 255 
124 -1 684 39 35 36 255 
125 -1 684 42 38 39 255 
126 -1 684 44 35 36 255 
127 -1 684 43 34 35 255 
129 -1 684 44 38 38 255 
130 -1 684 43 37 37 255 
131 -1 683 39 33 33 255 
132 -1 683 39 33 33 255 
133 -1 683 40 34 34 255 
134 -1 683 40 34 34 255 
135 -1 682 36 32 31 255 
136 -1 683 37 33 32 255 
137 -1 684 34 33 31 255 
139 -1 685 29 28 26 255 
140 -1 685 23 22 20 255 
141 -1 686 21 20 18 255 
-86 0 630 40 48 50 255 
-84 0 624 65 73 75 255 
-83 0 622 136 147 151 255 
-82 0 621 134 145 149 255 
-81 0 619 130 143 149 255 
-79 0 618 130 143 149 255 
-78 0 617 121 135 138 255 
-77 0 616 123 137 140 255 
-76 0 614 126 140 143 255 
-75 0 613 127 141 144 255 
-74 0 612 127 141 144 255 
-73 0 611 125 139 142 255 
-71 0 609 125 139 142 255 
-70 0 608 124 138 141 255 
-69 0 607 121 135 138 255 
-68 0 606 123 137 140 255 
-67 0 605 124 138 141 255 
-66 0 604 126 140 143 255 
-65 0 603 127 141 144 255 
-64 0 602 126 140 143 255 
-63 0 600 126 140 143 255 
-61 0 599 126 140 143 255 
-60 0 598 123 136 142 255 
-59 0 597 125 138 144 255 
-58 0 596 129 142 148 255 
-57 0 595 130 143 149 255 
-56 0 594 127 140 146 255 
-55 0 593 125 138 144 255 
-54 0 592 125 138 144 255 
-53 0 591 124 137 143 255 
-52 0 590 126 139 145 255 
-51 0 589 122 135 141 255 
-50 0 588 125 140 145 255 
-49 0 587 128 143 148 255 
-48 0 586 127 142 147 255 
-47 0 585 126 141 146 255 
-46 0 584 125 140 145 255 
-45 0 583 127 142 147 255 
-44 0 582 123 141 143 255 
-43 0 581 119 137 139 255 
-42 0 580 109 127 129 255 
-41 0 579 86 104 106 255 
-40 0 578 74 92 96 255 
-39 0 577 64 82 86 255 
-38 0 576 83 100 107 255 
-37 0 574 94 111 118 255 
-36 0 573 118 131 139 255 
-35 0 572 122 135 143 255 
-34 0 571 118 131 140 255 
-33 0 569 118 131 140 255 
-32 0 568 72 85 94 255 
-30 0 566 84 97 106 255 
-30 0 565 117 130 139 255 
-29 0 564 124 137 146 255 
-28 0 563 60 71 89 255 
-27 0 562 21 32 50 255 
-26 0 561 40 53 61 255 
-25 0 560 112 125 133 255 
-24 0 558 121 136 141 255 
-23 0 556 116 131 136 255 
-22 0 555 67 84 94 255 
-21 0 553 21 38 48 255 
-20 0 552 84 97 113 255 
-19 0 552 124 137 153 255 
-18 0 551 121 134 143 255 
-17 0 550 129 142 151 255 
-16 0 549 132 142 144 255 
-15 0 548 126 136 138 255 
-14 0 548 78 87 86 255 
-13 0 547 36 45 44 255 
-13 0 547 33 37 40 255 
-12 0 548 35 39 42 255 
-11 0 548 35 39 42 255 
-10 0 550 35 39 42 255 
-9 0 551 36 40 43 255 
-8 0 552 38 42 45 255 
-7 0 553 37 41 42 255 
-6 0 554 37 41 42 255 
-6 0 555 35 39 40 255 
-5 0 556 33 37 38 255 
-4 0 556 33 37 38 255 
-3 0 557 32 36 37 255 
-2 0 557 31 35 34 255 
-1 0 558 33 37 36 255 
0 0 560 36 40 39 255 
1 0 561 38 42 41 255 
2 0 562 37 43 41 255 
3 0 563 37 43 41 255 
4 0 565 34 40 38 255 
4 0 566 33 39 37 255 
5 0 567 32 38 36 255 
6 0 568 33 39 37 255 
7 0 570 36 40 39 255 
8 0 570 36 40 39 255 
9 0 571 37 41 40 255 
10 0 573 37 41 40 255 
11 0 574 36 41 37 255 
12 0 575 36 41 37 255 
13 0 576 37 42 38 255 
14 0 578 37 42 38 255 
15 0 579 37 42 38 255 
16 0 581 35 40 36 255 
17 0 581 37 41 40 255 
18 0 583 39 43 42 255 
19 0 584 38 42 41 255 
20 0 585 38 42 41 255 
21 0 586 37 41 40 255 
22 0 587 36 40 39 255 
23 0 589 37 41 40 255 
24 0 590 37 41 40 255 
25 0 591 42 46 45 255 
26 0 593 41 45 44 255 
27 0 594 39 43 42 255 
28 0 595 37 41 40 255 
29 0 597 36 40 39 255 
30 0 599 35 39 38 255 
31 0 601 34 38 37 255 
32 0 602 33 37 36 255 
33 0 604 37 41 40 255 
34 0 607 34 38 37 255 
36 0 611 36 40 39 255 
37 0 615 36 40 39 255 
38 0 622 47 53 51 255 
40 0 631 55 61 59 255 
42 0 641 55 61 59 255 
43 0 652 57 63 61 255 
45 0 662 56 65 62 255 
47 0 670 55 64 61 255 
48 0 678 56 65 62 255 
50 0 681 55 64 61 255 
51 0 683 50 61 57 255 
52 0 684 50 61 57 255 
53 0 685 53 64 60 255 
55 0 686 52 63 59 255 
56 0 686 56 65 62 255 
57 0 686 54 63 60 255 
58 0 686 54 63 60 255 
59 0 686 53 62 59 255 
60 0 685 50 59 56 255 
61 0 685 48 57 54 255 
62 0 685 49 60 56 255 
63 0 685 53 64 60 255 
64 0 685 51 62 58 255 
66 0 685 49 60 56 255 
67 0 685 47 58 54 255 
68 0 685 46 57 53 255 
69 0 685 49 60 56 255 
70 0 686 53 64 60 255 
71 0 686 54 65 61 255 
72 0 685 53 64 60 255 
73 0 685 50 59 56 255 
74 0 685 54 63 60 255 
75 0 684 59 68 65 255 
77 0 684 56 65 62 255 
78 0 684 52 61 58 255 
79 0 684 52 61 58 255 
80 0 684 52 63 59 255 
81 0 684 53 64 60 255 
82 0 684 51 62 58 255 
83 0 684 52 63 59 255 
84 0 684 53 64 60 255 
85 0 684 51 62 58 255 
87 0 684 47 59 55 255 
88 0 684 49 61 57 255 
89 0 685 51 63 59 255 
90 0 684 52 64 60 255 
91 0 684 53 66 59 255 
92 0 684 49 62 55 255 
93 0 683 49 60 54 255 
94 0 683 53 64 58 255 
95 0 682 54 65 61 255 
96 0 682 51 62 58 255 
97 0 683 51 62 58 255 
98 0 682 56 67 63 255 
100 0 682 55 66 62 255 
101 0 682 56 67 63 255 
102 0 682 52 63 59 255 
103 0 683 51 62 58 255 
104 0 683 51 62 58 255 
105 0 683 51 62 58 255 
106 0 683 54 65 61 255 
107 0 683 52 63 59 255 
109 0 683 51 60 57 255 
110 0 683 54 63 60 255 
111 0 683 53 64 60 255 
112 0 683 54 65 61 255 
113 0 682 54 65 61 255 
114 0 682 53 64 60 255 
115 0 681 55 61 59 255 
116 0 681 50 56 54 255 
117 0 681 49 51 50 255 
118 0 681 45 47 46 255 
119 0 681 44 42 43 255 
120 0 681 40 38 39 255 
121 0 681 41 35 37 255 
122 0 681 40 34 36 255 
124 0 682 41 35 37 255 
125 0 682 42 36 38 255 
126 0 682 45 39 39 255 
127 0 682 43 37 37 255 
128 0 682 41 35 37 255 
129 0 682 36 30 32 255 
130 0 682 33 27 29 255 
131 0 682 36 30 32 255 
133 0 682 39 35 34 255 
134 0 682 37 33 32 255 
135 0 682 35 31 30 255 
136 0 683 35 31 30 255 
137 0 683 31 29 30 255 
138 0 684 27 25 26 255 
140 0 685 25 23 24 255 
141 0 687 24 22 23 255 
-88 1 642 27 32 35 255 
-84 1 626 56 61 64 255 
-83 1 623 133 144 148 255 
-82 1 621 133 144 148 255 
-81 1 620 129 142 148 255 
-79 1 618 128 141 147 255 
-78 1 618 123 137 140 255 
-77 1 616 124 138 141 255 
-76 1 615 127 141 144 255 
-75 1 613 128 142 145 255 
-74 1 613 127 141 144 255 
-73 1 611 125 139 142 255 
-71 1 610 122 136 139 255 
-70 1 609 119 133 136 255 
-69 1 608 118 132 135 255 
-68 1 607 120 134 137 255 
-67 1 606 119 133 136 255 
-66 1 604 121 135 138 255 
-65 1 604 122 136 139 255 
-64 1 602 122 136 139 255 
-63 1 601 124 138 141 255 
-62 1 600 126 140 143 255 
-60 1 599 123 136 142 255 
-59 1 598 125 138 144 255 
-58 1 597 128 141 147 255 
-57 1 595 129 142 148 255 
-56 1 595 127 140 146 255 
-55 1 594 125 138 144 255 
-54 1 593 124 137 143 255 
-53 1 592 124 137 143 255 
-52 1 591 124 137 143 255 
-51 1 590 122 135 141 255 
-50 1 589 125 138 144 255 
-49 1 589 125 138 144 255 
-48 1 588 126 139 145 255 
-47 1 587 127 140 146 255 
-46 1 585 122 135 141 255 
-45 1 584 125 138 144 255 
-44 1 583 127 140 146 255 
-43 1 582 123 136 142 255 
-42 1 581 121 136 139 255 
-41 1 580 112 127 130 255 
-40 1 579 108 123 128 255 
-39 1 578 88 103 108 255 
-38 1 577 103 116 124 255 
-37 1 575 95 108 116 255 
-36 1 574 125 135 144 255 
-35 1 573 114 124 133 255 
-34 1 572 114 124 133 255 
-33 1 570 129 139 148 255 
-32 1 569 123 133 142 255 
-31 1 567 123 133 142 255 
-30 1 566 134 144 154 255 
-29 1 565 129 139 149 255 
-28 1 564 102 114 126 255 
-27 1 563 40 52 64 255 
-26 1 562 38 51 59 255 
-25 1 561 113 126 134 255 
-24 1 559 123 138 143 255 
-23 1 557 116 131 136 255 
-22 1 556 67 84 91 255 
-21 1 554 14 31 38 255 
-20 1 553 83 97 108 255 
-19 1 552 122 136 147 255 
-18 1 552 122 135 143 255 
-17 1 551 128 141 149 255 
-16 1 550 133 143 145 255 
-15 1 548 125 135 137 255 
-14 1 548 86 95 92 255 
-13 1 548 36 45 42 255 
-13 1 548 32 36 39 255 
-12 1 548 35 39 42 255 
-11 1 549 35 39 40 255 
-10 1 550 35 39 40 255 
-9 1 551 37 41 42 255 
-8 1 552 38 42 43 255 
-7 1 553 37 41 42 255 
-6 1 554 38 42 43 255 
-6 1 555 35 39 40 255 
-5 1 556 32 36 37 255 
-4 1 557 31 37 35 255 
-3 1 557 32 38 36 255 
-2 1 558 31 37 35 255 
-1 1 559 33 39 37 255 
0 1 560 36 42 40 255 
1 1 561 36 42 40 255 
2 1 562 40 44 43 255 
3 1 564 39 43 42 255 
4 1 565 36 40 39 255 
5 1 567 35 39 38 255 
5 1 568 34 38 37 255 
6 1 569 35 39 38 255 
7 1 570 36 40 39 255 
8 1 571 35 39 38 255 
9 1 572 37 43 41 255 
10 1 573 37 43 41 255 
11 1 575 36 42 40 255 
12 1 575 35 41 39 255 
13 1 576 35 41 37 255 
14 1 578 35 41 37 255 
15 1 580 35 41 37 255 
16 1 581 35 41 37 255 
17 1 582 36 40 39 255 
18 1 583 38 42 41 255 
19 1 585 38 42 41 255 
20 1 586 38 42 41 255 
21 1 587 37 41 40 255 
22 1 588 37 41 40 255 
23 1 589 40 44 43 255 
24 1 591 41 45 44 255 
25 1 591 39 43 42 255 
26 1 593 38 42 41 255 
27 1 595 37 41 40 255 
28 1 596 37 41 40 255 
29 1 597 38 42 41 255 
30 1 599 37 41 40 255 
31 1 602 35 39 38 255 
32 1 603 34 38 37 255 
33 1 605 35 39 38 255 
34 1 607 34 38 37 255 
36 1 611 37 41 40 255 
37 1 615 35 39 38 255 
38 1 623 38 44 42 255 
40 1 631 39 45 43 255 
42 1 641 42 48 46 255 
43 1 651 47 53 51 255 
45 1 661 49 58 55 255 
47 1 669 51 60 57 255 
48 1 676 53 62 59 255 
50 1 680 53 62 59 255 
51 1 681 53 62 59 255 
52 1 683 52 61 58 255 
53 1 683 50 61 57 255 
54 1 684 51 62 58 255 
55 1 684 54 63 58 255 
57 1 684 54 63 58 255 
58 1 684 54 63 58 255 
59 1 684 50 59 54 255 
60 1 683 45 54 49 255 
61 1 683 45 54 49 255 
62 1 683 50 59 56 255 
63 1 683 58 67 64 255 
64 1 683 51 62 58 255 
65 1 683 51 62 58 255 
67 1 683 51 62 58 255 
68 1 683 51 62 58 255 
69 1 683 51 62 58 255 
70 1 684 52 63 59 255 
71 1 684 53 64 60 255 
72 1 684 54 65 61 255 
73 1 684 52 61 58 255 
74 1 684 53 62 59 255 
75 1 683 56 65 62 255 
76 1 683 54 63 60 255 
78 1 683 49 60 56 255 
79 1 683 49 60 56 255 
80 1 682 50 61 57 255 
81 1 682 51 62 58 255 
82 1 682 52 63 59 255 
83 1 682 54 65 61 255 
84 1 682 53 64 60 255 
85 1 682 50 61 57 255 
86 1 681 49 60 56 255 
87 1 682 52 63 59 255 
89 1 682 52 63 59 255 
89 1 681 50 61 57 255 
91 1 681 54 67 60 255 
92 1 681 50 63 56 255 
93 1 681 48 61 54 255 
94 1 681 52 65 58 255 
95 1 681 54 66 62 255 
96 1 681 49 61 57 255 
97 1 681 49 61 57 255 
98 1 681 55 67 63 255 
99 1 681 55 67 63 255 
101 1 681 55 67 63 255 
102 1 681 53 64 60 255 
103 1 681 50 61 57 255 
104 1 681 48 59 55 255 
105 1 682 49 60 56 255 
106 1 682 51 62 58 255 
107 1 682 51 62 58 255 
108 1 681 53 62 59 255 
109 1 681 53 62 59 255 
110 1 681 51 62 58 255 
112 1 681 52 63 59 255 
113 1 681 55 66 62 255 
114 1 680 57 68 64 255 
114 1 679 55 66 62 255 
116 1 679 51 62 58 255 
117 1 679 53 59 57 255 
118 1 679 51 57 55 255 
119 1 679 51 53 52 255 
120 1 679 47 49 48 255 
121 1 679 45 43 44 255 
122 1 679 42 40 41 255 
123 1 680 41 39 40 255 
125 1 680 39 37 38 255 
126 1 680 42 38 37 255 
127 1 680 42 38 37 255 
128 1 680 38 34 35 255 
129 1 680 37 33 34 255 
130 1 680 36 32 33 255 
131 1 681 38 34 35 255 
132 1 681 38 37 35 255 
133 1 681 31 30 28 255 
135 1 682 28 27 25 255 
136 1 682 28 27 25 255 
137 1 683 23 23 23 255 
139 1 685 20 20 20 255 
140 1 687 21 21 21 255 
141 1 687 22 22 22 255 
-85 2 628 52 57 60 255 
-83 2 624 125 134 139 255 
-82 2 622 133 142 147 255 
-81 2 620 127 140 146 255 
-80 2 619 128 141 147 255 
-78 2 618 121 134 140 255 
-77 2 617 122 135 141 255 
-76 2 616 125 138 144 255 
-75 2 615 127 140 146 255 
-74 2 614 128 141 147 255 
-73 2 612 128 141 147 255 
-72 2 611 126 139 145 255 
-71 2 611 123 136 142 255 
-69 2 609 121 134 140 255 
-68 2 607 123 136 142 255 
-67 2 606 121 134 140 255 
-66 2 605 122 135 141 255 
-65 2 604 123 136 142 255 
-64 2 603 122 135 141 255 
-63 2 602 125 138 144 255 
-62 2 602 129 142 148 255 
-61 2 600 124 138 141 255 
-60 2 599 124 138 141 255 
-58 2 598 126 140 143 255 
-57 2 597 128 142 145 255 
-56 2 596 127 140 146 255 
-55 2 595 125 138 144 255 
-54 2 595 125 138 144 255 
-53 2 593 126 139 145 255 
-52 2 592 124 137 143 255 
-51 2 591 125 138 144 255 
-50 2 590 125 138 144 255 
-49 2 589 126 139 145 255 
-48 2 588 127 140 146 255 
-47 2 588 126 139 145 255 
-46 2 587 124 137 143 255 
-45 2 585 124 137 143 255 
-44 2 584 124 137 143 255 
-43 2 583 126 139 145 255 
-42 2 582 124 138 141 255 
-41 2 580 126 140 143 255 
-40 2 580 127 141 144 255 
-39 2 579 127 141 144 255 
-38 2 578 126 136 145 255 
-37 2 577 120 130 139 255 
-36 2 575 123 136 144 255 
-35 2 574 84 97 105 255 
-34 2 573 80 93 99 255 
-33 2 571 94 107 113 255 
-32 2 569 120 133 139 255 
-31 2 568 125 138 144 255 
-30 2 567 130 140 150 255 
-29 2 566 120 130 140 255 
-28 2 565 127 138 144 255 
-27 2 564 85 96 102 255 
-26 2 563 51 61 70 255 
-25 2 562 103 113 122 255 
-24 2 560 116 129 135 255 
-23 2 559 115 128 134 255 
-22 2 557 69 87 91 255 
-21 2 555 15 33 37 255 
-20 2 554 85 100 107 255 
-19 2 554 118 133 140 255 
-18 2 553 126 136 145 255 
-17 2 552 126 136 145 255 
-16 2 550 130 140 142 255 
-15 2 549 132 142 144 255 
-14 2 549 85 94 89 255 
-14 2 549 43 52 47 255 
-13 2 548 33 37 38 255 
-12 2 548 35 39 40 255 
-11 2 549 36 40 41 255 
-10 2 550 36 40 41 255 
-9 2 551 37 41 42 255 
-8 2 552 37 41 42 255 
-7 2 553 36 40 41 255 
-6 2 554 36 40 41 255 
-6 2 555 33 39 37 255 
-5 2 556 30 36 34 255 
-4 2 557 31 37 35 255 
-3 2 558 34 40 38 255 
-2 2 559 34 40 38 255 
-1 2 559 34 40 38 255 
0 2 561 36 42 40 255 
1 2 562 36 42 40 255 
2 2 563 39 43 42 255 
3 2 565 39 43 42 255 
4 2 566 36 40 39 255 
5 2 568 35 39 38 255 
5 2 569 36 40 39 255 
6 2 569 36 40 39 255 
7 2 571 36 40 39 255 
8 2 572 34 38 37 255 
9 2 573 37 43 41 255 
10 2 574 37 43 41 255 
11 2 575 37 43 41 255 
12 2 576 36 42 40 255 
13 2 577 36 42 40 255 
14 2 578 35 41 39 255 
15 2 580 36 42 38 255 
16 2 582 36 42 38 255 
17 2 583 39 43 42 255 
18 2 584 40 44 43 255 
19 2 586 39 43 42 255 
20 2 587 38 42 41 255 
21 2 588 35 39 38 255 
22 2 589 35 39 38 255 
23 2 590 38 42 41 255 
24 2 591 38 42 41 255 
25 2 592 37 41 40 255 
26 2 593 35 39 38 255 
27 2 595 36 40 39 255 
28 2 596 39 43 42 255 
29 2 598 40 44 43 255 
30 2 600 39 43 42 255 
31 2 602 37 41 40 255 
32 2 604 35 39 38 255 
33 2 606 35 39 38 255 
35 2 608 34 38 37 255 
36 2 611 36 40 39 255 
37 2 616 33 37 36 255 
38 2 622 30 34 33 255 
40 2 631 23 27 26 255 
42 2 640 26 32 30 255 
43 2 650 31 37 35 255 
45 2 659 36 42 40 255 
47 2 668 37 43 41 255 
48 2 675 46 52 50 255 
50 2 678 54 60 58 255 
51 2 680 53 62 59 255 
52 2 681 56 65 62 255 
53 2 682 60 69 66 255 
54 2 682 57 66 63 255 
55 2 682 52 61 56 255 
56 2 682 53 62 57 255 
58 2 682 54 63 58 255 
59 2 682 52 61 56 255 
60 2 682 49 58 53 255 
61 2 682 48 57 52 255 
62 2 682 49 58 53 255 
63 2 682 55 64 59 255 
64 2 682 49 60 56 255 
65 2 681 51 62 58 255 
66 2 681 51 62 58 255 
68 2 682 51 62 58 255 
69 2 682 50 61 57 255 
70 2 682 50 61 57 255 
71 2 682 52 63 59 255 
72 2 682 54 65 61 255 
73 2 682 53 64 60 255 
74 2 681 53 64 60 255 
75 2 681 54 65 61 255 
76 2 681 54 65 61 255 
77 2 681 52 63 59 255 
78 2 681 50 61 57 255 
80 2 681 52 63 59 255 
81 2 681 51 62 58 255 
82 2 681 53 64 60 255 
83 2 681 54 65 61 255 
84 2 681 53 64 60 255 
85 2 681 51 62 58 255 
86 2 680 51 62 58 255 
87 2 680 51 62 58 255 
88 2 680 51 62 58 255 
89 2 680 51 62 58 255 
90 2 679 54 67 60 255 
91 2 679 52 65 58 255 
93 2 679 51 64 57 255 
94 2 679 52 65 58 255 
95 2 679 54 65 61 255 
96 2 680 52 63 59 255 
97 2 680 51 63 59 255 
98 2 679 54 66 62 255 
99 2 679 54 65 61 255 
100 2 679 53 64 60 255 
101 2 680 53 62 59 255 
103 2 680 50 59 56 255 
104 2 679 49 58 55 255 
105 2 680 51 60 57 255 
106 2 680 52 63 59 255 
107 2 680 53 64 60 255 
108 2 680 53 64 60 255 
109 2 679 50 61 57 255 
110 2 679 47 58 54 255 
111 2 679 46 57 53 255 
112 2 679 51 60 57 255 
113 2 679 55 64 61 255 
114 2 678 54 63 60 255 
115 2 678 52 61 58 255 
116 2 678 54 63 60 255 
118 2 678 54 63 60 255 
119 2 678 54 63 60 255 
120 2 678 52 61 58 255 
121 2 678 52 58 56 255 
122 2 677 51 57 55 255 
123 2 677 50 54 53 255 
124 2 677 47 51 50 255 
125 2 677 43 42 40 255 
126 2 678 41 40 38 255 
127 2 678 35 33 34 255 
129 2 679 40 38 39 255 
130 2 679 40 38 39 255 
131 2 679 36 34 35 255 
132 2 681 37 37 35 255 
133 2 681 27 27 25 255 
135 2 681 21 21 19 255 
136 2 682 21 21 19 255 
137 2 683 19 19 19 255 
139 2 685 18 18 18 255 
140 2 686 18 20 19 255 
141 2 688 20 22 21 255 
-85 3 631 49 54 57 255 
-83 3 626 115 124 129 255 
-82 3 623 132 141 146 255 
-81 3 621 129 142 148 255 
-80 3 619 133 146 152 255 
-79 3 619 119 132 138 255 
-77 3 618 120 133 139 255 
-76 3 617 122 135 141 255 
-75 3 616 124 137 143 255 
-74 3 615 125 138 144 255 
-73 3 613 126 139 145 255 
-72 3 612 126 139 145 255 
-71 3 611 125 138 144 255 
-70 3 610 120 133 139 255 
-68 3 608 123 136 142 255 
-67 3 607 122 135 141 255 
-66 3 606 124 137 143 255 
-65 3 605 125 138 144 255 
-64 3 604 122 135 141 255 
-63 3 602 122 135 141 255 
-62 3 602 125 138 144 255 
-61 3 601 123 138 141 255 
-60 3 600 122 137 140 255 
-59 3 599 124 139 142 255 
-57 3 598 127 142 145 255 
-56 3 597 127 141 144 255 
-55 3 596 125 139 142 255 
-54 3 595 126 139 145 255 
-53 3 594 127 140 146 255 
-52 3 593 126 139 145 255 
-51 3 593 128 141 147 255 
-50 3 591 127 140 146 255 
-49 3 590 131 144 150 255 
-48 3 589 128 141 149 255 
-47 3 588 120 133 141 255 
-46 3 587 123 136 144 255 
-45 3 586 124 137 145 255 
-44 3 585 127 140 146 255 
-43 3 584 122 135 141 255 
-42 3 583 125 139 142 255 
-41 3 582 126 140 143 255 
-40 3 581 123 137 140 255 
-39 3 580 126 140 143 255 
-38 3 578 120 133 139 255 
-37 3 578 127 140 146 255 
-36 3 576 127 142 149 255 
-35 3 575 97 112 119 255 
-34 3 573 78 96 98 255 
-33 3 572 77 95 97 255 
-32 3 570 112 127 132 255 
-31 3 569 96 111 116 255 
-30 3 567 102 115 123 255 
-29 3 566 117 130 138 255 
-28 3 566 121 130 135 255 
-27 3 565 127 136 141 255 
-26 3 564 117 127 136 255 
-25 3 563 118 128 137 255 
-24 3 562 125 138 146 255 
-23 3 560 120 133 141 255 
-22 3 558 82 97 100 255 
-21 3 556 26 41 44 255 
-20 3 555 85 100 105 255 
-19 3 554 123 138 143 255 
-18 3 553 120 130 140 255 
-17 3 552 128 138 148 255 
-16 3 551 124 133 138 255 
-15 3 550 129 138 143 255 
-14 3 549 91 100 95 255 
-14 3 549 40 49 44 255 
-13 3 549 35 39 40 255 
-12 3 549 36 40 41 255 
-11 3 549 36 40 41 255 
-10 3 550 36 40 41 255 
-9 3 552 36 40 39 255 
-8 3 553 35 39 38 255 
-7 3 554 33 39 37 255 
-6 3 555 32 38 36 255 
-6 3 556 32 38 36 255 
-5 3 557 30 36 34 255 
-4 3 557 33 39 37 255 
-3 3 558 36 42 40 255 
-2 3 559 36 42 40 255 
-1 3 561 35 41 39 255 
0 3 562 35 41 39 255 
1 3 563 36 42 40 255 
2 3 564 37 41 40 255 
3 3 565 37 41 40 255 
4 3 567 34 38 37 255 
5 3 568 35 39 38 255 
5 3 569 39 43 42 255 
6 3 570 37 41 40 255 
7 3 571 35 39 38 255 
8 3 572 33 37 36 255 
9 3 573 36 42 40 255 
10 3 574 36 42 40 255 
11 3 575 37 43 41 255 
12 3 576 38 44 42 255 
13 3 577 37 43 41 255 
14 3 579 36 42 40 255 
15 3 580 37 43 41 255 
16 3 582 38 44 42 255 
17 3 583 40 44 43 255 
18 3 585 38 42 41 255 
19 3 586 37 41 40 255 
20 3 588 36 40 39 255 
21 3 589 33 37 36 255 
22 3 590 34 38 37 255 
23 3 590 38 42 41 255 
24 3 592 37 41 40 255 
25 3 594 37 41 40 255 
26 3 595 34 38 37 255 
27 3 596 36 40 39 255 
28 3 597 39 43 42 255 
29 3 599 39 43 42 255 
30 3 601 38 42 41 255 
31 3 603 38 42 41 255 
32 3 604 36 40 39 255 
33 3 606 36 40 39 255 
35 3 609 36 40 39 255 
36 3 612 38 42 41 255 
37 3 615 36 40 39 255 
38 3 621 30 34 33 255 
40 3 629 17 21 20 255 
41 3 639 16 20 19 255 
43 3 648 19 23 22 255 
45 3 657 14 20 18 255 
47 3 667 20 26 24 255 
48 3 674 26 32 30 255 
49 3 677 33 39 37 255 
51 3 679 40 46 44 255 
52 3 680 42 48 46 255 
53 3 681 44 50 48 255 
54 3 681 49 55 53 255 
55 3 681 53 62 57 255 
56 3 681 54 63 58 255 
57 3 681 54 63 58 255 
58 3 680 53 62 57 255 
60 3 680 55 64 59 255 
61 3 680 52 61 56 255 
62 3 680 48 57 52 255 
63 3 680 51 60 55 255 
64 3 680 50 59 56 255 
65 3 680 52 61 58 255 
66 3 679 50 61 57 255 
67 3 680 50 61 57 255 
68 3 680 52 63 59 255 
70 3 680 53 64 60 255 
71 3 680 53 64 60 255 
72 3 680 56 67 63 255 
73 3 680 53 65 61 255 
74 3 680 54 66 62 255 
75 3 680 52 64 60 255 
76 3 680 53 65 61 255 
77 3 679 52 64 60 255 
78 3 679 49 61 57 255 
79 3 679 52 64 60 255 
80 3 679 53 65 61 255 
82 3 679 50 62 58 255 
83 3 679 51 63 59 255 
84 3 679 51 63 59 255 
85 3 679 50 62 58 255 
86 3 678 50 62 58 255 
87 3 678 47 59 55 255 
88 3 679 48 60 56 255 
89 3 678 53 65 61 255 
90 3 678 52 65 58 255 
91 3 678 53 66 59 255 
92 3 678 54 65 59 255 
93 3 678 52 63 57 255 
95 3 678 52 63 59 255 
96 3 678 53 64 60 255 
97 3 678 54 65 61 255 
98 3 678 54 65 61 255 
99 3 678 55 66 62 255 
100 3 677 54 65 61 255 
101 3 677 57 63 61 255 
102 3 677 54 60 58 255 
103 3 678 54 60 58 255 
104 3 678 56 62 60 255 
105 3 677 52 61 58 255 
107 3 678 52 61 58 255 
108 3 678 52 64 60 255 
109 3 677 46 58 54 255 
110 3 677 39 50 46 255 
111 3 677 34 45 41 255 
112 3 677 42 48 46 255 
113 3 677 49 55 53 255 
114 3 677 53 59 57 255 
115 3 677 58 64 62 255 
116 3 677 58 67 64 255 
117 3 677 58 67 64 255 
118 3 677 56 67 63 255 
119 3 676 55 66 62 255 
120 3 676 56 67 63 255 
122 3 676 60 71 67 255 
123 3 676 63 74 70 255 
124 3 675 61 72 68 255 
125 3 675 59 59 57 255 
126 3 676 50 50 48 255 
127 3 677 36 36 34 255 
129 3 678 38 38 36 255 
130 3 679 32 32 30 255 
131 3 679 23 23 21 255 
132 3 680 29 29 27 255 
133 3 681 20 20 18 255 
135 3 681 14 16 13 255 
136 3 682 15 17 14 255 
137 3 683 17 19 16 255 
139 3 685 18 20 17 255 
140 3 686 18 20 17 255 
141 3 688 18 20 17 255 
-86 4 636 49 55 53 255 
-84 4 628 115 126 130 255 
-82 4 625 134 145 149 255 
-81 4 622 130 145 150 255 
-80 4 620 130 145 150 255 
-79 4 620 120 137 144 255 
-78 4 619 116 133 140 255 
-76 4 618 121 136 141 255 
-75 4 617 124 139 144 255 
-74 4 616 130 141 147 255 
-73 4 614 131 142 148 255 
-72 4 613 128 139 143 255 
-71 4 611 133 144 148 255 
-70 4 610 126 137 143 255 
-68 4 609 125 136 142 255 
-67 4 608 122 135 141 255 
-66 4 607 124 137 143 255 
-65 4 606 125 141 141 255 
-64 4 605 123 139 139 255 
-63 4 604 121 137 134 255 
-62 4 603 121 137 134 255 
-61 4 601 124 139 144 255 
-60 4 601 121 136 141 255 
-59 4 600 123 138 143 255 
-58 4 599 125 140 145 255 
-57 4 598 123 138 143 255 
-56 4 598 125 140 145 255 
-54 4 596 128 141 147 255 
-53 4 595 126 139 145 255 
-52 4 594 126 139 145 255 
-51 4 594 127 140 146 255 
-50 4 592 128 141 147 255 
-49 4 591 127 140 146 255 
-48 4 590 127 138 144 255 
-47 4 589 126 137 143 255 
-46 4 588 126 137 143 255 
-45 4 587 125 136 142 255 
-44 4 585 124 139 144 255 
-43 4 585 124 139 144 255 
-42 4 584 125 138 146 255 
-41 4 583 126 139 147 255 
-40 4 582 126 139 147 255 
-39 4 581 126 139 147 255 
-38 4 579 125 140 145 255 
-37 4 578 125 140 145 255 
-36 4 577 125 140 145 255 
-35 4 575 121 136 141 255 
-34 4 573 117 130 136 255 
-33 4 572 101 114 120 255 
-32 4 571 96 109 115 255 
-31 4 570 82 95 101 255 
-30 4 568 81 96 99 255 
-29 4 567 83 98 101 255 
-28 4 566 91 108 115 255 
-27 4 565 109 126 133 255 
-26 4 565 119 133 142 255 
-25 4 564 123 137 146 255 
-24 4 562 123 136 145 255 
-23 4 561 124 137 146 255 
-22 4 559 97 110 118 255 
-21 4 557 28 41 49 255 
-20 4 555 86 101 106 255 
-19 4 554 118 133 138 255 
-18 4 553 117 132 135 255 
-17 4 553 120 135 138 255 
-16 4 552 121 134 140 255 
-15 4 551 124 137 143 255 
-14 4 550 89 100 106 255 
-14 4 549 35 46 52 255 
-13 4 549 35 39 40 255 
-12 4 549 36 40 41 255 
-11 4 550 36 40 41 255 
-10 4 551 37 41 42 255 
-9 4 552 37 41 42 255 
-8 4 553 36 40 41 255 
-7 4 554 37 41 42 255 
-6 4 555 37 41 42 255 
-6 4 557 35 39 40 255 
-5 4 557 34 38 39 255 
-4 4 558 36 40 41 255 
-3 4 558 38 42 43 255 
-2 4 559 36 40 41 255 
-1 4 561 35 39 40 255 
0 4 562 36 40 41 255 
1 4 563 36 40 41 255 
2 4 564 36 42 40 255 
3 4 566 36 42 40 255 
4 4 567 35 41 39 255 
5 4 569 35 41 39 255 
5 4 570 36 42 40 255 
6 4 571 35 41 39 255 
7 4 572 32 38 36 255 
8 4 573 34 40 38 255 
9 4 574 34 40 38 255 
10 4 575 37 43 41 255 
11 4 576 40 46 44 255 
12 4 576 39 45 43 255 
13 4 578 37 43 41 255 
14 4 579 36 42 40 255 
15 4 581 36 42 40 255 
16 4 582 36 42 40 255 
17 4 584 37 41 40 255 
18 4 585 35 39 38 255 
19 4 587 38 42 41 255 
20 4 588 38 42 41 255 
21 4 589 33 37 36 255 
22 4 590 33 37 36 255 
23 4 592 36 40 39 255 
24 4 593 34 38 37 255 
25 4 594 36 40 39 255 
26 4 595 37 41 40 255 
27 4 596 37 41 40 255 
28 4 598 39 43 42 255 
29 4 599 39 43 42 255 
30 4 601 39 43 42 255 
31 4 603 40 44 43 255 
32 4 605 39 43 42 255 
33 4 607 40 44 43 255 
35 4 609 40 44 43 255 
36 4 611 40 46 44 255 
37 4 615 38 44 42 255 
38 4 621 26 32 30 255 
40 4 627 15 21 19 255 
41 4 636 15 19 18 255 
43 4 646 15 19 18 255 
45 4 656 14 18 17 255 
46 4 665 12 16 15 255 
48 4 671 14 18 17 255 
49 4 675 17 21 20 255 
51 4 677 23 27 26 255 
