ply
format ascii 1.0
comment VCGLIB generated
element vertex 1842
property float x
property float y
property float z
property uchar red
property uchar green
property uchar blue
property uchar alpha
element face 0
property list uchar int vertex_indices
end_header
-140 59 720 139 149 148 255 
-139 59 719 140 150 149 255 
-138 59 719 144 154 153 255 
-136 59 719 142 152 151 255 
-135 59 719 140 150 149 255 
-134 59 719 142 152 151 255 
-133 59 719 137 147 146 255 
-132 59 719 140 150 149 255 
-131 59 719 140 151 147 255 
-129 59 719 142 153 149 255 
-128 59 718 146 157 149 255 
-127 59 718 144 155 147 255 
-126 59 717 150 154 140 255 
-124 59 716 112 116 102 255 
-123 59 714 87 84 67 255 
-121 59 708 77 74 57 255 
-115 57 684 86 78 65 255 
-106 52 635 83 75 62 255 
-104 52 628 87 77 67 255 
-103 52 626 89 79 69 255 
-101 52 625 90 78 66 255 
-100 52 625 80 68 56 255 
-99 52 624 84 74 62 255 
-98 52 625 82 72 60 255 
-97 52 625 77 73 62 255 
-96 52 625 80 76 65 255 
-95 52 625 78 68 59 255 
-94 52 625 78 68 59 255 
-93 52 625 75 67 56 255 
-92 52 624 78 70 59 255 
-91 52 624 83 75 62 255 
-90 52 624 84 76 63 255 
-89 52 624 83 77 63 255 
-88 52 624 79 73 59 255 
-87 52 625 73 67 53 255 
-86 52 625 72 66 52 255 
-85 52 625 77 74 57 255 
-84 52 626 78 75 58 255 
-83 52 626 76 73 54 255 
-82 52 625 72 69 50 255 
-81 52 625 76 74 53 255 
-80 52 626 76 74 53 255 
-79 52 626 75 67 56 255 
-78 52 626 85 77 66 255 
-77 52 626 84 76 65 255 
-76 52 627 81 73 62 255 
-76 52 628 84 74 64 255 
-75 52 628 82 72 62 255 
-74 52 628 85 77 66 255 
-73 52 628 81 73 62 255 
-71 52 628 80 74 62 255 
-71 52 629 76 70 58 255 
-69 52 628 82 76 64 255 
-68 52 628 75 69 57 255 
-68 52 629 89 83 69 255 
-67 52 629 83 77 63 255 
-66 52 629 82 74 61 255 
-64 52 629 81 73 60 255 
-63 52 629 85 77 66 255 
-62 52 629 86 78 67 255 
-61 52 628 89 83 71 255 
-60 52 628 84 78 66 255 
-59 52 628 85 79 67 255 
-58 52 628 92 86 74 255 
-57 52 628 82 74 63 255 
-56 52 628 87 79 68 255 
-55 52 628 82 74 63 255 
-54 52 629 81 73 62 255 
-53 52 630 85 75 63 255 
-52 52 631 77 67 55 255 
-51 52 631 79 69 57 255 
-50 52 631 84 74 62 255 
-49 52 631 82 74 61 255 
-48 52 631 88 80 67 255 
-47 52 631 89 82 66 255 
-46 52 630 86 79 63 255 
-45 52 630 86 79 61 255 
-44 52 630 86 79 61 255 
-43 52 630 88 81 63 255 
-42 52 630 81 74 56 255 
-41 52 629 82 73 58 255 
-40 52 629 89 80 65 255 
-39 52 630 85 73 59 255 
-38 52 630 86 74 60 255 
-37 52 629 86 77 60 255 
-36 52 629 81 72 55 255 
-35 52 629 85 73 57 255 
-34 52 629 85 73 57 255 
-33 52 629 92 78 65 255 
-32 52 629 92 78 65 255 
-31 52 628 80 75 56 255 
-30 52 628 87 82 63 255 
-29 52 627 80 74 58 255 
-28 52 627 82 76 60 255 
-27 52 627 82 76 62 255 
-26 52 627 83 77 63 255 
-25 52 627 83 78 59 255 
-24 52 627 87 82 63 255 
-23 52 627 86 81 61 255 
-22 52 627 83 78 58 255 
-21 52 627 82 77 57 255 
-19 52 627 87 82 62 255 
-18 52 626 81 76 57 255 
-17 52 626 78 73 54 255 
-16 52 626 76 71 52 255 
-15 52 626 80 75 56 255 
-14 52 626 83 77 63 255 
-13 52 625 89 83 69 255 
-12 52 625 87 82 63 255 
-11 52 625 83 78 59 255 
-10 52 624 87 82 63 255 
-9 52 624 87 82 63 255 
-8 52 624 90 84 68 255 
-7 52 624 92 86 70 255 
-6 52 624 90 84 70 255 
-5 52 624 84 78 64 255 
-4 52 623 84 78 62 255 
-3 52 623 84 78 62 255 
-2 52 623 80 73 57 255 
-1 52 623 81 74 58 255 
0 52 623 87 80 64 255 
1 52 622 89 82 66 255 
2 52 622 89 83 67 255 
3 52 622 83 77 61 255 
4 52 622 85 79 65 255 
5 52 622 86 80 66 255 
6 52 622 83 77 63 255 
7 52 622 84 78 64 255 
8 51 621 81 75 59 255 
9 51 621 81 75 59 255 
10 51 621 85 79 65 255 
11 51 621 85 79 65 255 
12 51 620 88 80 69 255 
13 51 620 85 77 66 255 
14 51 620 93 85 74 255 
15 51 620 88 80 69 255 
16 51 620 85 77 64 255 
17 51 619 77 69 56 255 
18 51 619 81 75 63 255 
19 51 619 78 72 60 255 
20 51 619 86 80 66 255 
21 51 618 86 80 66 255 
22 51 618 88 82 68 255 
23 51 618 84 78 64 255 
24 51 617 76 70 56 255 
25 51 617 73 67 53 255 
26 51 616 82 76 60 255 
27 51 616 79 73 57 255 
28 51 616 79 73 57 255 
29 51 616 72 66 50 255 
30 51 616 72 66 50 255 
31 51 616 80 74 58 255 
32 51 616 81 78 59 255 
33 51 616 82 79 60 255 
34 51 616 82 78 67 255 
35 51 616 78 74 63 255 
36 51 616 81 75 63 255 
37 51 616 84 78 66 255 
38 51 616 85 79 65 255 
39 51 616 84 78 64 255 
40 51 616 81 78 61 255 
41 51 616 80 77 60 255 
42 51 616 81 78 59 255 
43 51 616 80 77 58 255 
44 51 617 77 74 57 255 
45 51 617 75 72 55 255 
46 51 618 77 73 62 255 
47 51 621 70 66 55 255 
49 52 626 69 65 62 255 
61 57 691 80 85 79 255 
62 58 698 66 71 65 255 
64 58 702 56 74 62 255 
65 58 705 54 72 60 255 
66 58 706 58 76 64 255 
68 58 706 69 87 75 255 
69 58 706 81 87 83 255 
70 59 707 81 87 83 255 
71 59 707 86 88 87 255 
72 59 707 88 90 89 255 
73 59 707 81 87 83 255 
75 59 708 77 83 79 255 
76 59 708 66 75 74 255 
77 59 708 69 78 77 255 
78 59 708 69 78 77 255 
79 59 708 76 85 84 255 
80 59 708 87 93 93 255 
82 59 708 87 93 93 255 
83 59 708 85 91 91 255 
84 59 708 84 90 90 255 
85 59 708 79 84 87 255 
86 59 708 80 85 88 255 
87 59 707 78 83 86 255 
88 59 707 79 84 87 255 
89 59 707 85 90 93 255 
91 59 708 86 91 94 255 
92 59 707 84 89 92 255 
93 59 707 82 87 90 255 
94 59 707 78 86 88 255 
95 59 707 78 86 88 255 
96 59 707 79 89 90 255 
97 58 706 77 87 88 255 
98 58 706 76 88 88 255 
100 59 707 82 94 94 255 
101 59 707 84 94 95 255 
102 58 707 84 94 95 255 
103 58 707 81 93 93 255 
104 59 708 82 94 94 255 
106 59 708 81 97 96 255 
107 58 707 82 98 97 255 
108 58 707 81 97 96 255 
109 58 707 79 95 94 255 
110 58 707 82 96 96 255 
111 58 707 90 104 104 255 
112 58 707 92 102 104 255 
113 58 706 95 105 107 255 
114 58 706 91 99 102 255 
116 58 706 96 104 107 255 
117 58 706 95 103 106 255 
118 58 706 98 106 109 255 
119 58 706 100 110 112 255 
120 58 706 101 111 113 255 
121 58 706 99 107 110 255 
122 58 706 98 106 109 255 
123 58 706 101 109 112 255 
125 58 706 98 106 109 255 
126 58 706 101 106 110 255 
127 58 706 105 110 114 255 
128 58 706 102 110 113 255 
129 58 707 104 112 115 255 
130 58 707 103 113 114 255 
132 58 707 107 117 118 255 
133 58 707 110 120 121 255 
134 58 708 109 119 120 255 
135 58 708 94 104 105 255 
136 58 708 97 107 108 255 
137 58 707 97 105 107 255 
138 58 707 102 110 112 255 
139 58 706 98 103 107 255 
141 58 706 106 111 115 255 
142 58 707 102 110 113 255 
143 58 707 71 79 82 255 
144 58 707 42 47 51 255 
145 58 707 45 50 54 255 
-195 61 725 143 157 158 255 
-195 61 726 136 150 150 255 
-193 61 726 134 148 148 255 
-192 61 726 131 145 148 255 
-191 61 726 127 141 144 255 
-190 61 726 137 147 149 255 
-189 61 725 142 152 154 255 
-187 61 724 144 148 147 255 
-186 61 724 162 166 165 255 
-185 61 723 163 174 176 255 
-183 61 722 147 158 160 255 
-182 61 721 127 138 140 255 
-180 60 720 131 142 144 255 
-179 60 720 140 152 152 255 
-178 60 719 141 153 153 255 
-177 60 720 128 140 140 255 
-176 61 721 129 141 141 255 
-175 61 721 132 144 144 255 
-174 61 721 134 146 146 255 
-173 61 721 132 144 142 255 
-171 61 721 130 142 140 255 
-170 61 721 134 146 144 255 
-169 61 721 135 147 145 255 
-168 61 721 133 145 143 255 
-167 61 720 137 149 147 255 
-165 61 720 137 147 148 255 
-164 61 720 137 147 148 255 
-163 61 720 134 144 145 255 
-162 60 719 126 136 137 255 
-161 60 719 131 141 142 255 
-159 60 719 136 146 147 255 
-158 60 719 138 148 149 255 
-157 60 719 136 146 147 255 
-156 60 719 130 140 141 255 
-155 60 719 131 141 142 255 
-154 60 719 135 145 146 255 
-153 60 719 135 145 146 255 
-151 60 719 135 145 146 255 
-150 60 719 136 146 147 255 
-149 60 719 136 146 147 255 
-148 60 719 140 150 151 255 
-147 61 719 137 149 149 255 
-146 61 719 138 150 150 255 
-144 61 719 133 143 144 255 
-143 61 719 133 143 144 255 
-142 60 718 127 137 138 255 
-141 60 718 124 134 135 255 
-140 60 718 129 141 139 255 
-138 60 718 139 151 149 255 
-137 60 717 138 150 148 255 
-136 60 718 134 146 144 255 
-135 60 718 138 148 147 255 
-134 60 717 137 147 146 255 
-133 60 717 136 146 145 255 
-131 60 717 137 147 146 255 
-130 60 717 134 145 141 255 
-129 60 717 134 145 141 255 
-128 60 716 133 148 145 255 
-127 60 716 138 153 150 255 
-125 60 715 138 137 132 255 
-124 60 713 96 95 90 255 
-122 60 710 76 68 57 255 
-119 59 701 82 74 63 255 
-110 55 650 84 82 67 255 
-105 53 630 87 85 70 255 
-103 53 625 80 78 65 255 
-102 53 623 81 79 66 255 
-101 52 622 80 70 60 255 
-100 52 622 75 65 55 255 
-99 52 622 84 72 60 255 
-98 52 622 85 73 61 255 
-97 52 622 75 68 52 255 
-96 52 622 72 65 49 255 
-95 52 621 76 66 56 255 
-94 52 621 76 66 56 255 
-93 52 621 75 65 55 255 
-92 52 621 78 68 58 255 
-91 52 621 83 73 61 255 
-90 52 621 82 72 60 255 
-89 52 621 78 70 57 255 
-88 52 622 77 69 56 255 
-87 52 622 75 67 56 255 
-86 52 622 76 68 57 255 
-85 52 622 76 66 56 255 
-84 52 622 74 64 54 255 
-83 52 622 73 63 53 255 
-82 52 622 73 63 53 255 
-81 52 622 77 69 56 255 
-80 53 623 81 73 60 255 
-79 53 623 79 73 59 255 
-78 53 623 88 82 68 255 
-77 53 623 82 76 64 255 
-76 53 624 80 74 62 255 
-75 53 624 81 73 62 255 
-74 53 624 83 75 64 255 
-73 53 624 79 71 58 255 
-72 53 624 78 70 57 255 
-71 53 624 86 78 65 255 
-70 53 624 80 72 59 255 
-69 53 624 80 72 59 255 
-68 53 624 81 73 60 255 
-67 53 625 82 74 61 255 
-66 53 625 82 74 61 255 
-65 53 625 79 72 56 255 
-64 53 625 78 71 55 255 
-63 53 625 74 70 58 255 
-62 53 625 71 67 55 255 
-61 53 625 76 72 60 255 
-60 53 624 81 77 65 255 
-59 53 624 84 77 67 255 
-58 53 624 86 79 69 255 
-57 53 623 85 79 67 255 
-56 53 623 82 76 64 255 
-55 53 624 82 74 63 255 
-54 53 625 77 69 58 255 
-53 53 625 80 72 59 255 
-52 53 626 81 73 60 255 
-51 53 626 85 77 66 255 
-50 53 626 84 76 65 255 
-49 53 626 84 74 64 255 
-48 53 626 85 75 65 255 
-47 53 626 86 76 64 255 
-46 53 625 81 71 59 255 
-45 53 625 84 75 60 255 
-44 53 625 79 70 55 255 
-43 53 625 86 74 60 255 
-42 53 625 81 69 55 255 
-41 53 625 82 70 58 255 
-40 53 625 82 70 58 255 
-39 53 625 86 74 62 255 
-38 53 625 87 75 63 255 
-37 53 625 86 77 62 255 
-36 53 625 87 78 63 255 
-35 53 625 86 77 62 255 
-34 53 624 87 78 63 255 
-33 53 624 87 73 62 255 
-32 53 624 89 75 64 255 
-31 53 624 83 74 59 255 
-30 53 624 85 76 61 255 
-28 53 623 85 75 63 255 
-27 53 623 84 74 62 255 
-26 53 623 85 76 61 255 
-25 53 623 86 77 62 255 
-24 53 623 84 76 55 255 
-23 53 623 86 78 57 255 
-22 53 623 87 79 56 255 
-21 53 623 84 76 53 255 
-20 53 623 85 79 57 255 
-19 53 623 84 78 56 255 
-18 53 622 85 78 60 255 
-17 53 622 83 76 58 255 
-16 53 622 73 66 48 255 
-15 53 622 77 70 52 255 
-14 52 621 84 75 60 255 
-13 52 621 87 78 63 255 
-12 52 621 89 80 63 255 
-11 52 621 84 75 58 255 
-10 52 620 82 73 58 255 
-9 52 620 91 82 67 255 
-8 52 620 90 82 69 255 
-7 52 620 95 87 74 255 
-6 52 620 91 83 70 255 
-5 52 620 84 76 63 255 
-4 52 620 85 78 62 255 
-3 52 619 83 76 60 255 
-2 52 619 76 68 55 255 
-1 52 619 79 71 58 255 
0 52 619 85 77 64 255 
1 52 619 83 75 62 255 
2 52 619 86 80 64 255 
3 52 619 79 73 57 255 
4 52 619 81 75 61 255 
5 52 619 78 72 58 255 
6 52 619 78 72 58 255 
7 52 619 71 65 51 255 
8 52 619 67 61 47 255 
9 52 618 76 70 56 255 
10 52 618 82 76 60 255 
11 52 618 80 74 58 255 
12 52 617 79 73 57 255 
13 52 617 83 77 61 255 
14 52 617 92 86 72 255 
15 52 617 88 82 68 255 
16 52 617 74 68 54 255 
17 52 616 72 66 52 255 
18 52 616 75 69 53 255 
19 52 615 91 85 69 255 
20 52 615 89 83 67 255 
21 52 615 86 80 64 255 
22 52 615 85 79 63 255 
23 52 615 77 71 55 255 
24 52 614 70 67 50 255 
25 52 614 69 66 49 255 
26 52 614 73 70 53 255 
27 52 614 73 70 53 255 
28 52 614 69 66 49 255 
29 52 614 65 62 45 255 
30 52 614 77 74 57 255 
31 52 613 80 77 60 255 
32 52 614 85 82 65 255 
33 52 614 86 83 66 255 
34 52 614 80 77 62 255 
35 52 614 75 72 57 255 
36 52 614 75 69 55 255 
37 52 614 84 78 64 255 
38 52 614 79 73 59 255 
39 52 614 83 77 63 255 
40 52 614 75 71 59 255 
41 52 614 75 71 59 255 
42 52 614 77 73 61 255 
43 52 614 66 62 50 255 
44 52 615 69 61 48 255 
45 52 615 73 65 52 255 
46 52 616 71 63 52 255 
47 52 619 76 68 57 255 
49 53 624 69 65 53 255 
60 58 687 79 85 75 255 
62 59 695 70 76 66 255 
64 59 700 65 77 67 255 
65 59 703 66 78 68 255 
66 60 705 66 77 69 255 
67 60 705 75 86 78 255 
69 60 705 81 88 81 255 
70 60 705 82 89 82 255 
71 60 706 83 88 84 255 
72 60 706 85 90 86 255 
73 60 706 82 91 88 255 
74 60 706 72 81 78 255 
76 60 707 64 70 66 255 
77 60 707 65 71 67 255 
78 60 707 65 74 69 255 
79 60 707 74 83 78 255 
80 60 707 79 88 85 255 
81 60 707 81 90 87 255 
83 60 707 84 93 90 255 
84 60 707 77 86 83 255 
85 60 706 74 83 82 255 
86 60 705 78 87 86 255 
87 60 706 74 84 85 255 
88 60 706 74 84 85 255 
89 60 706 75 85 87 255 
90 60 706 85 95 97 255 
92 60 706 83 93 94 255 
93 59 705 78 88 89 255 
94 59 705 77 87 88 255 
95 59 705 76 86 87 255 
96 59 705 77 87 88 255 
97 59 705 79 89 90 255 
98 59 705 80 92 92 255 
99 59 705 82 94 94 255 
101 59 705 82 94 94 255 
102 59 705 81 93 93 255 
103 59 705 73 87 87 255 
104 60 706 77 91 91 255 
105 60 706 87 103 102 255 
106 60 706 79 95 94 255 
107 59 705 74 90 89 255 
109 59 705 81 97 96 255 
110 59 705 80 99 97 255 
111 59 705 85 104 102 255 
112 59 705 95 105 106 255 
113 59 705 96 106 107 255 
114 59 705 94 104 103 255 
115 59 704 91 101 100 255 
116 59 704 93 103 102 255 
117 59 704 97 107 106 255 
119 59 704 97 107 108 255 
120 59 704 95 105 106 255 
121 59 704 92 102 103 255 
122 59 704 89 99 100 255 
123 59 704 95 105 106 255 
124 59 704 92 102 103 255 
125 59 704 96 104 106 255 
127 59 704 102 110 112 255 
128 59 705 95 103 106 255 
129 59 705 98 106 109 255 
130 59 705 93 102 101 255 
131 59 705 89 98 97 255 
132 59 705 92 102 103 255 
134 59 705 97 107 108 255 
135 59 705 92 103 105 255 
136 59 705 87 98 100 255 
137 59 705 98 110 110 255 
138 59 705 96 108 108 255 
139 59 705 94 105 107 255 
140 59 705 100 111 113 255 
141 59 705 105 112 118 255 
143 59 706 78 85 91 255 
144 60 707 39 44 50 255 
145 60 707 39 44 50 255 
-196 62 724 163 175 175 255 
-195 62 724 155 167 167 255 
-194 62 725 151 163 163 255 
-193 62 725 145 157 157 255 
-192 62 725 139 153 154 255 
-191 62 725 135 149 150 255 
-190 62 725 140 150 151 255 
-188 62 724 138 148 149 255 
-187 62 723 147 153 151 255 
-185 62 722 169 175 173 255 
-184 62 721 153 165 165 255 
-183 62 720 139 151 151 255 
-181 62 719 135 147 147 255 
-180 62 719 140 152 152 255 
-179 61 718 139 151 151 255 
-178 61 718 137 149 149 255 
-176 61 718 130 142 142 255 
-176 62 719 126 138 138 255 
-174 62 719 129 141 141 255 
-173 62 720 132 144 144 255 
-172 62 719 133 145 145 255 
-171 62 719 136 148 148 255 
-170 62 720 141 153 151 255 
-169 62 720 140 152 150 255 
-167 62 719 135 147 145 255 
-166 62 719 135 147 145 255 
-165 62 719 134 146 146 255 
-164 62 719 136 148 148 255 
-163 62 718 134 146 146 255 
-162 62 718 127 139 139 255 
-160 61 717 132 144 144 255 
-159 61 717 135 147 147 255 
-158 61 717 137 149 149 255 
-157 61 717 136 148 148 255 
-156 62 718 134 146 146 255 
-155 62 718 130 142 142 255 
-153 61 717 132 144 144 255 
-152 61 717 138 150 150 255 
-151 61 717 138 150 150 255 
-150 61 717 134 146 146 255 
-149 62 718 136 148 148 255 
-148 62 718 144 156 156 255 
-147 62 718 136 148 148 255 
-145 62 718 139 151 151 255 
-144 62 717 133 145 145 255 
-143 62 717 135 147 147 255 
-142 62 717 137 147 148 255 
-140 61 716 135 145 146 255 
-139 61 716 132 144 144 255 
-138 61 716 134 146 146 255 
-137 61 716 135 147 145 255 
-136 61 716 138 150 148 255 
-135 61 716 141 151 150 255 
-133 61 716 143 153 152 255 
-132 61 715 140 150 149 255 
-131 61 715 137 147 146 255 
-130 61 715 129 139 138 255 
-129 61 715 130 140 139 255 
-128 61 715 136 147 143 255 
-126 61 714 140 151 147 255 
-125 61 713 128 125 118 255 
-123 61 711 88 85 78 255 
-121 61 706 72 62 52 255 
-117 59 688 79 69 59 255 
-107 54 634 86 80 66 255 
-104 54 625 85 79 65 255 
-103 53 622 83 77 65 255 
-102 53 621 84 78 66 255 
-101 53 620 85 72 63 255 
-100 53 620 84 71 62 255 
-99 53 620 90 76 65 255 
-98 53 620 91 77 66 255 
-97 53 620 85 76 61 255 
-96 53 620 84 75 60 255 
-94 53 619 80 70 60 255 
-93 53 619 84 74 64 255 
-92 53 619 84 74 64 255 
-91 53 619 83 73 63 255 
-90 53 619 84 74 64 255 
-89 53 619 83 73 63 255 
-88 53 619 80 70 60 255 
-88 53 620 76 66 56 255 
-87 53 620 75 67 56 255 
-86 53 620 78 70 59 255 
-85 53 620 80 70 60 255 
-84 53 620 77 67 57 255 
-83 53 620 75 65 55 255 
-82 53 620 78 68 58 255 
-81 53 620 80 72 61 255 
-80 53 620 78 70 59 255 
-79 53 620 92 84 73 255 
-78 53 621 98 90 79 255 
-77 53 621 91 82 73 255 
-76 54 622 82 73 64 255 
-75 54 622 80 71 62 255 
-74 54 622 84 75 66 255 
-73 54 622 81 73 62 255 
-72 53 621 81 73 62 255 
-71 54 622 87 79 66 255 
-70 54 622 89 81 68 255 
-69 54 622 87 79 68 255 
-68 54 622 77 69 58 255 
-67 54 622 73 65 52 255 
-66 54 623 77 69 56 255 
-65 54 623 80 72 59 255 
-64 54 623 79 71 58 255 
-63 54 623 78 70 57 255 
-62 54 623 79 71 58 255 
-61 54 623 84 76 63 255 
-60 54 622 86 78 65 255 
-59 53 621 84 76 63 255 
-58 53 621 86 78 65 255 
-57 53 621 85 75 63 255 
-56 53 621 75 65 53 255 
-55 53 621 80 70 58 255 
-54 54 622 81 71 59 255 
-53 54 623 87 78 63 255 
-52 54 624 90 81 66 255 
-51 54 623 95 86 71 255 
-50 54 624 93 84 69 255 
-49 54 624 93 81 69 255 
-48 54 623 91 79 67 255 
-47 54 623 87 78 63 255 
-46 54 622 84 75 60 255 
-45 54 623 86 77 62 255 
-44 54 623 79 70 55 255 
-43 54 623 83 74 59 255 
-42 54 623 82 73 58 255 
-41 54 622 88 76 62 255 
-40 54 623 88 76 62 255 
-39 54 623 86 77 62 255 
-38 54 622 88 79 64 255 
-37 54 622 89 80 65 255 
-36 54 622 91 82 67 255 
-34 54 622 87 78 63 255 
-33 54 622 87 78 63 255 
-32 54 622 89 77 63 255 
-31 54 622 92 80 66 255 
-30 54 622 90 78 64 255 
-29 54 622 94 82 68 255 
-28 53 621 93 81 67 255 
-27 53 621 92 80 66 255 
-26 53 621 96 84 68 255 
-25 53 621 97 85 69 255 
-24 53 621 95 84 64 255 
-23 54 621 93 82 62 255 
-22 54 621 94 83 61 255 
-21 54 621 90 79 57 255 
-20 54 621 88 77 57 255 
-19 53 620 85 74 54 255 
-18 53 620 87 76 58 255 
-17 53 620 90 79 61 255 
-16 53 620 87 75 59 255 
-15 53 620 90 78 62 255 
-14 53 619 92 80 64 255 
-13 53 619 98 86 70 255 
-12 53 618 102 91 73 255 
-11 53 618 96 85 67 255 
-10 53 618 91 80 62 255 
-9 53 618 95 84 66 255 
-8 53 618 92 80 64 255 
-7 53 618 89 77 61 255 
-6 53 618 85 76 59 255 
-5 53 618 88 79 62 255 
-4 53 617 96 87 70 255 
-3 53 617 97 88 71 255 
-2 53 616 91 82 65 255 
-1 53 616 88 79 62 255 
0 53 616 88 79 64 255 
1 53 616 89 80 65 255 
2 53 616 82 77 58 255 
3 53 616 84 79 60 255 
4 53 616 87 81 65 255 
5 53 617 86 80 64 255 
6 53 616 86 80 64 255 
7 53 616 82 76 60 255 
8 53 616 86 79 63 255 
9 53 616 86 79 63 255 
10 53 616 82 75 59 255 
11 53 615 86 79 63 255 
12 53 615 84 77 59 255 
13 53 615 83 76 58 255 
14 53 615 88 81 65 255 
15 53 615 87 80 64 255 
16 53 615 81 74 58 255 
17 53 614 83 76 60 255 
18 53 614 85 78 60 255 
19 53 614 96 89 71 255 
20 53 613 94 87 71 255 
21 53 613 92 85 69 255 
22 53 613 91 84 68 255 
23 53 613 84 77 61 255 
24 53 613 84 77 59 255 
25 53 612 88 81 63 255 
26 53 612 90 83 65 255 
27 53 612 91 84 66 255 
28 53 612 88 81 65 255 
29 53 612 82 75 59 255 
30 53 612 84 77 61 255 
31 53 612 83 76 60 255 
32 53 612 86 81 62 255 
33 53 612 87 82 63 255 
34 53 612 87 81 65 255 
35 53 612 87 81 65 255 
36 53 612 88 81 63 255 
37 53 612 95 88 70 255 
38 53 612 87 80 62 255 
39 53 613 81 74 56 255 
40 53 613 76 70 54 255 
41 53 613 81 75 59 255 
42 53 613 82 76 62 255 
43 53 613 77 71 57 255 
44 53 613 80 73 57 255 
45 53 613 83 76 60 255 
46 53 614 81 73 60 255 
47 53 617 86 78 65 255 
48 53 621 71 68 53 255 
50 54 629 68 65 50 255 
52 55 639 75 75 67 255 
60 59 684 73 76 67 255 
62 60 693 69 72 63 255 
63 60 698 69 79 70 255 
65 60 702 72 82 73 255 
66 61 704 72 82 74 255 
67 61 705 76 86 78 255 
69 61 705 78 83 77 255 
70 61 705 81 86 80 255 
71 61 705 85 90 86 255 
72 61 705 84 89 85 255 
73 61 705 81 86 82 255 
74 61 705 75 80 76 255 
75 61 705 80 85 81 255 
77 61 705 82 87 83 255 
78 61 705 81 87 85 255 
79 61 705 86 92 90 255 
80 61 705 86 92 90 255 
81 61 705 81 87 85 255 
82 61 705 81 87 85 255 
83 61 705 78 84 82 255 
84 61 704 75 84 83 255 
86 61 704 77 86 85 255 
87 61 704 71 81 82 255 
88 61 705 71 81 82 255 
89 61 705 74 84 85 255 
90 61 705 82 92 93 255 
91 61 705 80 90 91 255 
92 61 704 79 89 90 255 
94 61 704 79 87 89 255 
95 61 704 79 87 89 255 
96 61 704 80 90 91 255 
97 61 704 79 89 90 255 
98 61 704 80 90 91 255 
99 61 704 81 91 92 255 
100 61 704 76 88 88 255 
102 61 704 71 83 83 255 
103 61 704 70 82 82 255 
104 61 704 77 89 89 255 
105 61 704 84 98 98 255 
106 61 704 76 90 90 255 
107 61 704 70 84 84 255 
108 61 704 74 88 88 255 
110 61 704 80 94 94 255 
111 61 704 90 104 104 255 
112 61 704 96 106 105 255 
113 61 704 95 105 104 255 
114 60 704 100 110 109 255 
115 60 703 98 108 107 255 
116 60 703 93 103 102 255 
117 60 703 98 108 107 255 
118 60 703 101 111 112 255 
120 60 703 98 108 109 255 
121 60 702 93 103 104 255 
122 60 703 89 99 100 255 
123 60 703 87 97 96 255 
124 60 703 90 100 99 255 
125 60 703 95 103 105 255 
126 60 703 99 107 109 255 
127 60 703 93 101 103 255 
129 60 704 86 94 96 255 
130 60 704 81 89 91 255 
131 60 704 83 91 93 255 
132 60 704 87 97 98 255 
133 60 704 88 98 99 255 
134 60 704 88 99 101 255 
135 60 703 89 100 102 255 
137 60 703 92 104 104 255 
138 60 703 94 106 106 255 
139 60 703 104 115 117 255 
140 60 703 94 105 107 255 
141 60 704 91 100 105 255 
143 60 705 82 91 96 255 
144 61 706 44 49 55 255 
145 61 707 37 42 48 255 
-198 63 723 108 119 121 255 
-197 63 722 163 174 176 255 
-196 63 723 154 166 166 255 
-195 63 724 161 173 173 255 
-194 63 724 161 173 171 255 
-193 63 724 153 165 163 255 
-192 63 724 149 163 163 255 
-191 63 724 148 162 162 255 
-189 63 724 152 164 164 255 
-188 63 723 143 155 155 255 
-187 63 722 155 165 164 255 
-185 63 721 167 177 176 255 
-184 63 720 157 167 168 255 
-182 63 719 151 161 162 255 
-181 63 718 151 161 162 255 
-180 63 718 150 160 161 255 
-178 63 717 148 158 159 255 
-177 63 717 139 149 150 255 
-176 63 717 133 143 144 255 
-175 63 718 133 143 144 255 
-174 63 718 137 147 148 255 
-173 63 718 137 147 148 255 
-172 63 717 137 147 148 255 
-170 63 717 137 147 148 255 
-170 63 718 140 150 151 255 
-168 63 718 141 151 152 255 
-167 63 718 140 150 151 255 
-166 63 717 142 152 153 255 
-165 63 717 139 151 151 255 
-164 63 718 136 148 148 255 
-162 63 717 131 143 143 255 
-161 63 717 126 138 138 255 
-160 63 717 135 147 147 255 
-159 63 717 140 152 152 255 
-158 63 717 141 153 153 255 
-157 63 717 139 151 151 255 
-155 63 716 139 151 151 255 
-154 63 717 132 144 144 255 
-153 63 716 132 144 144 255 
-152 63 716 138 150 150 255 
-151 63 716 137 149 149 255 
-150 63 716 131 143 143 255 
-148 63 716 134 146 146 255 
-147 63 717 141 153 153 255 
-146 63 716 136 148 148 255 
-145 63 716 141 153 153 255 
-144 63 716 134 146 146 255 
-143 63 716 136 148 148 255 
-141 62 715 141 153 153 255 
-140 62 715 141 153 153 255 
-139 63 715 136 148 148 255 
-138 63 715 134 146 146 255 
-137 62 714 135 147 147 255 
-135 62 714 140 152 152 255 
-134 62 714 140 150 151 255 
-133 62 714 142 152 153 255 
-132 62 714 141 151 152 255 
-131 62 714 142 152 153 255 
-129 62 713 138 148 149 255 
-128 62 713 144 154 155 255 
-127 62 713 149 155 151 255 
-126 62 713 127 133 129 255 
-125 62 711 106 99 93 255 
-123 62 708 89 82 76 255 
-120 61 700 82 70 58 255 
-110 56 645 78 66 54 255 
-106 55 628 85 75 63 255 
-104 54 622 89 79 67 255 
-103 54 620 89 81 68 255 
-101 54 619 90 82 69 255 
-100 54 619 94 80 71 255 
-99 54 618 95 81 72 255 
-98 54 618 99 81 71 255 
-97 54 618 98 80 70 255 
-96 54 618 97 83 70 255 
-95 54 618 97 83 70 255 
-94 54 617 99 87 73 255 
-93 54 617 105 93 79 255 
-92 54 617 107 95 83 255 
-91 54 617 104 92 80 255 
-90 54 617 103 91 79 255 
-89 54 617 101 89 77 255 
-88 54 617 95 85 73 255 
-87 54 618 87 77 65 255 
-86 54 618 91 81 69 255 
-85 54 618 92 82 70 255 
-84 54 618 96 86 74 255 
-83 54 618 95 85 73 255 
-82 54 618 89 79 69 255 
-81 54 618 88 78 68 255 
-80 54 618 88 80 69 255 
-79 54 618 85 77 66 255 
-78 54 619 105 92 83 255 
-77 54 619 104 91 82 255 
-77 54 620 102 92 82 255 
-76 54 620 90 80 70 255 
-75 54 620 89 79 69 255 
-74 54 620 95 85 75 255 
-73 54 620 96 86 74 255 
-71 54 619 97 87 75 255 
-70 54 619 103 95 82 255 
-69 54 619 100 92 79 255 
-68 54 619 97 89 76 255 
-67 54 619 94 86 73 255 
-67 54 620 89 82 66 255 
-66 54 620 85 78 62 255 
-65 54 620 88 81 65 255 
-64 54 620 92 85 69 255 
-63 54 621 93 84 69 255 
-62 54 621 94 85 70 255 
-61 54 620 97 88 71 255 
-60 54 620 97 88 71 255 
-58 54 619 95 86 69 255 
-57 54 619 100 91 74 255 
-56 54 619 106 94 78 255 
-55 54 619 96 84 68 255 
-54 54 619 102 90 74 255 
-54 54 620 101 89 73 255 
-53 54 621 102 90 74 255 
-52 54 621 105 93 77 255 
-51 54 621 114 102 86 255 
-50 54 621 114 102 86 255 
-49 54 621 111 99 83 255 
-48 54 621 106 94 78 255 
-47 54 621 104 95 78 255 
-45 54 620 97 88 71 255 
-44 54 620 96 88 69 255 
-43 54 620 91 83 64 255 
-42 54 620 99 91 72 255 
-41 54 620 104 96 77 255 
-40 54 620 109 100 83 255 
-39 54 620 106 97 80 255 
-38 54 619 105 93 77 255 
-37 54 619 108 96 80 255 
-36 54 619 110 99 81 255 
-35 54 619 116 105 87 255 
-34 54 619 110 102 83 255 
-33 54 619 108 100 81 255 
-32 54 619 109 97 81 255 
-31 54 619 109 97 81 255 
-30 54 619 116 102 89 255 
-29 54 619 115 101 88 255 
-28 54 619 116 103 86 255 
-27 54 619 119 106 89 255 
-26 54 618 124 111 92 255 
-25 54 618 112 99 80 255 
-24 54 619 108 96 72 255 
-23 54 618 107 95 71 255 
-22 54 618 114 99 76 255 
-21 54 618 116 101 78 255 
-20 54 618 118 103 82 255 
-19 54 618 118 103 82 255 
-18 54 618 119 104 85 255 
-17 54 618 121 106 87 255 
-16 54 618 122 107 88 255 
-15 54 617 120 105 86 255 
-14 54 617 118 105 86 255 
-13 54 616 120 107 88 255 
-12 54 616 126 113 94 255 
-11 54 616 123 110 91 255 
-10 54 616 120 107 88 255 
-9 54 616 120 107 88 255 
-8 54 616 117 106 88 255 
-7 54 616 112 101 83 255 
-6 54 617 110 99 81 255 
-5 54 616 115 104 86 255 
-4 54 616 119 111 92 255 
-3 54 616 119 111 92 255 
-2 54 615 116 108 89 255 
-1 54 615 111 103 84 255 
0 54 615 109 101 82 255 
1 54 615 112 104 85 255 
2 54 615 109 104 84 255 
3 54 615 109 104 84 255 
4 54 615 111 106 86 255 
5 54 615 119 114 94 255 
6 54 615 118 111 92 255 
7 54 615 108 101 82 255 
8 54 615 113 106 87 255 
9 54 615 107 100 81 255 
10 54 615 107 100 82 255 
11 54 614 113 106 88 255 
12 54 614 110 101 84 255 
13 54 613 108 99 82 255 
14 54 613 114 105 88 255 
15 54 613 115 106 89 255 
16 54 612 110 101 84 255 
17 54 612 109 100 83 255 
18 54 612 119 108 90 255 
19 54 612 124 113 95 255 
20 54 612 122 114 95 255 
21 54 612 123 115 96 255 
22 54 611 121 112 95 255 
23 54 611 114 105 88 255 
24 54 611 113 105 86 255 
25 54 611 119 111 92 255 
26 54 611 115 106 89 255 
27 54 611 114 105 88 255 
28 54 611 113 104 87 255 
29 54 610 111 102 85 255 
30 54 611 114 105 88 255 
31 54 611 114 105 88 255 
32 54 611 117 108 91 255 
33 54 611 113 104 87 255 
34 54 610 107 96 76 255 
35 54 610 109 98 78 255 
36 54 610 106 95 75 255 
37 54 610 109 98 78 255 
38 54 610 113 102 82 255 
39 54 611 110 99 79 255 
40 54 611 107 100 81 255 
41 54 611 110 103 84 255 
42 54 611 109 102 84 255 
43 54 610 114 107 89 255 
44 54 610 116 109 91 255 
45 54 611 109 102 84 255 
46 54 612 102 95 77 255 
47 54 615 106 99 81 255 
48 54 619 80 74 58 255 
50 55 626 68 62 46 255 
51 56 634 76 76 68 255 
60 60 681 73 74 66 255 
62 61 691 75 76 68 255 
63 61 696 74 81 73 255 
65 61 701 70 77 69 255 
66 62 703 78 85 78 255 
67 62 704 77 84 77 255 
69 62 705 76 81 75 255 
70 62 705 79 84 78 255 
71 62 705 84 85 80 255 
72 62 705 79 80 75 255 
73 62 705 74 75 70 255 
74 62 705 75 76 71 255 
75 62 705 74 76 73 255 
77 62 705 76 78 75 255 
78 62 705 73 77 76 255 
79 62 704 77 81 80 255 
80 62 704 82 88 86 255 
81 62 704 82 88 86 255 
82 62 704 82 88 86 255 
83 62 704 84 90 88 255 
84 62 703 78 84 82 255 
85 62 703 77 83 81 255 
87 62 703 71 80 79 255 
88 62 704 75 84 83 255 
89 62 704 78 88 89 255 
90 62 704 82 92 93 255 
91 62 704 81 91 90 255 
92 62 703 83 93 92 255 
93 62 703 84 89 92 255 
95 62 703 81 86 89 255 
96 62 703 80 88 90 255 
97 62 703 75 83 85 255 
98 62 702 75 83 85 255 
99 62 702 79 87 89 255 
100 62 703 74 82 84 255 
101 62 703 70 78 80 255 
103 62 703 71 81 82 255 
104 62 704 81 91 92 255 
105 62 703 86 96 95 255 
106 62 704 82 92 91 255 
107 62 704 77 89 87 255 
108 62 703 77 89 87 255 
109 62 703 84 96 94 255 
110 62 703 99 111 109 255 
112 62 703 97 106 105 255 
113 62 703 103 112 111 255 
114 62 703 108 117 116 255 
115 61 702 104 113 112 255 
116 61 702 105 114 113 255 
117 61 702 108 117 116 255 
118 61 702 106 115 114 255 
119 61 702 110 119 118 255 
121 61 702 105 115 114 255 
122 61 702 100 110 109 255 
123 61 702 92 102 101 255 
124 61 702 99 109 108 255 
125 62 703 102 112 111 255 
126 61 702 105 115 114 255 
127 62 703 101 111 112 255 
129 62 703 89 99 100 255 
130 62 703 88 96 98 255 
131 61 703 86 94 96 255 
132 61 703 89 99 100 255 
133 61 703 93 103 104 255 
134 61 703 94 105 107 255 
135 61 702 86 97 99 255 
136 61 702 71 85 86 255 
137 61 702 81 95 96 255 
139 61 702 97 111 112 255 
140 61 702 73 87 88 255 
141 61 703 74 83 88 255 
142 61 703 92 101 106 255 
144 62 704 51 58 64 255 
145 62 706 28 35 41 255 
145 61 699 38 43 49 255 
-198 64 722 151 161 163 255 
-197 64 721 156 166 168 255 
-196 64 722 156 168 168 255 
-195 64 724 162 174 174 255 
-194 64 724 154 166 164 255 
-193 64 724 156 168 166 255 
-192 64 725 160 174 174 255 
-191 64 725 159 173 173 255 
-189 64 724 154 168 168 255 
-188 64 723 149 163 163 255 
-187 64 722 164 175 177 255 
-185 64 720 170 181 183 255 
-184 64 719 160 170 171 255 
-182 64 718 160 170 171 255 
-181 64 717 159 169 170 255 
-180 64 717 154 164 165 255 
-178 64 716 156 166 167 255 
-177 64 716 144 154 155 255 
-176 64 716 137 147 148 255 
-175 64 716 140 150 151 255 
-174 64 716 144 154 155 255 
-173 64 716 143 153 154 255 
-171 64 716 141 151 152 255 
-170 64 716 137 147 148 255 
-169 64 716 136 146 147 255 
-168 64 716 137 147 148 255 
-167 64 716 140 150 151 255 
-166 64 716 147 157 158 255 
-164 64 715 145 157 157 255 
-163 64 716 144 156 156 255 
-162 64 715 143 155 155 255 
-161 64 715 139 151 151 255 
-160 64 715 142 154 154 255 
-159 64 715 141 153 153 255 
-157 64 715 142 154 154 255 
-156 64 715 140 152 152 255 
-155 64 715 139 151 151 255 
-154 64 715 138 150 150 255 
-153 64 715 136 146 147 255 
-152 64 715 136 146 147 255 
-151 64 715 136 146 147 255 
-149 64 715 137 147 148 255 
-148 64 715 143 153 154 255 
-147 64 715 145 155 156 255 
-146 64 714 140 152 152 255 
-145 64 714 144 156 156 255 
-143 63 713 139 151 151 255 
-142 63 713 142 154 154 255 
-141 63 713 144 156 156 255 
-140 63 713 144 156 156 255 
-139 63 713 141 153 153 255 
-138 63 713 141 153 153 255 
-136 63 713 138 150 150 255 
-135 63 713 145 157 157 255 
-134 63 713 144 156 156 255 
-133 64 713 149 161 161 255 
-132 64 713 148 158 159 255 
-131 64 713 149 159 160 255 
-129 63 712 144 156 156 255 
-128 63 712 145 157 157 255 
-127 63 712 143 145 142 255 
-126 63 711 99 101 98 255 
-124 63 708 80 71 64 255 
-122 63 703 86 77 70 255 
-118 61 689 93 79 68 255 
-108 56 633 93 79 68 255 
-105 56 623 99 87 73 255 
-103 55 619 103 91 77 255 
-102 55 618 104 92 80 255 
-101 55 618 108 96 84 255 
-100 55 617 115 98 90 255 
-99 55 617 120 103 95 255 
-98 55 616 119 101 91 255 
-97 55 616 116 98 88 255 
-96 55 616 118 104 91 255 
-95 55 616 117 103 90 255 
-94 55 615 121 105 89 255 
-93 55 615 123 107 91 255 
-92 55 615 121 105 90 255 
-91 55 615 118 102 87 255 
-90 55 615 117 101 88 255 
-89 55 615 119 103 90 255 
-88 55 615 117 103 90 255 
-87 55 616 112 98 85 255 
-86 55 616 115 102 86 255 
-85 55 616 113 100 84 255 
-84 55 616 116 104 88 255 
-83 55 616 119 107 91 255 
-82 55 616 109 97 83 255 
-81 55 616 99 87 73 255 
-80 55 616 96 84 72 255 
-79 55 616 97 85 73 255 
-78 55 617 105 91 78 255 
-77 55 617 99 85 72 255 
-76 55 617 107 93 80 255 
-75 55 618 98 84 71 255 
-74 55 618 97 85 71 255 
-73 55 618 102 90 76 255 
-72 55 618 101 89 73 255 
-71 55 617 101 89 73 255 
-70 55 617 103 95 76 255 
-69 55 616 101 93 74 255 
-68 55 616 98 91 72 255 
-67 55 616 103 96 77 255 
-66 55 617 105 98 79 255 
-65 55 617 103 96 77 255 
-64 55 617 100 94 72 255 
-63 55 617 95 89 67 255 
-62 55 618 99 88 70 255 
-61 55 618 97 86 68 255 
-60 55 618 95 84 66 255 
-59 55 617 98 87 69 255 
-58 55 617 96 85 65 255 
-57 55 617 98 87 67 255 
-56 55 617 103 92 72 255 
-55 55 616 99 88 68 255 
-54 55 617 101 90 72 255 
-53 55 618 101 90 72 255 
-52 55 618 98 87 69 255 
-51 55 618 95 84 66 255 
-50 55 618 98 87 67 255 
-49 55 618 97 86 66 255 
-48 55 618 100 89 67 255 
-47 55 618 98 87 65 255 
-46 55 618 102 91 69 255 
-45 55 617 96 85 63 255 
-44 55 617 91 83 60 255 
-43 55 617 84 76 53 255 
-42 55 617 86 80 56 255 
-41 55 617 88 82 58 255 
-40 55 616 96 88 65 255 
-39 55 616 99 91 68 255 
-38 55 616 100 89 67 255 
-37 55 616 100 89 67 255 
-36 55 616 98 87 65 255 
-35 55 616 108 97 75 255 
-34 55 616 110 99 77 255 
-33 55 616 108 97 75 255 
-32 55 616 103 95 72 255 
-31 55 616 100 92 69 255 
-30 55 616 108 95 78 255 
-29 55 616 111 98 81 255 
-28 55 616 113 100 81 255 
-27 55 616 107 94 75 255 
-26 55 615 107 95 71 255 
-25 55 615 95 83 59 255 
-24 55 615 98 84 57 255 
-23 55 615 92 78 51 255 
-22 55 615 105 91 65 255 
-21 55 615 111 97 71 255 
-20 55 615 112 97 74 255 
-19 55 615 111 96 73 255 
-18 55 615 108 92 69 255 
-17 55 615 109 93 70 255 
-16 55 615 115 99 76 255 
-15 55 615 111 95 72 255 
-14 55 614 108 96 74 255 
-13 55 613 103 91 69 255 
-12 55 613 102 90 68 255 
-11 55 613 101 89 67 255 
-10 55 613 100 89 67 255 
-9 55 613 97 86 64 255 
-8 55 613 97 86 64 255 
-7 55 613 96 85 63 255 
-6 55 614 96 88 67 255 
-5 55 613 93 85 64 255 
-4 55 613 91 83 62 255 
-3 55 613 89 81 60 255 
-2 55 613 87 81 59 255 
-1 55 612 90 84 62 255 
0 55 612 93 87 65 255 
1 55 612 97 91 69 255 
2 55 612 96 91 69 255 
3 55 612 92 87 65 255 
4 55 612 85 81 56 255 
5 55 612 83 79 54 255 
6 55 612 85 79 55 255 
7 55 612 88 82 58 255 
8 55 612 98 92 68 255 
9 55 611 87 81 57 255 
10 55 611 92 84 63 255 
11 55 611 91 83 62 255 
12 55 611 82 74 55 255 
13 55 610 85 77 58 255 
14 55 610 96 88 69 255 
15 55 610 100 92 73 255 
16 55 610 98 90 69 255 
17 55 610 93 85 64 255 
18 55 610 91 79 57 255 
19 55 610 94 82 60 255 
20 55 610 94 83 61 255 
21 55 610 93 82 60 255 
22 55 610 92 81 59 255 
23 55 610 85 74 52 255 
24 54 609 82 71 51 255 
25 54 609 85 74 54 255 
26 54 609 85 74 54 255 
27 54 609 86 75 55 255 
28 54 609 87 76 56 255 
29 54 609 87 76 56 255 
30 54 609 88 77 59 255 
31 54 609 88 77 59 255 
32 54 609 90 79 61 255 
33 54 609 89 78 60 255 
34 54 609 89 73 50 255 
34 54 608 96 80 57 255 
35 54 608 89 73 50 255 
36 54 608 81 65 42 255 
37 54 608 88 73 50 255 
38 54 608 88 73 50 255 
39 54 608 89 77 55 255 
40 54 608 86 74 52 255 
41 54 608 92 81 59 255 
42 54 608 91 80 58 255 
43 54 609 90 82 61 255 
44 54 609 92 84 63 255 
46 55 611 87 79 58 255 
47 55 613 83 75 54 255 
48 55 616 52 46 24 255 
49 56 623 44 38 16 255 
57 60 668 48 47 42 255 
59 61 679 44 45 39 255 
61 62 689 46 47 41 255 
63 62 696 45 50 43 255 
65 63 701 43 48 41 255 
66 63 703 41 48 40 255 
67 63 704 40 47 39 255 
68 63 704 41 46 39 255 
70 63 705 39 44 37 255 
71 63 705 35 38 31 255 
72 63 706 27 30 23 255 
73 63 705 26 25 21 255 
74 63 705 30 29 25 255 
76 63 706 26 28 25 255 
77 63 705 31 33 30 255 
78 63 705 32 37 33 255 
79 63 704 44 49 45 255 
80 63 704 65 69 68 255 
81 63 703 78 82 81 255 
82 63 703 78 84 82 255 
83 63 702 77 83 81 255 
84 63 703 74 80 78 255 
85 63 702 72 78 76 255 
86 63 702 70 79 78 255 
88 63 703 76 85 84 255 
89 63 703 77 87 86 255 
90 63 703 75 85 84 255 
91 63 703 73 83 82 255 
92 63 703 75 85 84 255 
93 63 703 77 82 85 255 
95 63 703 75 80 83 255 
96 63 703 81 87 87 255 
97 63 703 80 86 86 255 
98 63 702 80 89 88 255 
99 63 702 84 93 92 255 
100 63 702 81 90 89 255 
101 63 703 83 92 91 255 
103 63 703 87 96 95 255 
104 63 703 99 108 107 255 
105 63 703 101 111 110 255 
106 63 703 106 116 115 255 
107 63 703 107 117 116 255 
108 63 703 103 113 112 255 
109 63 702 106 116 115 255 
110 63 702 119 129 128 255 
111 63 702 120 129 128 255 
113 63 702 129 138 137 255 
114 63 702 135 145 144 255 
115 63 702 133 143 142 255 
116 63 702 139 149 148 255 
117 63 702 141 151 150 255 
118 63 702 134 144 143 255 
119 63 702 140 150 149 255 
121 63 702 134 144 143 255 
122 63 702 134 144 143 255 
123 63 702 128 138 137 255 
124 63 702 134 144 143 255 
125 63 702 134 144 143 255 
126 63 702 137 147 146 255 
127 63 702 134 144 143 255 
128 63 702 127 137 136 255 
130 63 702 124 133 132 255 
131 63 702 124 133 132 255 
132 63 702 118 128 129 255 
133 63 702 118 128 129 255 
134 63 702 119 133 133 255 
135 62 701 117 131 131 255 
136 62 701 110 124 124 255 
137 62 701 120 134 134 255 
138 62 701 121 135 135 255 
140 62 701 109 123 123 255 
141 63 702 112 123 125 255 
142 63 703 117 128 130 255 
144 63 704 61 71 73 255 
145 63 705 35 45 47 255 
145 62 700 36 44 47 255 
-198 65 721 152 158 158 255 
-197 65 721 146 152 152 255 
-196 65 722 158 164 162 255 
-195 65 724 161 167 165 255 
-194 65 724 151 160 157 255 
-193 66 725 150 159 156 255 
-192 66 725 152 161 158 255 
-191 66 725 148 157 154 255 
-190 66 725 140 150 151 255 
-188 65 723 150 160 161 255 
-187 65 722 169 179 181 255 
-185 65 720 174 184 186 255 
-184 65 719 163 175 173 255 
-182 65 718 160 172 170 255 
-181 65 716 166 178 176 255 
-179 65 716 164 176 174 255 
-178 65 716 161 173 171 255 
-177 65 716 150 162 160 255 
-176 65 715 144 156 154 255 
-175 65 715 141 153 151 255 
-173 65 714 144 156 154 255 
-172 65 714 145 157 155 255 
-171 65 714 144 156 154 255 
-170 65 714 140 152 150 255 
-169 65 715 139 151 151 255 
-168 65 715 138 150 150 255 
-167 65 715 139 151 151 255 
-165 65 714 146 158 158 255 
-164 65 714 151 163 163 255 
-163 65 715 146 158 158 255 
-162 65 714 143 155 155 255 
-161 65 714 140 152 152 255 
-159 65 714 143 155 155 255 
-158 65 714 143 155 155 255 
-157 65 714 143 155 155 255 
-156 65 713 138 150 150 255 
-155 65 713 143 155 155 255 
-154 65 713 145 157 157 255 
-152 65 713 142 152 153 255 
-151 65 713 139 149 150 255 
-150 65 713 140 150 151 255 
-149 65 713 146 156 157 255 
-148 65 713 152 162 163 255 
-147 65 713 152 162 163 255 
-146 65 713 153 165 163 255 
-144 65 712 151 163 161 255 
-143 65 712 143 155 153 255 
-142 64 711 146 158 156 255 
-141 64 711 146 158 156 255 
-139 64 711 148 160 158 255 
-138 65 712 151 163 161 255 
-137 65 712 155 167 165 255 
-136 65 712 148 160 158 255 
-135 65 712 149 161 159 255 
-134 64 711 147 159 157 255 
-133 64 711 151 163 161 255 
-131 64 711 148 160 158 255 
-130 64 711 151 163 161 255 
-129 64 711 151 161 160 255 
-128 64 710 141 151 150 255 
-127 64 710 114 113 109 255 
-125 64 709 56 55 51 255 
-124 64 706 45 34 28 255 
-121 63 698 60 49 43 255 
-111 59 646 69 51 41 255 
-106 57 624 70 52 42 255 
-104 56 618 72 59 43 255 
-103 56 616 77 64 48 255 
-102 56 616 67 55 41 255 
-101 56 615 70 58 44 255 
-100 56 615 71 54 44 255 
-99 56 615 71 54 44 255 
-98 56 615 68 50 40 255 
-97 56 614 67 49 39 255 
-96 56 614 74 58 43 255 
-95 56 613 76 60 45 255 
-94 56 613 74 55 38 255 
-93 56 613 73 54 37 255 
-92 56 613 70 53 35 255 
-90 56 612 71 54 36 255 
-89 56 612 73 56 40 255 
-88 56 612 72 55 39 255 
-87 56 612 73 56 40 255 
-87 56 613 72 55 39 255 
-86 56 613 64 48 32 255 
-85 56 613 62 46 30 255 
-84 56 613 68 52 36 255 
-83 56 613 75 59 43 255 
-82 56 613 73 57 42 255 
-81 56 613 68 52 37 255 
-80 56 613 66 50 35 255 
-79 56 614 68 52 37 255 
-78 56 614 62 46 30 255 
-77 56 614 52 36 20 255 
-76 56 615 63 48 29 255 
-75 56 615 62 47 28 255 
-74 56 615 62 49 30 255 
-73 56 615 63 50 31 255 
-72 56 615 60 47 28 255 
-71 56 614 57 44 25 255 
-70 56 614 70 59 37 255 
-69 56 614 65 54 32 255 
-68 56 614 61 54 28 255 
-67 56 614 65 58 32 255 
-66 56 614 61 54 28 255 
-65 56 615 52 45 19 255 
-64 56 615 56 49 23 255 
-63 56 615 65 58 32 255 
-62 56 615 67 54 35 255 
-61 56 615 65 52 33 255 
-60 56 615 66 54 32 255 
-59 56 615 76 64 42 255 
-58 56 615 75 63 39 255 
-57 56 615 65 53 29 255 
-56 56 615 65 53 29 255 
-55 56 614 66 54 30 255 
-54 56 615 67 55 33 255 
-53 56 615 65 53 31 255 
-52 56 616 62 50 28 255 
-51 56 616 62 50 28 255 
-50 56 615 70 55 34 255 
-49 56 615 71 56 35 255 
-48 56 615 74 59 36 255 
-47 56 614 68 53 30 255 
-46 56 614 73 61 37 255 
-45 56 614 74 62 38 255 
-44 56 614 76 66 41 255 
-43 56 614 70 60 35 255 
-42 56 614 59 49 24 255 
-41 56 614 48 38 13 255 
-40 56 614 49 39 14 255 
-39 56 614 58 48 23 255 
-38 56 613 63 51 27 255 
-37 56 613 68 56 32 255 
-36 56 613 66 54 30 255 
-35 56 614 70 58 34 255 
-34 56 613 63 51 27 255 
-33 56 613 59 47 23 255 
-32 56 613 64 54 29 255 
-31 56 614 70 60 35 255 
-30 56 614 63 50 33 255 
-29 56 614 59 46 29 255 
-28 56 614 64 52 30 255 
-27 56 613 68 56 34 255 
-26 56 613 71 59 33 255 
-25 56 612 59 47 21 255 
-24 56 612 68 54 27 255 
-23 56 612 72 58 31 255 
-22 56 612 71 57 30 255 
-21 56 612 76 62 35 255 
-20 56 612 72 58 32 255 
-19 56 612 70 56 30 255 
-18 56 612 66 52 26 255 
-17 56 612 69 55 29 255 
-16 56 612 79 64 41 255 
-15 56 612 74 59 36 255 
-14 56 612 77 65 41 255 
-13 56 611 73 61 37 255 
-12 56 611 68 56 32 255 
-11 56 610 65 53 29 255 
-10 56 610 68 56 32 255 
-9 56 611 69 57 33 255 
-8 56 611 68 58 33 255 
-7 56 611 68 58 33 255 
-6 56 611 70 62 39 255 
-5 56 611 64 56 33 255 
-4 56 611 66 58 35 255 
-3 56 611 68 60 37 255 
-2 56 611 67 59 36 255 
-1 56 610 70 62 39 255 
0 56 610 72 66 42 255 
1 56 610 69 63 39 255 
2 56 610 72 65 39 255 
3 56 610 77 70 44 255 
4 56 610 78 71 45 255 
5 56 610 67 60 34 255 
6 56 610 59 52 26 255 
7 56 610 60 53 27 255 
8 56 610 71 61 36 255 
9 55 609 69 59 34 255 
10 55 609 65 54 32 255 
11 55 609 69 58 36 255 
12 55 609 71 60 40 255 
13 55 609 73 62 42 255 
14 55 608 74 62 40 255 
15 55 608 71 59 37 255 
16 55 608 74 62 40 255 
17 55 608 78 66 44 255 
18 55 608 77 63 37 255 
19 55 608 79 65 39 255 
20 55 608 78 64 38 255 
21 55 608 77 63 37 255 
22 55 608 76 62 36 255 
23 55 608 75 61 35 255 
24 55 608 74 59 36 255 
25 55 608 75 60 37 255 
26 55 608 77 62 39 255 
27 55 608 75 60 37 255 
28 55 607 72 57 34 255 
29 55 607 76 61 38 255 
30 55 608 80 65 42 255 
31 55 608 82 67 44 255 
31 55 607 81 66 45 255 
32 55 607 80 65 44 255 
33 55 607 86 66 39 255 
34 55 608 99 79 52 255 
35 55 608 97 77 52 255 
36 55 608 86 66 41 255 
37 55 608 90 73 47 255 
38 55 608 87 70 44 255 
39 55 608 91 73 49 255 
40 55 608 90 72 48 255 
41 55 607 91 75 50 255 
42 55 607 85 69 44 255 
43 55 607 82 67 44 255 
44 55 608 84 69 46 255 
45 55 608 80 68 44 255 
47 56 611 78 66 42 255 
48 56 615 51 39 15 255 
49 56 620 38 26 2 255 
63 63 695 17 22 15 255 
65 64 700 14 19 12 255 
66 64 703 13 20 12 255 
67 64 704 15 22 14 255 
69 64 705 19 26 18 255 
70 64 705 19 26 18 255 
71 64 706 16 19 12 255 
72 64 706 13 16 9 255 
73 64 706 16 15 10 255 
74 64 706 19 18 13 255 
76 64 706 18 20 17 255 
77 64 705 18 20 17 255 
78 64 705 18 20 17 255 
79 64 704 24 26 23 255 
80 64 703 42 47 43 255 
81 64 703 65 70 66 255 
82 64 703 73 79 77 255 
83 64 702 68 74 72 255 
84 64 702 70 76 74 255 
85 64 702 67 73 71 255 
86 64 702 68 77 74 255 
88 64 703 73 82 79 255 
89 64 703 73 82 81 255 
90 64 703 68 77 76 255 
91 64 703 68 78 77 255 
92 64 703 70 80 79 255 
93 64 703 62 68 68 255 
95 64 703 65 71 71 255 
96 64 703 77 83 83 255 
97 64 703 82 88 88 255 
98 64 702 82 91 90 255 
99 64 702 81 90 89 255 
100 64 702 78 87 86 255 
101 64 702 83 92 91 255 
102 64 702 90 99 98 255 
104 64 702 102 111 110 255 
105 64 702 105 115 114 255 
106 64 702 117 127 126 255 
107 64 702 123 133 132 255 
108 64 702 121 131 130 255 
109 64 702 119 130 126 255 
110 64 702 128 139 135 255 
111 64 702 136 146 145 255 
113 64 702 139 149 148 255 
114 64 702 152 162 161 255 
115 64 702 154 164 163 255 
116 64 702 154 164 163 255 
117 64 701 156 166 165 255 
118 64 701 150 162 160 255 
119 64 702 148 160 158 255 
120 64 701 151 163 161 255 
122 64 702 149 161 159 255 
123 64 702 143 155 153 255 
124 64 702 141 153 151 255 
125 64 702 139 151 149 255 
126 64 702 146 158 156 255 
127 64 702 148 160 158 255 
128 64 702 155 167 165 255 
130 64 702 148 158 157 255 
131 64 702 150 160 159 255 
132 64 701 143 155 153 255 
133 64 701 144 156 154 255 
134 64 701 145 160 157 255 
135 64 701 141 156 153 255 
136 63 700 139 155 154 255 
137 63 700 145 161 160 255 
138 63 700 138 154 153 255 
140 64 701 136 152 151 255 
141 64 702 140 154 154 255 
142 64 703 123 137 137 255 
144 64 704 64 74 75 255 
145 64 706 40 50 51 255 
145 64 702 36 44 47 255 
-198 66 721 117 116 112 255 
-197 66 721 114 113 109 255 
-196 66 722 116 117 112 255 
-195 67 724 126 127 122 255 
-194 67 724 112 113 107 255 
-193 67 725 112 113 107 255 
-193 67 727 115 116 110 255 
-191 67 727 109 110 104 255 
-190 67 726 96 98 95 255 
-189 67 725 133 135 132 255 
-187 66 722 156 161 164 255 
-185 66 720 168 173 176 255 
-183 66 718 163 175 175 255 
-182 66 717 166 178 178 255 
-180 66 715 170 182 180 255 
-179 66 715 169 181 179 255 
-178 66 714 168 180 178 255 
-177 66 714 157 169 167 255 
-175 66 713 148 160 158 255 
-174 66 713 150 162 160 255 
-173 66 713 150 162 160 255 
-172 66 713 150 162 160 255 
-171 66 713 148 160 158 255 
-169 66 713 146 158 156 255 
-168 66 713 148 160 158 255 
-167 66 714 149 161 159 255 
-166 66 714 148 160 158 255 
-165 66 714 152 164 162 255 
-164 66 714 147 159 159 255 
-163 66 714 147 159 159 255 
-162 66 713 151 163 163 255 
-160 66 713 150 162 162 255 
-159 66 713 149 161 161 255 
-158 66 713 146 158 158 255 
-157 66 713 148 160 160 255 
-156 66 712 145 157 157 255 
-154 66 712 141 153 153 255 
-153 66 712 143 155 155 255 
-152 66 712 142 154 154 255 
-151 66 712 143 155 155 255 
-150 66 712 145 157 157 255 
-149 66 712 146 158 158 255 
-148 66 712 149 161 161 255 
-146 66 712 150 162 162 255 
-145 66 712 156 166 165 255 
-144 66 711 151 161 160 255 
-143 66 711 144 156 154 255 
-141 65 710 152 164 162 255 
-140 66 710 155 165 164 255 
-139 66 710 155 165 164 255 
-138 66 710 155 165 164 255 
-137 66 711 157 167 166 255 
-136 66 711 154 164 163 255 
-135 66 711 150 160 159 255 
-134 66 711 149 159 158 255 
-133 66 711 152 162 161 255 
-131 66 711 150 160 159 255 
-130 66 711 152 162 161 255 
-129 66 711 152 162 161 255 
-128 66 710 127 137 136 255 
-126 65 709 78 73 69 255 
-125 65 708 36 31 27 255 
-123 65 703 53 38 31 255 
-120 64 693 83 68 61 255 
-108 58 630 89 69 58 255 
-105 57 618 82 62 51 255 
-104 57 616 76 59 43 255 
-103 57 614 76 59 43 255 
-102 57 614 81 65 50 255 
-101 57 614 87 71 56 255 
-99 57 613 87 71 58 255 
-98 57 613 85 69 56 255 
-98 57 613 83 67 52 255 
-97 57 613 82 66 51 255 
-95 57 612 86 70 54 255 
-94 57 612 88 72 56 255 
-93 57 612 91 70 51 255 
-92 57 612 89 68 49 255 
-91 57 612 88 67 48 255 
-90 56 611 91 70 51 255 
-89 56 611 91 72 55 255 
-88 56 611 87 68 51 255 
-87 56 611 88 69 52 255 
-86 57 612 89 70 53 255 
-85 57 612 91 72 55 255 
-85 57 612 90 71 54 255 
-84 57 612 91 74 56 255 
-83 57 612 93 76 58 255 
-82 57 612 97 80 62 255 
-81 57 612 101 84 66 255 
-80 57 612 100 83 65 255 
-79 57 612 96 79 61 255 
-78 57 612 99 82 62 255 
-77 57 612 89 72 52 255 
-76 57 612 93 77 54 255 
-75 57 613 94 78 55 255 
-74 57 613 93 78 55 255 
-73 57 612 93 78 55 255 
-72 57 612 88 73 50 255 
-71 57 612 86 71 48 255 
-70 57 612 92 78 52 255 
-69 57 612 95 81 55 255 
-68 57 612 90 79 51 255 
-67 57 612 88 77 49 255 
-66 57 612 93 82 54 255 
-65 57 612 99 88 60 255 
-64 57 612 98 87 59 255 
-63 57 613 90 79 51 255 
-62 57 613 90 72 50 255 
-61 57 613 90 72 50 255 
-60 57 612 96 78 54 255 
-59 57 612 110 92 68 255 
-58 57 613 111 93 69 255 
-57 57 613 98 80 56 255 
-56 57 613 93 75 51 255 
-55 57 612 96 78 54 255 
-54 57 613 96 78 54 255 
-53 57 613 98 80 56 255 
-52 57 613 102 84 60 255 
-51 57 613 103 85 61 255 
-50 57 613 104 86 62 255 
-49 57 613 103 85 61 255 
-48 57 613 106 86 61 255 
-47 57 613 103 83 58 255 
-46 57 612 103 89 63 255 
-45 57 612 100 86 60 255 
-44 57 612 101 87 61 255 
-43 57 612 101 87 61 255 
-42 57 612 97 83 57 255 
-41 57 612 90 76 50 255 
-40 57 611 89 75 49 255 
