ply
format ascii 1.0
comment VCGLIB generated
element vertex 1687
property float x
property float y
property float z
property uchar red
property uchar green
property uchar blue
property uchar alpha
element face 0
property list uchar int vertex_indices
end_header
59 117 531 206 215 230 255 
60 117 531 211 220 235 255 
61 117 530 208 217 232 255 
62 117 530 211 219 238 255 
62 117 530 214 222 241 255 
63 117 530 221 230 245 255 
64 117 530 235 244 255 255 
65 117 530 240 251 255 255 
66 117 530 242 253 255 255 
67 117 530 242 254 252 255 
68 117 530 243 255 253 255 
69 117 531 244 255 255 255 
69 117 531 243 255 255 255 
70 117 531 245 255 255 255 
71 117 530 239 253 253 255 
72 117 530 239 253 253 255 
73 116 530 239 253 253 255 
74 116 530 242 255 255 255 
75 117 531 205 219 222 255 
75 117 531 146 163 173 255 
76 117 531 134 151 161 255 
77 116 530 141 160 177 255 
77 116 526 123 142 159 255 
-119 113 510 127 136 153 255 
-119 113 512 104 113 130 255 
-118 113 514 125 134 151 255 
-118 114 516 129 136 155 255 
-118 114 517 121 128 147 255 
-117 114 518 123 130 149 255 
-116 115 519 116 123 142 255 
-116 115 520 113 120 138 255 
-115 115 521 101 108 126 255 
-114 115 521 92 101 116 255 
-113 115 521 96 105 120 255 
-113 115 521 107 117 129 255 
-112 115 521 138 148 160 255 
-111 115 521 148 158 168 255 
-110 115 521 140 150 160 255 
-109 115 521 155 165 174 255 
-108 115 520 160 170 179 255 
-107 115 519 155 168 176 255 
-106 114 518 142 155 163 255 
-105 114 518 145 153 166 255 
-104 114 518 135 143 156 255 
-104 114 518 140 148 161 255 
-103 114 517 142 150 163 255 
-102 114 517 132 140 153 255 
-101 114 517 141 149 162 255 
-100 114 516 152 162 172 255 
-99 114 516 164 174 184 255 
-98 114 515 159 174 181 255 
-97 114 515 172 187 194 255 
-96 114 514 171 192 197 255 
-95 114 514 169 190 195 255 
-94 113 513 163 188 192 255 
-93 113 512 166 191 195 255 
-93 113 512 164 192 195 255 
-92 113 511 165 193 196 255 
-91 113 511 163 182 188 255 
-90 113 510 168 187 193 255 
-89 113 510 165 184 190 255 
-88 113 510 164 183 189 255 
-87 113 509 163 182 189 255 
-86 113 509 163 182 189 255 
-85 112 508 171 190 197 255 
-85 112 508 188 207 214 255 
-84 112 507 187 204 212 255 
-83 112 506 191 208 216 255 
-82 112 506 194 208 217 255 
-81 112 506 198 212 221 255 
-80 112 505 199 213 224 255 
-79 112 505 196 210 221 255 
-78 112 505 181 198 208 255 
-78 112 505 170 187 197 255 
-77 112 505 183 200 208 255 
-76 112 504 174 191 199 255 
-75 112 504 150 167 175 255 
-74 112 504 145 162 170 255 
-73 112 504 149 163 174 255 
-73 112 504 134 148 159 255 
-72 111 503 119 133 144 255 
-71 111 503 119 133 144 255 
-70 111 503 125 137 149 255 
-69 111 502 131 143 155 255 
-68 111 502 136 146 158 255 
-67 111 502 143 153 165 255 
-67 111 502 152 162 174 255 
-66 111 501 171 181 193 255 
-65 111 501 178 188 200 255 
-64 111 501 181 191 203 255 
-63 111 501 185 201 216 255 
-62 111 500 190 206 221 255 
-62 111 500 197 211 224 255 
-61 111 500 194 208 221 255 
-60 111 500 195 205 217 255 
-59 111 500 202 212 224 255 
-58 111 500 206 214 225 255 
-57 111 500 200 208 219 255 
-57 111 499 188 196 209 255 
-56 111 499 190 198 211 255 
-55 111 499 189 196 212 255 
-54 110 498 188 195 211 255 
-53 110 498 184 193 210 255 
-52 110 497 178 187 204 255 
-52 110 497 176 188 204 255 
-51 110 497 184 196 212 255 
-50 110 497 192 202 214 255 
-49 110 496 191 201 213 255 
-48 110 496 196 206 218 255 
-47 110 496 208 218 230 255 
-47 110 495 218 226 237 255 
-46 110 495 223 231 242 255 
-45 110 495 232 236 245 255 
-44 110 495 239 243 252 255 
-43 110 495 242 245 250 255 
-42 109 494 251 254 255 255 
-42 109 494 254 255 255 255 
-41 109 494 253 254 255 255 
-40 109 493 253 254 255 255 
-39 109 493 251 252 254 255 
-38 109 493 251 251 249 255 
-38 109 493 252 252 250 255 
-37 109 493 252 254 253 255 
-36 109 493 254 255 255 255 
-35 109 493 254 255 255 255 
-34 109 493 254 255 255 255 
-34 109 493 254 255 255 255 
-33 109 493 254 255 255 255 
-32 109 493 254 255 255 255 
-31 109 493 254 255 255 255 
-30 109 493 252 253 255 255 
-30 109 492 243 244 249 255 
-29 109 492 218 221 228 255 
-28 109 492 188 191 198 255 
-27 109 492 156 159 168 255 
-26 109 492 114 117 126 255 
-26 109 492 83 86 95 255 
-25 109 492 67 70 79 255 
-24 109 492 56 60 72 255 
-23 109 492 45 49 61 255 
-22 109 492 72 76 88 255 
-22 109 492 77 81 93 255 
-21 109 492 58 62 74 255 
-20 109 492 64 68 80 255 
-19 109 492 71 74 89 255 
-18 109 492 65 68 83 255 
-18 109 492 61 67 81 255 
-17 109 492 67 73 87 255 
-16 109 492 73 79 93 255 
-15 109 492 71 77 91 255 
-14 109 492 62 68 82 255 
-14 109 493 58 64 78 255 
-13 109 493 59 65 79 255 
-12 109 492 60 66 80 255 
-11 109 493 73 79 93 255 
-10 109 493 65 71 85 255 
-10 109 493 61 67 81 255 
-9 109 493 71 77 91 255 
-8 109 493 74 80 94 255 
-7 109 493 56 62 76 255 
-6 109 493 60 66 80 255 
-6 109 492 60 66 80 255 
-5 109 492 51 59 70 255 
-4 109 492 70 78 89 255 
-3 109 492 66 72 84 255 
-2 109 492 65 71 83 255 
-2 109 492 68 74 86 255 
-1 109 492 67 73 85 255 
0 109 492 71 79 90 255 
1 109 491 70 78 89 255 
2 109 490 71 77 91 255 
2 109 490 60 66 80 255 
3 108 488 74 78 89 255 
4 108 487 105 109 120 255 
5 108 486 219 224 228 255 
5 108 486 246 251 255 255 
6 108 486 241 247 247 255 
7 108 486 246 252 252 255 
8 108 486 243 249 249 255 
9 108 486 244 250 250 255 
9 108 486 246 251 254 255 
10 108 486 225 230 233 255 
11 108 485 167 172 178 255 
12 108 485 151 156 162 255 
13 108 486 159 163 172 255 
13 108 486 167 171 180 255 
14 108 486 177 182 186 255 
15 108 485 190 195 199 255 
16 108 485 192 197 201 255 
16 108 485 198 203 207 255 
17 108 485 200 205 209 255 
18 107 484 196 201 205 255 
19 107 484 201 206 210 255 
20 107 484 204 209 213 255 
20 107 484 202 207 211 255 
21 107 483 207 212 216 255 
22 107 484 207 211 214 255 
23 107 484 206 210 213 255 
23 107 483 211 215 218 255 
24 107 483 214 218 221 255 
25 107 483 214 218 221 255 
26 107 484 216 220 223 255 
27 107 484 227 228 232 255 
27 107 484 229 230 234 255 
28 107 484 231 232 234 255 
29 107 484 234 235 237 255 
30 107 484 242 243 247 255 
30 107 484 247 248 252 255 
31 107 484 248 249 253 255 
32 107 484 253 254 255 255 
33 107 484 253 254 255 255 
34 108 485 253 254 255 255 
34 108 485 254 255 255 255 
35 108 486 254 255 255 255 
36 108 487 252 253 255 255 
37 108 489 254 255 255 255 
38 109 491 240 241 246 255 
39 110 495 203 204 209 255 
40 110 498 197 206 221 255 
41 111 503 222 231 246 255 
43 113 508 228 237 252 255 
44 113 512 215 224 239 255 
45 115 517 195 204 221 255 
46 115 521 186 195 212 255 
47 116 524 209 218 233 255 
48 117 526 212 221 236 255 
49 117 527 211 220 237 255 
50 117 528 213 222 239 255 
51 117 529 212 221 238 255 
52 117 529 211 220 237 255 
53 117 529 212 221 238 255 
54 117 529 213 222 239 255 
55 117 529 216 225 242 255 
56 117 530 218 227 244 255 
56 117 529 213 221 240 255 
57 117 529 214 222 241 255 
58 117 530 210 219 234 255 
59 117 530 212 221 236 255 
60 117 530 213 222 237 255 
61 117 530 208 217 232 255 
62 117 529 214 223 240 255 
62 117 530 214 223 240 255 
63 117 529 224 233 248 255 
64 117 529 238 247 255 255 
65 117 529 239 250 254 255 
66 117 529 242 253 255 255 
67 117 529 242 254 252 255 
67 117 529 243 255 253 255 
68 117 530 245 255 255 255 
69 117 530 243 255 255 255 
70 117 530 247 255 255 255 
71 117 530 244 255 255 255 
72 117 529 247 255 255 255 
73 117 529 245 255 255 255 
73 117 529 242 255 255 255 
74 117 529 238 252 253 255 
75 117 529 178 193 200 255 
76 117 529 130 145 152 255 
77 117 529 126 143 159 255 
78 117 528 121 138 154 255 
-116 114 511 134 142 161 255 
-116 114 513 131 138 156 255 
-115 114 515 138 145 163 255 
-115 115 517 137 146 163 255 
-114 115 518 117 126 143 255 
-114 115 519 103 112 127 255 
-113 115 519 85 94 109 255 
-112 116 520 97 109 123 255 
-112 116 521 113 125 139 255 
-111 116 521 128 138 150 255 
-110 116 521 131 141 153 255 
-109 116 520 139 151 163 255 
-108 116 520 152 164 176 255 
-107 116 520 150 162 174 255 
-106 115 519 152 164 176 255 
-105 115 518 157 167 179 255 
-104 115 518 148 158 170 255 
-104 115 518 152 164 178 255 
-103 115 518 152 164 178 255 
-102 115 517 144 156 168 255 
-101 115 517 153 165 177 255 
-100 115 517 156 170 181 255 
-99 115 516 152 166 177 255 
-98 115 515 157 171 180 255 
-97 115 515 157 171 180 255 
-96 114 514 161 180 187 255 
-95 114 514 170 189 196 255 
-94 114 513 169 189 196 255 
-94 114 513 173 193 200 255 
-93 114 512 174 197 203 255 
-92 114 512 176 199 205 255 
-91 114 511 166 185 191 255 
-90 114 511 166 185 191 255 
-89 114 510 163 180 188 255 
-88 114 510 177 194 202 255 
-87 114 510 193 207 216 255 
-86 113 509 197 211 220 255 
-86 113 509 198 212 221 255 
-85 113 508 206 220 229 255 
-84 113 507 199 213 222 255 
-83 113 507 189 203 212 255 
-82 113 506 192 204 216 255 
-81 113 506 200 212 224 255 
-80 113 505 197 209 221 255 
-79 113 505 199 211 223 255 
-78 113 505 195 207 219 255 
-78 113 505 196 208 220 255 
-77 113 505 199 213 224 255 
-76 113 505 201 215 226 255 
-75 113 505 195 209 220 255 
-74 112 504 193 207 218 255 
-73 112 504 202 214 226 255 
-72 112 503 198 210 222 255 
-72 112 503 189 201 213 255 
-71 112 503 181 193 205 255 
-70 112 503 169 181 193 255 
-69 112 503 168 180 192 255 
-68 112 502 163 173 185 255 
-67 112 502 151 161 173 255 
-67 112 502 134 144 156 255 
-66 112 502 116 126 138 255 
-65 112 501 107 117 129 255 
-64 112 501 112 122 134 255 
-63 112 501 112 126 139 255 
-62 112 501 122 136 149 255 
-62 112 501 132 144 158 255 
-61 112 500 144 156 170 255 
-60 112 500 165 177 191 255 
-59 112 500 178 190 204 255 
-58 112 500 187 197 209 255 
-57 112 500 200 210 222 255 
-57 111 499 208 218 230 255 
-56 111 499 200 210 222 255 
-55 111 498 196 204 217 255 
-54 111 498 199 207 220 255 
-53 111 498 203 211 224 255 
-52 111 497 204 212 225 255 
-52 111 498 199 207 220 255 
-51 111 497 192 200 213 255 
-50 111 497 192 199 215 255 
-49 111 497 188 195 211 255 
-48 111 496 185 192 208 255 
-47 111 496 190 197 213 255 
-47 110 495 191 199 212 255 
-46 110 495 188 196 209 255 
-45 110 495 196 202 214 255 
-44 110 495 205 211 223 255 
-43 110 495 224 231 239 255 
-42 110 494 227 234 242 255 
-42 110 494 229 236 244 255 
-41 110 493 236 243 251 255 
-40 110 493 245 250 255 255 
-39 110 493 246 251 255 255 
-38 110 492 249 254 255 255 
-37 110 492 251 255 255 255 
-37 110 492 252 255 255 255 
-36 110 492 252 255 255 255 
-35 110 493 252 255 255 255 
-34 110 492 252 255 255 255 
-34 110 492 252 255 255 255 
-33 110 492 252 255 255 255 
-32 110 492 252 255 255 255 
-31 110 492 250 254 255 255 
-30 110 492 252 255 255 255 
-29 110 491 248 252 255 255 
-29 110 491 250 254 255 255 
-28 110 491 249 253 255 255 
-27 110 491 249 253 255 255 
-26 110 491 244 248 251 255 
-26 110 491 226 229 234 255 
-25 110 491 199 202 207 255 
-24 110 491 156 160 171 255 
-23 110 491 120 124 135 255 
-22 110 491 92 96 107 255 
-22 110 491 62 66 77 255 
-21 110 491 47 51 63 255 
-20 110 491 59 63 75 255 
-19 110 491 65 69 81 255 
-18 110 491 61 65 77 255 
-18 110 491 66 72 84 255 
-17 109 490 58 64 76 255 
-16 109 490 54 60 74 255 
-15 109 490 64 70 84 255 
-14 109 490 69 75 89 255 
-14 110 491 57 63 77 255 
-13 110 491 47 53 67 255 
-12 110 491 52 58 72 255 
-11 110 491 54 60 74 255 
-10 110 492 52 58 72 255 
-10 110 492 73 76 91 255 
-9 110 492 70 73 88 255 
-8 110 492 65 68 83 255 
-7 110 492 57 60 75 255 
-6 110 492 58 64 78 255 
-6 110 492 65 71 85 255 
-5 110 492 55 61 75 255 
-4 110 492 66 72 86 255 
-3 110 492 68 74 88 255 
-2 110 492 64 70 84 255 
-2 110 492 62 68 82 255 
-1 110 492 62 68 82 255 
0 110 492 66 74 87 255 
1 110 492 66 74 87 255 
2 110 491 65 68 83 255 
2 109 489 65 68 83 255 
3 109 488 83 87 98 255 
4 109 487 176 180 191 255 
5 109 486 248 253 255 255 
5 109 486 244 249 253 255 
6 109 486 249 255 253 255 
7 109 486 245 251 249 255 
8 109 486 249 255 253 255 
9 109 486 244 250 248 255 
9 109 486 249 254 255 255 
10 109 486 216 221 224 255 
11 108 485 111 116 122 255 
12 108 485 100 105 111 255 
12 108 485 98 102 113 255 
13 109 486 98 102 113 255 
14 109 486 93 100 106 255 
15 108 485 100 107 113 255 
16 108 485 113 120 126 255 
16 108 485 117 124 130 255 
17 108 485 111 118 124 255 
18 108 484 120 127 133 255 
19 108 484 145 152 158 255 
20 108 484 164 171 177 255 
20 108 483 175 182 188 255 
21 108 483 184 191 197 255 
22 108 483 193 200 206 255 
23 108 484 196 203 209 255 
23 108 483 197 204 210 255 
24 108 483 201 208 214 255 
25 108 483 202 209 215 255 
26 108 483 197 204 210 255 
26 108 483 203 206 211 255 
27 108 483 203 206 211 255 
28 108 483 195 198 203 255 
29 108 483 190 193 198 255 
30 108 483 197 200 205 255 
30 108 483 203 206 211 255 
31 108 484 210 213 220 255 
32 108 484 217 220 227 255 
33 108 484 232 235 244 255 
34 108 485 236 239 248 255 
34 108 485 242 245 252 255 
35 109 486 245 248 255 255 
36 109 487 248 251 255 255 
37 109 489 249 252 255 255 
38 110 492 228 231 240 255 
39 111 495 198 201 210 255 
40 111 499 211 220 235 255 
42 113 504 230 239 254 255 
43 114 509 222 231 246 255 
44 115 513 200 209 224 255 
45 115 517 183 192 209 255 
46 116 521 199 208 225 255 
47 117 525 217 226 241 255 
48 117 526 210 219 234 255 
49 118 527 216 225 240 255 
50 118 527 215 224 239 255 
51 118 527 213 222 239 255 
52 118 528 211 220 237 255 
53 118 528 211 220 237 255 
54 118 528 213 222 239 255 
55 118 528 215 224 239 255 
55 118 528 217 226 241 255 
56 118 528 216 225 242 255 
57 118 528 212 221 238 255 
58 118 528 211 220 235 255 
59 118 528 217 226 241 255 
60 118 528 215 224 239 255 
61 118 528 215 224 239 255 
61 118 528 219 228 245 255 
62 118 528 219 228 245 255 
63 118 528 229 239 251 255 
64 118 528 242 252 255 255 
65 118 528 240 251 255 255 
66 118 528 243 254 255 255 
66 118 528 243 255 253 255 
67 118 528 244 255 254 255 
68 118 529 244 255 254 255 
69 118 529 244 255 254 255 
70 118 529 248 255 255 255 
71 118 529 248 255 255 255 
72 118 529 246 255 255 255 
72 118 528 242 254 254 255 
73 118 528 242 255 255 255 
74 118 528 245 255 255 255 
75 118 528 222 237 242 255 
76 118 528 150 165 170 255 
77 118 528 115 131 146 255 
77 117 527 122 138 153 255 
-114 114 507 148 155 173 255 
-114 114 511 136 143 161 255 
-113 115 513 126 133 151 255 
-113 115 515 132 141 158 255 
-113 116 517 133 142 159 255 
-112 116 518 131 140 157 255 
-111 116 519 136 145 162 255 
-110 116 519 112 121 138 255 
-110 116 520 117 126 143 255 
-109 116 520 123 131 150 255 
-108 116 520 131 139 158 255 
-107 117 520 117 128 146 255 
-106 116 519 113 124 142 255 
-105 116 518 105 117 131 255 
-104 116 518 114 126 140 255 
-104 116 518 137 151 164 255 
-103 116 517 172 186 199 255 
-102 116 517 184 200 213 255 
-101 116 516 187 203 216 255 
-100 116 516 191 208 218 255 
-99 116 516 185 202 212 255 
-98 115 515 171 188 198 255 
-97 115 515 166 183 193 255 
-96 115 514 159 173 184 255 
-95 115 514 159 173 184 255 
-95 115 514 165 179 190 255 
-94 115 513 176 190 201 255 
-93 115 513 177 194 202 255 
-92 115 512 187 204 212 255 
-91 115 511 177 196 203 255 
-90 115 511 172 191 198 255 
-89 115 511 174 188 197 255 
-88 114 510 189 203 212 255 
-87 114 510 192 206 215 255 
-86 114 509 194 208 217 255 
-86 114 509 198 212 221 255 
-85 114 509 203 217 226 255 
-84 114 508 203 217 226 255 
-83 114 507 214 228 237 255 
-82 114 507 215 229 240 255 
-81 114 506 209 223 234 255 
-80 114 506 211 223 235 255 
-79 113 505 209 221 233 255 
-78 113 505 189 201 213 255 
-78 113 505 191 203 215 255 
-77 113 505 200 212 224 255 
-76 113 505 200 212 224 255 
-75 113 505 202 214 226 255 
-74 113 504 201 213 225 255 
-73 113 504 209 221 233 255 
-72 113 503 210 222 234 255 
-72 113 503 210 222 234 255 
-71 113 503 202 214 226 255 
-70 113 503 196 208 220 255 
-69 113 503 194 206 218 255 
-68 113 502 188 198 210 255 
-67 113 502 184 194 206 255 
-67 113 502 191 201 213 255 
-66 113 502 183 193 205 255 
-65 113 502 170 180 192 255 
-64 113 501 169 179 191 255 
-63 113 501 159 171 185 255 
-62 113 501 133 145 159 255 
-62 113 501 125 137 153 255 
-61 112 500 125 137 153 255 
-60 112 500 111 124 141 255 
-59 112 500 104 117 134 255 
-58 112 500 111 124 140 255 
-57 112 500 119 132 148 255 
-57 112 499 125 139 152 255 
-56 112 499 135 149 162 255 
-55 112 498 164 174 184 255 
-54 112 498 186 196 206 255 
-53 112 498 193 202 211 255 
-52 112 498 198 207 216 255 
-52 112 497 206 213 223 255 
-51 112 497 207 214 224 255 
-50 112 497 206 212 228 255 
-49 112 497 210 216 232 255 
-48 111 496 205 212 228 255 
-47 111 496 200 207 223 255 
-47 111 496 189 196 212 255 
-46 111 496 177 184 200 255 
-45 111 496 177 185 198 255 
-44 111 495 181 189 202 255 
-43 111 495 194 202 213 255 
-42 111 494 198 206 217 255 
-42 111 494 194 204 214 255 
-41 111 493 197 207 217 255 
-40 111 493 210 220 230 255 
-39 111 493 221 231 241 255 
-38 111 492 225 235 244 255 
-37 111 492 223 233 242 255 
-37 111 492 236 240 243 255 
-36 111 492 245 249 252 255 
-35 111 492 251 255 255 255 
-34 111 492 252 255 255 255 
-34 111 492 251 255 255 255 
-33 111 492 249 253 255 255 
-32 111 492 247 251 252 255 
-31 111 492 249 253 254 255 
-30 110 491 248 252 251 255 
-29 110 490 246 250 249 255 
-29 110 490 250 254 253 255 
-28 110 490 245 249 248 255 
-27 110 490 247 252 248 255 
-26 110 490 248 253 249 255 
-25 110 490 246 251 247 255 
-25 110 490 247 252 248 255 
-24 110 490 243 250 255 255 
-23 110 490 240 247 255 255 
-22 110 490 221 228 236 255 
-21 110 490 199 206 214 255 
-21 110 490 174 181 189 255 
-20 110 490 144 151 159 255 
-19 110 490 112 119 127 255 
-18 110 489 79 86 94 255 
-17 110 489 64 71 81 255 
-17 110 489 65 72 82 255 
-16 110 488 55 62 72 255 
-15 110 489 50 57 67 255 
-14 110 489 62 66 78 255 
-14 110 489 61 65 77 255 
-13 110 489 53 57 69 255 
-12 110 490 55 59 71 255 
-11 110 490 52 55 70 255 
-10 110 490 55 58 73 255 
-10 110 490 72 74 89 255 
-9 110 490 68 70 85 255 
-8 110 490 68 71 86 255 
-7 110 490 72 75 90 255 
-6 110 490 69 75 89 255 
-6 110 490 53 59 73 255 
-5 110 490 58 64 78 255 
-4 110 490 58 64 78 255 
-3 110 491 71 74 89 255 
-2 111 492 63 66 81 255 
-2 111 492 56 62 76 255 
-1 111 492 58 64 78 255 
0 111 492 62 68 82 255 
1 110 491 62 68 82 255 
2 110 490 74 76 91 255 
2 110 488 55 57 72 255 
3 110 488 100 102 114 255 
4 110 487 238 240 252 255 
5 109 486 244 248 251 255 
5 109 486 250 254 255 255 
6 109 486 246 252 250 255 
7 109 486 247 253 251 255 
8 109 486 244 250 246 255 
9 109 485 249 255 251 255 
9 109 485 239 244 247 255 
10 109 485 175 180 183 255 
11 109 485 113 117 126 255 
12 109 485 145 149 158 255 
12 109 485 156 160 172 255 
13 109 485 167 171 183 255 
14 109 485 154 163 168 255 
15 109 485 154 163 168 255 
16 109 485 151 160 165 255 
16 109 485 132 141 146 255 
17 109 484 126 135 140 255 
18 109 484 133 142 147 255 
19 109 484 121 130 135 255 
20 109 484 108 117 122 255 
20 109 483 113 122 127 255 
21 109 483 113 122 127 255 
22 109 483 116 125 132 255 
23 109 483 111 120 127 255 
23 109 483 105 114 121 255 
24 109 483 120 129 136 255 
25 109 483 139 148 155 255 
26 109 483 142 151 158 255 
26 109 483 163 170 178 255 
27 109 483 175 182 190 255 
28 109 483 181 188 194 255 
29 108 482 188 195 201 255 
30 109 483 197 204 212 255 
30 109 483 198 205 213 255 
31 109 483 197 204 214 255 
32 109 484 197 204 214 255 
33 109 484 200 207 217 255 
34 109 484 202 209 219 255 
34 109 485 206 213 223 255 
35 109 486 209 216 226 255 
36 110 487 218 225 235 255 
37 110 489 224 231 241 255 
38 111 492 205 211 223 255 
39 112 496 186 192 204 255 
40 112 500 218 227 242 255 
41 113 504 230 239 254 255 
43 115 510 210 219 234 255 
44 116 514 184 193 208 255 
45 116 518 178 187 202 255 
46 117 521 205 214 229 255 
47 118 524 210 219 234 255 
48 118 525 211 220 235 255 
49 118 526 217 226 241 255 
50 118 526 214 223 238 255 
51 118 526 213 222 237 255 
52 118 527 212 221 236 255 
53 118 527 214 223 238 255 
54 118 527 217 226 241 255 
54 118 527 216 226 238 255 
55 118 527 216 226 238 255 
56 118 527 221 230 247 255 
57 118 527 213 222 239 255 
58 118 527 212 222 234 255 
59 118 527 219 229 241 255 
60 118 527 213 223 235 255 
60 118 527 216 226 238 255 
61 119 528 218 227 244 255 
62 119 528 219 228 245 255 
63 119 528 233 243 255 255 
64 119 528 245 255 255 255 
65 119 528 241 252 254 255 
66 119 528 242 253 255 255 
66 119 528 242 254 252 255 
67 119 528 244 255 254 255 
68 119 528 243 255 253 255 
69 119 528 246 255 255 255 
70 119 528 248 255 255 255 
71 119 528 248 255 255 255 
72 119 528 246 255 255 255 
72 119 528 247 255 255 255 
73 119 528 243 255 255 255 
74 118 527 238 253 250 255 
75 118 527 240 255 255 255 
76 118 527 202 217 222 255 
77 118 527 131 145 158 255 
77 118 526 114 128 141 255 
-111 115 510 154 162 181 255 
-111 116 513 146 154 173 255 
-110 116 515 152 160 179 255 
-110 116 516 145 153 172 255 
-109 117 517 139 147 166 255 
-109 117 518 132 140 159 255 
-108 117 518 126 134 153 255 
-107 117 519 119 127 146 255 
-106 117 518 130 138 157 255 
-105 117 517 136 143 161 255 
-104 117 517 119 126 144 255 
-103 117 517 99 107 126 255 
-103 117 517 124 132 151 255 
-102 116 516 157 168 186 255 
-101 116 516 188 199 217 255 
-100 116 516 197 206 223 255 
-99 116 515 208 217 234 255 
-98 116 515 215 224 239 255 
-97 116 514 220 229 244 255 
-96 116 514 217 229 245 255 
-95 116 513 206 218 234 255 
-94 116 513 194 208 221 255 
-94 116 513 191 205 218 255 
-93 116 513 181 193 207 255 
-92 116 512 183 195 209 255 
-91 116 512 186 202 215 255 
-90 115 511 196 212 225 255 
-89 115 511 202 218 231 255 
-88 115 510 207 223 236 255 
-87 115 510 206 220 231 255 
-86 115 509 196 210 221 255 
-86 115 509 194 207 216 255 
-85 115 509 195 208 217 255 
-84 115 508 194 204 213 255 
-83 115 507 206 216 225 255 
-82 115 507 215 225 234 255 
-81 114 506 224 234 243 255 
-80 114 506 231 244 253 255 
-79 114 506 231 244 253 255 
-78 114 505 223 240 250 255 
-78 114 505 216 233 243 255 
-77 114 505 213 228 235 255 
-76 114 505 215 230 237 255 
-75 114 505 213 227 236 255 
-74 114 504 204 218 227 255 
-73 114 503 199 213 224 255 
-72 114 503 197 211 222 255 
-72 114 503 197 211 222 255 
-71 114 503 199 213 224 255 
-70 114 503 195 209 220 255 
-69 114 502 194 208 219 255 
-68 114 502 198 212 223 255 
-67 114 502 200 214 225 255 
-67 114 502 199 213 226 255 
-66 113 501 204 218 231 255 
-65 113 501 206 219 235 255 
-64 113 501 201 214 230 255 
-63 113 501 199 212 221 255 
-62 113 501 190 203 212 255 
-62 113 501 178 191 199 255 
-61 113 500 175 188 196 255 
-60 113 500 170 184 193 255 
-59 113 500 157 171 180 255 
-58 113 500 141 155 166 255 
-57 113 500 136 150 161 255 
-57 113 499 133 147 160 255 
-56 113 499 114 128 141 255 
-55 113 498 106 122 135 255 
-54 113 498 112 128 141 255 
-53 113 498 110 126 139 255 
-52 113 498 112 128 141 255 
-52 113 498 136 152 167 255 
-51 112 497 165 181 196 255 
-50 112 497 181 193 205 255 
-49 112 497 196 208 220 255 
-48 112 496 201 211 223 255 
-47 112 496 208 218 230 255 
-47 112 496 209 219 231 255 
-46 112 496 201 211 223 255 
-45 112 496 197 207 219 255 
-44 112 495 200 210 222 255 
-43 112 495 205 213 226 255 
-42 112 494 195 203 216 255 
-42 112 494 183 189 203 255 
-41 112 493 190 196 210 255 
-40 112 493 191 197 211 255 
-39 112 493 200 206 220 255 
-38 112 493 204 210 224 255 
-38 112 493 209 215 229 255 
-37 111 492 214 217 232 255 
-36 111 492 221 224 239 255 
-35 111 492 230 232 244 255 
-34 111 492 235 237 249 255 
-34 111 492 242 245 252 255 
-33 111 492 246 249 255 255 
-32 111 491 246 250 253 255 
-31 111 491 250 254 255 255 
-30 111 491 250 254 253 255 
-29 111 490 251 255 254 255 
-29 111 490 254 255 253 255 
-28 111 489 254 255 253 255 
-27 111 489 254 255 253 255 
-26 111 489 254 255 253 255 
-25 111 489 254 255 253 255 
-25 111 489 254 255 253 255 
-24 111 489 252 255 255 255 
-23 111 488 252 255 255 255 
-22 111 488 252 255 255 255 
-21 111 488 252 255 255 255 
-21 111 488 252 255 255 255 
-20 111 488 252 255 255 255 
-19 111 488 247 252 255 255 
-18 111 488 237 242 246 255 
-17 111 488 201 208 214 255 
-17 111 488 167 174 180 255 
-16 110 487 135 142 148 255 
-15 110 487 102 109 115 255 
-14 111 488 81 88 96 255 
-14 111 488 72 79 87 255 
-13 111 488 68 77 86 255 
-12 111 489 54 63 72 255 
-11 111 489 61 67 83 255 
-10 111 489 71 77 93 255 
-10 111 488 75 81 97 255 
-9 111 488 67 73 89 255 
-8 111 488 74 80 94 255 
-7 111 488 75 81 95 255 
-6 111 488 78 84 98 255 
-6 111 488 70 76 90 255 
-5 111 489 67 73 87 255 
-4 111 489 69 75 89 255 
-3 111 489 64 70 82 255 
-2 111 490 61 67 79 255 
-2 111 491 59 65 77 255 
-1 111 491 55 61 73 255 
0 111 491 58 64 76 255 
1 111 490 63 69 81 255 
1 111 489 71 69 83 255 
2 111 488 87 85 99 255 
3 110 487 214 214 222 255 
4 110 486 248 248 255 255 
5 110 485 249 253 254 255 
5 110 485 248 252 253 255 
6 110 485 247 251 250 255 
7 110 485 249 253 252 255 
8 110 486 249 254 255 255 
9 110 485 249 254 255 255 
9 110 485 213 220 228 255 
10 110 485 153 160 168 255 
11 110 485 159 168 175 255 
12 110 484 175 184 191 255 
12 110 484 172 181 186 255 
13 110 484 180 189 194 255 
14 110 484 173 182 189 255 
15 110 484 173 182 189 255 
16 110 484 176 187 191 255 
16 110 484 178 189 193 255 
17 110 484 177 188 192 255 
18 110 484 177 188 192 255 
19 110 484 174 183 190 255 
19 109 483 165 174 181 255 
20 109 483 151 161 170 255 
21 109 483 144 154 163 255 
22 109 483 155 166 172 255 
23 109 483 156 167 173 255 
23 109 483 141 154 162 255 
24 109 483 151 164 172 255 
25 109 483 156 166 175 255 
26 109 483 145 155 164 255 
26 109 483 139 149 159 255 
27 109 483 140 150 160 255 
28 109 483 135 144 153 255 
29 109 482 123 132 141 255 
30 109 483 133 142 147 255 
30 109 483 133 142 147 255 
31 110 484 143 152 159 255 
32 110 484 151 160 167 255 
33 110 485 167 175 188 255 
34 110 485 197 205 218 255 
34 110 485 181 187 201 255 
35 110 486 184 190 204 255 
36 110 487 191 195 207 255 
37 111 489 192 196 208 255 
38 111 492 192 199 207 255 
39 112 496 203 210 218 255 
40 113 500 231 237 253 255 
42 114 505 235 241 255 255 
43 115 510 197 203 217 255 
44 116 514 192 198 212 255 
45 117 518 207 215 228 255 
46 118 521 212 220 233 255 
47 119 524 214 221 237 255 
48 119 524 215 222 238 255 
49 119 525 215 224 239 255 
50 119 526 214 223 238 255 
51 119 526 215 224 239 255 
52 119 526 217 226 241 255 
53 119 527 218 227 242 255 
54 119 527 217 226 241 255 
54 119 527 217 226 243 255 
55 119 527 217 226 243 255 
56 119 527 214 226 242 255 
57 119 527 218 230 246 255 
58 119 527 213 221 240 255 
59 119 527 212 220 239 255 
60 119 527 213 220 239 255 
60 119 527 213 220 239 255 
61 119 527 215 224 239 255 
62 119 527 226 235 250 255 
63 119 527 243 255 255 255 
64 119 527 245 255 255 255 
65 119 527 245 255 255 255 
65 119 526 245 255 255 255 
66 119 526 247 255 255 255 
67 119 527 247 255 255 255 
68 119 527 246 255 255 255 
69 119 527 247 255 255 255 
70 119 527 247 255 255 255 
71 119 527 247 255 255 255 
71 119 527 249 255 255 255 
72 119 527 249 255 255 255 
73 119 527 247 255 254 255 
74 119 527 248 255 255 255 
75 119 526 245 255 255 255 
76 119 526 243 255 255 255 
77 119 527 175 192 200 255 
77 119 527 115 132 140 255 
78 119 525 126 142 157 255 
-109 116 510 141 150 167 255 
-108 116 512 137 146 163 255 
-108 117 514 136 145 162 255 
-107 117 515 141 150 167 255 
-107 117 516 131 139 158 255 
-106 117 516 126 134 153 255 
-105 117 516 135 142 160 255 
-104 117 515 145 152 170 255 
-103 117 516 132 141 158 255 
-102 117 516 123 132 149 255 
-101 117 515 95 104 121 255 
-101 117 515 119 128 145 255 
-100 117 515 139 148 165 255 
-99 117 515 167 176 193 255 
-98 117 515 189 198 213 255 
-97 117 514 210 219 234 255 
-96 117 514 216 228 244 255 
-95 117 514 222 234 250 255 
-94 117 513 229 241 255 255 
-94 117 513 228 240 255 255 
-93 117 513 220 229 244 255 
-92 116 512 223 232 247 255 
-91 116 512 213 225 237 255 
-90 116 511 212 224 236 255 
-89 116 511 216 228 240 255 
-88 116 510 214 226 238 255 
-87 116 510 208 220 234 255 
-86 116 510 207 219 233 255 
-86 116 509 197 211 224 255 
-85 116 509 200 214 227 255 
-84 116 509 191 203 215 255 
-83 116 508 193 205 217 255 
-82 115 507 201 211 223 255 
-81 115 507 206 216 228 255 
-80 115 506 210 220 230 255 
-79 115 506 221 231 241 255 
-79 115 506 231 244 253 255 
-78 115 506 233 246 255 255 
-77 115 505 234 248 255 255 
-76 115 504 234 248 255 255 
-75 115 504 232 246 255 255 
-74 115 504 223 237 246 255 
-73 115 503 220 234 243 255 
-72 115 503 221 235 244 255 
-72 115 503 218 232 241 255 
-71 115 503 213 227 236 255 
-70 115 503 201 215 226 255 
-69 114 502 195 209 220 255 
-68 114 502 194 208 219 255 
-67 114 502 194 208 219 255 
-67 114 502 193 207 218 255 
-66 114 501 198 212 223 255 
-65 114 501 205 219 230 255 
-64 114 501 204 218 229 255 
-63 114 500 201 215 224 255 
-62 114 500 200 214 223 255 
-61 114 500 199 214 221 255 
-61 114 500 201 216 223 255 
-60 114 500 203 217 226 255 
-59 114 500 199 213 222 255 
-58 114 500 196 210 221 255 
-57 114 500 196 210 221 255 
-57 114 499 185 202 212 255 
-56 114 499 175 192 202 255 
-55 113 498 160 177 187 255 
-54 113 498 148 165 175 255 
-53 114 498 144 160 173 255 
-52 114 498 141 157 170 255 
-52 114 498 127 143 156 255 
-51 113 497 108 124 137 255 
-50 113 497 106 120 133 255 
-49 113 496 119 133 146 255 
-48 113 496 121 133 147 255 
-47 113 496 136 148 162 255 
-47 113 496 157 169 183 255 
-46 113 496 172 184 198 255 
-45 113 496 183 195 209 255 
-44 113 495 195 207 221 255 
-43 113 495 198 210 224 255 
-43 113 495 215 227 241 255 
-42 113 494 207 216 231 255 
-41 113 494 198 207 222 255 
-40 112 493 192 199 215 255 
-39 112 493 192 199 215 255 
-38 112 493 186 195 210 255 
-38 112 493 189 198 213 255 
-37 112 493 195 201 215 255 
-36 112 492 204 210 224 255 
-35 112 492 213 217 229 255 
-34 112 492 214 218 230 255 
-34 112 492 217 221 233 255 
-33 112 491 221 225 237 255 
-32 112 491 224 228 237 255 
-31 112 491 230 234 243 255 
-30 112 491 238 243 249 255 
-29 112 490 247 252 255 255 
-29 112 490 249 253 255 255 
-28 112 489 248 252 255 255 
-27 112 489 254 255 255 255 
-26 112 489 254 255 255 255 
-25 112 489 252 255 255 255 
-25 112 489 252 255 255 255 
-24 111 488 252 254 253 255 
-23 111 488 254 255 255 255 
-22 111 488 254 255 255 255 
-21 111 488 254 255 255 255 
-21 111 488 254 255 255 255 
-20 111 487 254 255 255 255 
-19 111 487 252 255 255 255 
-18 111 487 252 255 255 255 
-17 111 486 250 255 255 255 
-17 111 486 248 253 255 255 
-16 111 486 249 254 255 255 
-15 111 486 234 239 242 255 
-14 111 487 213 218 222 255 
-13 111 487 188 193 197 255 
-13 111 487 158 165 171 255 
-12 111 487 126 133 139 255 
-11 111 487 89 93 105 255 
-10 111 487 65 69 81 255 
-10 111 487 52 56 68 255 
-9 111 487 55 59 71 255 
-8 111 487 63 67 79 255 
-7 111 486 51 55 67 255 
-6 111 486 57 61 73 255 
-6 111 486 69 73 85 255 
-5 111 486 71 75 87 255 
-4 111 486 65 69 81 255 
-3 111 487 62 68 80 255 
-2 111 487 64 70 82 255 
-2 111 488 61 67 79 255 
-1 111 488 58 64 76 255 
0 111 488 65 71 83 255 
1 111 488 76 82 94 255 
1 111 487 68 66 79 255 
2 111 487 156 154 167 255 
3 111 486 243 244 249 255 
4 111 485 254 255 255 255 
5 111 485 246 250 251 255 
5 111 485 246 250 251 255 
6 111 485 251 255 254 255 
7 110 484 249 253 252 255 
8 111 485 248 253 255 255 
9 110 484 237 242 245 255 
9 110 484 187 196 203 255 
10 110 484 162 171 178 255 
11 110 484 194 203 210 255 
12 110 483 200 209 216 255 
12 110 483 195 204 209 255 
13 110 483 195 204 209 255 
14 110 483 191 200 207 255 
15 110 483 190 199 206 255 
16 110 483 193 204 210 255 
16 110 483 195 206 212 255 
17 110 483 193 204 210 255 
18 110 483 190 201 207 255 
19 110 483 186 196 205 255 
19 110 482 182 192 201 255 
20 110 482 166 176 185 255 
21 110 482 167 177 186 255 
22 110 482 176 187 193 255 
23 110 482 177 188 194 255 
23 110 482 167 180 188 255 
24 110 482 178 191 199 255 
25 110 483 184 194 203 255 
26 110 483 179 189 198 255 
26 110 483 179 187 198 255 
27 110 483 182 190 201 255 
28 110 483 174 183 192 255 
29 110 483 161 170 179 255 
30 110 483 168 175 183 255 
30 110 483 168 175 183 255 
31 110 484 163 172 181 255 
32 111 485 152 161 170 255 
33 111 485 159 165 179 255 
34 111 485 164 170 184 255 
35 111 486 130 133 150 255 
35 111 486 143 146 163 255 
36 111 488 160 163 178 255 
37 112 490 189 192 207 255 
38 112 493 197 204 214 255 
39 113 497 217 224 234 255 
40 114 501 235 242 255 255 
42 115 506 213 220 236 255 
43 116 510 181 189 202 255 
44 117 515 192 200 213 255 
45 118 518 214 222 235 255 
46 119 521 216 224 237 255 
47 119 523 213 222 237 255 
48 119 524 211 220 235 255 
49 119 524 213 222 237 255 
50 120 525 214 223 238 255 
51 120 525 214 223 238 255 
52 120 526 214 223 238 255 
53 120 526 216 225 240 255 
53 120 526 215 224 239 255 
54 120 526 212 224 240 255 
55 120 526 214 226 242 255 
56 120 525 210 222 238 255 
57 120 526 213 225 241 255 
58 120 525 214 222 241 255 
59 120 526 218 226 245 255 
59 120 526 217 224 243 255 
60 120 526 213 220 239 255 
61 120 526 212 221 236 255 
62 120 526 225 234 249 255 
63 120 526 242 253 255 255 
64 120 526 246 255 255 255 
65 120 526 244 254 255 255 
65 120 526 243 253 254 255 
66 120 525 245 255 255 255 
67 120 526 246 255 255 255 
68 120 526 246 255 255 255 
69 120 526 246 255 255 255 
70 120 526 251 255 255 255 
71 120 527 251 255 255 255 
71 120 527 251 255 255 255 
72 120 527 251 255 255 255 
73 120 527 251 255 255 255 
74 120 526 251 255 255 255 
75 120 526 249 255 255 255 
76 120 526 249 255 255 255 
76 120 526 228 237 246 255 
77 120 527 150 159 168 255 
78 120 526 146 153 169 255 
79 119 524 129 136 152 255 
-105 117 511 149 156 174 255 
-105 117 512 130 137 155 255 
-104 117 511 111 118 136 255 
-103 117 512 108 115 133 255 
-103 117 513 138 147 164 255 
-102 118 514 146 155 172 255 
-101 118 514 148 157 174 255 
-100 118 514 138 147 164 255 
-100 118 514 145 154 171 255 
-99 118 514 111 120 137 255 
-98 118 514 122 131 148 255 
-97 118 514 157 166 183 255 
-96 117 513 183 192 209 255 
-95 117 513 201 210 227 255 
-94 117 513 208 217 234 255 
-93 117 512 217 226 243 255 
-93 117 512 227 236 251 255 
-92 117 512 232 241 255 255 
-91 117 511 235 245 255 255 
-90 117 511 232 242 254 255 
-89 117 510 232 242 254 255 
-88 117 510 227 237 249 255 
-87 117 510 217 229 243 255 
-86 117 510 217 229 243 255 
-86 117 510 206 219 235 255 
-85 117 509 206 219 235 255 
-84 117 509 199 212 228 255 
-83 116 508 196 209 225 255 
-82 116 508 199 211 225 255 
-81 116 507 198 210 224 255 
-80 116 507 199 209 221 255 
-79 116 506 204 214 226 255 
-79 116 506 214 222 233 255 
-78 116 506 219 227 238 255 
-77 116 505 227 239 251 255 
-76 116 505 231 243 255 255 
-75 116 504 238 251 255 255 
-74 116 504 236 249 255 255 
-73 115 503 229 244 251 255 
-72 115 503 230 245 252 255 
-72 115 503 233 247 255 255 
-71 115 503 234 248 255 255 
-70 115 503 232 246 255 255 
-69 115 502 222 236 247 255 
-68 115 502 218 232 243 255 
-67 115 501 217 231 242 255 
-66 115 501 212 226 235 255 
-66 115 501 209 223 232 255 
-65 115 501 208 223 230 255 
-64 115 501 205 220 227 255 
-63 115 500 195 209 218 255 
-62 115 500 197 211 220 255 
-61 115 500 203 217 226 255 
-61 115 500 203 217 226 255 
-60 115 500 209 223 232 255 
-59 115 500 208 222 231 255 
-58 115 500 212 226 237 255 
-57 115 500 213 227 238 255 
-57 115 499 210 224 235 255 
-56 115 499 206 220 231 255 
-55 114 498 202 216 227 255 
-54 114 498 202 216 227 255 
-53 114 498 201 215 226 255 
-52 114 498 195 209 220 255 
-51 114 497 184 198 211 255 
-51 114 497 176 190 203 255 
-50 114 497 172 186 199 255 
-49 114 496 162 176 189 255 
-48 114 496 150 164 177 255 
-47 114 496 143 157 170 255 
-47 114 496 130 144 157 255 
-46 114 496 128 142 155 255 
-45 114 496 126 140 153 255 
-44 114 496 120 134 147 255 
-43 114 495 134 146 160 255 
-43 114 495 156 168 182 255 
-42 113 494 161 173 187 255 
-41 113 494 174 186 200 255 
-40 113 494 192 201 216 255 
-39 113 493 207 216 231 255 
-38 113 493 205 217 231 255 
-38 113 493 206 218 232 255 
-37 113 493 205 213 226 255 
-36 113 493 198 206 219 255 
-35 113 492 192 198 214 255 
-34 113 492 192 198 214 255 
-34 113 492 200 206 222 255 
-33 113 492 203 209 225 255 
-32 113 491 202 208 224 255 
-31 113 491 205 211 227 255 
-30 113 491 213 219 233 255 
-29 113 490 222 228 242 255 
-29 113 490 230 234 245 255 
-28 112 489 230 234 245 255 
-27 112 489 238 241 248 255 
-26 112 489 242 245 252 255 
-25 112 489 242 247 251 255 
-25 112 489 251 255 255 255 
-24 112 488 253 254 255 255 
-23 112 488 254 255 255 255 
-22 112 488 254 255 255 255 
-21 112 488 254 255 255 255 
-21 112 487 253 254 255 255 
-20 112 487 251 252 254 255 
-19 112 486 251 255 255 255 
-18 112 486 252 255 255 255 
-17 112 486 249 253 254 255 
-17 111 485 251 255 255 255 
-16 111 485 252 255 255 255 
-15 111 485 247 251 250 255 
-14 111 485 246 250 249 255 
-13 112 486 249 253 252 255 
-13 112 486 251 255 254 255 
-12 112 486 243 247 246 255 
-11 112 486 230 233 242 255 
-10 112 486 208 211 220 255 
-10 112 486 176 179 188 255 
-9 111 485 138 141 150 255 
-8 111 485 109 111 123 255 
-7 111 485 80 82 94 255 
-6 111 485 75 77 89 255 
-6 111 485 77 79 91 255 
-5 111 485 71 75 87 255 
-4 111 485 70 74 86 255 
-3 111 485 61 65 77 255 
-2 112 486 48 52 64 255 
-2 112 486 51 54 69 255 
-1 112 486 55 58 73 255 
0 112 486 55 58 73 255 
1 112 486 70 73 88 255 
1 111 485 116 115 123 255 
2 111 485 231 230 238 255 
3 111 484 254 255 255 255 
4 111 484 251 252 255 255 
5 111 483 249 253 252 255 
5 111 484 250 254 253 255 
6 111 484 248 252 251 255 
7 111 483 251 255 254 255 
8 111 484 250 255 255 255 
9 111 483 214 219 223 255 
9 111 483 160 169 176 255 
10 111 483 160 169 176 255 
11 111 483 198 209 215 255 
12 111 482 201 212 218 255 
12 111 482 202 213 217 255 
13 111 482 203 214 218 255 
14 111 482 200 210 219 255 
15 111 482 195 205 214 255 
16 111 482 196 207 213 255 
16 111 482 199 210 216 255 
17 111 482 198 209 215 255 
18 111 482 194 205 211 255 
19 111 482 192 202 211 255 
19 111 482 192 202 211 255 
20 111 482 193 203 212 255 
21 111 482 197 207 216 255 
22 111 482 201 211 220 255 
23 111 482 202 212 221 255 
23 111 481 195 208 216 255 
24 111 482 193 206 214 255 
25 111 482 192 202 211 255 
26 111 482 191 201 210 255 
26 111 482 191 199 210 255 
27 111 482 192 200 211 255 
28 111 482 185 192 202 255 
29 111 482 175 182 192 255 
30 111 483 180 187 195 255 
30 111 483 190 197 205 255 
31 111 484 193 200 210 255 
32 111 484 185 192 202 255 
33 111 485 161 167 183 255 
34 111 485 149 155 171 255 
35 112 486 128 133 152 255 
35 112 486 155 160 179 255 
36 112 488 163 166 183 255 
37 113 490 191 194 211 255 
38 113 494 199 205 219 255 
39 114 497 225 231 245 255 
41 115 502 224 233 248 255 
42 116 506 190 199 214 255 
43 117 511 180 190 202 255 
44 118 515 200 210 222 255 
45 119 519 215 225 237 255 
46 120 521 213 223 235 255 
47 120 522 212 221 236 255 
48 120 523 212 221 236 255 
49 120 523 211 220 235 255 
50 120 524 213 222 237 255 
51 121 525 212 221 236 255 
52 121 525 212 221 236 255 
53 121 525 211 223 237 255 
53 121 525 211 223 237 255 
54 121 525 209 221 237 255 
55 121 525 210 222 238 255 
56 120 524 214 223 240 255 
57 120 524 214 223 240 255 
58 121 525 214 222 241 255 
58 120 524 217 225 244 255 
59 121 525 213 221 240 255 
60 121 525 211 219 238 255 
61 120 525 215 222 238 255 
62 120 525 230 237 253 255 
63 120 525 244 251 255 255 
64 120 525 245 252 255 255 
64 120 525 245 250 253 255 
65 120 525 244 249 252 255 
66 120 525 248 252 255 255 
67 120 525 245 249 252 255 
68 120 525 244 249 255 255 
69 120 525 245 250 255 255 
70 121 526 251 252 254 255 
70 121 526 254 255 255 255 
71 121 526 254 255 255 255 
72 121 527 254 255 255 255 
73 121 527 254 255 255 255 
74 121 527 253 254 255 255 
75 121 527 254 253 255 255 
76 121 527 253 252 255 255 
77 121 527 240 239 247 255 
77 121 527 208 207 215 255 
78 121 527 165 165 177 255 
-103 115 500 143 150 168 255 
-103 116 504 132 139 157 255 
-103 117 506 126 135 152 255 
-102 117 507 129 138 155 255 
-102 117 509 134 143 160 255 
-101 118 510 152 161 178 255 
-101 118 512 190 199 216 255 
-100 118 512 195 204 221 255 
-99 118 512 203 212 229 255 
-99 118 513 175 184 201 255 
-98 118 513 138 147 164 255 
-97 118 513 134 143 160 255 
-96 118 513 122 131 148 255 
-95 118 513 138 147 164 255 
-94 118 512 169 178 195 255 
-93 118 512 185 194 211 255 
-93 118 512 195 204 221 255 
-92 118 512 215 224 241 255 
-91 118 511 226 236 248 255 
-90 118 511 234 244 255 255 
-89 118 510 234 242 255 255 
-88 118 510 241 249 255 255 
-87 118 510 236 244 255 255 
-86 117 509 231 239 252 255 
-86 117 509 221 230 245 255 
-85 117 509 216 225 240 255 
-84 117 508 208 220 236 255 
-83 117 508 206 218 234 255 
-82 117 507 202 214 230 255 
-81 117 507 199 211 227 255 
-80 117 507 202 212 224 255 
-79 117 506 199 209 221 255 
-78 117 506 194 202 213 255 
-78 117 505 198 206 217 255 
-77 117 505 200 212 224 255 
-76 117 505 206 218 230 255 
-75 116 504 221 233 245 255 
-74 116 504 232 244 255 255 
-73 116 503 234 247 255 255 
-72 116 503 232 245 254 255 
-72 116 503 231 244 253 255 
-71 116 502 234 247 255 255 
-70 116 502 232 246 255 255 
-69 116 502 228 242 251 255 
-68 116 502 229 243 252 255 
-67 116 501 232 246 255 255 
-66 115 500 231 246 253 255 
-66 115 500 231 246 253 255 
-65 115 500 230 245 252 255 
-64 116 500 227 242 249 255 
-63 115 499 220 233 242 255 
-62 115 499 217 230 239 255 
-61 116 500 217 230 239 255 
-61 116 500 208 221 230 255 
-60 116 500 209 222 231 255 
-59 116 500 203 216 225 255 
-58 115 499 203 216 225 255 
-57 115 499 198 211 220 255 
-57 115 499 207 219 231 255 
-56 115 499 204 216 228 255 
-55 115 498 204 216 228 255 
-54 115 498 206 218 230 255 
-53 115 498 207 219 231 255 
-52 115 498 206 218 230 255 
-51 115 497 206 218 230 255 
-51 115 497 208 220 232 255 
-50 115 497 204 218 231 255 
-49 115 496 202 216 229 255 
-48 115 496 198 212 225 255 
-47 115 496 194 208 221 255 
-47 115 496 182 194 208 255 
-46 115 496 173 185 199 255 
-45 115 496 165 177 191 255 
-44 114 495 162 174 188 255 
-43 114 495 144 156 170 255 
-43 114 495 141 153 167 255 
-42 114 494 135 147 161 255 
-41 114 494 137 149 163 255 
-40 114 494 136 145 160 255 
-39 114 494 144 153 168 255 
-38 114 494 157 169 183 255 
-38 114 494 168 180 194 255 
-37 114 493 178 187 202 255 
-36 114 493 179 188 203 255 
-35 114 493 187 196 213 255 
-34 114 493 194 203 220 255 
-34 114 492 194 203 220 255 
-33 114 492 187 196 213 255 
-32 114 491 186 193 211 255 
-31 114 491 193 200 218 255 
-30 114 491 197 204 220 255 
-29 113 490 197 204 220 255 
-29 113 490 208 214 228 255 
-28 113 489 211 217 231 255 
-27 113 489 210 216 228 255 
-26 113 489 215 221 233 255 
-25 113 489 221 228 238 255 
-25 113 488 226 233 243 255 
-24 113 488 236 239 246 255 
-23 113 488 240 243 250 255 
-22 113 488 242 245 250 255 
-21 113 488 247 250 255 255 
-21 113 487 251 255 255 255 
-20 113 487 251 255 255 255 
-19 112 486 251 255 255 255 
-18 112 486 251 255 255 255 
-17 112 486 247 251 252 255 
-17 112 485 248 252 253 255 
-16 112 485 251 253 252 255 
-15 112 485 250 252 251 255 
-14 112 485 251 253 250 255 
-13 112 485 250 252 249 255 
-13 112 485 248 253 249 255 
-12 112 485 248 253 249 255 
-11 112 484 251 252 255 255 
-10 112 484 253 254 255 255 
-9 112 484 252 253 255 255 
-9 112 484 245 246 250 255 
-8 112 483 242 243 248 255 
-7 112 483 224 225 230 255 
-6 112 483 197 197 205 255 
-6 112 483 168 168 176 255 
-5 112 483 138 141 150 255 
-4 112 483 111 114 123 255 
-3 112 484 82 84 96 255 
-2 112 484 55 57 69 255 
-2 112 484 55 57 69 255 
-1 112 485 68 70 82 255 
0 112 485 70 72 85 255 
1 112 485 76 78 91 255 
1 112 484 198 197 202 255 
2 112 484 254 253 255 255 
3 112 483 248 249 251 255 
4 112 482 250 251 253 255 
5 112 482 247 251 250 255 
5 112 482 251 255 254 255 
6 112 482 249 255 255 255 
7 112 482 250 255 255 255 
8 112 482 236 243 249 255 
8 112 482 193 200 206 255 
9 112 482 174 183 192 255 
10 112 482 183 192 201 255 
11 111 481 201 211 220 255 
12 111 481 204 214 223 255 
12 111 481 203 214 220 255 
13 111 481 204 215 221 255 
14 111 481 204 214 223 255 
15 111 481 199 209 218 255 
15 111 481 198 208 217 255 
16 111 481 199 209 218 255 
17 111 481 199 209 218 255 
18 112 482 198 208 217 255 
19 112 482 199 209 218 255 
19 112 482 198 208 217 255 
20 112 482 200 210 219 255 
21 112 482 201 211 220 255 
22 111 481 199 209 218 255 
22 111 481 205 215 224 255 
23 111 481 203 216 224 255 
24 111 481 199 212 220 255 
25 111 481 198 208 217 255 
26 111 481 203 213 222 255 
26 111 481 202 210 221 255 
27 111 481 199 207 218 255 
28 111 481 192 201 208 255 
29 111 482 193 202 209 255 
30 111 482 195 204 211 255 
30 112 483 198 207 214 255 
31 112 483 197 206 215 255 
32 112 484 192 201 210 255 
33 112 484 172 179 195 255 
34 112 485 133 140 156 255 
34 112 485 122 129 148 255 
35 112 486 156 163 182 255 
36 113 488 169 176 194 255 
37 113 490 191 198 216 255 
38 114 494 201 209 222 255 
39 115 498 231 239 252 255 
41 116 502 206 215 230 255 
42 117 507 182 191 206 255 
43 118 512 196 206 218 255 
44 119 516 210 220 232 255 
45 120 519 214 223 238 255 
46 120 521 212 221 236 255 
47 121 522 213 222 237 255 
48 121 523 213 222 237 255 
49 121 523 211 220 235 255 
50 121 523 212 221 236 255 
51 121 524 211 220 235 255 
51 121 523 210 219 234 255 
52 121 523 211 220 237 255 
53 121 523 212 221 238 255 
54 121 523 209 221 237 255 
55 121 523 209 221 237 255 
56 121 523 212 221 236 255 
57 121 523 211 220 235 255 
57 121 523 210 219 236 255 
58 121 523 208 217 234 255 
59 121 523 206 215 232 255 
60 121 524 210 219 236 255 
61 121 524 215 223 236 255 
62 121 524 230 238 251 255 
63 121 524 245 248 255 255 
64 121 525 248 251 255 255 
64 121 525 249 250 254 255 
65 121 525 244 245 249 255 
66 121 525 247 246 251 255 
67 121 525 248 247 252 255 
68 121 525 248 249 254 255 
69 121 525 245 246 251 255 
69 121 525 252 253 255 255 
70 122 526 254 255 255 255 
71 122 526 255 255 255 255 
72 122 526 253 253 255 255 
73 122 526 247 242 248 255 
74 122 527 244 239 245 255 
75 122 528 225 215 223 255 
76 122 527 177 167 175 255 
77 122 527 168 158 166 255 
78 122 528 171 161 169 255 
78 122 527 174 171 178 255 
-100 117 502 133 142 159 255 
-100 117 505 156 165 182 255 
-100 118 507 154 163 180 255 
-99 118 509 180 189 206 255 
-99 118 510 210 219 236 255 
-98 119 511 216 225 242 255 
-97 119 512 200 209 226 255 
-97 119 512 194 203 220 255 
-96 119 512 179 188 205 255 
-95 119 512 154 163 180 255 
-94 119 512 128 137 154 255 
-93 119 512 132 141 158 255 
-92 119 511 152 161 178 255 
-92 119 511 174 183 200 255 
-91 119 511 191 203 219 255 
-90 118 510 211 223 239 255 
-89 118 510 219 228 243 255 
-88 118 510 227 236 251 255 
-87 118 510 238 246 255 255 
-86 118 509 242 250 255 255 
-85 118 509 238 246 255 255 
-85 118 509 237 245 255 255 
-84 118 509 230 238 251 255 
-83 118 508 223 231 244 255 
-82 118 508 214 223 238 255 
-81 118 507 207 216 231 255 
-80 118 507 208 217 232 255 
-79 118 507 206 215 230 255 
-78 118 506 199 208 223 255 
-78 118 506 200 209 224 255 
-77 117 505 199 209 221 255 
-76 117 505 197 207 219 255 
-75 117 504 201 211 223 255 
-74 117 503 211 221 233 255 
-73 117 503 226 236 248 255 
-72 117 502 234 244 255 255 
-71 117 502 233 246 255 255 
-71 117 502 233 246 255 255 
-70 116 501 233 246 252 255 
-69 117 501 233 246 252 255 
-68 117 501 235 249 252 255 
-67 117 501 234 248 251 255 
-66 116 500 232 247 250 255 
-65 116 499 234 249 252 255 
-65 116 499 237 252 255 255 
-64 116 499 236 251 255 255 
-63 116 499 238 251 255 255 
-62 116 499 237 250 255 255 
-61 116 499 240 253 255 255 
-61 116 499 234 247 255 255 
-60 116 499 237 250 255 255 
-59 116 499 231 244 253 255 
-58 116 499 228 241 250 255 
-57 116 498 219 232 241 255 
-56 116 498 213 226 235 255 
-56 116 498 212 225 234 255 
-55 116 498 207 219 231 255 
-54 116 498 202 214 226 255 
-53 116 498 202 214 226 255 
-52 116 497 206 218 230 255 
-51 116 497 208 220 232 255 
-51 116 497 205 217 229 255 
-50 116 497 207 221 232 255 
-49 115 496 208 222 233 255 
-48 115 496 210 224 235 255 
-47 115 496 215 229 240 255 
-47 115 496 212 226 237 255 
