ply
format ascii 1.0
comment VCGLIB generated
element vertex 1794
property float x
property float y
property float z
property uchar red
property uchar green
property uchar blue
property uchar alpha
element face 0
property list uchar int vertex_indices
end_header
-106 11 543 101 115 144 255 
-105 11 544 106 120 149 255 
-104 11 544 101 115 144 255 
-103 11 543 102 116 145 255 
-102 11 544 103 116 148 255 
-102 11 544 104 117 149 255 
-101 11 544 108 119 151 255 
-100 11 544 106 117 149 255 
-99 11 544 105 116 148 255 
-98 11 544 106 117 149 255 
-97 11 544 101 115 142 255 
-96 11 544 105 119 146 255 
-95 11 544 109 120 148 255 
-94 11 543 107 118 146 255 
-93 11 543 107 118 146 255 
-93 11 543 110 121 149 255 
-92 11 543 110 121 149 255 
-91 11 543 105 116 144 255 
-90 11 543 99 110 138 255 
-89 11 544 72 83 111 255 
-88 11 544 38 47 76 255 
-88 11 545 62 71 100 255 
-87 11 544 89 98 127 255 
-86 11 544 92 101 130 255 
-85 11 544 108 117 146 255 
-84 11 544 105 114 143 255 
-83 11 543 104 116 140 255 
-82 11 543 101 113 137 255 
-81 11 543 96 106 133 255 
-80 11 543 89 99 126 255 
-79 11 543 91 98 126 255 
-79 11 543 88 95 123 255 
-78 11 543 92 103 125 255 
-77 11 543 89 100 122 255 
-76 11 543 97 105 126 255 
-75 11 543 91 99 120 255 
-74 11 544 68 75 94 255 
-73 11 544 31 38 57 255 
-73 11 544 55 62 81 255 
-72 11 544 104 111 130 255 
-71 11 543 109 117 136 255 
-70 11 543 95 103 122 255 
-69 11 543 91 103 125 255 
-68 11 543 92 104 126 255 
-67 11 544 91 103 129 255 
-66 11 544 92 104 130 255 
-66 11 544 88 98 123 255 
-65 11 544 85 95 120 255 
-64 11 544 61 73 89 255 
-63 11 544 42 54 70 255 
-62 11 544 24 36 48 255 
-61 11 544 23 35 47 255 
-60 11 544 55 67 81 255 
-59 11 544 67 79 93 255 
-58 11 544 70 81 101 255 
-58 11 544 64 75 95 255 
-57 11 544 78 89 111 255 
-56 11 544 88 99 121 255 
-55 11 544 87 94 120 255 
-54 11 545 83 90 116 255 
-53 11 545 83 90 118 255 
-52 11 545 85 92 120 255 
-51 11 545 78 85 114 255 
-51 11 545 80 87 116 255 
-50 11 545 78 85 113 255 
-49 11 545 81 88 116 255 
-48 11 545 80 88 111 255 
-47 11 544 82 90 113 255 
-46 11 545 80 88 109 255 
-45 11 545 79 87 108 255 
-44 11 545 80 86 110 255 
-43 11 544 82 88 112 255 
-43 11 545 85 91 117 255 
-42 11 545 84 90 116 255 
-41 11 545 83 88 110 255 
-40 11 545 76 81 103 255 
-39 11 545 81 85 110 255 
-38 11 546 82 86 111 255 
-37 11 546 76 80 105 255 
-37 11 546 52 56 81 255 
-36 11 546 11 15 40 255 
-35 11 546 18 22 47 255 
-34 11 546 17 21 46 255 
-33 11 546 16 20 45 255 
-32 11 546 28 32 59 255 
-31 11 546 63 67 94 255 
-30 11 546 78 82 109 255 
-29 11 545 76 80 107 255 
-28 11 545 72 76 103 255 
-28 11 545 79 83 110 255 
-27 11 544 86 88 113 255 
-26 11 544 81 83 108 255 
-25 11 544 83 85 110 255 
-24 11 544 85 87 112 255 
-23 11 543 83 85 110 255 
-22 11 543 84 86 111 255 
-21 11 543 84 85 113 255 
-20 11 542 82 83 111 255 
-20 11 542 78 82 111 255 
-19 11 542 74 78 107 255 
-18 11 542 80 84 113 255 
-17 11 542 61 65 94 255 
-16 11 542 32 35 66 255 
-15 11 542 16 19 50 255 
-14 11 542 22 25 56 255 
-13 11 543 23 26 57 255 
-12 11 542 13 18 47 255 
-12 11 542 28 33 62 255 
-11 11 542 56 61 90 255 
-10 11 542 82 87 116 255 
-9 11 541 91 96 125 255 
-8 11 541 92 97 126 255 
-7 11 540 98 103 132 255 
-6 11 540 98 103 132 255 
-5 11 540 98 103 132 255 
-4 11 539 101 106 135 255 
-4 11 539 104 109 138 255 
-3 11 539 103 108 137 255 
-2 11 539 101 106 135 255 
-1 10 538 100 105 134 255 
0 10 538 100 105 134 255 
1 10 538 101 106 135 255 
2 10 538 99 104 133 255 
3 10 538 100 105 134 255 
3 10 537 99 105 131 255 
4 10 537 96 102 128 255 
5 10 537 96 102 128 255 
6 10 536 101 107 133 255 
7 10 535 103 110 136 255 
8 10 535 101 108 134 255 
9 10 534 100 107 133 255 
9 10 534 101 108 134 255 
10 10 534 104 111 137 255 
11 10 534 103 110 136 255 
12 10 533 99 109 134 255 
13 10 534 98 108 133 255 
14 10 533 99 109 134 255 
15 10 533 102 112 137 255 
15 10 532 105 115 142 255 
16 10 532 106 116 143 255 
17 10 532 108 118 145 255 
18 10 531 108 118 145 255 
19 10 531 107 118 146 255 
20 10 531 111 122 150 255 
21 10 531 112 121 150 255 
21 10 531 111 120 149 255 
22 10 530 110 119 148 255 
23 10 530 109 118 147 255 
24 10 529 108 119 149 255 
25 10 529 107 118 148 255 
26 10 529 105 119 148 255 
27 10 529 106 120 149 255 
27 10 529 106 117 147 255 
28 10 529 103 114 144 255 
29 10 528 108 119 151 255 
30 10 528 109 120 152 255 
31 10 527 109 121 143 255 
32 10 527 111 123 145 255 
32 10 526 112 124 146 255 
33 10 527 108 120 142 255 
34 10 528 104 119 148 255 
35 10 529 104 119 148 255 
36 10 529 103 118 147 255 
37 10 530 108 123 152 255 
38 10 531 79 90 108 255 
39 10 532 43 54 72 255 
40 10 534 48 55 65 255 
41 10 535 49 56 66 255 
42 10 537 54 56 69 255 
43 11 539 49 51 64 255 
44 11 541 46 55 64 255 
45 11 542 45 54 63 255 
46 11 544 46 53 63 255 
47 11 545 48 55 65 255 
48 11 546 51 58 68 255 
49 11 548 51 58 68 255 
50 11 550 48 55 65 255 
51 11 552 46 53 63 255 
52 11 553 46 53 61 255 
53 11 555 46 53 61 255 
54 11 557 52 56 65 255 
55 11 559 51 55 64 255 
56 11 560 51 55 64 255 
57 11 562 52 56 65 255 
59 11 564 51 55 64 255 
60 11 566 51 55 64 255 
61 11 570 53 57 66 255 
62 11 573 51 55 64 255 
64 11 579 56 63 71 255 
75 12 625 20 24 33 255 
77 12 633 23 27 36 255 
79 12 640 25 32 40 255 
81 13 645 39 46 54 255 
82 13 649 47 54 62 255 
83 13 651 48 55 63 255 
85 13 652 53 60 68 255 
85 13 650 51 58 66 255 
84 12 635 31 35 44 255 
-180 12 560 30 37 45 255 
-177 12 554 64 74 86 255 
-174 11 549 102 112 124 255 
-173 11 547 111 124 143 255 
-172 11 547 96 109 128 255 
-171 11 546 91 107 133 255 
-170 11 545 97 113 139 255 
-169 11 545 100 115 146 255 
-168 11 545 103 118 149 255 
-167 11 545 101 115 142 255 
-166 11 545 101 115 142 255 
-165 11 545 98 112 139 255 
-164 11 545 100 114 141 255 
-164 11 545 104 118 145 255 
-163 11 545 105 119 146 255 
-162 11 545 104 118 145 255 
-161 11 545 103 117 144 255 
-160 11 544 101 115 144 255 
-159 11 544 101 115 144 255 
-158 11 544 102 116 145 255 
-157 11 544 102 116 145 255 
-156 11 544 102 116 145 255 
-155 11 544 101 115 144 255 
-155 11 544 100 114 143 255 
-154 11 544 99 113 142 255 
-153 11 544 105 119 145 255 
-152 11 544 102 116 142 255 
-151 11 544 102 117 148 255 
-151 11 545 99 114 145 255 
-150 11 545 109 125 159 255 
-149 11 545 107 123 157 255 
-148 11 545 44 58 93 255 
-147 11 545 22 36 71 255 
-146 11 545 30 44 81 255 
-145 11 544 26 40 77 255 
-144 11 544 28 43 82 255 
-144 11 545 27 42 81 255 
-143 11 545 58 76 114 255 
-142 11 544 76 94 132 255 
-141 11 544 81 100 133 255 
-140 11 544 82 101 134 255 
-139 11 543 81 99 135 255 
-138 11 543 77 95 131 255 
-137 11 543 76 96 133 255 
-136 11 543 74 94 131 255 
-135 11 543 62 80 120 255 
-134 11 543 57 75 115 255 
-134 11 544 39 57 97 255 
-133 11 543 42 60 100 255 
-132 11 543 37 52 93 255 
-131 11 543 36 51 92 255 
-130 11 543 28 43 82 255 
-129 11 543 21 36 75 255 
-128 11 543 61 77 111 255 
-127 11 543 97 113 147 255 
-127 11 543 102 117 146 255 
-126 11 543 100 115 144 255 
-125 11 543 99 114 143 255 
-124 11 543 98 113 142 255 
-123 11 543 99 114 143 255 
-122 11 543 102 117 146 255 
-121 11 543 103 118 147 255 
-120 11 542 104 119 148 255 
-119 11 542 103 119 145 255 
-119 11 542 102 118 144 255 
-118 11 542 103 119 145 255 
-117 11 542 102 118 144 255 
-116 11 542 101 115 142 255 
-115 11 542 100 114 141 255 
-114 11 542 101 115 142 255 
-113 11 542 103 117 144 255 
-113 11 543 105 119 146 255 
-112 11 542 105 119 146 255 
-111 11 542 101 115 142 255 
-110 11 542 101 115 142 255 
-109 11 542 106 120 149 255 
-108 11 543 105 119 148 255 
-107 11 542 105 119 148 255 
-106 11 542 103 117 146 255 
-105 11 542 99 113 140 255 
-105 11 542 102 116 143 255 
-104 11 543 102 116 143 255 
-103 11 542 103 117 144 255 
-102 11 542 105 116 146 255 
-101 11 543 106 117 147 255 
-100 11 543 106 117 147 255 
-100 11 543 106 117 147 255 
-99 11 543 106 117 147 255 
-98 11 543 107 118 148 255 
-97 11 543 103 114 142 255 
-96 11 543 106 117 145 255 
-95 11 543 108 119 147 255 
-94 11 542 106 117 145 255 
-93 11 542 107 116 145 255 
-92 11 542 109 118 147 255 
-92 11 542 106 117 145 255 
-91 11 542 100 111 139 255 
-90 11 542 54 65 93 255 
-89 11 542 11 22 50 255 
-88 11 543 24 33 62 255 
-87 11 544 90 99 128 255 
-86 11 543 108 117 146 255 
-86 11 543 101 110 139 255 
-85 11 543 111 120 149 255 
-84 11 543 104 113 142 255 
-83 11 542 106 117 145 255 
-82 11 542 105 116 144 255 
-81 11 542 90 99 128 255 
-80 11 542 86 95 124 255 
-79 11 542 89 98 127 255 
-79 11 543 86 95 124 255 
-78 11 543 91 101 128 255 
-77 11 543 94 104 131 255 
-76 11 543 84 91 117 255 
-75 11 543 30 37 63 255 
-74 11 543 43 49 75 255 
-73 11 542 105 111 137 255 
-72 11 542 104 110 134 255 
-71 11 542 95 101 125 255 
-71 11 542 95 103 126 255 
-70 11 541 92 100 123 255 
-69 11 542 87 97 124 255 
-68 11 542 75 85 112 255 
-67 11 543 61 71 96 255 
-66 11 543 66 76 101 255 
-65 11 543 61 69 90 255 
-65 11 543 38 46 67 255 
-64 11 543 38 47 64 255 
-63 11 543 40 49 66 255 
-62 11 543 47 56 73 255 
-61 11 543 52 61 78 255 
-60 11 543 78 86 105 255 
-59 11 543 81 89 108 255 
-58 11 543 57 65 86 255 
-57 11 543 38 46 67 255 
-57 11 543 68 76 99 255 
-56 11 543 87 95 118 255 
-55 11 543 77 85 108 255 
-54 11 544 86 94 117 255 
-53 11 544 83 91 114 255 
-52 11 544 87 95 118 255 
-51 11 544 85 91 115 255 
-51 11 544 81 87 111 255 
-50 11 544 83 89 113 255 
-49 11 543 78 84 108 255 
-48 11 543 79 85 109 255 
-47 11 542 78 84 108 255 
-46 11 543 77 83 107 255 
-45 11 543 82 88 112 255 
-44 11 543 85 91 115 255 
-43 11 543 81 87 111 255 
-42 11 543 80 86 110 255 
-42 11 543 82 88 112 255 
-41 11 543 80 84 109 255 
-40 11 544 82 86 111 255 
-39 11 544 83 87 112 255 
-38 11 544 80 84 109 255 
-37 11 544 79 83 108 255 
-36 11 544 71 75 100 255 
-36 11 544 33 37 62 255 
-35 11 544 11 15 40 255 
-34 11 544 13 17 42 255 
-33 11 544 17 21 46 255 
-32 11 544 21 25 52 255 
-31 11 544 37 41 68 255 
-30 11 544 53 57 84 255 
-29 11 544 64 68 95 255 
-28 11 543 64 68 95 255 
-27 11 543 61 65 92 255 
-27 11 543 36 40 65 255 
-26 11 543 37 41 66 255 
-25 11 542 45 49 74 255 
-24 11 542 62 66 91 255 
-23 11 542 68 72 97 255 
-22 11 541 73 77 102 255 
-21 11 541 77 81 108 255 
-20 11 540 82 86 113 255 
-19 11 540 81 85 112 255 
-19 11 540 88 92 119 255 
-18 11 540 61 65 94 255 
-17 11 540 18 22 51 255 
-16 11 540 9 13 42 255 
-15 11 541 16 20 49 255 
-14 11 541 18 22 51 255 
-13 11 541 21 25 54 255 
-12 11 540 28 34 60 255 
-12 11 540 56 62 88 255 
-11 11 540 82 88 114 255 
-10 11 540 90 96 122 255 
-9 11 540 89 94 123 255 
-8 11 539 95 100 129 255 
-7 11 539 100 105 134 255 
-6 11 538 97 102 131 255 
-5 11 538 95 100 129 255 
-4 11 538 97 102 131 255 
-4 11 538 100 105 134 255 
-3 11 538 101 106 135 255 
-2 11 537 100 105 134 255 
-1 11 537 99 104 133 255 
0 11 537 97 104 132 255 
1 11 537 97 104 132 255 
2 11 536 97 102 131 255 
3 11 536 98 103 132 255 
3 11 535 98 103 132 255 
4 11 535 96 101 130 255 
5 11 535 97 102 131 255 
6 11 534 100 105 134 255 
7 11 534 101 108 136 255 
8 11 533 99 106 134 255 
9 11 533 101 108 136 255 
9 11 532 101 108 136 255 
10 11 532 102 109 137 255 
11 11 532 101 108 136 255 
12 11 532 98 108 133 255 
13 11 531 99 109 134 255 
14 11 531 98 108 133 255 
15 11 531 99 109 134 255 
15 11 531 106 117 145 255 
16 11 530 108 119 147 255 
17 11 530 107 121 148 255 
18 11 530 104 118 145 255 
19 11 529 106 120 147 255 
20 11 529 110 124 151 255 
21 11 529 110 124 151 255 
21 11 529 108 122 149 255 
22 11 529 103 117 144 255 
23 11 528 105 119 146 255 
24 11 528 105 121 147 255 
25 11 528 104 120 146 255 
26 11 527 104 119 148 255 
26 11 527 104 119 148 255 
27 11 527 104 118 147 255 
28 11 527 103 117 146 255 
29 11 527 110 121 151 255 
30 11 527 108 119 149 255 
31 11 526 112 124 148 255 
32 11 526 106 118 142 255 
32 11 526 103 118 141 255 
33 11 526 108 123 146 255 
34 11 527 103 117 144 255 
35 11 528 104 118 145 255 
36 11 529 102 117 140 255 
37 11 530 71 86 109 255 
38 11 532 49 58 73 255 
39 11 533 41 50 65 255 
40 11 534 48 55 65 255 
41 11 536 45 52 62 255 
42 11 538 47 50 59 255 
43 11 540 51 54 63 255 
44 11 541 43 52 61 255 
45 11 543 45 54 63 255 
46 11 544 46 53 63 255 
47 12 546 48 55 65 255 
48 12 547 52 59 69 255 
49 12 549 52 59 69 255 
50 12 550 49 56 66 255 
51 12 552 47 54 64 255 
52 12 554 50 57 65 255 
53 12 555 51 58 66 255 
54 12 557 54 58 67 255 
55 12 559 52 56 65 255 
56 12 561 52 56 65 255 
58 12 563 54 58 67 255 
59 12 565 50 57 65 255 
60 12 568 49 56 64 255 
61 12 572 53 57 66 255 
63 12 576 55 59 68 255 
64 12 583 41 45 54 255 
66 12 591 25 29 38 255 
78 14 640 18 22 31 255 
80 14 646 24 31 39 255 
81 14 650 38 45 53 255 
83 14 653 46 53 61 255 
84 14 654 49 56 64 255 
85 14 654 52 59 67 255 
86 14 652 49 56 64 255 
86 14 646 40 44 53 255 
86 13 637 31 35 44 255 
86 13 634 27 32 38 255 
-185 13 570 29 35 47 255 
-178 12 552 56 65 80 255 
-176 12 549 95 104 119 255 
-175 12 547 103 118 139 255 
-173 12 545 98 113 134 255 
-172 12 545 96 112 138 255 
-171 12 544 97 113 139 255 
-170 12 544 97 112 141 255 
-169 12 544 98 113 142 255 
-168 12 544 101 115 144 255 
-168 12 544 101 115 144 255 
-167 12 544 103 117 146 255 
-166 12 544 100 114 143 255 
-165 12 544 97 111 140 255 
-164 12 544 97 111 140 255 
-163 12 544 102 116 145 255 
-162 12 544 105 119 148 255 
-161 12 544 103 117 146 255 
-161 12 544 103 117 146 255 
-159 12 543 101 115 144 255 
-159 12 543 101 115 144 255 
-158 12 543 101 115 144 255 
-157 12 543 102 116 145 255 
-156 12 543 103 117 146 255 
-155 12 543 102 116 145 255 
-154 12 543 101 115 144 255 
-153 12 543 100 114 143 255 
-152 12 542 107 119 145 255 
-151 12 542 106 118 144 255 
-151 12 543 106 120 149 255 
-150 12 543 98 112 141 255 
-149 12 543 103 118 151 255 
-148 12 543 102 117 150 255 
-147 12 543 47 61 96 255 
-147 12 543 23 37 72 255 
-146 12 543 25 40 79 255 
-145 12 543 28 43 82 255 
-144 12 543 27 45 85 255 
-143 12 543 26 44 84 255 
-142 12 543 42 60 98 255 
-141 12 543 69 87 125 255 
-140 12 542 88 104 140 255 
-139 12 542 85 101 137 255 
-138 12 542 85 103 141 255 
-138 12 542 82 100 138 255 
-137 12 542 67 85 123 255 
-136 12 542 55 73 111 255 
-135 12 542 39 57 97 255 
-134 12 542 45 63 103 255 
-133 12 542 61 76 115 255 
-132 12 541 69 84 123 255 
-131 12 541 50 66 102 255 
-130 12 541 34 50 86 255 
-130 12 541 27 43 77 255 
-129 12 541 63 79 113 255 
-128 12 541 93 110 140 255 
-127 12 541 100 117 147 255 
-126 12 541 100 115 144 255 
-125 12 541 102 117 146 255 
-125 12 542 104 118 147 255 
-124 12 541 101 115 144 255 
-123 12 541 102 116 145 255 
-122 12 541 103 117 146 255 
-121 12 541 104 118 147 255 
-120 12 541 104 118 147 255 
-119 12 541 103 117 144 255 
-118 12 540 102 116 143 255 
-117 12 540 103 117 144 255 
-116 12 540 102 116 143 255 
-116 12 541 102 116 143 255 
-115 12 541 102 116 143 255 
-114 12 541 102 116 143 255 
-113 12 541 104 118 145 255 
-112 12 541 105 119 146 255 
-111 12 541 104 118 145 255 
-111 12 541 100 114 141 255 
-109 12 540 101 115 142 255 
-109 12 540 101 115 142 255 
-108 12 541 103 117 144 255 
-107 12 540 102 116 143 255 
-106 12 540 101 115 142 255 
-105 12 540 102 116 143 255 
-104 12 540 103 117 144 255 
-104 12 541 105 116 144 255 
-102 12 540 105 116 144 255 
-102 12 541 106 117 147 255 
-101 12 541 107 118 148 255 
-100 12 541 106 117 147 255 
-99 12 541 106 117 147 255 
-98 12 541 107 118 146 255 
-97 12 541 106 117 145 255 
-97 12 541 105 116 144 255 
-96 12 541 107 118 146 255 
-95 12 541 109 118 147 255 
-94 12 541 109 118 147 255 
-93 12 541 107 116 145 255 
-92 12 540 108 117 146 255 
-91 12 540 107 116 145 255 
-90 12 540 102 111 140 255 
-90 12 541 78 87 116 255 
-89 12 541 76 85 114 255 
-88 12 541 94 103 132 255 
-87 12 542 106 115 144 255 
-86 12 542 101 110 139 255 
-85 12 542 105 114 143 255 
-84 12 541 111 120 149 255 
-84 12 541 107 116 145 255 
-83 12 541 107 116 145 255 
-82 12 541 106 115 144 255 
-81 12 541 95 104 133 255 
-80 12 541 91 100 129 255 
-79 12 541 90 99 128 255 
-78 12 542 94 103 132 255 
-78 12 542 88 98 125 255 
-77 12 542 63 73 100 255 
-76 12 542 23 30 59 255 
-75 12 542 64 71 100 255 
-74 12 541 112 117 147 255 
-73 12 540 101 106 136 255 
-72 12 540 94 99 129 255 
-71 12 540 95 100 130 255 
-70 12 540 94 99 128 255 
-69 12 540 94 99 128 255 
-69 12 540 80 85 115 255 
-68 12 541 27 32 62 255 
-67 12 541 19 25 47 255 
-66 12 542 28 34 56 255 
-65 12 542 44 51 69 255 
-64 12 541 78 85 103 255 
-63 12 541 82 89 108 255 
-63 12 541 97 104 123 255 
-62 12 542 68 74 96 255 
-61 12 541 53 59 81 255 
-60 12 542 92 98 120 255 
-59 12 542 86 92 114 255 
-58 12 543 90 97 116 255 
-57 12 543 80 87 106 255 
-57 12 543 74 79 101 255 
-56 12 543 80 85 107 255 
-55 12 543 87 93 117 255 
-54 12 543 86 92 116 255 
-53 12 543 78 85 104 255 
-52 12 543 63 70 89 255 
-51 12 543 75 82 101 255 
-50 12 543 84 91 110 255 
-50 12 543 77 83 105 255 
-49 12 542 79 85 107 255 
-48 12 542 80 86 112 255 
-47 12 541 80 86 112 255 
-46 12 541 82 87 116 255 
-45 12 542 75 80 109 255 
-44 12 541 78 84 110 255 
-43 12 541 83 89 115 255 
-42 12 541 79 85 109 255 
-41 12 541 83 89 113 255 
-41 12 541 81 85 110 255 
-40 12 542 83 87 112 255 
-39 12 542 82 86 113 255 
-38 12 542 83 87 114 255 
-37 12 542 82 86 113 255 
-36 12 542 79 83 110 255 
-35 12 542 67 71 96 255 
-34 12 542 53 57 82 255 
-34 12 542 21 25 52 255 
-33 12 542 18 22 49 255 
-32 12 542 14 18 45 255 
-31 12 542 13 17 44 255 
-30 12 542 17 21 48 255 
-29 12 542 16 20 47 255 
-28 12 541 18 22 49 255 
-27 12 541 19 23 50 255 
-27 12 541 21 25 50 255 
-26 12 541 22 26 51 255 
-25 12 540 21 25 50 255 
-24 12 540 21 25 50 255 
-23 12 540 18 22 47 255 
-22 12 539 42 46 71 255 
-21 12 538 71 75 102 255 
-20 12 538 81 85 112 255 
-19 12 538 78 84 110 255 
-18 12 538 48 54 80 255 
-18 12 539 18 24 50 255 
-17 12 539 13 19 45 255 
-16 12 539 18 24 50 255 
-15 12 539 13 19 45 255 
-14 12 539 15 20 49 255 
-13 12 539 38 43 72 255 
-12 12 538 66 72 98 255 
-11 12 538 80 86 112 255 
-11 12 538 93 99 125 255 
-10 12 538 96 102 128 255 
-9 12 538 97 103 129 255 
-8 12 537 99 105 131 255 
-7 12 537 98 104 130 255 
-6 12 537 95 101 127 255 
-5 12 536 97 102 131 255 
-4 12 536 98 103 132 255 
-4 12 536 99 104 133 255 
-3 12 536 100 105 134 255 
-2 12 535 99 106 134 255 
-1 12 535 99 106 134 255 
0 12 535 99 106 134 255 
1 12 535 99 106 134 255 
2 12 535 99 106 134 255 
3 12 534 98 105 133 255 
3 12 534 97 104 132 255 
4 12 534 97 104 132 255 
5 12 533 98 105 133 255 
6 12 533 100 107 135 255 
7 12 533 101 108 136 255 
8 12 532 101 108 136 255 
9 12 532 102 109 137 255 
9 12 531 101 108 136 255 
10 12 531 102 109 138 255 
11 12 530 101 108 137 255 
12 12 530 99 108 137 255 
13 12 530 100 109 138 255 
14 12 529 99 108 137 255 
15 12 529 99 108 137 255 
15 12 529 101 115 142 255 
16 12 529 105 119 146 255 
17 12 528 107 121 148 255 
18 12 528 103 117 144 255 
19 12 528 103 117 144 255 
20 12 528 106 120 147 255 
21 12 528 105 119 146 255 
21 12 528 104 118 145 255 
22 12 527 104 118 145 255 
23 12 527 106 120 147 255 
24 12 527 105 120 149 255 
25 12 526 105 120 149 255 
26 12 526 106 121 150 255 
26 12 526 105 120 149 255 
27 12 526 105 120 149 255 
28 12 526 107 122 151 255 
29 12 525 112 123 151 255 
30 12 525 110 121 149 255 
31 12 525 108 119 147 255 
32 12 525 108 119 147 255 
32 12 525 105 119 146 255 
33 12 526 106 120 147 255 
34 12 527 108 123 146 255 
35 12 528 102 117 140 255 
36 12 529 77 88 106 255 
37 12 531 42 53 71 255 
38 12 532 44 52 65 255 
39 12 534 46 54 67 255 
40 12 536 44 48 57 255 
41 12 537 47 51 60 255 
42 12 539 48 53 59 255 
43 12 540 46 51 57 255 
44 12 542 43 50 60 255 
45 12 543 47 54 64 255 
46 12 545 47 54 64 255 
47 12 546 48 55 65 255 
48 12 548 51 58 68 255 
49 12 549 51 58 68 255 
50 13 551 49 56 66 255 
51 13 552 48 55 65 255 
52 13 554 49 56 64 255 
53 13 556 50 57 65 255 
54 13 558 52 56 65 255 
55 13 560 52 56 65 255 
57 13 562 51 55 64 255 
58 13 565 50 54 63 255 
59 13 567 50 57 65 255 
60 13 571 51 58 66 255 
62 13 576 55 58 67 255 
63 13 583 49 52 61 255 
65 13 589 22 25 34 255 
75 14 632 17 20 29 255 
77 14 638 17 21 30 255 
78 15 645 20 24 33 255 
80 15 650 34 38 47 255 
82 15 653 44 48 57 255 
83 15 655 46 53 61 255 
84 15 655 50 57 65 255 
85 15 655 52 56 67 255 
86 15 654 48 52 63 255 
87 15 651 52 56 65 255 
87 15 643 36 40 49 255 
87 15 641 28 33 39 255 
-190 14 577 30 36 48 255 
-183 14 560 33 39 51 255 
-179 13 551 55 64 81 255 
-177 13 548 86 95 112 255 
-176 13 546 100 115 138 255 
-175 13 545 103 118 141 255 
-174 13 544 98 114 140 255 
-172 13 543 98 114 140 255 
-171 13 542 98 113 142 255 
-170 13 542 98 113 142 255 
-169 13 542 99 112 144 255 
-169 13 542 102 115 147 255 
-168 13 542 107 118 150 255 
-167 13 542 106 117 149 255 
-166 13 542 105 119 148 255 
-165 13 542 101 115 144 255 
-165 13 543 99 113 142 255 
-164 13 543 97 111 140 255 
-163 13 542 100 114 143 255 
-162 13 542 104 118 147 255 
-161 13 542 102 116 145 255 
-160 13 542 103 117 146 255 
-159 13 542 102 116 145 255 
-158 13 542 101 115 144 255 
-157 13 542 101 115 144 255 
-157 13 542 102 116 145 255 
-156 13 542 103 117 146 255 
-155 13 541 103 117 146 255 
-154 13 541 102 116 145 255 
-153 13 541 102 116 145 255 
-152 13 541 105 117 143 255 
-151 13 541 107 119 145 255 
-150 13 541 101 115 142 255 
-149 13 541 100 114 141 255 
-149 13 541 98 113 144 255 
-148 13 541 99 114 145 255 
-147 13 542 64 80 114 255 
-146 13 541 16 32 66 255 
-145 13 541 27 46 86 255 
-144 13 541 32 51 91 255 
-143 13 541 28 47 89 255 
-143 13 541 22 41 83 255 
-142 13 541 30 48 88 255 
-141 13 541 29 47 87 255 
-140 13 541 42 58 94 255 
-139 13 541 45 61 97 255 
-138 13 540 41 59 97 255 
-137 13 540 44 62 100 255 
-136 13 540 30 48 88 255 
-135 13 540 27 45 85 255 
-135 13 540 34 52 92 255 
-134 13 540 54 72 112 255 
-133 13 540 67 83 119 255 
-132 13 539 61 77 113 255 
-131 13 540 40 56 89 255 
-130 13 540 49 65 98 255 
-129 13 539 78 93 122 255 
-128 13 539 96 111 140 255 
-128 13 540 101 116 145 255 
-127 13 540 101 116 145 255 
-126 13 540 99 115 141 255 
-125 13 540 107 123 149 255 
-124 13 540 104 118 147 255 
-123 13 539 103 117 146 255 
-122 13 539 102 116 145 255 
-121 13 539 103 117 146 255 
-120 13 539 103 117 146 255 
-120 13 539 103 117 146 255 
-119 13 539 103 117 144 255 
-118 13 539 103 117 144 255 
-117 13 538 102 116 143 255 
-116 13 538 103 117 144 255 
-115 13 539 104 118 145 255 
-114 13 539 105 119 146 255 
-114 13 539 104 118 145 255 
-113 13 539 104 118 145 255 
-112 13 539 103 117 144 255 
-111 13 539 102 116 143 255 
-110 13 539 103 117 144 255 
-109 13 539 104 118 145 255 
-108 13 539 99 113 142 255 
-107 13 539 101 115 144 255 
-107 13 539 98 112 141 255 
-106 13 539 100 114 143 255 
-105 13 539 103 117 144 255 
-104 13 539 103 117 144 255 
-103 13 539 105 116 144 255 
-102 13 539 106 117 145 255 
-101 13 539 106 117 145 255 
-101 13 539 106 117 145 255 
-100 13 539 107 118 146 255 
-99 13 539 107 118 146 255 
-98 13 539 106 117 145 255 
-97 13 540 104 115 143 255 
-96 13 540 106 117 147 255 
-95 13 539 107 118 148 255 
-94 13 539 110 119 148 255 
-94 13 539 109 118 147 255 
-93 13 539 108 117 146 255 
-92 13 538 109 118 147 255 
-91 13 539 108 119 147 255 
-90 13 539 106 117 145 255 
-89 13 539 110 121 149 255 
-88 13 539 105 116 144 255 
-88 13 540 109 118 147 255 
-87 13 540 106 115 144 255 
-86 13 540 102 111 140 255 
-85 13 540 102 111 140 255 
-84 13 540 101 112 140 255 
-83 13 539 105 116 144 255 
-82 13 539 106 116 143 255 
-81 13 539 103 113 140 255 
-81 13 540 97 107 134 255 
-80 13 540 94 104 131 255 
-79 13 540 94 104 131 255 
-78 13 541 74 84 111 255 
-77 13 540 32 42 69 255 
-76 13 540 27 37 64 255 
-76 13 540 66 73 102 255 
-74 13 539 89 96 125 255 
-74 13 539 93 100 129 255 
-73 13 538 90 97 126 255 
-72 13 538 92 97 127 255 
-71 13 538 92 97 127 255 
-70 13 538 89 94 123 255 
-69 13 539 95 100 129 255 
-68 13 539 98 102 131 255 
-68 13 539 87 91 120 255 
-67 13 540 80 85 105 255 
-66 13 541 38 43 63 255 
-65 13 541 29 34 53 255 
-64 13 540 29 34 53 255 
-63 13 539 42 47 69 255 
-62 13 539 59 64 86 255 
-62 13 540 41 45 70 255 
-61 13 539 18 22 47 255 
-60 13 540 55 60 82 255 
-59 13 541 91 96 118 255 
-58 13 541 66 71 91 255 
-57 13 541 32 37 57 255 
-56 13 541 41 46 68 255 
-56 13 541 46 51 73 255 
-55 13 541 88 93 113 255 
-54 13 541 65 70 90 255 
-53 13 541 31 36 55 255 
-52 13 541 8 13 32 255 
-51 13 541 37 42 62 255 
-50 13 541 72 77 97 255 
-49 13 541 80 85 107 255 
-48 13 541 74 79 101 255 
-48 13 541 75 81 105 255 
-47 13 541 81 87 111 255 
-46 13 541 83 88 117 255 
-45 13 541 79 84 113 255 
-44 13 541 77 82 111 255 
-43 13 541 78 83 112 255 
-42 13 541 80 86 112 255 
-41 13 540 83 89 115 255 
-41 13 540 83 87 114 255 
-40 13 540 84 88 115 255 
-39 13 541 81 85 112 255 
-38 13 541 85 89 116 255 
-37 13 541 85 89 116 255 
-36 13 541 83 87 114 255 
-35 13 541 81 85 112 255 
-34 13 541 75 79 106 255 
-34 13 541 70 74 101 255 
-33 13 541 59 63 90 255 
-32 13 541 43 47 74 255 
-31 13 541 26 30 57 255 
-30 13 541 21 25 52 255 
-29 13 541 15 19 46 255 
-28 13 540 17 21 48 255 
-27 13 540 16 20 47 255 
-26 13 540 17 21 46 255 
-26 13 539 16 20 45 255 
-25 13 539 22 26 51 255 
-24 13 538 44 48 73 255 
-23 13 538 55 59 84 255 
-22 13 537 76 80 105 255 
-21 13 537 84 88 115 255 
-20 13 537 71 75 102 255 
-19 13 537 38 44 70 255 
-18 13 537 19 25 51 255 
-18 13 537 11 17 43 255 
-17 13 537 17 23 49 255 
-16 13 537 9 15 41 255 
-15 13 537 17 23 49 255 
-14 13 537 43 49 75 255 
-13 13 537 73 79 105 255 
-12 13 537 83 89 115 255 
-11 13 536 90 96 122 255 
-11 13 536 98 104 130 255 
-10 13 536 98 104 130 255 
-9 13 536 98 104 130 255 
-8 13 535 101 107 133 255 
-7 13 535 99 104 133 255 
-6 13 535 99 104 133 255 
-5 13 535 101 106 135 255 
-4 13 534 100 105 134 255 
-4 13 534 99 106 134 255 
-3 13 534 99 106 134 255 
-2 13 534 100 107 135 255 
-1 13 534 99 106 134 255 
0 13 534 100 107 136 255 
1 13 534 101 108 137 255 
2 13 533 100 107 136 255 
2 13 533 99 106 135 255 
3 13 532 99 106 135 255 
4 13 532 100 107 136 255 
5 13 531 100 107 136 255 
6 13 531 100 107 136 255 
7 13 531 102 109 138 255 
8 13 530 104 111 140 255 
9 13 530 101 108 137 255 
9 13 529 102 109 138 255 
10 13 529 102 111 140 255 
11 13 529 100 109 138 255 
12 13 529 99 108 137 255 
13 13 529 100 109 138 255 
14 13 528 100 109 138 255 
15 13 528 100 109 138 255 
15 13 528 100 111 141 255 
16 13 528 104 115 145 255 
17 13 527 109 120 150 255 
18 13 527 106 117 147 255 
19 13 527 103 114 144 255 
20 13 527 103 114 144 255 
20 13 527 103 114 144 255 
21 13 526 105 116 146 255 
22 13 525 108 119 149 255 
23 13 525 109 120 150 255 
24 13 525 107 121 150 255 
25 13 525 107 121 150 255 
25 13 524 108 122 151 255 
26 13 525 107 121 150 255 
27 13 525 107 121 150 255 
28 13 524 108 122 151 255 
29 13 524 109 121 147 255 
30 13 524 109 121 147 255 
31 13 524 103 117 146 255 
31 13 524 104 118 147 255 
32 13 524 101 115 144 255 
33 13 525 107 121 150 255 
34 13 526 104 117 136 255 
35 13 528 66 79 98 255 
36 13 530 45 55 67 255 
37 13 531 45 55 67 255 
38 13 533 53 60 70 255 
39 13 534 46 53 63 255 
40 13 537 46 50 59 255 
41 13 538 51 55 64 255 
42 13 540 47 52 56 255 
43 13 541 46 51 55 255 
44 13 543 44 51 59 255 
45 13 544 49 56 64 255 
46 13 545 51 55 64 255 
47 13 547 49 53 62 255 
48 13 548 51 55 64 255 
49 13 550 51 55 64 255 
50 13 552 48 55 65 255 
51 13 553 49 56 66 255 
52 14 555 49 56 66 255 
53 14 557 48 55 65 255 
54 14 559 49 56 66 255 
56 14 561 52 59 69 255 
57 14 563 49 56 66 255 
58 14 566 49 56 66 255 
59 14 570 54 61 71 255 
61 14 575 55 62 72 255 
62 14 582 43 46 53 255 
74 15 630 18 21 30 255 
76 16 638 19 22 31 255 
77 16 643 17 21 30 255 
79 16 649 21 25 34 255 
80 16 652 41 45 54 255 
82 16 654 48 52 61 255 
83 16 656 45 52 62 255 
84 16 656 51 58 68 255 
85 16 656 51 58 68 255 
86 16 655 48 55 65 255 
87 16 653 52 56 65 255 
87 16 649 39 43 52 255 
88 16 644 31 35 44 255 
-193 15 583 34 36 48 255 
-186 15 564 39 41 53 255 
-182 14 555 53 60 76 255 
-179 14 549 86 93 109 255 
-177 14 545 104 119 142 255 
-176 14 543 105 120 143 255 
-175 14 542 103 118 147 255 
-174 14 542 106 121 150 255 
-173 14 542 98 113 142 255 
-172 14 541 101 116 145 255 
-171 14 541 101 115 144 255 
-170 14 540 100 114 143 255 
-169 14 541 104 117 149 255 
-168 14 541 105 118 150 255 
-167 14 541 105 118 150 255 
-166 14 540 109 122 154 255 
-166 14 541 105 119 146 255 
-165 14 541 101 115 142 255 
-164 14 541 102 116 143 255 
-163 14 541 102 116 143 255 
-162 14 540 103 117 144 255 
-161 14 540 105 119 146 255 
-160 14 540 103 117 146 255 
-159 14 540 103 117 146 255 
-159 14 540 102 116 145 255 
-158 14 540 102 116 145 255 
-157 14 540 103 117 146 255 
-156 14 540 103 117 146 255 
-155 14 540 102 116 145 255 
-154 14 540 101 115 144 255 
-153 14 539 102 116 145 255 
-152 14 539 104 118 147 255 
-151 14 539 106 120 149 255 
-151 14 539 104 118 147 255 
-150 14 539 103 117 146 255 
-149 14 540 102 116 145 255 
-148 14 540 100 116 149 255 
-147 14 540 102 118 151 255 
-147 14 540 81 103 140 255 
-146 14 540 62 84 121 255 
-145 14 540 78 101 142 255 
-144 14 539 78 101 142 255 
-143 14 539 69 92 134 255 
-142 14 539 68 91 133 255 
-141 14 539 45 64 106 255 
-140 14 539 31 50 92 255 
-139 14 539 35 50 91 255 
-139 14 539 31 46 87 255 
-138 14 539 20 38 78 255 
-137 14 538 30 48 88 255 
-136 14 538 31 46 85 255 
-135 14 538 29 44 83 255 
-134 14 538 30 45 84 255 
-133 14 538 33 48 87 255 
-132 14 538 41 57 91 255 
-131 14 538 54 70 104 255 
-131 14 538 75 90 121 255 
-130 14 538 98 113 144 255 
-129 14 538 104 120 146 255 
-128 14 538 95 111 137 255 
-127 14 538 103 119 145 255 
-126 14 538 100 116 142 255 
-125 14 538 110 125 154 255 
-125 14 538 102 117 146 255 
-124 14 538 103 116 148 255 
-123 14 538 102 115 147 255 
-122 14 538 101 116 145 255 
-121 14 537 100 115 144 255 
-120 14 537 100 115 144 255 
-119 14 537 100 115 144 255 
-118 14 537 101 116 145 255 
-117 14 537 102 117 146 255 
-117 14 537 101 116 145 255 
-116 14 537 102 117 146 255 
-115 14 537 104 120 146 255 
-114 14 537 104 120 146 255 
-113 14 537 104 120 146 255 
-112 14 537 103 119 145 255 
-111 14 537 102 118 144 255 
-111 14 537 102 118 144 255 
-110 14 537 101 116 145 255 
-109 14 537 105 120 149 255 
-108 14 537 103 117 146 255 
-107 14 537 102 116 145 255 
-106 14 537 101 115 144 255 
-106 14 538 101 115 144 255 
-105 14 538 104 118 147 255 
-104 14 537 102 116 145 255 
-103 14 537 103 117 146 255 
-102 14 537 104 118 147 255 
-101 14 537 106 117 145 255 
-100 14 537 106 117 145 255 
-99 14 537 106 117 145 255 
-98 14 537 106 117 145 255 
-98 14 537 105 116 146 255 
-97 14 538 105 116 146 255 
-96 14 538 104 115 145 255 
-95 14 538 106 117 147 255 
-94 14 537 107 118 148 255 
-93 14 538 107 118 148 255 
-93 14 538 107 118 148 255 
-92 14 537 107 118 148 255 
-91 14 537 107 118 146 255 
-90 14 538 107 118 146 255 
-89 14 538 106 117 145 255 
-88 14 538 104 115 143 255 
-87 14 538 104 115 143 255 
-87 14 538 104 115 143 255 
-86 14 538 102 113 141 255 
-85 14 538 105 116 144 255 
-84 14 538 106 117 145 255 
-83 14 537 102 113 141 255 
-82 14 538 102 112 139 255 
-81 14 538 100 110 137 255 
-80 14 538 51 61 88 255 
-80 14 538 43 53 80 255 
-79 14 539 48 58 83 255 
-78 14 539 30 40 65 255 
-77 14 539 44 51 79 255 
-76 14 538 82 89 117 255 
-75 14 538 94 101 130 255 
-74 14 538 95 102 131 255 
-73 14 537 92 99 128 255 
-72 14 537 94 101 130 255 
-72 14 537 90 95 124 255 
-71 14 537 90 95 124 255 
-70 14 537 87 92 121 255 
-69 14 538 75 80 109 255 
-68 14 538 83 87 112 255 
-67 14 538 72 76 101 255 
-67 14 539 36 41 61 255 
-66 14 539 29 34 54 255 
-65 14 539 42 47 67 255 
-64 14 538 70 75 95 255 
-63 14 537 88 92 119 255 
-62 14 537 68 72 99 255 
-61 14 538 45 49 74 255 
-60 14 537 57 61 86 255 
-60 14 538 63 68 88 255 
-59 14 539 59 64 84 255 
-58 14 539 36 41 60 255 
-57 14 539 69 74 93 255 
-56 14 539 94 96 119 255 
-55 14 539 86 88 111 255 
-55 14 540 59 65 79 255 
-54 14 540 24 30 44 255 
-53 14 539 27 33 49 255 
-52 14 539 47 53 69 255 
-51 14 539 76 81 101 255 
-50 14 540 86 91 111 255 
-49 14 540 78 83 103 255 
-48 14 540 79 84 104 255 
-48 14 540 77 82 102 255 
-47 14 541 69 74 94 255 
-46 14 540 56 62 84 255 
-45 14 540 71 77 99 255 
-44 14 540 81 87 111 255 
-43 14 540 80 86 110 255 
-42 14 539 86 92 118 255 
-41 14 539 79 85 111 255 
-40 14 539 82 86 113 255 
-40 14 539 83 87 114 255 
-39 14 539 85 89 116 255 
-38 14 539 85 89 116 255 
-37 14 539 85 89 116 255 
-36 14 539 82 86 113 255 
-35 14 539 82 86 113 255 
-34 14 539 85 89 116 255 
-33 14 539 81 85 112 255 
-33 14 539 80 84 111 255 
-32 14 539 81 85 112 255 
-31 14 539 76 80 107 255 
-30 14 539 72 76 103 255 
-29 14 539 64 68 95 255 
-28 14 539 67 71 98 255 
-27 14 538 66 70 97 255 
-26 14 538 68 72 99 255 
-25 14 538 67 71 98 255 
-25 14 537 74 78 105 255 
-24 14 537 84 88 115 255 
-23 14 536 75 79 106 255 
-22 14 536 77 81 108 255 
-21 14 536 66 70 97 255 
-20 14 536 31 35 62 255 
-19 14 536 20 26 52 255 
-18 14 536 20 26 52 255 
-18 14 536 18 23 52 255 
-17 14 536 20 25 54 255 
-16 14 536 25 30 59 255 
-15 14 536 53 58 87 255 
-14 14 536 78 83 112 255 
-13 14 536 94 99 128 255 
-12 14 535 94 100 126 255 
-11 14 534 94 100 126 255 
-11 14 534 99 104 133 255 
-10 14 534 100 105 134 255 
-9 14 534 100 105 134 255 
-8 14 533 100 105 134 255 
-7 14 533 97 102 131 255 
-6 14 533 97 102 131 255 
-5 14 533 98 105 133 255 
-4 14 532 98 105 133 255 
-4 14 532 98 105 134 255 
-3 14 532 98 105 134 255 
-2 14 532 98 105 134 255 
-1 14 532 97 104 133 255 
0 14 532 99 106 135 255 
1 14 532 100 107 136 255 
2 14 532 100 107 136 255 
2 14 531 99 106 135 255 
3 14 531 99 106 135 255 
4 14 530 100 107 136 255 
5 14 530 100 107 136 255 
6 14 529 99 106 135 255 
7 14 529 98 107 136 255 
8 14 529 100 109 138 255 
8 14 528 99 108 137 255 
9 14 528 100 109 138 255 
10 14 528 102 111 140 255 
11 14 528 100 109 138 255 
12 14 527 99 108 139 255 
13 14 527 100 109 140 255 
14 14 527 100 109 140 255 
14 14 526 102 111 142 255 
15 14 526 101 110 141 255 
16 14 526 104 113 144 255 
17 14 526 109 118 149 255 
18 14 525 110 119 150 255 
19 14 525 105 114 145 255 
20 14 525 103 112 143 255 
20 14 525 105 114 145 255 
21 14 524 110 119 150 255 
22 14 524 109 120 150 255 
23 14 524 108 119 149 255 
24 14 524 109 120 150 255 
25 14 524 110 121 151 255 
25 14 523 109 120 150 255 
26 14 523 108 119 149 255 
27 14 524 107 118 148 255 
28 14 523 106 117 147 255 
29 14 523 110 122 148 255 
30 14 523 106 118 144 255 
31 14 523 105 118 150 255 
31 14 524 106 119 151 255 
32 14 524 110 121 149 255 
33 14 525 100 111 139 255 
34 14 526 70 79 96 255 
35 14 528 42 51 68 255 
36 14 530 46 53 63 255 
37 14 532 49 56 66 255 
38 14 533 48 52 61 255 
39 14 535 46 50 59 255 
40 14 537 49 53 62 255 
41 14 539 50 54 63 255 
42 14 540 46 51 55 255 
43 14 542 48 53 57 255 
44 14 543 47 51 60 255 
45 14 545 51 55 64 255 
46 14 546 51 55 64 255 
47 14 548 49 53 62 255 
48 14 549 50 54 63 255 
49 14 551 50 54 63 255 
50 14 552 49 53 64 255 
51 14 554 49 53 64 255 
52 14 556 50 54 65 255 
53 15 558 50 54 65 255 
55 15 560 49 56 66 255 
56 15 562 50 57 67 255 
57 15 565 49 56 66 255 
58 15 568 53 60 70 255 
60 15 575 56 60 71 255 
74 17 637 13 17 26 255 
76 17 643 19 23 32 255 
78 17 648 18 22 31 255 
79 17 652 24 28 37 255 
81 17 654 42 46 55 255 
82 17 655 46 50 59 255 
83 17 656 40 47 57 255 
84 17 656 47 54 64 255 
85 17 656 51 58 68 255 
86 17 655 49 56 66 255 
87 17 653 51 55 64 255 
88 17 650 44 48 57 255 
88 17 647 36 40 49 255 
-183 15 553 36 44 57 255 
-181 15 548 69 77 90 255 
-179 15 544 99 110 130 255 
-177 15 541 112 123 143 255 
-176 15 541 108 124 150 255 
-175 15 540 104 120 146 255 
-174 15 540 103 118 149 255 
-173 15 539 101 116 147 255 
-172 15 540 99 113 142 255 
-171 15 540 98 112 141 255 
-171 15 540 103 114 144 255 
-169 15 539 102 113 143 255 
-169 15 539 96 110 139 255 
-168 15 540 102 116 145 255 
-167 15 540 106 121 152 255 
-166 15 539 101 116 147 255 
-165 15 539 103 117 144 255 
-165 15 540 101 115 142 255 
-164 15 540 102 116 143 255 
-163 15 539 102 116 143 255 
-162 15 539 102 116 143 255 
-161 15 539 104 118 145 255 
-160 15 539 104 118 147 255 
-159 15 539 102 116 145 255 
-158 15 539 102 116 145 255 
-157 15 539 103 117 146 255 
-157 15 539 104 118 147 255 
-156 15 539 103 117 146 255 
-155 15 539 101 115 144 255 
-154 15 539 100 114 143 255 
-153 15 538 101 115 144 255 
-152 15 538 102 116 145 255 
-151 15 538 100 113 145 255 
-150 15 538 102 115 147 255 
-149 15 538 104 119 150 255 
-149 15 538 104 119 150 255 
-148 15 539 96 115 148 255 
-147 15 539 85 104 137 255 
-146 15 539 63 89 126 255 
-145 15 539 53 79 116 255 
-145 15 539 55 80 121 255 
-143 15 538 65 90 131 255 
-143 15 538 76 99 140 255 
-142 15 538 89 112 153 255 
-141 15 537 35 54 96 255 
-140 15 537 27 46 88 255 
-139 15 538 29 46 89 255 
-138 15 538 21 38 81 255 
-137 15 537 26 41 80 255 
-136 15 537 28 43 82 255 
-135 15 537 26 42 78 255 
-135 15 537 32 48 84 255 
-134 15 537 50 66 100 255 
-133 15 537 65 81 115 255 
-132 15 537 79 96 126 255 
-131 15 537 100 117 147 255 
-130 15 537 101 116 145 255 
-129 15 537 103 118 147 255 
-129 15 537 103 117 144 255 
-128 15 537 105 119 146 255 
-127 15 537 99 113 142 255 
-126 15 537 108 122 151 255 
-125 15 537 99 113 142 255 
-124 15 537 108 122 151 255 
-123 15 537 102 117 146 255 
-123 15 537 102 117 146 255 
-122 15 537 101 116 145 255 
-121 15 536 99 114 143 255 
-120 15 536 98 113 142 255 
-119 15 536 98 113 142 255 
-118 15 536 100 115 144 255 
-117 15 536 102 117 146 255 
-116 15 536 101 116 145 255 
-116 15 536 102 117 146 255 
-115 15 536 103 118 147 255 
-114 15 536 104 119 148 255 
-113 15 536 106 120 147 255 
-112 15 536 105 119 146 255 
-111 15 536 103 117 144 255 
-110 15 536 102 116 143 255 
-109 15 536 105 120 149 255 
-109 15 536 107 122 151 255 
-108 15 536 106 122 148 255 
-107 15 536 99 115 141 255 
-106 15 536 103 117 144 255 
-105 15 537 103 117 144 255 
-105 15 537 104 118 147 255 
-103 15 536 100 114 143 255 
-103 15 536 101 115 144 255 
-102 15 536 104 118 147 255 
-101 15 536 104 118 147 255 
-100 15 536 104 118 147 255 
-99 15 536 106 117 147 255 
-98 15 536 105 116 146 255 
-97 15 536 104 115 145 255 
-97 15 537 105 116 146 255 
-96 15 537 106 117 147 255 
-95 15 537 107 118 148 255 
-94 15 537 103 117 146 255 
-93 15 536 102 116 145 255 
-92 15 537 104 118 147 255 
-91 15 536 104 118 147 255 
-91 15 536 106 117 147 255 
-90 15 536 106 117 147 255 
-89 15 537 104 115 143 255 
-88 15 537 108 119 147 255 
-87 15 537 104 115 143 255 
-86 15 537 101 112 140 255 
-85 15 537 102 113 141 255 
-85 15 537 103 114 142 255 
-84 15 537 106 117 145 255 
-83 15 536 105 116 144 255 
-82 15 536 102 111 140 255 
-81 15 537 102 111 140 255 
-80 15 537 45 55 82 255 
-79 15 537 26 36 63 255 
-79 15 538 20 30 57 255 
-78 15 538 24 34 61 255 
-77 15 537 77 84 112 255 
-76 15 536 91 98 126 255 
-75 15 536 91 98 127 255 
-74 15 536 85 92 121 255 
-73 15 536 84 91 119 255 
-72 15 535 81 88 116 255 
-71 15 535 96 103 131 255 
-70 15 535 96 103 131 255 
-70 15 535 93 98 127 255 
-69 15 536 91 96 125 255 
-68 15 536 57 62 82 255 
-67 15 536 36 41 61 255 
-66 15 537 101 106 128 255 
-66 15 537 110 115 137 255 
-65 15 536 84 88 115 255 
-64 15 535 75 79 106 255 
-63 15 535 75 79 106 255 
-62 15 535 88 92 119 255 
-61 15 536 93 97 122 255 
-60 15 536 79 83 108 255 
-59 15 537 35 40 60 255 
-59 15 538 53 58 78 255 
-58 15 538 106 111 130 255 
-57 15 538 108 113 132 255 
-56 15 538 81 86 106 255 
-55 15 538 40 45 65 255 
-54 15 538 16 22 34 255 
-53 15 538 25 31 43 255 
-53 15 538 60 66 80 255 
-52 15 537 73 79 93 255 
-51 15 538 81 86 105 255 
-50 15 538 68 73 92 255 
-49 15 539 41 46 65 255 
-48 15 539 56 61 80 255 
-47 15 539 49 55 71 255 
-47 15 540 22 28 44 255 
-46 15 540 23 29 45 255 
-45 15 539 53 59 75 255 
-44 15 539 78 83 102 255 
-43 15 539 84 89 108 255 
-42 15 539 79 84 106 255 
-41 15 538 81 86 108 255 
-40 15 538 83 87 114 255 
-39 15 538 81 85 112 255 
-39 15 538 84 88 113 255 
-38 15 538 82 86 111 255 
-37 15 538 83 87 112 255 
-36 15 538 80 84 109 255 
-35 15 538 79 83 110 255 
-34 15 537 82 86 113 255 
-33 15 537 88 92 119 255 
-32 15 537 82 86 113 255 
-32 15 537 80 84 109 255 
-31 15 537 82 86 111 255 
-30 15 537 86 90 117 255 
-29 15 537 85 89 116 255 
-28 15 537 87 91 118 255 
-27 15 536 84 88 115 255 
-26 15 536 82 86 111 255 
-25 15 536 86 90 115 255 
-24 15 535 78 82 109 255 
-24 15 535 78 82 109 255 
-23 15 534 81 85 112 255 
-22 15 534 51 55 82 255 
-21 15 534 22 26 53 255 
-20 15 534 19 23 50 255 
-19 15 534 15 21 47 255 
-18 15 534 19 25 51 255 
-17 15 534 19 24 53 255 
-17 15 534 22 27 56 255 
-16 15 534 45 50 79 255 
-15 15 534 81 86 115 255 
-14 15 534 97 102 131 255 
-13 15 534 97 102 131 255 
-12 15 534 99 104 133 255 
-11 15 533 96 101 130 255 
-11 15 533 97 102 131 255 
-10 15 532 99 104 133 255 
-9 15 532 99 104 133 255 
-8 15 532 98 103 132 255 
-7 15 532 96 103 131 255 
-6 15 531 97 104 132 255 
-5 15 531 97 104 133 255 
-4 15 531 97 104 133 255 
-4 15 531 97 104 133 255 
-3 15 531 96 103 132 255 
-2 15 531 96 103 132 255 
-1 15 531 96 103 132 255 
0 15 530 98 105 134 255 
1 15 530 101 108 137 255 
2 15 530 102 109 138 255 
2 15 530 100 107 136 255 
3 15 529 99 106 135 255 
4 15 529 99 106 135 255 
5 15 528 98 107 136 255 
6 15 528 97 106 135 255 
7 15 527 97 106 135 255 
8 15 527 99 108 137 255 
8 15 527 98 107 136 255 
9 15 526 99 108 137 255 
10 15 526 101 110 139 255 
11 15 526 100 109 138 255 
12 15 526 99 108 137 255 
13 15 526 100 109 138 255 
14 15 525 100 109 138 255 
14 15 525 102 111 140 255 
15 15 525 101 110 139 255 
16 15 525 103 112 141 255 
17 14 524 109 118 147 255 
18 14 524 111 120 149 255 
19 14 523 108 117 146 255 
19 14 523 106 115 144 255 
20 14 523 107 118 146 255 
21 14 523 110 121 149 255 
22 14 523 109 120 148 255 
23 14 523 108 119 147 255 
24 14 523 110 121 149 255 
25 14 523 111 122 150 255 
25 14 522 109 120 148 255 
26 14 522 108 119 147 255 
27 14 522 105 119 146 255 
28 14 522 104 118 145 255 
29 14 522 104 118 144 255 
30 14 522 103 117 143 255 
31 14 523 105 116 144 255 
31 14 524 108 119 147 255 
32 14 524 97 108 130 255 
33 15 525 60 71 93 255 
34 15 527 39 45 59 255 
35 15 528 43 49 63 255 
36 15 530 53 57 66 255 
37 15 532 48 52 61 255 
38 15 534 45 49 58 255 
39 15 536 51 55 64 255 
40 15 538 47 51 60 255 
41 15 539 47 51 60 255 
42 15 541 51 56 60 255 
43 15 542 47 52 56 255 
44 15 544 49 53 64 255 
45 15 545 50 54 65 255 
46 15 547 46 53 63 255 
47 15 549 46 53 63 255 
48 15 550 47 54 64 255 
49 15 551 47 54 64 255 
50 15 554 48 52 63 255 
51 15 555 50 54 65 255 
52 15 557 48 52 61 255 
54 15 559 51 55 64 255 
55 16 562 52 56 65 255 
56 16 564 49 53 62 255 
57 16 568 52 56 65 255 
58 16 572 56 60 69 255 
73 18 635 17 20 29 255 
75 18 642 12 16 25 255 
77 18 646 15 19 28 255 
78 18 650 21 25 34 255 
79 18 653 29 33 42 255 
81 18 654 42 46 55 255 
82 18 655 44 48 57 255 
83 18 655 41 45 54 255 
84 18 655 48 52 61 255 
85 18 655 50 57 67 255 
86 18 654 49 56 66 255 
87 18 653 51 55 64 255 
88 18 651 47 51 60 255 
88 18 647 38 42 53 255 
89 18 645 32 36 47 255 
-186 16 555 45 49 60 255 
-182 16 547 70 74 85 255 
-180 16 544 89 106 126 255 
-179 16 542 95 112 132 255 
-177 16 540 103 119 142 255 
-176 16 538 106 122 145 255 
-175 16 538 107 121 147 255 
-174 16 538 105 119 145 255 
-173 16 538 105 116 146 255 
-172 16 538 108 119 149 255 
-172 16 538 102 115 147 255 
-171 16 538 99 112 144 255 
-170 16 538 101 114 146 255 
-169 16 538 103 116 148 255 
-168 16 538 99 114 143 255 
-167 16 538 98 113 142 255 
-167 16 538 100 115 144 255 
-166 16 538 100 115 144 255 
-165 16 538 100 114 143 255 
-164 16 538 100 114 143 255 
-163 16 538 100 114 143 255 
-162 16 538 100 114 143 255 
-161 16 537 99 113 142 255 
-160 16 537 100 114 143 255 
-159 16 537 102 116 145 255 
-159 16 538 101 115 144 255 
-158 16 537 103 117 146 255 
-157 16 537 104 118 147 255 
-156 16 537 104 118 147 255 
-155 16 537 104 118 147 255 
-154 16 537 103 117 146 255 
-153 16 537 102 116 145 255 
-153 16 537 101 115 144 255 
-152 16 537 100 114 143 255 
-151 16 537 100 111 141 255 
-150 16 537 104 115 145 255 
-149 16 536 104 117 149 255 
-148 16 537 103 116 148 255 
-147 16 537 81 101 134 255 
-147 16 537 59 79 112 255 
-146 16 537 50 76 113 255 
-145 16 537 42 68 105 255 
-144 16 537 42 70 107 255 
-143 16 537 48 76 113 255 
-142 16 536 69 91 128 255 
-141 16 536 86 108 145 255 
-140 16 536 81 96 135 255 
-139 16 536 72 87 126 255 
-139 16 536 78 93 132 255 
-138 16 536 77 92 131 255 
-137 16 536 80 95 134 255 
-136 16 535 88 103 142 255 
-135 16 535 93 108 141 255 
-134 16 535 96 111 144 255 
-133 16 535 102 117 146 255 
-132 16 535 102 117 146 255 
-132 16 535 102 118 144 255 
-131 16 535 105 121 147 255 
-130 16 535 105 121 147 255 
-129 16 535 102 118 144 255 
-128 16 535 98 112 139 255 
-127 16 535 103 117 144 255 
-127 16 536 108 122 151 255 
-126 16 536 105 119 148 255 
-125 16 536 104 117 149 255 
-124 16 536 106 119 151 255 
-123 16 535 103 118 147 255 
-122 16 535 104 119 148 255 
-121 16 535 103 118 147 255 
-120 16 534 99 114 143 255 
-119 16 534 98 113 142 255 
-118 16 534 100 115 144 255 
-118 16 534 103 117 146 255 
-117 16 534 105 119 148 255 
-116 16 534 103 117 146 255 
-115 16 534 103 117 146 255 
-114 16 535 104 118 147 255 
-113 16 534 105 119 148 255 
-112 16 534 105 119 146 255 
-112 16 534 104 118 145 255 
-111 16 534 103 117 144 255 
-110 16 534 103 117 144 255 
-109 16 534 107 121 148 255 
-108 16 535 96 110 137 255 
-108 16 535 90 104 131 255 
-107 16 535 76 90 117 255 
-106 16 535 87 101 128 255 
-105 16 535 97 111 138 255 
-104 16 535 103 117 146 255 
-103 16 535 97 111 140 255 
-102 16 535 101 115 144 255 
-101 16 534 102 116 145 255 
-100 16 534 105 116 144 255 
-100 16 534 106 117 145 255 
-99 16 534 106 117 145 255 
-98 16 534 105 116 144 255 
-97 16 535 104 115 145 255 
-96 16 535 104 115 145 255 
-96 16 535 106 117 147 255 
-95 16 535 106 117 147 255 
-94 16 535 102 116 145 255 
-93 16 535 101 115 144 255 
-92 16 535 102 116 145 255 
-91 16 535 103 117 146 255 
-90 16 535 106 117 147 255 
-89 16 534 106 117 147 255 
-88 16 534 105 116 144 255 
-88 16 535 105 116 144 255 
-87 16 535 107 118 146 255 
-86 16 535 107 118 146 255 
-85 16 535 103 114 142 255 
-84 16 535 101 112 140 255 
-83 16 535 104 113 142 255 
-83 16 535 103 112 141 255 
-82 16 535 105 114 145 255 
-81 16 535 102 111 142 255 
-80 16 536 99 108 137 255 
-79 16 536 84 93 122 255 
-78 16 536 80 89 118 255 
-78 16 536 89 98 127 255 
-77 16 535 95 102 131 255 
-76 16 534 92 99 128 255 
-75 16 534 88 95 123 255 
-74 16 535 76 83 111 255 
-73 16 534 35 42 68 255 
-72 16 534 31 38 64 255 
-71 16 534 47 55 78 255 
-70 16 534 77 85 108 255 
-69 16 534 80 86 112 255 
-69 16 534 49 55 81 255 
-68 16 534 64 69 88 255 
-67 16 535 110 115 134 255 
-66 16 535 112 116 141 255 
-65 16 535 100 104 129 255 
-64 16 535 80 84 113 255 
-63 16 534 47 51 80 255 
-63 16 535 38 42 69 255 
-62 16 534 76 80 107 255 
-61 16 534 60 64 89 255 
-60 16 535 32 36 61 255 
-59 16 535 105 110 132 255 
-58 16 536 118 123 145 255 
-58 16 536 99 104 124 255 
-57 16 537 75 80 100 255 
-56 16 536 36 42 58 255 
-55 16 536 26 32 48 255 
-54 16 536 40 46 62 255 
-53 16 536 71 77 93 255 
-52 16 536 77 83 99 255 
-52 16 536 79 85 101 255 
-51 16 536 69 75 91 255 
-50 16 537 34 40 56 255 
-49 16 537 17 23 39 255 
-48 16 538 30 36 52 255 
-47 16 538 21 27 43 255 
-46 16 538 39 45 61 255 
-46 16 538 63 69 85 255 
-45 16 537 53 59 75 255 
-44 16 537 57 60 77 255 
-43 16 537 79 82 99 255 
-42 16 537 81 84 101 255 
-41 16 537 83 86 103 255 
-40 16 537 80 85 107 255 
-39 16 537 73 78 100 255 
-39 16 537 74 79 101 255 
-38 16 537 76 81 103 255 
-37 16 536 77 82 104 255 
-36 16 536 76 81 103 255 
-35 16 536 84 88 113 255 
-34 16 536 83 87 112 255 
-33 16 535 78 82 107 255 
-32 16 535 82 86 111 255 
-31 16 535 81 86 108 255 
-31 16 535 80 85 107 255 
-30 16 535 79 83 108 255 
-29 16 535 85 89 114 255 
-28 16 535 85 89 114 255 
-27 16 535 78 82 107 255 
-26 16 534 80 86 110 255 
-25 16 534 77 83 107 255 
-24 16 533 78 84 108 255 
-24 16 533 77 83 107 255 
