ply
format ascii 1.0
comment VCGLIB generated
element vertex 1786
property float x
property float y
property float z
property uchar red
property uchar green
property uchar blue
property uchar alpha
element face 0
property list uchar int vertex_indices
end_header
125 27 605 20 28 39 255 
127 28 607 19 27 38 255 
128 28 610 12 18 30 255 
130 28 611 11 17 29 255 
131 28 613 12 19 29 255 
132 28 614 12 19 29 255 
134 28 616 18 24 36 255 
135 28 616 86 92 104 255 
136 28 618 111 116 136 255 
137 28 620 115 120 140 255 
139 28 622 118 123 143 255 
140 28 624 108 113 133 255 
142 28 626 97 103 119 255 
143 28 628 61 67 83 255 
145 29 630 73 79 93 255 
146 29 631 82 88 102 255 
147 29 631 85 91 107 255 
148 29 631 91 97 113 255 
149 29 631 91 97 113 255 
150 29 631 94 100 116 255 
151 29 631 91 97 111 255 
152 29 630 77 83 97 255 
153 29 631 77 83 99 255 
154 29 631 77 83 99 255 
155 29 631 81 88 104 255 
156 29 631 99 106 122 255 
157 29 631 105 112 128 255 
158 29 631 102 109 125 255 
159 29 631 103 110 126 255 
160 29 630 107 114 130 255 
161 29 630 107 114 130 255 
162 28 630 107 114 130 255 
163 28 629 108 117 134 255 
164 28 629 106 115 132 255 
165 28 629 111 117 129 255 
166 28 629 106 112 124 255 
167 28 629 112 118 130 255 
167 28 627 103 109 121 255 
168 28 626 75 81 93 255 
-196 31 662 43 47 58 255 
-193 31 655 75 79 90 255 
-191 30 650 106 112 126 255 
-189 30 647 120 126 140 255 
-187 30 644 118 124 140 255 
-186 30 644 114 120 136 255 
-185 30 643 116 121 140 255 
-183 30 642 112 117 136 255 
-182 30 642 110 117 136 255 
-181 30 642 113 120 139 255 
-180 30 642 111 120 137 255 
-179 30 642 113 122 139 255 
-178 30 642 115 122 140 255 
-177 30 641 114 121 139 255 
-176 30 641 114 121 139 255 
-175 30 641 114 121 139 255 
-174 30 641 112 121 138 255 
-173 30 641 113 122 139 255 
-172 30 641 112 121 138 255 
-171 30 641 111 120 137 255 
-170 30 640 113 120 139 255 
-169 30 640 115 122 141 255 
-168 30 640 115 122 141 255 
-166 30 639 115 122 141 255 
-166 30 640 115 122 141 255 
-164 30 640 115 122 141 255 
-163 30 640 114 121 137 255 
-162 30 640 110 117 133 255 
-161 30 639 111 118 136 255 
-160 30 639 111 118 136 255 
-159 30 639 110 118 139 255 
-158 30 638 112 120 141 255 
-157 30 638 110 117 136 255 
-156 30 637 100 107 126 255 
-155 30 637 95 91 105 255 
-153 30 636 64 60 74 255 
-152 30 635 52 39 46 255 
-151 30 635 51 38 45 255 
-150 30 634 51 36 41 255 
-149 30 633 55 40 45 255 
-147 30 631 56 46 54 255 
-146 30 630 66 56 64 255 
-144 29 628 86 77 82 255 
-143 29 626 56 47 52 255 
-142 29 625 70 57 66 255 
-140 29 624 59 46 55 255 
-139 29 622 47 30 38 255 
-138 29 620 37 20 28 255 
-136 29 618 40 17 25 255 
-135 29 616 41 18 26 255 
-133 29 614 42 19 27 255 
-132 29 613 42 19 27 255 
-131 29 612 40 19 26 255 
-130 29 611 42 21 28 255 
-128 29 610 38 17 22 255 
-128 29 610 40 19 24 255 
-127 29 610 37 17 19 255 
-126 29 610 36 16 18 255 
-125 29 610 35 14 23 255 
-123 29 609 35 14 23 255 
-122 29 608 31 10 15 255 
-121 28 607 27 6 11 255 
-120 29 607 32 15 21 255 
-119 28 606 57 40 46 255 
-118 28 604 68 65 76 255 
-116 28 602 85 82 93 255 
-115 28 599 104 111 129 255 
-112 28 591 121 128 146 255 
-101 25 537 117 128 150 255 
-98 25 528 117 128 150 255 
-97 25 524 115 125 150 255 
-96 25 523 116 126 151 255 
-95 25 523 116 126 151 255 
-94 25 522 116 126 151 255 
-93 25 522 116 126 151 255 
-92 25 522 115 125 150 255 
-91 25 522 115 125 150 255 
-91 25 522 115 125 150 255 
-90 25 522 112 122 147 255 
-89 25 522 111 121 146 255 
-88 24 521 112 122 147 255 
-87 24 521 111 121 146 255 
-86 24 521 111 121 146 255 
-86 25 522 113 123 148 255 
-85 25 522 114 124 149 255 
-84 25 522 113 123 148 255 
-83 25 522 113 123 148 255 
-82 25 522 113 123 148 255 
-82 25 523 114 124 149 255 
-81 25 523 113 123 148 255 
-80 25 523 110 121 143 255 
-79 25 523 110 121 143 255 
-78 25 523 113 124 144 255 
-77 25 523 114 125 145 255 
-76 25 522 114 125 145 255 
-76 25 522 110 121 141 255 
-75 25 523 114 125 147 255 
-74 25 523 112 123 145 255 
-73 25 523 112 124 148 255 
-72 25 523 115 127 151 255 
-71 25 523 114 126 150 255 
-71 25 523 113 125 149 255 
-70 25 523 112 124 148 255 
-69 25 523 114 126 150 255 
-68 25 523 117 129 153 255 
-67 25 522 112 124 148 255 
-66 25 522 112 124 148 255 
-65 25 522 117 129 153 255 
-65 25 522 114 124 149 255 
-64 25 522 114 124 149 255 
-63 25 522 121 132 154 255 
-62 25 522 120 131 153 255 
-61 25 522 112 122 147 255 
-60 25 522 115 125 150 255 
-59 25 522 111 121 146 255 
-59 25 522 111 121 146 255 
-58 25 522 114 122 145 255 
-57 25 522 114 122 145 255 
-56 25 522 120 128 151 255 
-55 25 522 121 129 152 255 
-54 25 522 113 124 146 255 
-54 25 522 113 124 146 255 
-53 25 522 110 120 145 255 
-52 25 522 112 122 147 255 
-51 25 522 113 123 148 255 
-50 25 522 112 122 147 255 
-49 25 522 113 123 148 255 
-48 25 522 113 123 148 255 
-48 25 522 111 121 146 255 
-47 25 522 112 122 147 255 
-46 25 522 111 122 144 255 
-45 25 521 111 122 144 255 
-44 25 521 111 122 144 255 
-43 25 522 110 121 143 255 
-42 25 521 109 120 142 255 
-42 25 522 106 117 139 255 
-41 25 522 106 117 139 255 
-40 25 522 108 119 141 255 
-39 25 522 108 119 141 255 
-38 25 522 108 119 141 255 
-38 25 523 109 120 142 255 
-37 25 523 108 119 141 255 
-36 25 522 106 116 141 255 
-35 25 522 108 118 143 255 
-34 25 522 110 120 145 255 
-33 25 522 110 120 145 255 
-32 25 521 112 119 145 255 
-31 25 521 112 119 145 255 
-31 25 521 110 117 143 255 
-30 25 521 109 116 142 255 
-29 25 520 110 117 143 255 
-28 25 520 110 117 143 255 
-27 25 521 111 118 144 255 
-26 25 521 112 119 145 255 
-26 25 521 112 119 145 255 
-25 25 520 114 121 147 255 
-24 25 520 116 123 149 255 
-23 25 520 115 122 148 255 
-22 25 520 113 120 146 255 
-21 25 520 111 118 144 255 
-20 25 520 110 117 143 255 
-20 24 519 110 117 143 255 
-19 25 520 112 119 145 255 
-18 25 520 112 119 145 255 
-17 25 520 111 117 143 255 
-16 25 520 110 116 142 255 
-15 25 520 113 119 145 255 
-14 25 520 113 119 145 255 
-14 25 520 111 117 143 255 
-13 24 519 111 117 143 255 
-12 24 519 114 121 147 255 
-11 24 519 115 122 148 255 
-10 25 520 115 123 146 255 
-9 25 520 114 122 145 255 
-9 25 520 112 120 143 255 
-8 25 520 112 120 143 255 
-7 25 520 113 121 144 255 
-6 25 520 114 122 145 255 
-5 24 519 112 120 143 255 
-4 24 519 116 124 147 255 
-3 24 519 112 120 143 255 
-3 24 519 111 119 142 255 
-2 24 518 109 117 140 255 
-1 24 518 108 116 139 255 
0 24 517 108 119 141 255 
1 24 517 109 120 142 255 
2 24 517 107 120 139 255 
2 24 517 112 125 144 255 
3 24 517 111 124 143 255 
4 24 517 110 123 142 255 
5 24 517 106 119 138 255 
6 24 517 111 124 143 255 
7 24 516 109 122 141 255 
7 24 516 105 118 137 255 
8 24 516 110 123 142 255 
9 24 516 113 126 145 255 
10 24 516 114 127 146 255 
11 24 516 112 125 144 255 
12 24 516 109 122 141 255 
12 24 515 111 124 143 255 
13 24 515 111 124 143 255 
14 24 515 109 122 141 255 
15 24 515 107 118 136 255 
16 24 516 106 117 135 255 
17 24 516 100 113 130 255 
18 24 516 99 112 129 255 
18 24 515 96 109 126 255 
19 24 515 109 122 139 255 
20 24 515 85 98 115 255 
21 24 514 61 74 91 255 
22 24 514 70 83 100 255 
22 24 514 72 85 102 255 
23 24 514 55 71 87 255 
24 24 514 71 87 103 255 
25 24 513 97 113 129 255 
26 24 514 107 123 139 255 
27 24 513 108 121 140 255 
27 24 513 105 118 137 255 
28 24 513 108 119 141 255 
29 24 513 110 121 143 255 
30 24 512 111 122 144 255 
31 24 512 113 124 146 255 
32 24 512 114 125 147 255 
32 24 512 113 124 146 255 
33 24 512 113 124 146 255 
34 24 511 113 124 146 255 
35 24 511 109 120 142 255 
36 24 510 110 121 143 255 
36 24 510 111 122 144 255 
37 24 510 111 122 144 255 
38 24 510 111 122 144 255 
39 24 509 110 121 143 255 
40 24 509 109 120 142 255 
40 24 509 107 118 140 255 
41 24 509 106 119 138 255 
42 24 508 109 122 141 255 
43 24 508 111 124 143 255 
44 24 508 112 125 144 255 
45 24 508 114 127 146 255 
45 24 507 111 124 143 255 
46 24 507 109 121 143 255 
47 24 507 110 122 144 255 
48 24 507 111 124 143 255 
49 24 507 111 124 143 255 
49 24 507 112 123 145 255 
50 24 506 114 125 147 255 
51 24 506 116 127 149 255 
52 24 506 114 125 147 255 
53 24 506 111 122 144 255 
53 24 506 113 124 146 255 
54 24 506 113 124 144 255 
55 24 506 116 127 147 255 
56 24 505 115 126 146 255 
57 24 505 112 123 143 255 
57 24 505 110 121 141 255 
58 24 505 109 120 140 255 
59 24 505 111 122 140 255 
60 24 505 117 128 146 255 
61 24 505 111 120 137 255 
61 24 505 99 108 125 255 
62 24 505 87 96 113 255 
63 24 505 74 83 100 255 
64 24 505 63 72 89 255 
65 24 506 59 68 85 255 
66 24 506 60 69 84 255 
67 24 507 63 72 87 255 
67 24 507 59 68 77 255 
68 24 507 58 67 76 255 
69 24 508 61 70 79 255 
70 24 508 62 71 80 255 
71 24 509 61 70 79 255 
72 24 509 61 70 79 255 
73 24 509 59 68 77 255 
73 24 509 60 69 78 255 
74 24 509 60 69 78 255 
75 24 509 61 70 79 255 
76 24 510 61 70 79 255 
77 24 510 60 69 78 255 
78 24 510 59 68 77 255 
79 24 510 58 67 76 255 
80 24 511 60 69 78 255 
81 24 512 63 72 81 255 
81 24 512 61 71 80 255 
82 24 512 61 71 80 255 
83 24 513 59 69 78 255 
84 24 513 58 68 77 255 
85 24 513 59 69 78 255 
86 24 513 59 69 78 255 
87 24 514 60 70 79 255 
87 24 514 59 69 78 255 
88 24 514 60 70 79 255 
89 24 515 59 69 78 255 
90 24 516 58 67 76 255 
91 24 516 56 65 74 255 
92 24 516 55 64 73 255 
93 24 516 58 67 76 255 
94 24 517 60 69 78 255 
95 24 517 58 67 76 255 
96 24 519 56 66 76 255 
97 24 521 61 71 81 255 
99 25 525 55 61 73 255 
101 25 531 61 67 79 255 
103 25 538 90 93 108 255 
113 27 570 110 121 139 255 
115 27 577 114 125 143 255 
117 27 585 110 121 141 255 
120 28 591 110 121 141 255 
122 28 596 114 121 137 255 
123 28 600 74 81 97 255 
125 28 604 12 19 29 255 
127 29 607 20 27 37 255 
128 29 609 7 15 26 255 
130 29 611 11 19 30 255 
131 29 612 15 24 33 255 
132 29 613 13 22 31 255 
133 29 615 55 61 75 255 
135 29 616 106 112 126 255 
136 29 618 113 120 139 255 
137 29 620 114 121 140 255 
139 29 622 111 118 137 255 
140 29 624 100 107 126 255 
142 29 626 71 77 93 255 
143 29 628 63 69 85 255 
144 30 629 81 87 101 255 
146 30 630 86 92 106 255 
147 30 630 80 87 103 255 
148 30 630 85 92 108 255 
149 30 630 84 90 104 255 
150 30 630 82 88 102 255 
151 30 630 74 80 94 255 
151 29 629 64 70 84 255 
153 29 629 70 76 90 255 
154 30 630 67 73 87 255 
155 30 630 72 79 95 255 
156 30 630 98 105 121 255 
157 30 630 103 110 126 255 
158 29 629 101 108 124 255 
159 29 629 103 110 126 255 
160 29 629 109 116 132 255 
161 29 629 110 117 133 255 
161 29 628 105 112 128 255 
162 29 628 107 114 130 255 
163 29 628 111 118 134 255 
164 29 628 111 117 129 255 
165 29 628 114 120 132 255 
166 29 627 105 111 123 255 
167 29 626 84 90 102 255 
167 29 624 62 68 80 255 
-200 32 667 32 36 45 255 
-196 32 657 57 61 70 255 
-193 31 651 92 98 110 255 
-191 31 647 114 120 132 255 
-189 31 645 119 125 139 255 
-188 31 643 112 118 132 255 
-186 31 642 109 115 131 255 
-185 31 641 112 118 134 255 
-184 31 641 115 122 141 255 
-183 31 641 112 119 138 255 
-182 31 640 110 118 139 255 
-181 31 640 112 120 141 255 
-180 31 640 112 120 139 255 
-179 31 640 112 120 139 255 
-178 31 640 112 120 139 255 
-177 31 640 113 121 140 255 
-175 31 639 114 122 141 255 
-174 31 639 113 121 140 255 
-173 31 639 112 120 139 255 
-172 31 639 112 120 139 255 
-171 31 639 111 119 138 255 
-170 31 639 111 119 138 255 
-169 31 639 114 121 140 255 
-168 31 638 116 123 142 255 
-167 31 638 116 123 142 255 
-166 31 638 114 121 140 255 
-165 31 638 112 120 139 255 
-164 31 638 112 120 139 255 
-163 31 638 117 124 143 255 
-162 31 638 115 122 141 255 
-161 31 638 114 122 141 255 
-160 31 637 112 120 139 255 
-159 31 637 107 118 138 255 
-158 31 637 108 119 139 255 
-157 31 637 110 118 137 255 
-155 31 636 106 114 133 255 
-154 31 636 111 113 128 255 
-153 31 635 89 91 106 255 
-152 31 635 70 62 73 255 
-151 31 634 51 43 54 255 
-150 31 633 49 33 43 255 
-149 31 633 56 40 50 255 
-147 31 631 58 42 52 255 
-146 31 630 61 45 55 255 
-144 30 628 73 62 70 255 
-143 30 627 68 57 65 255 
-142 30 625 64 53 61 255 
-140 30 624 71 60 68 255 
-139 30 622 63 48 55 255 
-138 30 620 49 34 41 255 
-136 30 618 46 26 35 255 
-135 30 616 40 20 29 255 
-133 30 614 43 22 29 255 
-132 30 612 43 22 29 255 
-131 30 611 42 21 28 255 
-129 30 609 43 22 29 255 
-128 30 609 39 18 23 255 
-127 30 608 39 18 23 255 
-126 30 608 37 18 22 255 
-125 30 608 36 17 21 255 
-124 30 608 36 15 22 255 
-123 30 608 36 15 22 255 
-122 29 607 33 12 17 255 
-121 29 606 26 5 10 255 
-120 29 606 27 10 16 255 
-119 29 605 46 29 35 255 
-117 29 603 67 61 71 255 
-116 29 602 80 74 84 255 
-115 29 599 95 100 119 255 
-113 29 595 118 123 142 255 
-103 27 549 117 128 150 255 
-98 26 528 116 127 149 255 
-97 25 523 115 125 150 255 
-96 25 522 115 125 150 255 
-95 25 521 117 124 150 255 
-94 25 521 117 124 150 255 
-93 25 521 116 126 151 255 
-92 25 521 115 125 150 255 
-91 25 520 117 127 152 255 
-90 25 520 115 125 150 255 
-89 25 520 112 122 147 255 
-89 25 520 111 121 146 255 
-88 25 520 111 121 146 255 
-87 25 520 110 120 145 255 
-86 25 520 111 121 146 255 
-85 25 520 112 122 147 255 
-84 25 520 113 123 148 255 
-84 25 520 114 124 149 255 
-83 25 520 115 125 150 255 
-82 25 521 114 124 149 255 
-81 25 521 113 123 148 255 
-80 25 521 112 122 147 255 
-80 25 521 113 124 146 255 
-79 25 521 112 123 145 255 
-78 25 521 114 125 147 255 
-77 25 521 112 123 145 255 
-76 25 521 112 123 145 255 
-75 25 521 110 121 143 255 
-75 25 521 112 122 147 255 
-74 25 521 110 120 145 255 
-73 25 521 113 125 149 255 
-72 25 521 110 122 146 255 
-71 25 521 110 122 146 255 
-70 25 521 117 129 153 255 
-69 25 521 117 129 153 255 
-69 25 521 112 124 148 255 
-68 25 521 112 124 150 255 
-67 25 521 108 120 146 255 
-66 25 521 101 115 141 255 
-65 25 521 98 112 138 255 
-64 25 521 100 112 138 255 
-64 25 521 91 103 129 255 
-63 25 521 88 100 126 255 
-62 25 521 90 102 128 255 
-61 25 521 90 102 128 255 
-60 25 521 95 107 133 255 
-59 25 521 104 116 140 255 
-59 25 521 107 119 143 255 
-58 25 521 111 121 146 255 
-57 25 521 115 125 150 255 
-56 25 521 117 128 150 255 
-55 25 521 114 125 147 255 
-54 25 521 112 122 147 255 
-53 25 521 114 124 149 255 
-53 25 521 110 120 145 255 
-52 25 521 111 121 146 255 
-51 25 521 114 124 149 255 
-50 25 521 115 125 150 255 
-49 25 521 114 124 149 255 
-48 25 521 114 124 149 255 
-48 25 521 112 122 147 255 
-47 25 520 112 122 147 255 
-46 25 521 112 123 145 255 
-45 25 520 112 123 145 255 
-44 25 520 112 123 145 255 
-43 25 521 113 124 146 255 
-42 25 520 111 122 144 255 
-42 25 520 107 118 140 255 
-41 25 520 105 116 138 255 
-40 25 521 108 119 141 255 
-39 25 521 108 118 143 255 
-38 25 521 107 117 142 255 
-37 25 521 108 118 143 255 
-37 25 521 107 117 142 255 
-36 25 521 106 116 141 255 
-35 25 520 107 117 142 255 
-34 25 520 109 119 144 255 
-33 25 520 108 118 143 255 
-32 25 520 110 120 145 255 
-31 25 519 110 120 145 255 
-30 25 519 110 117 143 255 
-30 25 519 109 116 142 255 
-29 25 519 110 117 143 255 
-28 25 519 111 118 144 255 
-27 25 519 112 119 145 255 
-26 25 520 113 120 146 255 
-25 25 519 113 120 146 255 
-25 25 519 115 122 148 255 
-24 25 519 115 122 148 255 
-23 25 519 114 121 147 255 
-22 25 519 113 120 146 255 
-21 25 519 111 118 144 255 
-20 25 518 110 117 143 255 
-19 25 518 111 118 144 255 
-19 25 518 113 119 145 255 
-18 25 518 115 121 147 255 
-17 25 518 113 119 145 255 
-16 25 518 112 118 144 255 
-15 25 518 114 120 146 255 
-14 25 518 113 119 145 255 
-14 25 518 111 117 143 255 
-13 25 518 111 117 143 255 
-12 25 518 114 122 145 255 
-11 25 518 115 123 146 255 
-10 25 518 114 122 145 255 
-9 25 518 113 121 144 255 
-9 25 518 114 122 145 255 
-8 25 518 113 121 144 255 
-7 25 518 113 121 144 255 
-6 25 518 114 122 145 255 
-5 25 518 107 115 138 255 
-4 25 517 111 119 142 255 
-3 25 517 110 118 141 255 
-3 25 517 113 121 144 255 
-2 25 517 108 119 141 255 
-1 25 516 109 120 142 255 
0 25 516 106 117 139 255 
1 25 516 107 118 140 255 
2 25 516 108 123 144 255 
2 25 516 107 122 143 255 
3 25 516 106 121 142 255 
4 25 516 106 121 142 255 
5 25 516 106 118 140 255 
6 25 516 107 119 141 255 
7 25 515 106 118 140 255 
7 25 515 107 119 141 255 
8 25 515 113 126 145 255 
9 25 515 112 125 144 255 
10 25 515 111 124 143 255 
11 25 515 113 126 145 255 
12 25 515 117 128 148 255 
12 25 514 109 120 140 255 
13 25 514 113 124 144 255 
14 25 514 103 114 134 255 
15 25 514 89 98 115 255 
16 25 514 82 91 108 255 
17 25 514 72 84 100 255 
17 25 514 60 72 88 255 
18 25 514 63 75 91 255 
19 25 513 78 90 106 255 
20 25 513 110 122 138 255 
21 25 512 62 74 90 255 
22 25 513 39 51 67 255 
22 25 512 67 79 95 255 
23 25 512 68 81 97 255 
24 25 512 73 86 102 255 
25 25 512 85 98 114 255 
26 25 512 98 111 127 255 
27 25 512 109 122 139 255 
27 25 512 108 121 138 255 
28 25 512 108 119 141 255 
29 25 511 111 122 144 255 
30 25 511 112 123 145 255 
31 25 511 113 124 146 255 
31 25 510 113 124 146 255 
32 25 510 112 123 145 255 
33 25 510 113 124 146 255 
34 25 510 113 124 146 255 
35 25 509 110 121 143 255 
35 25 509 111 122 144 255 
36 25 509 111 122 144 255 
37 25 508 112 123 145 255 
38 25 508 113 124 146 255 
39 25 508 111 122 144 255 
40 25 508 109 120 142 255 
40 25 508 108 119 141 255 
41 25 508 106 119 138 255 
42 25 507 108 121 140 255 
43 25 507 108 121 140 255 
44 25 507 110 123 142 255 
44 25 507 112 125 144 255 
45 25 506 110 123 142 255 
46 25 506 108 121 140 255 
47 25 506 110 123 142 255 
48 25 506 112 124 146 255 
48 25 506 111 123 145 255 
49 25 506 111 122 144 255 
50 25 505 112 123 145 255 
51 25 505 114 125 147 255 
52 25 505 111 122 144 255 
52 25 505 110 121 143 255 
53 25 505 114 125 147 255 
54 25 505 117 128 146 255 
55 25 505 116 127 145 255 
56 25 505 114 125 143 255 
57 25 505 115 126 144 255 
57 25 504 117 129 145 255 
58 25 505 109 121 137 255 
59 25 505 96 105 120 255 
60 25 505 86 95 110 255 
61 25 505 68 77 92 255 
61 25 505 62 71 86 255 
62 25 505 61 71 83 255 
63 25 505 59 69 81 255 
64 25 505 57 67 79 255 
65 25 506 60 70 82 255 
66 25 506 60 70 80 255 
67 25 507 58 68 78 255 
67 25 507 59 68 77 255 
68 25 507 58 67 76 255 
69 25 508 61 70 79 255 
70 25 509 61 70 79 255 
71 25 509 61 70 79 255 
72 25 509 61 70 79 255 
73 25 509 60 69 78 255 
73 25 509 60 69 78 255 
74 25 509 60 69 78 255 
75 25 510 59 68 77 255 
76 25 510 59 68 77 255 
77 25 510 59 68 77 255 
78 25 510 58 67 76 255 
79 25 511 58 67 76 255 
80 25 511 60 69 78 255 
81 25 512 63 72 81 255 
81 25 512 63 73 82 255 
82 25 512 60 70 79 255 
83 25 513 59 69 78 255 
84 25 513 58 68 77 255 
85 25 513 58 68 77 255 
86 25 513 59 69 78 255 
87 25 514 58 68 77 255 
87 25 514 59 69 78 255 
88 25 515 59 69 78 255 
89 25 516 59 69 78 255 
90 25 516 58 68 77 255 
91 25 516 54 64 73 255 
92 25 516 52 61 70 255 
93 25 517 55 64 73 255 
94 25 518 57 66 75 255 
95 25 518 56 65 74 255 
96 25 519 59 69 79 255 
97 25 522 59 69 79 255 
99 26 526 56 59 68 255 
101 26 531 43 46 55 255 
103 26 538 51 50 58 255 
113 28 571 113 122 139 255 
115 28 577 111 120 137 255 
117 28 584 105 118 137 255 
119 29 590 108 121 140 255 
121 29 595 118 127 142 255 
123 29 599 65 74 89 255 
125 29 603 25 30 36 255 
127 29 606 17 22 28 255 
128 30 609 7 17 27 255 
129 30 610 11 21 31 255 
131 30 612 10 18 29 255 
132 30 613 29 37 48 255 
133 30 615 90 97 113 255 
135 30 616 113 120 136 255 
136 30 618 107 114 133 255 
137 30 620 106 113 132 255 
139 30 623 108 115 134 255 
141 30 625 88 95 114 255 
142 30 626 51 58 74 255 
143 30 628 69 76 92 255 
144 31 629 83 91 104 255 
145 31 629 85 93 106 255 
146 31 629 81 89 102 255 
147 31 629 82 90 103 255 
148 31 629 83 89 103 255 
149 30 628 78 84 98 255 
150 30 628 71 77 91 255 
151 30 628 59 65 79 255 
152 30 628 63 69 83 255 
153 30 628 74 80 94 255 
154 30 628 89 96 112 255 
155 30 628 101 108 124 255 
156 30 628 101 108 124 255 
157 30 628 99 106 122 255 
158 30 628 101 108 124 255 
159 30 628 106 113 129 255 
160 30 628 108 115 131 255 
161 30 627 109 116 132 255 
162 30 627 108 115 131 255 
163 30 627 101 108 124 255 
164 30 627 112 118 130 255 
165 30 627 104 110 122 255 
166 30 627 75 81 93 255 
167 30 625 64 70 82 255 
-199 33 659 40 44 55 255 
-196 33 652 70 76 88 255 
-193 32 647 106 112 124 255 
-191 32 643 114 120 134 255 
-189 32 641 115 121 135 255 
-188 32 640 116 122 138 255 
-187 32 640 113 119 135 255 
-186 32 639 114 120 136 255 
-185 32 639 116 122 138 255 
-184 32 639 115 122 141 255 
-183 32 639 115 122 141 255 
-182 32 639 109 120 140 255 
-181 32 639 105 116 136 255 
-179 32 639 111 119 138 255 
-178 32 638 111 119 138 255 
-177 32 638 112 119 138 255 
-176 32 638 113 120 139 255 
-175 32 638 115 122 141 255 
-174 32 638 115 122 141 255 
-173 32 638 113 121 140 255 
-172 32 638 112 120 139 255 
-171 32 638 111 119 138 255 
-170 32 637 110 118 137 255 
-169 32 637 112 120 139 255 
-168 32 637 114 122 141 255 
-167 32 637 113 121 140 255 
-165 32 636 111 119 138 255 
-164 32 636 110 118 137 255 
-163 32 636 110 118 137 255 
-162 32 636 117 124 143 255 
-161 32 636 115 122 141 255 
-160 32 636 114 122 141 255 
-159 32 636 113 121 140 255 
-158 32 635 107 118 136 255 
-157 32 635 105 116 134 255 
-156 32 635 106 117 135 255 
-155 32 635 105 116 134 255 
-154 32 635 117 124 140 255 
-153 32 634 102 109 125 255 
-152 32 634 86 84 97 255 
-151 32 634 61 59 72 255 
-150 32 633 52 40 50 255 
-148 32 632 53 41 51 255 
-147 32 631 55 38 48 255 
-146 32 630 55 38 48 255 
-144 31 628 62 49 58 255 
-143 31 627 68 55 64 255 
-142 31 625 61 48 57 255 
-140 31 624 75 62 71 255 
-139 31 622 69 56 65 255 
-138 31 620 60 47 56 255 
-136 31 618 50 33 41 255 
-135 31 616 40 23 31 255 
-133 31 614 42 23 29 255 
-132 31 612 45 26 32 255 
-130 31 610 43 22 29 255 
-129 31 609 44 23 30 255 
-128 31 608 42 21 28 255 
-127 30 607 39 18 25 255 
-126 30 607 38 19 23 255 
-125 30 607 38 19 23 255 
-124 30 606 36 15 22 255 
-123 30 606 37 16 23 255 
-122 30 606 33 12 17 255 
-121 30 605 27 6 11 255 
-120 30 605 24 9 14 255 
-118 30 604 36 21 26 255 
-117 30 603 60 54 64 255 
-116 30 601 72 66 76 255 
-115 30 599 87 93 109 255 
-113 30 596 113 119 135 255 
-110 29 585 116 127 149 255 
-99 27 529 114 125 147 255 
-97 26 523 115 125 150 255 
-96 26 521 115 125 150 255 
-94 26 520 115 123 146 255 
-93 26 519 115 123 146 255 
-93 26 519 115 125 150 255 
-92 26 519 114 124 149 255 
-91 26 519 116 126 151 255 
-90 26 519 113 123 148 255 
-89 26 519 112 122 147 255 
-88 26 519 113 123 148 255 
-87 26 518 112 122 147 255 
-87 26 519 112 122 147 255 
-86 26 519 112 122 147 255 
-85 26 518 112 122 147 255 
-84 26 519 113 123 148 255 
-83 26 519 116 126 151 255 
-83 26 519 118 128 153 255 
-82 26 519 116 126 151 255 
-81 26 519 113 123 148 255 
-80 26 519 111 121 146 255 
-79 26 519 111 122 144 255 
-78 26 519 112 123 145 255 
-78 26 519 113 124 146 255 
-77 26 519 108 119 141 255 
-76 26 519 113 123 148 255 
-75 26 519 115 125 150 255 
-74 26 519 112 124 148 255 
-73 26 519 108 120 144 255 
-73 26 519 109 121 145 255 
-72 26 519 108 120 144 255 
-71 26 519 111 123 147 255 
-70 26 519 115 127 151 255 
-69 26 519 108 120 146 255 
-68 26 519 91 103 129 255 
-68 26 520 75 89 116 255 
-67 26 519 66 80 107 255 
-66 26 519 50 65 94 255 
-65 26 519 40 55 84 255 
-64 26 519 53 69 95 255 
-63 26 519 62 78 104 255 
-62 26 519 66 80 107 255 
-62 26 519 55 69 96 255 
-61 26 519 38 52 79 255 
-60 26 519 35 49 76 255 
-59 26 519 51 65 91 255 
-58 26 519 64 78 104 255 
-57 26 519 84 98 124 255 
-57 26 519 99 113 139 255 
-56 26 519 112 124 150 255 
-55 26 519 116 128 154 255 
-54 26 519 112 124 150 255 
-53 26 519 111 123 149 255 
-52 26 519 112 122 147 255 
-52 26 519 111 121 146 255 
-51 26 519 113 123 148 255 
-50 26 519 114 124 149 255 
-49 26 519 114 124 149 255 
-48 26 519 113 123 148 255 
-47 26 519 111 121 146 255 
-46 26 519 111 121 146 255 
-46 26 519 112 123 145 255 
-45 26 519 111 122 144 255 
-44 26 519 112 123 145 255 
-43 26 520 114 125 147 255 
-42 26 519 113 124 146 255 
-41 26 519 108 119 141 255 
-41 26 519 106 117 139 255 
-40 26 519 108 119 141 255 
-39 26 520 109 119 144 255 
-38 26 520 109 119 144 255 
-37 26 520 110 120 145 255 
-36 26 520 109 119 144 255 
-36 26 520 107 117 142 255 
-35 26 520 108 118 143 255 
-34 26 519 109 120 142 255 
-33 26 519 108 119 141 255 
-32 26 518 108 119 141 255 
-31 26 518 109 120 142 255 
-30 26 518 108 119 141 255 
-30 26 518 107 118 140 255 
-29 26 518 108 119 141 255 
-28 26 518 109 120 142 255 
-27 26 518 110 121 143 255 
-26 26 518 109 120 142 255 
-25 26 518 109 120 142 255 
-25 26 518 110 121 143 255 
-24 26 518 110 121 143 255 
-23 26 518 110 121 143 255 
-22 26 518 111 122 144 255 
-21 26 517 110 121 143 255 
-20 26 517 112 120 143 255 
-19 26 517 112 120 143 255 
-19 26 517 111 119 142 255 
-18 26 517 113 121 144 255 
-17 26 517 112 120 143 255 
-16 26 517 111 119 142 255 
-15 26 517 114 120 144 255 
-14 26 517 113 119 143 255 
-14 26 517 111 117 141 255 
-13 26 517 112 118 142 255 
-12 26 517 113 121 144 255 
-11 26 517 114 122 145 255 
-10 26 517 114 122 145 255 
-9 26 517 113 121 144 255 
-8 26 516 113 121 144 255 
-8 26 516 112 120 143 255 
-7 26 516 112 120 143 255 
-6 26 516 113 121 144 255 
-5 26 516 111 119 142 255 
-4 26 516 111 119 142 255 
-3 26 516 107 118 140 255 
-3 26 516 110 121 143 255 
-2 26 515 107 118 140 255 
-1 26 515 111 122 144 255 
0 26 515 108 119 141 255 
1 26 515 110 121 143 255 
2 26 515 110 122 144 255 
2 26 515 108 120 142 255 
3 26 515 108 120 142 255 
4 26 515 104 116 138 255 
5 26 514 102 113 135 255 
6 26 514 107 118 140 255 
7 26 514 107 118 138 255 
7 26 514 105 116 136 255 
8 26 514 115 123 144 255 
9 26 514 117 125 146 255 
10 26 514 118 126 145 255 
11 26 513 99 107 126 255 
12 26 513 92 100 119 255 
12 26 513 106 114 133 255 
13 26 513 80 87 106 255 
14 26 513 110 117 136 255 
15 26 513 58 65 83 255 
16 26 513 46 53 71 255 
17 26 513 58 67 82 255 
17 26 513 47 56 71 255 
18 26 512 59 68 85 255 
19 26 512 60 69 86 255 
20 26 511 93 102 119 255 
21 26 511 97 106 123 255 
22 26 511 82 94 110 255 
22 26 511 80 92 108 255 
23 26 511 82 93 111 255 
24 26 511 88 99 117 255 
25 26 511 76 89 106 255 
26 26 511 84 97 114 255 
26 26 510 107 120 137 255 
27 26 510 103 116 133 255 
28 26 510 109 120 142 255 
29 26 510 111 122 144 255 
30 26 509 111 122 144 255 
31 26 509 111 122 144 255 
31 26 509 111 122 144 255 
32 26 508 111 122 144 255 
33 26 508 112 123 145 255 
34 26 508 110 121 143 255 
35 26 508 110 121 143 255 
35 26 508 111 122 144 255 
36 26 507 111 122 144 255 
37 26 507 112 123 145 255 
38 26 507 113 124 146 255 
39 25 506 112 123 145 255 
39 26 507 111 122 144 255 
40 25 506 111 122 144 255 
41 25 506 109 121 143 255 
42 25 506 109 121 143 255 
43 25 506 109 122 141 255 
44 25 506 111 124 143 255 
44 25 505 114 127 146 255 
45 25 505 113 126 145 255 
46 25 505 113 124 144 255 
47 25 505 113 124 144 255 
48 25 505 113 124 146 255 
48 25 504 113 124 146 255 
49 25 504 112 122 147 255 
50 25 504 112 122 147 255 
51 25 504 113 124 146 255 
52 25 504 113 124 146 255 
52 25 504 111 122 142 255 
53 25 504 110 121 141 255 
54 25 504 116 125 142 255 
55 25 504 117 126 143 255 
56 25 504 112 121 138 255 
56 25 504 102 111 128 255 
57 25 504 89 98 113 255 
58 25 505 75 84 99 255 
59 25 505 63 73 85 255 
60 25 505 58 68 80 255 
61 25 505 61 71 81 255 
62 25 506 62 72 82 255 
62 25 506 65 75 84 255 
63 25 506 62 72 81 255 
64 25 506 58 68 77 255 
65 26 507 59 69 78 255 
66 26 507 61 72 78 255 
67 26 507 63 74 80 255 
68 26 508 61 70 79 255 
68 26 508 61 70 79 255 
69 26 509 62 71 80 255 
70 26 509 61 70 79 255 
71 26 510 61 70 79 255 
72 26 510 62 71 80 255 
73 26 510 60 69 78 255 
74 26 510 60 69 78 255 
74 26 510 60 69 78 255 
75 26 510 58 67 76 255 
76 26 511 58 67 76 255 
77 26 511 58 67 76 255 
78 26 511 59 68 77 255 
79 26 511 59 68 77 255 
80 26 512 60 69 78 255 
81 26 513 61 70 79 255 
81 26 513 58 68 77 255 
82 26 513 56 66 75 255 
83 26 513 58 68 77 255 
84 26 514 57 67 76 255 
85 26 514 57 67 76 255 
86 26 514 59 69 78 255 
87 26 514 59 69 78 255 
88 26 515 61 71 80 255 
89 26 516 61 70 79 255 
89 26 516 63 72 81 255 
90 26 517 63 72 81 255 
91 26 517 59 68 77 255 
92 26 517 56 65 74 255 
93 26 517 57 66 75 255 
94 26 518 60 69 78 255 
95 26 519 59 68 77 255 
96 26 521 59 69 78 255 
97 26 523 52 62 71 255 
99 26 527 54 57 64 255 
101 27 532 49 52 59 255 
103 27 539 41 39 44 255 
105 27 546 43 41 46 255 
107 28 553 64 63 71 255 
110 28 562 92 91 99 255 
113 29 570 107 113 129 255 
115 29 576 117 123 139 255 
117 29 583 107 118 136 255 
119 30 588 103 114 132 255 
121 30 593 115 125 137 255 
123 30 598 47 57 69 255 
125 30 602 23 27 36 255 
126 30 605 15 19 28 255 
128 31 608 13 23 33 255 
129 31 610 11 21 31 255 
131 31 611 12 22 32 255 
132 31 613 65 75 85 255 
133 31 614 110 119 134 255 
135 31 616 111 120 135 255 
136 31 618 108 115 133 255 
138 31 621 109 116 134 255 
139 31 623 98 105 123 255 
141 31 625 72 79 97 255 
142 31 626 53 60 76 255 
143 31 628 79 86 102 255 
144 31 628 79 85 99 255 
145 32 629 81 87 101 255 
146 31 628 83 91 102 255 
147 31 628 78 86 97 255 
148 31 628 74 80 94 255 
149 31 627 71 77 91 255 
150 31 627 72 78 90 255 
151 31 627 73 79 91 255 
152 31 626 81 87 101 255 
153 31 626 91 97 111 255 
154 31 626 101 107 121 255 
155 31 627 101 107 121 255 
156 31 627 100 107 123 255 
157 31 626 102 109 125 255 
158 31 626 103 110 126 255 
159 31 626 105 112 128 255 
160 31 626 107 114 130 255 
161 31 626 108 115 131 255 
162 31 626 107 114 132 255 
163 31 626 101 108 126 255 
164 31 627 108 114 126 255 
165 31 626 75 81 93 255 
166 31 626 51 57 69 255 
166 31 624 57 63 75 255 
-201 34 660 30 32 44 255 
-197 34 651 54 58 70 255 
-195 33 646 96 100 112 255 
-193 33 643 115 121 137 255 
-191 33 641 119 125 141 255 
-190 33 639 112 119 135 255 
-188 33 638 113 120 136 255 
-187 33 638 109 116 132 255 
-186 33 638 110 117 133 255 
-185 33 638 112 119 137 255 
-184 33 638 110 117 135 255 
-183 33 638 109 117 136 255 
-182 33 638 114 122 141 255 
-181 33 638 113 124 144 255 
-180 33 638 110 121 141 255 
-179 33 638 114 121 140 255 
-178 33 637 112 119 138 255 
-177 33 637 112 119 137 255 
-176 33 637 113 120 138 255 
-175 33 637 114 121 139 255 
-174 33 637 115 122 140 255 
-173 33 637 115 122 140 255 
-172 33 637 115 122 140 255 
-171 33 637 113 120 138 255 
-170 33 636 111 118 136 255 
-169 33 636 110 119 136 255 
-168 33 636 112 121 138 255 
-166 33 635 112 121 138 255 
-165 33 635 110 119 136 255 
-164 33 635 111 118 136 255 
-163 33 635 113 120 138 255 
-162 33 635 115 122 141 255 
-161 33 635 112 119 138 255 
-160 33 635 112 120 139 255 
-159 33 634 113 121 140 255 
-158 33 634 111 120 137 255 
-157 33 634 110 119 136 255 
-156 33 634 110 119 136 255 
-155 33 634 108 117 134 255 
-154 33 634 110 119 136 255 
-153 33 633 108 117 134 255 
-152 33 633 106 108 123 255 
-151 33 633 83 85 100 255 
-149 33 632 59 51 64 255 
-148 33 631 48 40 53 255 
-147 33 630 53 36 46 255 
-146 33 629 57 40 50 255 
-144 32 628 61 45 56 255 
-143 32 627 59 43 54 255 
-142 32 625 65 52 61 255 
-140 32 624 73 60 69 255 
-139 32 622 66 53 62 255 
-138 32 620 64 51 60 255 
-136 32 618 71 55 65 255 
-135 32 616 44 28 38 255 
-133 32 614 44 27 35 255 
-132 32 612 44 27 35 255 
-131 32 611 44 23 30 255 
-129 32 609 44 23 30 255 
-128 31 607 46 25 32 255 
-127 31 606 40 19 26 255 
-126 31 606 39 18 25 255 
-125 31 605 39 18 25 255 
-124 31 605 35 14 21 255 
-123 31 605 37 16 23 255 
-121 31 604 34 15 19 255 
-120 31 604 28 9 13 255 
-119 31 604 24 9 14 255 
-118 31 603 29 14 19 255 
-117 31 602 52 46 56 255 
-116 31 601 69 63 73 255 
-115 31 599 82 88 104 255 
-113 31 597 107 113 129 255 
-111 31 590 114 125 147 255 
-99 28 532 112 123 145 255 
-97 27 524 113 123 148 255 
-95 27 520 114 124 149 255 
-94 27 519 116 124 147 255 
-93 27 518 116 124 147 255 
-92 27 518 116 126 151 255 
-92 27 518 114 124 149 255 
-91 27 518 114 124 149 255 
-90 27 518 111 121 146 255 
-89 27 518 112 122 147 255 
-88 27 518 115 125 150 255 
-87 27 517 113 123 148 255 
-86 27 517 114 124 149 255 
-86 27 517 112 122 147 255 
-85 27 517 111 121 146 255 
-84 27 517 113 123 148 255 
-83 27 518 116 126 151 255 
-82 27 518 118 128 153 255 
-82 27 518 117 127 152 255 
-81 27 517 114 124 149 255 
-80 27 517 113 123 148 255 
-79 27 517 110 121 143 255 
-78 27 517 111 122 144 255 
-77 27 518 111 123 147 255 
-77 27 518 108 120 144 255 
-76 27 517 113 125 151 255 
-75 27 517 113 125 151 255 
-74 27 518 112 124 150 255 
-73 27 518 111 123 149 255 
-72 27 517 114 126 150 255 
-72 27 518 106 118 142 255 
-71 27 518 102 117 140 255 
-70 27 518 84 99 122 255 
-69 27 518 54 68 94 255 
-68 27 518 51 65 91 255 
-67 27 518 55 69 96 255 
-67 27 518 39 53 80 255 
-66 27 518 41 56 85 255 
-65 27 518 61 76 105 255 
-64 27 518 87 102 131 255 
-63 27 518 85 100 129 255 
-62 27 518 82 97 126 255 
-62 27 518 64 79 108 255 
-61 27 518 42 56 83 255 
-60 27 518 39 53 80 255 
-59 27 518 52 66 93 255 
-58 27 518 57 71 98 255 
-57 27 518 46 60 87 255 
-56 27 518 42 56 83 255 
-56 27 518 83 97 123 255 
-55 27 518 111 125 151 255 
-54 27 518 106 118 144 255 
-53 27 518 113 125 151 255 
-52 27 518 112 122 147 255 
-51 27 518 111 121 146 255 
-51 27 518 112 122 147 255 
-50 27 518 113 123 148 255 
-49 27 518 113 123 148 255 
-48 27 517 113 123 148 255 
-47 27 518 110 120 145 255 
-46 27 518 110 120 145 255 
-46 27 518 111 122 144 255 
-45 27 518 110 121 143 255 
-44 27 518 110 121 143 255 
-43 27 518 112 123 145 255 
-42 27 518 111 122 144 255 
-41 27 518 108 119 141 255 
-41 27 518 107 118 140 255 
-40 27 518 109 120 142 255 
-39 27 518 111 122 144 255 
-38 27 518 112 123 145 255 
-37 27 518 111 122 144 255 
-36 27 518 111 122 144 255 
-35 27 518 111 122 144 255 
-35 27 518 110 121 143 255 
-34 27 518 110 121 143 255 
-33 27 518 110 121 143 255 
-32 27 517 110 121 143 255 
-31 27 517 110 121 143 255 
-30 27 517 109 120 140 255 
-30 27 517 108 119 139 255 
-29 27 517 108 119 139 255 
-28 27 517 109 120 140 255 
-27 27 517 110 121 141 255 
-26 27 517 109 120 140 255 
-25 27 517 108 120 142 255 
-24 27 517 109 121 143 255 
-24 27 517 110 122 144 255 
-23 27 517 111 123 145 255 
-22 27 517 111 122 144 255 
-21 27 516 110 121 143 255 
-20 27 516 110 121 143 255 
-19 27 516 110 121 143 255 
-19 27 516 108 119 141 255 
-18 27 516 109 120 142 255 
-17 27 516 110 118 141 255 
-16 27 516 110 118 141 255 
-15 27 516 113 121 144 255 
-14 27 516 113 121 144 255 
-14 27 516 111 119 142 255 
-13 27 515 111 119 142 255 
-12 27 515 113 121 144 255 
-11 27 515 112 120 143 255 
-10 27 515 113 121 144 255 
-9 27 515 113 121 144 255 
-8 27 515 111 119 142 255 
-8 27 515 111 119 142 255 
-7 27 515 112 120 143 255 
-6 27 514 112 120 143 255 
-5 27 514 109 120 142 255 
-4 27 514 109 120 142 255 
-3 27 514 108 119 141 255 
-3 27 514 109 120 142 255 
-2 27 514 106 117 139 255 
-1 27 514 110 121 143 255 
0 27 514 109 120 142 255 
1 27 514 109 120 142 255 
2 27 514 108 119 141 255 
2 27 514 109 120 142 255 
3 27 514 111 122 142 255 
4 27 514 108 119 139 255 
5 27 513 111 119 140 255 
6 27 513 111 119 140 255 
7 27 513 109 117 138 255 
7 27 513 112 120 141 255 
8 27 513 113 120 139 255 
9 27 513 100 107 126 255 
10 27 513 63 70 89 255 
11 27 512 83 90 109 255 
12 27 512 57 64 82 255 
12 27 512 75 82 100 255 
13 27 512 65 70 89 255 
14 27 512 84 89 108 255 
15 27 512 91 98 116 255 
16 27 511 61 68 86 255 
16 27 510 82 89 108 255 
17 27 510 75 82 101 255 
18 27 510 91 98 117 255 
19 26 509 96 103 122 255 
20 26 509 90 98 117 255 
21 26 509 80 88 107 255 
21 27 510 86 94 113 255 
22 27 510 73 81 100 255 
23 27 510 67 75 96 255 
24 27 510 74 82 103 255 
25 27 510 77 88 108 255 
26 27 510 87 98 118 255 
26 26 509 106 117 137 255 
27 26 509 109 120 140 255 
28 26 509 110 121 143 255 
29 26 509 111 122 144 255 
30 26 508 110 121 143 255 
30 26 508 110 121 143 255 
31 26 508 110 121 143 255 
32 26 507 110 121 143 255 
33 26 507 111 122 144 255 
34 26 507 111 122 144 255 
35 26 507 110 121 143 255 
35 26 507 110 121 143 255 
36 26 506 110 121 143 255 
37 26 505 110 121 143 255 
38 26 505 110 121 143 255 
38 26 505 111 122 144 255 
39 26 505 112 123 145 255 
40 26 505 113 124 146 255 
41 26 505 111 121 146 255 
42 26 505 110 120 145 255 
43 26 505 111 122 144 255 
43 26 505 113 124 146 255 
44 26 504 113 124 144 255 
45 26 504 112 123 143 255 
46 26 504 111 122 142 255 
47 26 504 109 120 140 255 
47 26 504 110 121 143 255 
48 26 504 111 122 144 255 
49 26 504 114 122 145 255 
50 26 504 112 120 143 255 
51 26 504 112 120 141 255 
52 26 504 115 123 144 255 
52 26 504 114 122 141 255 
53 26 504 109 117 136 255 
54 26 504 101 110 125 255 
55 26 504 93 102 117 255 
56 26 504 80 89 104 255 
56 26 504 68 77 92 255 
57 26 504 60 70 82 255 
58 26 504 59 69 81 255 
59 26 505 60 70 80 255 
60 26 505 59 69 79 255 
61 26 506 62 72 81 255 
62 26 506 63 73 82 255 
62 26 506 62 73 79 255 
63 26 507 57 68 74 255 
64 26 507 57 68 74 255 
65 26 507 59 70 76 255 
66 26 507 57 68 74 255 
67 26 508 58 69 75 255 
68 26 508 62 71 80 255 
69 26 509 62 71 80 255 
69 26 509 62 71 80 255 
70 26 510 61 70 79 255 
71 26 510 61 70 79 255 
72 27 511 62 71 80 255 
73 27 511 61 70 79 255 
74 27 511 61 70 79 255 
75 27 511 60 69 78 255 
75 27 511 58 67 76 255 
76 27 511 58 67 76 255 
77 27 511 58 67 76 255 
78 27 512 60 69 78 255 
79 27 512 60 69 78 255 
80 27 513 59 68 77 255 
81 27 513 59 68 77 255 
81 27 513 57 65 76 255 
82 27 514 56 64 75 255 
83 27 514 59 67 78 255 
84 27 514 59 67 78 255 
85 27 515 58 66 77 255 
86 27 515 58 66 77 255 
87 27 516 56 64 75 255 
88 27 516 58 66 77 255 
89 27 516 56 64 75 255 
90 27 517 60 68 79 255 
90 27 517 60 68 79 255 
91 27 517 55 63 74 255 
92 27 517 54 62 73 255 
93 27 518 55 63 74 255 
94 27 518 57 65 76 255 
95 27 519 57 65 76 255 
96 27 521 55 64 73 255 
98 27 524 56 65 74 255 
99 27 528 55 58 65 255 
101 28 533 43 46 53 255 
103 28 540 43 40 47 255 
105 28 547 44 41 48 255 
108 29 554 44 41 50 255 
110 29 562 44 41 50 255 
112 29 569 63 62 76 255 
115 30 575 98 97 111 255 
116 30 580 114 117 132 255 
118 30 585 114 117 132 255 
121 31 591 112 118 132 255 
123 31 596 35 41 55 255 
124 31 600 21 25 37 255 
126 31 604 18 22 34 255 
127 31 606 16 25 34 255 
129 31 608 7 16 25 255 
130 32 610 37 45 56 255 
132 32 612 98 106 117 255 
133 32 614 113 121 134 255 
135 32 616 104 112 125 255 
136 32 618 112 118 134 255 
137 32 620 109 115 131 255 
139 32 623 86 92 108 255 
141 32 625 62 68 84 255 
142 32 626 70 76 92 255 
143 32 627 82 88 104 255 
144 32 627 77 83 95 255 
145 33 628 75 81 93 255 
146 32 627 74 81 91 255 
147 32 627 65 72 82 255 
148 32 626 61 67 81 255 
149 32 626 62 68 82 255 
150 32 626 62 68 82 255 
151 32 625 71 77 91 255 
152 32 625 94 100 114 255 
153 32 625 101 107 121 255 
154 32 625 100 106 122 255 
155 32 625 103 109 125 255 
156 32 625 102 109 125 255 
157 32 625 105 112 128 255 
158 32 625 105 112 130 255 
159 32 625 106 113 131 255 
160 32 625 109 116 134 255 
161 32 625 106 113 131 255 
162 32 625 106 113 131 255 
163 32 625 110 117 135 255 
164 32 626 80 86 98 255 
165 32 626 57 63 75 255 
166 32 625 46 53 63 255 
166 32 623 47 54 64 255 
-200 35 653 39 42 57 255 
-197 34 647 73 76 91 255 
-195 34 642 102 108 124 255 
-193 34 640 117 123 139 255 
-191 34 638 120 127 145 255 
-190 34 637 122 129 147 255 
-189 34 636 116 123 141 255 
-188 34 636 114 121 139 255 
-186 34 635 114 121 139 255 
-185 34 635 114 121 139 255 
-184 34 635 111 119 138 255 
-183 34 635 110 118 137 255 
-182 34 635 109 120 138 255 
-181 34 635 111 122 140 255 
-180 34 635 112 123 141 255 
-179 34 635 112 123 141 255 
-178 34 635 116 123 141 255 
-177 34 635 114 121 139 255 
-176 34 635 113 122 139 255 
-175 34 635 114 123 140 255 
-174 34 635 114 123 140 255 
-173 34 635 114 123 140 255 
-172 34 635 115 122 140 255 
-171 34 635 115 122 140 255 
-170 34 634 113 120 138 255 
-169 34 634 112 119 137 255 
-168 34 634 111 118 136 255 
-167 34 634 113 120 138 255 
-166 34 634 114 121 140 255 
-165 34 633 113 120 139 255 
-164 34 633 113 120 139 255 
-163 34 633 116 123 142 255 
-162 34 633 114 122 141 255 
-161 34 633 111 119 138 255 
-160 34 633 112 120 139 255 
-158 34 632 115 123 142 255 
-157 34 632 114 123 140 255 
-156 34 632 112 121 138 255 
-155 34 632 112 119 137 255 
-154 34 632 110 117 135 255 
-153 34 632 110 117 136 255 
-152 34 632 110 117 136 255 
-151 34 632 111 116 135 255 
-150 34 631 98 103 122 255 
-149 34 630 76 74 88 255 
-148 34 629 59 57 71 255 
-147 34 629 53 41 51 255 
-145 34 628 49 37 47 255 
-144 33 627 55 39 50 255 
-143 33 626 67 51 62 255 
-141 33 624 75 62 72 255 
-140 33 623 76 63 73 255 
-139 33 622 60 47 56 255 
-138 33 620 66 53 62 255 
-136 33 618 77 64 73 255 
-135 33 617 69 56 65 255 
-133 33 615 53 37 47 255 
-132 33 612 45 29 39 255 
-130 33 610 43 23 32 255 
-129 33 609 43 23 32 255 
-128 32 607 47 24 32 255 
-126 32 605 42 19 27 255 
-125 32 605 41 18 26 255 
-124 32 604 39 16 24 255 
-123 32 604 37 14 20 255 
-122 32 604 40 17 23 255 
-121 32 603 35 16 20 255 
-120 32 603 28 9 13 255 
-119 32 603 21 6 11 255 
-118 32 602 23 8 13 255 
-117 32 601 43 38 45 255 
-116 32 600 71 66 73 255 
-115 32 599 76 82 98 255 
-113 32 597 96 102 118 255 
-111 32 592 111 123 145 255 
-101 29 539 112 124 146 255 
-97 28 524 112 124 148 255 
-95 28 520 114 126 150 255 
-94 28 518 117 125 148 255 
-93 28 517 118 126 149 255 
-92 28 517 116 126 151 255 
-91 28 517 115 125 150 255 
-90 28 516 113 123 148 255 
-90 28 516 111 121 146 255 
-89 28 516 114 124 149 255 
-88 28 516 114 124 149 255 
-87 28 516 112 122 147 255 
-86 28 516 113 123 148 255 
-85 28 516 110 120 145 255 
-85 28 516 111 121 146 255 
-84 28 516 113 123 148 255 
-83 28 517 116 126 151 255 
-82 28 517 117 127 152 255 
-81 28 517 115 125 150 255 
-80 28 516 114 124 149 255 
-80 28 516 114 124 149 255 
-79 28 516 113 125 147 255 
-78 28 516 109 121 143 255 
-77 28 516 110 122 146 255 
-76 28 517 109 121 145 255 
-75 28 516 109 121 147 255 
-75 28 516 106 118 144 255 
-74 28 516 111 123 149 255 
-73 28 517 116 128 154 255 
-72 28 516 110 124 150 255 
-71 28 516 84 98 124 255 
-71 28 517 55 69 95 255 
-70 28 517 40 54 80 255 
-69 28 517 54 68 95 255 
-68 28 517 73 87 114 255 
-67 28 517 72 86 113 255 
-66 28 517 68 82 109 255 
-66 28 517 44 59 88 255 
-65 28 516 44 59 88 255 
-64 28 516 60 75 104 255 
-63 28 516 66 81 110 255 
-62 28 516 65 80 109 255 
-61 28 516 45 60 89 255 
-60 28 516 41 55 82 255 
-60 28 516 56 70 97 255 
-59 28 516 59 73 100 255 
-58 28 517 64 78 105 255 
-57 28 517 55 69 96 255 
-56 28 517 45 59 86 255 
-56 28 517 43 57 83 255 
-55 28 517 66 80 106 255 
-54 28 517 103 115 141 255 
-53 28 517 105 117 143 255 
-52 28 517 111 121 146 255 
-51 28 517 110 120 145 255 
-51 28 517 111 121 146 255 
-50 28 516 111 121 146 255 
-49 28 516 111 121 146 255 
-48 28 516 111 121 146 255 
-47 28 516 110 120 145 255 
-46 28 516 112 122 147 255 
-45 28 516 111 122 144 255 
-45 28 516 110 121 143 255 
-44 28 516 112 123 145 255 
-43 28 516 113 124 146 255 
-42 28 516 111 122 144 255 
-41 28 516 108 119 141 255 
-40 28 517 109 120 142 255 
-40 28 517 111 122 144 255 
-39 28 517 111 124 143 255 
-38 28 517 111 124 143 255 
-37 28 517 109 122 141 255 
-36 28 517 110 123 142 255 
-35 28 517 114 125 145 255 
-35 28 517 113 124 144 255 
-34 28 517 110 121 141 255 
-33 28 516 110 121 141 255 
-32 28 516 111 122 142 255 
-31 28 516 110 121 141 255 
-30 28 516 111 122 142 255 
-29 28 516 111 122 142 255 
-29 28 516 110 121 141 255 
-28 28 516 110 121 141 255 
-27 28 516 110 121 141 255 
-26 28 516 109 120 140 255 
-25 28 516 109 122 141 255 
-24 28 515 110 123 142 255 
-24 28 515 111 124 143 255 
-23 28 515 110 123 142 255 
-22 28 515 107 120 139 255 
-21 28 515 105 118 137 255 
-20 28 514 106 119 138 255 
-19 28 514 106 119 138 255 
-18 28 514 107 118 138 255 
-18 28 514 108 119 139 255 
-17 28 514 106 117 137 255 
-16 28 514 107 118 138 255 
-15 28 514 111 122 142 255 
-14 28 515 111 122 142 255 
-14 28 515 109 120 140 255 
-13 28 514 108 119 139 255 
-12 28 514 112 120 143 255 
-11 28 514 112 120 143 255 
-10 28 514 112 120 143 255 
-9 28 514 112 120 143 255 
-8 28 514 111 119 142 255 
-8 28 514 110 118 141 255 
-7 28 514 108 119 141 255 
-6 28 513 108 119 141 255 
-5 28 513 108 119 141 255 
-4 28 513 108 119 141 255 
-3 28 513 108 119 139 255 
-3 28 513 106 117 137 255 
-2 28 513 108 119 139 255 
-1 28 513 111 122 142 255 
0 28 513 114 125 145 255 
1 28 513 112 123 143 255 
2 27 512 114 122 143 255 
2 27 512 110 118 139 255 
3 28 513 115 123 144 255 
4 27 512 109 117 138 255 
5 27 512 91 99 118 255 
6 27 512 75 83 102 255 
7 27 512 70 78 97 255 
7 27 512 67 75 94 255 
8 27 511 76 84 103 255 
9 27 511 113 121 140 255 
10 27 511 60 67 86 255 
11 27 511 66 73 92 255 
12 27 511 67 74 92 255 
12 27 511 63 70 88 255 
13 27 510 77 84 102 255 
14 27 510 65 72 90 255 
15 27 510 98 104 126 255 
16 27 509 91 97 119 255 
16 27 508 89 95 117 255 
17 27 508 85 91 113 255 
18 27 508 77 83 105 255 
19 27 507 72 78 100 255 
20 27 507 77 85 106 255 
21 27 507 64 72 93 255 
21 27 508 85 93 114 255 
22 27 508 92 100 121 255 
23 27 508 94 102 125 255 
24 27 508 97 105 128 255 
25 27 508 107 115 138 255 
26 27 508 110 118 141 255 
26 27 508 111 122 144 255 
27 27 508 113 124 146 255 
28 27 508 111 122 144 255 
29 27 507 111 122 144 255 
30 27 507 110 121 143 255 
30 27 506 110 121 143 255 
31 27 506 109 120 142 255 
32 27 506 110 121 143 255 
33 27 506 113 124 146 255 
34 27 506 113 124 146 255 
34 27 506 112 123 145 255 
35 27 505 111 122 144 255 
36 27 505 111 122 144 255 
37 27 504 110 121 143 255 
38 27 504 109 120 142 255 
38 27 504 110 121 143 255 
39 27 504 113 124 146 255 
40 27 504 114 125 147 255 
41 27 504 111 121 146 255 
42 27 504 109 119 144 255 
43 27 504 110 121 143 255 
43 27 504 110 121 143 255 
44 27 504 110 118 141 255 
45 27 504 112 120 143 255 
46 27 504 114 122 143 255 
47 27 503 113 121 142 255 
47 27 503 108 116 135 255 
48 27 503 112 120 139 255 
49 27 503 116 124 143 255 
50 27 503 113 121 140 255 
51 27 503 104 113 130 255 
51 27 503 97 106 123 255 
52 27 504 86 95 110 255 
53 27 504 74 83 98 255 
54 27 504 61 71 83 255 
55 27 504 58 68 80 255 
56 27 504 58 68 80 255 
56 27 504 57 67 79 255 
57 27 504 55 65 75 255 
58 27 504 57 67 77 255 
59 27 505 58 68 78 255 
60 27 505 56 66 76 255 
61 27 506 61 70 79 255 
62 27 506 65 74 83 255 
62 27 506 67 76 83 255 
63 27 507 62 71 78 255 
64 27 507 61 70 75 255 
65 27 507 59 68 73 255 
66 27 508 57 66 73 255 
67 27 508 60 69 76 255 
68 27 509 60 69 78 255 
69 27 509 61 70 79 255 
69 27 509 61 70 79 255 
70 27 510 60 69 78 255 
71 27 510 61 70 79 255 
72 27 511 63 72 81 255 
73 27 511 62 71 80 255 
74 27 511 62 71 80 255 
75 27 511 59 68 77 255 
75 27 511 58 67 76 255 
76 27 511 58 67 76 255 
77 27 511 58 67 76 255 
78 27 512 59 68 77 255 
79 27 513 60 69 78 255 
80 27 513 59 68 77 255 
81 28 514 58 67 76 255 
82 28 514 61 69 80 255 
83 28 515 61 69 80 255 
83 28 515 61 69 80 255 
84 28 515 60 68 79 255 
85 28 515 59 67 78 255 
86 28 516 57 65 76 255 
87 28 517 54 62 73 255 
88 28 517 54 62 73 255 
89 28 517 57 65 76 255 
90 28 517 62 70 81 255 
91 28 518 62 70 81 255 
91 28 518 59 67 78 255 
92 28 518 59 65 77 255 
93 28 519 59 65 77 255 
94 28 519 59 65 77 255 
95 28 520 60 66 78 255 
96 28 522 56 65 74 255 
98 28 525 56 65 74 255 
99 28 529 54 57 66 255 
101 29 534 39 42 51 255 
103 29 541 38 35 42 255 
105 29 547 42 39 46 255 
108 30 554 46 38 49 255 
110 30 561 40 32 43 255 
112 30 568 39 31 44 255 
114 31 573 48 40 53 255 
116 31 578 72 68 82 255 
118 31 583 103 99 113 255 
120 31 588 104 103 117 255 
122 32 592 29 28 42 255 
124 32 597 19 18 34 255 
125 32 601 26 25 41 255 
127 32 605 17 24 32 255 
129 32 607 18 25 33 255 
130 33 609 78 84 96 255 
132 33 612 113 119 131 255 
133 33 614 115 121 135 255 
135 33 617 108 114 128 255 
136 33 619 117 120 135 255 
138 33 621 104 107 122 255 
139 33 623 74 77 92 255 
140 33 624 64 67 82 255 
142 33 625 81 84 101 255 
143 33 626 80 83 100 255 
144 33 626 83 86 101 255 
145 33 626 78 81 96 255 
146 33 626 67 71 82 255 
147 33 625 59 63 74 255 
148 33 625 58 64 78 255 
148 33 624 55 61 75 255 
149 33 624 62 68 84 255 
150 33 624 76 82 98 255 
151 33 624 98 104 120 255 
152 33 624 104 110 126 255 
