ply
format ascii 1.0
comment VCGLIB generated
element vertex 795
property float x
property float y
property float z
property float nx
property float ny
property float nz
element face 0
property list uchar int vertex_indices
end_header
-48.67622 29.2541 538.4694 -0.1986291 -0.4673842 0.8614514 
-42.77016 29.48475 538.9041 -0.0803246 -0.4502211 0.8892969 
-40.16706 29.37249 539.0932 -0.05609246 -0.4742241 0.8786155 
-38.66806 29.6705 539.5311 -0.03833919 -0.4914849 0.8700418 
-34.76732 28.87132 539.983 0.03658178 -0.52103 0.8527541 
-31.73396 28.77235 540.582 0.001748496 -0.5057476 0.8626798 
-28.58957 28.37866 541.0662 -0.01733784 -0.4851391 0.8742651 
-25.17193 28.66497 541.122 0.08639093 -0.4935901 0.8653933 
-22.84275 29.11796 540.6301 0.196736 -0.4876281 0.8505962 
-20.94711 29.63037 539.9323 0.240061 -0.4709429 0.8488719 
-54.87028 32.70081 539.592 -0.2935442 -0.4674455 0.8338624 
-52.58115 32.305 539.8635 -0.234387 -0.4660169 0.8531653 
-49.62714 32.27439 539.9969 -0.1928298 -0.4602276 0.8666068 
-44.70768 33.06803 540.2584 -0.116983 -0.4497449 0.8854629 
-42.53498 32.29978 540.1298 -0.09950359 -0.4297308 0.8974578 
-39.81977 31.90525 540.4664 -0.0902757 -0.4545998 0.8861091 
-36.63898 31.69597 541.3615 -0.04827275 -0.4902885 0.8702223 
-34.71075 30.69974 541.0341 -0.2511999 -0.4097109 0.8769467 
-31.38249 31.09882 542.1558 -0.03302266 -0.4920902 0.8699177 
-28.30505 30.86155 542.611 -0.03530777 -0.4607761 0.8868139 
-25.19304 31.2638 542.5681 0.0640803 -0.4610861 0.8850387 
-22.57472 30.88309 541.4957 0.1479198 -0.4881474 0.8601348 
-19.67713 31.90403 540.9184 0.2477325 -0.5297176 0.8111892 
-17.26245 32.36742 539.3299 0.411245 -0.6419291 0.6471511 
-15.36871 33.6892 539.1803 0.4995625 -0.6054349 0.6195853 
-58.08914 34.77269 539.8046 -0.4006091 -0.4537891 0.7959823 
-55.33746 35.15102 541.0739 -0.3100794 -0.4796233 0.8208607 
-52.75544 35.05816 541.1012 -0.1441619 -0.4226696 0.8947446 
-49.57928 34.30976 540.7954 -0.1866894 -0.491288 0.8507545 
-46.80704 34.61133 540.7869 -0.131707 -0.4948661 0.8589301 
-41.04967 35.02879 541.1056 -0.215329 -0.3965411 0.8924061 
-37.56645 33.85044 541.7289 -0.2642631 -0.4132984 0.8714066 
-31.44629 33.36223 543.5622 -0.1944207 -0.418696 0.8870706 
-25.39135 33.00769 543.4696 0.03332355 -0.4396712 0.8975405 
-22.42715 34.1218 543.5081 0.06690106 -0.4451241 0.8929663 
-19.35386 34.34643 542.5745 0.1927566 -0.4557539 0.8689841 
-16.69502 34.28953 541.081 0.3090422 -0.5472018 0.7778581 
-14.27957 35.30777 539.957 0.5858101 -0.593339 0.5520647 
-13.11707 35.597 538.9481 0.5724362 -0.5887175 0.5707264 
-10.82449 37.49345 537.9304 0.7870121 -0.354599 0.5048481 
-61.26792 38.23345 539.8422 -0.51129 -0.4089007 0.7558986 
-58.29633 37.37675 541.1394 -0.3176569 -0.4419307 0.8389227 
-55.72994 37.55069 541.9 -0.1137074 -0.3616711 0.9253457 
-52.75126 36.91846 541.555 -0.009169905 -0.3677249 0.9298894 
-49.78595 37.35686 541.7081 0.03652892 -0.3469748 0.9371628 
-47.44735 37.83764 541.8557 0.004341559 -0.4606449 0.8875739 
-43.84068 37.46724 541.525 -0.06145456 -0.41142 0.9093717 
-40.91219 37.45395 542.0152 -0.1507117 -0.4286773 0.8907984 
-38.74579 37.7763 542.8033 -0.1018031 -0.4286662 0.897709 
-16.07587 36.99153 542.7742 0.2174311 -0.4500892 0.8661082 
-13.80979 37.60838 541.525 0.4893868 -0.527817 0.6941972 
-11.88239 38.6115 540.2602 0.6679404 -0.5430608 0.5088621 
-10.49537 39.72273 539.2069 0.7245533 -0.4437459 0.5273634 
-63.4686 41.36397 539.079 -0.7719286 -0.3036995 0.5584736 
-61.39954 40.7775 541.1111 -0.4835065 -0.3860629 0.785606 
-58.88522 39.95085 541.8695 -0.2570947 -0.3931462 0.8828014 
-55.51878 40.08449 542.6776 -0.1448693 -0.388697 0.9099053 
-52.32168 39.93195 542.4429 -0.004844464 -0.3724602 0.9280356 
-49.63834 40.15969 542.4897 0.01532521 -0.3703779 0.9287547 
-47.15345 39.91376 542.5966 -0.02701963 -0.4268122 0.9039366 
-43.79927 40.15391 542.7021 -0.07423969 -0.4622954 0.8836128 
-40.8643 39.53244 542.9558 -0.1689144 -0.4568627 0.8733524 
-38.15395 39.26241 543.6384 0.07883973 -0.4630697 0.8828084 
-11.06628 40.4082 540.4285 0.9253092 -0.3776382 0.03452864 
-9.864417 41.97251 539.8675 0.7679438 -0.4151329 0.4877776 
-64.78259 45.31411 539.1035 -0.7575149 -0.310811 0.5740799 
-63.60077 44.13183 540.3412 -0.8010184 -0.3150675 0.5090207 
-61.18623 43.19032 541.9725 -0.3354578 -0.3512399 0.8741274 
-58.6024 43.10921 543.1799 -0.1348186 -0.3665282 0.9205874 
-55.40609 43.07893 543.1942 -0.04534384 -0.2988367 0.9532264 
-53.30259 43.29165 543.2643 -0.1012285 -0.3339871 0.9371262 
-49.28382 42.64753 543.1573 -0.08335695 -0.3613494 0.928697 
-46.10554 42.09837 543.8841 -0.1792214 -0.4305979 0.8845706 
-42.78217 42.02566 544.3013 0.04844941 -0.5121791 0.8575111 
-40.06382 42.01251 544.6587 0.06160108 -0.5187565 0.8526999 
-37.86983 42.0397 545.2322 0.07486384 -0.5402733 0.8381528 
-9.848378 43.84795 541.089 0.9607891 -0.2395968 -0.1395623 
-8.551183 44.96235 539.9146 0.8256885 -0.3456551 0.4458263 
-8.024502 45.18805 539.1617 0.8019042 -0.4254076 0.4194974 
-65.00467 47.34774 539.5405 -0.835921 -0.272476 0.4764379 
-63.67933 46.44876 541.1198 -0.5990805 -0.340462 0.7246987 
-62.31723 46.43449 542.3303 -0.295591 -0.309613 0.903751 
-58.61044 44.76963 543.5465 -0.4533779 -0.4040269 0.7944878 
-55.76133 46.31549 544.3495 -0.1611793 -0.3289327 0.9304969 
-53.16194 45.55227 543.8828 -0.07775466 -0.3127398 0.946651 
-50.79038 44.81834 543.867 -0.133285 -0.3760879 0.9169477 
-9.728345 45.71038 542.318 0.4095133 -0.4737892 0.7796298 
-8.416694 46.74907 541.777 0.9451084 -0.3248241 0.03549147 
-7.210778 47.61872 539.9275 0.8155038 -0.3711378 0.4440836 
-65.54329 50.34544 539.7977 -0.6387609 -0.3143507 0.7022594 
-64.50129 49.92989 541.2799 -0.9118295 -0.1687128 0.3743035 
-63.16699 49.11898 542.3763 -0.5772378 -0.3718997 0.7269713 
-58.42673 48.79504 544.9478 -0.110769 -0.280205 0.9535279 
-56.32888 47.66005 544.8782 -0.08871762 -0.2949111 0.9513972 
-8.240396 47.925 542.8162 0.7893503 -0.4725481 0.3919495 
-7.331877 48.95583 542.3033 0.6455156 -0.4291568 0.6317706 
-5.684708 50.30956 540.3972 0.8035442 -0.3338024 0.4928414 
-5.002486 50.28477 538.8205 0.8900743 -0.2694338 0.3676592 
-66.81408 53.94386 539.0737 -0.4022418 -0.3084688 0.8620027 
-65.89437 53.27015 540.5096 -0.7853225 -0.288917 0.5475359 
-64.88289 52.60866 541.7419 -0.9184025 -0.1726576 0.3559864 
-64.5507 53.00613 542.1401 -0.9705378 0.120882 -0.208432 
-6.192339 51.61169 542.7183 0.9594642 -0.2796121 -0.03529261 
-6.197935 51.98611 543.3736 0.9286608 -0.3182546 0.190534 
-5.053787 52.79289 541.1076 0.6424302 -0.3633147 0.6747487 
-4.390594 53.37093 540.2093 0.905216 -0.2822845 0.3176467 
-67.54185 57.21035 540.0362 -0.7986029 -0.2737108 0.5360184 
-66.64072 55.88208 540.6266 -0.6773751 -0.3191594 0.6627973 
-65.26031 55.12179 542.4578 -0.9306905 -0.2353886 0.2800133 
-64.99884 54.74852 542.4788 -0.9947647 -0.02432489 -0.09925466 
-5.471399 54.97065 543.6682 0.9696035 -0.2197089 0.1076902 
-4.169417 55.71461 540.974 0.6931412 -0.3531181 0.6283813 
-3.786922 56.3674 540.5948 0.9072432 -0.2517202 0.3369671 
-67.77962 58.85713 540.7363 -0.609283 -0.3160926 0.7272274 
-67.26498 58.43486 541.4136 -0.8049384 -0.3099387 0.5059765 
-65.91821 57.8438 543.301 -0.923336 -0.2799014 0.2628801 
-4.843988 57.44021 543.6304 0.935464 -0.242769 0.256847 
-3.314047 58.56182 540.8894 0.5938213 -0.3457904 0.7265022 
-2.855419 58.62365 540.4589 0.8898827 -0.2714467 0.3666408 
-68.81502 61.87458 541.106 -0.9333826 -0.2028228 0.2960743 
-68.24365 61.42842 541.9902 -0.7550065 -0.416788 0.5062144 
-66.9553 60.12668 543.4652 -0.8621534 -0.4257846 0.2745886 
-4.722555 59.38867 544.6147 0.9355849 -0.269776 0.22782 
-2.363729 61.5864 541.237 0.8342335 -0.2619502 0.4852181 
-0.9990091 61.83678 539.7819 0.9115968 -0.2298172 0.340845 
-69.79333 65.06055 541.2782 -0.8970267 -0.3181491 0.3067967 
-68.9082 64.35629 542.831 -0.7529874 -0.419663 0.5068462 
-3.782841 62.99281 543.9831 0.7258031 -0.3924811 0.56495 
-3.063862 63.63216 543.0158 0.6817551 -0.374947 0.6281917 
-1.645981 64.68774 541.5577 0.7977124 -0.2983172 0.5240818 
-0.7171544 65.1062 540.8777 0.9331381 -0.2430177 0.2649448 
-70.68411 67.49857 541.4549 -0.8972132 -0.3226198 0.3015378 
-0.7752173 67.38393 541.9159 0.7473991 -0.3867777 0.5401831 
-0.02864502 67.2685 541.1442 0.9165151 -0.2449711 0.3162108 
-72.06857 70.43021 540.7669 -0.9615202 -0.234116 0.1437658 
-71.7684 69.9521 541.2057 -0.9067798 -0.3211622 0.2731397 
0.9090417 70.6664 541.8629 0.8701906 -0.3522717 0.3444895 
1.400512 70.42196 540.927 0.9701417 -0.1840553 0.1579519 
-73.11943 73.71235 541.2827 -0.9658961 -0.2214846 0.1341243 
2.265274 73.25642 541.7514 0.9606904 -0.2285656 0.1575808 
2.747091 73.86754 541.2071 0.9731945 0.01145313 -0.2296985 
-73.90966 76.50076 541.493 -0.9710126 -0.1994677 0.1317089 
3.117759 76.35886 541.4973 0.9897195 -0.1395361 0.03138432 
3.099362 76.57653 541.2476 0.970269 0.02959883 -0.2402123 
-74.35022 79.58394 541.579 -0.9341662 -0.2503531 0.2542771 
-74.37782 79.46571 541.3938 -0.9833275 -0.1757152 0.04681041 
3.509482 79.34852 541.5782 0.9951448 -0.09840527 0.001818006 
3.540154 79.85683 541.768 0.980125 0.04373624 -0.1935002 
-74.62875 81.55317 542.2015 -0.9409953 -0.2283501 0.2497681 
-74.73293 82.10625 541.6011 -0.9875683 -0.1539834 0.03158956 
3.429833 82.47469 541.2764 0.9982511 -0.02412872 -0.05396719 
3.447412 82.36363 541.2839 0.9736369 0.07134056 -0.2166608 
-75.04864 85.85753 541.5845 -0.9948151 -0.08267171 -0.05923118 
-75.03078 85.23876 541.6335 -0.9930524 -0.1052517 -0.05262209 
3.172628 85.82543 541.0557 0.9888986 0.04967896 -0.1400415 
3.285113 85.35461 541.4453 0.9792795 0.07576647 -0.1878063 
-75.09496 87.21199 540.5626 -0.9916105 -0.04153582 -0.1224071 
-75.20748 88.11176 541.4731 -0.9929843 -0.09976095 -0.06348229 
3.014092 88.26833 541.5891 0.9771528 0.05582338 -0.2050763 
2.988382 88.81017 541.7914 0.9783542 0.08854662 -0.1870366 
-75.51644 91.8412 541.8465 -0.9828423 -0.0581719 -0.1750349 
-75.19399 91.76248 540.6802 -0.9755835 -0.01952195 -0.2187598 
2.232967 91.57719 540.7174 0.9272943 0.1431538 -0.3458791 
2.860986 90.81006 542.0369 0.9629416 0.1035432 -0.2490429 
-75.46844 94.40392 541.3566 -0.9657099 -0.01272475 -0.2593115 
1.872535 94.73968 541.3953 0.9207785 0.1499766 -0.3601028 
2.419879 94.7589 542.4783 0.9565966 0.04316652 -0.2882009 
-75.16084 97.65919 541.452 -0.9261972 0.0645989 -0.3714646 
-74.41274 98.73424 540.2494 -0.8866221 0.0638717 -0.458063 
1.636849 97.60312 541.7164 0.927246 0.135671 -0.3490102 
-75.23489 100.5785 541.6359 -0.8714256 0.05831224 -0.4870494 
-74.5851 100.4791 540.6552 -0.883424 0.1032316 -0.4570615 
0.4599113 100.748 540.1547 0.8893061 0.1997156 -0.4113981 
1.151726 100.6221 541.8282 0.9309676 0.1284649 -0.3417545 
-75.18523 103.5801 541.9211 -0.872752 0.04663921 -0.4859308 
-74.34294 103.5708 540.5754 -0.8302677 0.08271128 -0.5511937 
-0.2259545 103.4236 540.3472 0.919063 0.1695022 -0.3557981 
0.3531426 103.5603 541.7818 0.9194392 0.1456334 -0.3652706 
-75.44802 106.5592 542.3427 -0.8663334 0.1604462 -0.4729943 
-74.34196 106.64 540.8107 -0.830955 0.09346833 -0.5484319 
-0.7948718 106.6109 541.2626 0.9028188 0.1770878 -0.3918651 
-0.4950699 106.3388 541.7444 0.8713081 0.1585115 -0.4644311 
-75.1518 109.7916 542.2948 -0.8106514 0.2396556 -0.5342371 
-74.26648 109.4108 541.0254 -0.7694683 0.1736452 -0.6146266 
-1.679211 109.5258 541.428 0.8788496 0.2166271 -0.4250836 
-74.58115 112.7793 542.9572 -0.8313537 0.09476233 -0.547605 
-73.85548 112.3982 541.3329 -0.7491102 0.2318626 -0.6205431 
-72.79876 112.2975 539.804 -0.7895198 0.1981023 -0.5808735 
-3.04592 112.868 540.5905 0.8843085 0.2789566 -0.3744087 
-2.633918 112.3106 541.6497 0.8717723 0.2643643 -0.4124617 
-71.42234 115.6563 540.1342 -0.6886498 0.1237791 -0.7144511 
-4.578274 117.1067 538.951 0.485708 0.211337 -0.848189 
-3.675433 115.5023 540.6813 0.7188712 0.3452586 -0.6033412 
-2.684146 115.3369 542.4084 0.8238356 0.2885985 -0.4878585 
-43.19332 33.06104 540.3429 -0.105705 -0.4464081 0.8885642 
-36.52295 33.08889 542.095 -0.06409457 -0.4812793 0.8742209 
-34.81258 32.16759 542.267 0.01478921 -0.5123323 0.85866 
-32.64968 31.75325 542.4011 0.0683843 -0.525403 0.848101 
-28.6034 31.80279 543.1602 0.07529806 -0.5139233 0.854525 
-25.98642 31.93564 543.0878 0.0836298 -0.4925401 0.8662623 
-23.00115 32.9768 542.9836 0.180686 -0.466752 0.8657339 
-49.59636 35.73094 541.2806 -0.1791394 -0.4974217 0.8488114 
-46.81548 35.99425 541.2939 -0.135342 -0.517926 0.844651 
-42.75505 34.4835 540.7658 -0.0982329 -0.461681 0.88159 
-34.73592 35.78458 543.9447 0.00533773 -0.475688 0.8795979 
-31.01805 33.98667 544.1627 0.06699502 -0.4837051 0.8726632 
-28.59754 34.40604 544.3394 0.007611404 -0.4528938 0.891532 
-25.71166 34.71634 544.4242 0.0830532 -0.4501689 0.8890727 
-22.84837 34.71931 543.9555 0.2036902 -0.4405532 0.8743129 
-19.67598 35.29811 543.4288 0.2634441 -0.4308651 0.8631063 
-16.91147 35.81578 542.5427 0.2335408 -0.5352293 0.811781 
-54.22575 39.70633 542.728 -0.2666549 -0.4745359 0.8388748 
-49.33506 38.37977 542.3723 -0.195211 -0.5036826 0.8415442 
-39.75373 38.19753 542.82 -0.07721151 -0.5189973 0.8512815 
-36.75486 37.63078 543.7911 -0.05810481 -0.4762111 0.8774092 
-31.48575 37.03351 545.5942 -0.1169517 -0.436877 0.8918861 
-28.6138 37.06218 545.3397 -0.009042451 -0.4352562 0.9002612 
-25.84368 37.06898 545.222 0.07543287 -0.4247378 0.9021683 
-22.25289 37.34879 545.2054 0.1168646 -0.4336929 0.8934501 
-19.44909 37.0881 544.5079 0.1306937 -0.4433744 0.8867572 
-16.56743 38.01809 543.8077 0.2004851 -0.4539105 0.8681999 
-14.51365 38.18972 542.5479 0.4107027 -0.5424168 0.7328761 
-59.92831 41.38239 542.1731 -0.4708473 -0.3943653 0.7891634 
-57.41985 41.62567 543.0336 -0.4134093 -0.4178485 0.8090088 
-54.138 41.17816 542.9497 -0.2855749 -0.4686148 0.8359708 
-52.4199 41.14505 543.0083 -0.254057 -0.4849959 0.8367999 
-50.39439 41.1654 543.0721 -0.229674 -0.496395 0.837163 
-40.436 40.99932 543.916 -0.2362381 -0.44439 0.8641233 
-37.40742 40.07209 544.3961 -0.2548074 -0.4347572 0.8637473 
-33.90871 39.25539 545.5207 -0.2347061 -0.4197232 0.8767813 
-31.86476 40.11749 546.4468 -0.1882455 -0.4178552 0.8887973 
-27.77791 38.89833 545.9367 -0.03644679 -0.4198299 0.9068708 
-24.94667 39.26571 545.9182 0.02533879 -0.4273678 0.9037227 
-22.80843 39.52128 546.0859 0.03350909 -0.4606588 0.8869446 
-19.35828 39.96365 545.9841 0.1078557 -0.4466397 0.8881893 
-16.24045 40.28762 545.0241 0.1786864 -0.4485598 0.8757085 
-13.81685 40.88327 543.6 0.2893733 -0.4607323 0.8390405 
-11.71376 41.76287 541.9839 0.6361489 -0.4765665 0.606794 
-10.36431 42.74472 541.0328 0.5254329 -0.4745249 0.7062198 
-63.56051 45.77872 541.276 -0.8486379 -0.280132 0.448709 
-61.0688 44.13023 542.6407 -0.4634037 -0.3879732 0.7967019 
-58.07242 44.49246 543.835 -0.4564805 -0.3838593 0.8026691 
-54.70738 44.18667 543.5974 -0.06469601 -0.4467824 0.8923004 
-51.40996 43.49499 543.4713 -0.05619869 -0.4426593 0.8949271 
-48.74316 44.37851 544.24 -0.0485063 -0.465364 0.8837893 
-46.5525 43.07861 544.3026 -0.04167047 -0.4948662 0.8679695 
-43.81342 43.32215 545.0441 -0.144544 -0.4708071 0.8703147 
-40.79316 43.67124 545.6635 -0.08820901 -0.4976358 0.8628892 
-37.86206 43.08091 545.8833 -0.1871015 -0.4627738 0.8665065 
-35.48727 43.33816 546.4825 0.08959387 -0.5534498 0.8280497 
-18.16125 41.72887 546.4681 0.211673 -0.4142269 0.8852178 
-16.6152 42.63833 546.5045 0.1848274 -0.428234 0.8845646 
-13.31997 43.62727 545.3994 0.1979619 -0.4433081 0.8742363 
-11.54108 44.60126 544.4545 0.372946 -0.4625847 0.8043176 
-9.675029 45.2298 542.1061 0.7607458 -0.421138 0.4938711 
-63.54033 47.42553 541.8964 -0.8267812 -0.323649 0.4600915 
-61.1203 46.77696 543.5359 -0.4058973 -0.3808575 0.8307797 
-58.35066 46.35778 544.3182 -0.2060473 -0.3722906 0.9049554 
-55.57632 46.43416 544.6154 -0.05994681 -0.4435678 0.8942338 
-52.78148 46.4594 544.4917 -0.06246679 -0.4666606 0.8822278 
-49.71349 46.69811 544.9151 -0.1256278 -0.441875 0.8882366 
-46.61552 45.50768 545.7393 -0.121751 -0.4658946 0.876424 
-43.59357 45.949 546.7906 -0.1056419 -0.4768132 0.8726333 
-40.96814 45.27442 546.8747 -0.05840196 -0.5112016 0.8574743 
-38.09342 45.845 547.4705 0.0414556 -0.541379 0.839756 
-35.17623 45.0128 547.3276 0.0945126 -0.5507864 0.8292779 
-8.897895 47.04208 543.3293 0.6521984 -0.4280927 0.6255987 
-7.328792 48.64824 542.1515 0.7646983 -0.3815351 0.5192952 
-64.22672 50.99738 542.0042 -0.8811943 -0.2492371 0.4017181 
-63.17175 50.5379 543.1185 -0.6502201 -0.3784955 0.6587527 
-61.38918 49.67975 544.3354 -0.3650579 -0.377075 0.8512034 
-58.98498 49.06606 545.0584 -0.1919085 -0.3775982 0.9058647 
-56.23766 48.46103 545.3059 -0.1795609 -0.3938775 0.9014535 
-53.28692 48.48546 545.6375 -0.1355617 -0.4145714 0.8998631 
-49.94633 48.52695 545.9785 -0.1765662 -0.4669979 0.866451 
-47.25302 48.73475 547.226 -0.227889 -0.4797281 0.8473061 
-43.96417 47.19907 547.5879 -0.2026107 -0.4680782 0.8601464 
-7.429201 49.67554 543.9239 0.964895 -0.2588608 -0.0443712 
-6.42025 50.66587 542.5479 0.8302037 -0.336393 0.4445239 
-64.69338 53.56235 542.4774 -0.8023123 -0.3129122 0.5083119 
-63.79478 52.82857 543.2845 -0.7326385 -0.2768591 0.6217635 
-61.54236 52.38528 544.8316 -0.3580451 -0.3341213 0.8718753 
-59.26685 51.77821 546.1606 -0.3261683 -0.3819191 0.8647266 
-56.34701 50.69264 546.7812 -0.1822026 -0.3965437 0.8997529 
-6.712305 51.96575 545.288 0.9748603 -0.2181 0.04560621 
-5.828698 52.9437 543.4781 0.8236725 -0.3020013 0.4799572 
-5.167669 53.74679 542.4293 0.828722 -0.3419005 0.4430845 
-65.48411 56.41479 543.011 -0.6667914 -0.3351585 0.665626 
-64.41891 55.66602 544.0272 -0.8832428 -0.1876295 0.429741 
-61.97011 54.81289 545.6559 -0.4240381 -0.3777159 0.8231175 
-59.32898 54.28886 547.252 -0.2622468 -0.4104454 0.8733621 
-5.752227 54.9096 545.1996 0.8134515 -0.3360496 0.4747286 
-5.136719 55.94955 543.9468 0.806295 -0.2874737 0.5169597 
-4.335534 57.31611 542.4747 0.8919745 -0.2841966 0.3515876 
-67.37643 59.50343 542.2082 -0.8521511 -0.2333857 0.4683692 
-66.55902 59.47882 544.3074 -0.7591746 -0.3287009 0.5617915 
-65.21327 58.24211 545.0699 -0.8515741 -0.2803987 0.4429426 
-62.77929 57.53331 546.8441 -0.3598469 -0.401414 0.8422452 
-60.8331 56.44866 547.4766 -0.3018609 -0.4251159 0.8533208 
-5.138216 58.12964 545.4193 0.8392371 -0.3099182 0.4468018 
-4.580351 59.34337 544.3016 0.6351559 -0.3410724 0.6929982 
-4.336798 59.0171 543.4677 0.8739679 -0.2728825 0.4021384 
-67.85834 62.84362 544.2155 -0.7826307 -0.3486119 0.5157121 
-67.31239 61.80056 544.8112 -0.789041 -0.2974378 0.537536 
-66.13983 60.68404 545.7483 -0.7232215 -0.4096196 0.5560238 
-5.016751 59.28873 545.7261 0.9921974 -0.120478 -0.03208521 
-4.520855 61.38618 546.0533 0.5783198 -0.3697503 0.7272077 
-3.368951 62.19127 543.0164 0.8835921 -0.2450636 0.3990099 
-2.833581 61.3203 541.7993 0.9016253 -0.3132971 0.2981891 
-68.82446 65.11736 543.5848 -0.7453642 -0.3779672 0.5491565 
-68.03174 64.81342 544.9948 -0.7252149 -0.430499 0.5373397 
-67.04121 63.35106 546.042 -0.8978339 -0.3519646 0.2646037 
-3.920732 64.08945 544.883 0.8102021 -0.3686931 0.4556731 
-3.108386 65.12475 543.7141 0.6725534 -0.4376373 0.5967793 
-3.174088 65.12631 543.8956 0.8615813 -0.2619773 0.4347936 
-69.65445 68.03603 544.1339 -0.7873418 -0.3832985 0.4828821 
-68.92949 67.24867 544.97 -0.7329632 -0.4031563 0.5479324 
-67.79716 66.24211 546.7934 -0.8523933 -0.3533549 0.3854428 
-3.810106 65.29274 545.4396 0.825695 -0.385028 0.412288 
-2.171999 67.65411 543.9025 0.8381203 -0.3378925 0.4282324 
-1.652559 68.70094 543.8466 0.9198349 -0.2658926 0.2884528 
-71.57936 71.56694 543.3834 -0.9163697 -0.3010125 0.2639283 
-70.46642 70.6355 544.6857 -0.8328476 -0.3737141 0.4082923 
-69.65562 69.75021 546.1278 -0.7017732 -0.4611699 0.5429888 
-2.743538 69.28265 546.4821 0.7060542 -0.4977187 0.5037496 
-1.267687 70.3845 544.5844 0.7301621 -0.4691488 0.4967522 
-0.4551442 71.10339 544.0522 0.9202822 -0.2711732 0.2820387 
-71.84721 73.67435 544.3739 -0.9250024 -0.2767834 0.2603106 
-71.57374 72.93143 544.6817 -0.9031833 -0.2913575 0.3152314 
0.9021466 73.36247 544.2649 0.9122992 -0.3184872 0.2574416 
-73.01917 76.68291 544.3157 -0.945754 -0.2397674 0.2192283 
2.095785 76.21419 544.7841 0.9506119 -0.2356479 0.2020079 
2.917562 76.94104 543.1534 0.9910098 -0.003862128 -0.1337337 
-73.88641 79.55352 544.403 -0.959262 -0.2340001 0.1583049 
-73.18475 78.51034 545.4138 -0.9598663 -0.2168761 0.1778241 
3.076968 79.28574 544.5896 0.9846694 -0.1410414 0.1026326 
3.104631 79.91583 544.8167 0.9921167 0.020819 -0.123576 
-74.67654 82.73159 543.2626 -0.9395142 -0.2208421 0.2618051 
-74.4153 82.53252 544.5143 -0.9696893 -0.2102631 0.1244674 
3.578076 82.35568 544.1315 0.9986311 -0.03998952 0.03371802 
3.657494 82.66105 544.1036 0.9905753 0.02463798 -0.1347355 
-74.92889 85.05688 543.7747 -0.9631336 -0.1927215 0.1877023 
-74.96685 85.66334 544.3788 -0.9854966 -0.1654876 0.03755295 
3.5399 85.23437 544.5851 0.9974846 -0.05835611 -0.04023771 
3.52723 84.93694 544.3879 0.9945141 0.03791401 -0.09748971 
-75.2817 88.64751 544.4676 -0.9913428 -0.1303675 0.01561322 
-75.18504 88.0566 544.3394 -0.991823 -0.123854 -0.03078074 
3.52797 88.54717 544.7258 0.9943681 -0.05149958 -0.09262773 
3.45019 88.69078 544.6016 0.9864862 0.08226036 -0.1416977 
-75.57145 91.68822 544.6199 -0.9862007 -0.1645943 0.01780176 
-75.57062 91.62186 544.9753 -0.9915474 -0.1211975 -0.04631341 
3.254351 91.7413 544.0122 0.9899455 -0.02885147 -0.138476 
3.382877 91.6396 544.7949 0.9849632 0.04238635 -0.1674845 
-76.11644 94.57639 544.3858 -0.9924894 -0.1165611 -0.03712743 
2.676732 94.87013 543.54 0.9360775 0.1321734 -0.3260201 
2.946996 94.53127 544.4945 0.9831798 0.04859441 -0.176057 
-76.51436 97.38383 544.4381 -0.9820659 -0.108088 -0.1544787 
2.489105 97.92158 544.2498 0.9343211 0.1098667 -0.3390773 
2.77467 97.41296 545.0677 0.9515724 0.1331663 -0.277086 
-76.9169 100.7257 544.718 -0.9563131 -0.05333801 -0.2874378 
1.868686 100.6173 543.7015 0.9221317 0.1366107 -0.3619541 
2.468965 100.4754 545.3571 0.9566466 0.08240656 -0.27935 
-76.64256 103.7773 544.5468 -0.9315903 0.0106394 -0.3633544 
0.5325068 103.7322 542.4427 0.8718362 0.2010984 -0.4466108 
1.477729 103.5539 544.3083 0.9242552 0.1320069 -0.3582268 
-76.7832 106.6372 544.437 -0.9160192 0.0600606 -0.3966127 
0.2969791 107.0208 543.4572 0.8887399 0.1953101 -0.4147233 
1.214935 106.3715 544.7171 0.9228342 0.1403471 -0.3587197 
-76.40858 109.6426 544.713 -0.8882004 0.07487753 -0.4533139 
-0.3726045 109.4858 543.8477 0.9126444 0.2028209 -0.3548856 
0.4604301 109.4744 544.8102 0.8533808 0.1916526 -0.4847788 
1.596389 110.6368 546.3649 0.978242 -0.014588 -0.206954 
-75.90106 112.5384 544.9526 -0.804363 0.02586383 -0.593575 
-74.99836 112.4365 543.4448 -0.7579169 0.1028946 -0.6441853 
-0.8913285 112.3739 544.4115 0.8859671 0.2338605 -0.4004642 
0.007632184 112.3593 545.3698 0.8650658 0.1849758 -0.4663101 
-2.636384 116.0721 542.1547 0.8314252 0.3518399 -0.4300476 
-36.7168 39.61484 544.5096 -0.02958054 -0.487343 0.8727094 
-35.1194 38.58995 545.0146 0.002693367 -0.4744003 0.8803051 
-31.1604 37.96724 545.9611 0.09788267 -0.4730549 0.8755788 
-28.22085 38.33784 545.8284 0.107966 -0.4532375 0.8848272 
-44.64193 43.5514 545.396 -0.132686 -0.525107 0.840629 
-42.77628 42.17599 544.8055 -0.0715685 -0.551836 0.830876 
-36.79401 42.29042 546.0558 0.002965805 -0.5180735 0.855331 
-34.87425 41.99499 546.3333 0.02516563 -0.5094384 0.8601391 
-30.83397 41.23587 547.0934 0.09936948 -0.4764138 0.8735878 
-28.47285 40.86647 546.9173 0.02759503 -0.4423064 0.8964394 
-25.54763 40.59794 546.5985 0.1428379 -0.4469634 0.8830748 
-22.57724 40.71684 546.5928 0.1675807 -0.4294477 0.8874072 
-19.81992 40.84795 546.5136 0.2246401 -0.4162463 0.8810652 
-34.80112 44.59678 547.2805 -0.234082 -0.435049 0.869447 
-30.81285 43.01906 547.637 -0.1317449 -0.4177646 0.8989527 
-28.42059 43.04092 547.9098 -0.003515939 -0.4414873 0.8972607 
-25.59112 43.4797 548.2466 0.1018558 -0.4529605 0.8856931 
-22.41778 43.37255 547.6849 0.1138541 -0.4505657 0.8854535 
-19.10234 43.66153 547.6735 0.1405579 -0.4391737 0.8873388 
-16.37954 43.38505 546.8476 0.1391887 -0.4411519 0.8865729 
-13.59874 43.99791 545.8887 0.3290848 -0.4810829 0.8125654 
-11.71291 45.47858 545.6706 0.509297 -0.4949359 0.7040278 
-57.90299 48.06839 545.0178 -0.4567862 -0.3590531 0.8138964 
-40.82041 46.57338 547.7614 0.0196239 -0.519599 0.8541849 
-37.63332 46.23906 547.8621 -0.2398445 -0.4540949 0.8580632 
-35.72053 47.01271 548.418 -0.2252819 -0.4486189 0.8648637 
-30.33149 45.57695 548.9485 -0.1166769 -0.4246168 0.8978236 
-28.71255 45.61744 549.0696 -0.09668323 -0.4294094 0.8979198 
-26.89912 45.3682 548.9675 -0.07139169 -0.4294719 0.900254 
-22.70645 45.68516 548.9124 0.0256648 -0.4323601 0.9013357 
-19.03924 45.90112 548.8727 0.1391348 -0.4444872 0.884914 
-15.8185 46.2966 548.616 0.1492933 -0.4368899 0.8870393 
-13.4537 46.23786 547.82 0.2031568 -0.4504227 0.8693945 
-10.81741 47.13436 546.8392 0.3717336 -0.4624187 0.804974 
-9.009405 48.03942 545.366 0.7718008 -0.3968156 0.4968511 
-59.35659 50.76248 545.692 -0.4999081 -0.343886 0.7948801 
-57.76779 50.15547 546.0742 -0.323163 -0.4149223 0.8505323 
-55.45025 49.03288 545.9952 -0.2296845 -0.4484404 0.8637976 
-53.00595 50.16291 546.9403 -0.04592217 -0.5209391 0.8523577 
-49.30813 49.98192 547.0012 -0.1267562 -0.4947718 0.8597289 
-46.97945 48.70612 547.397 -0.1043752 -0.4720578 0.8753669 
-43.72342 48.53189 548.5562 -0.1091581 -0.4595136 0.8814373 
-40.71589 48.4664 548.9307 -0.1586567 -0.4746169 0.8657753 
-37.87823 48.30854 548.9519 -0.05531826 -0.4997404 0.864407 
-35.2939 48.81736 549.3814 -0.06374286 -0.476261 0.8769905 
-27.25224 47.45134 550.1732 -0.08060902 -0.4368811 0.8959002 
-12.22799 48.41295 549.0357 0.1874574 -0.451939 0.87213 
-9.896198 49.39075 548.2783 0.3733149 -0.4503762 0.8110471 
-8.241033 49.80914 546.6827 0.6889148 -0.4038164 0.6019375 
-7.219847 50.66356 544.9661 0.7150053 -0.3797471 0.586992 
-62.98072 53.68026 544.631 -0.750706 -0.3301365 0.572233 
-60.62682 53.39065 546.054 -0.3770402 -0.4214725 0.8247433 
-57.97667 52.65168 547.5207 -0.2290955 -0.4510818 0.8625778 
-54.78226 52.59295 548.4613 -0.1481443 -0.4821953 0.8634472 
-52.33792 52.08945 548.3936 -0.1930134 -0.5005512 0.8439162 
-49.86078 51.78138 548.3098 -0.1491763 -0.5129221 0.845374 
-47.08808 51.70749 549.3233 -0.1467926 -0.5135937 0.8453837 
-43.25821 51.13664 550.0906 -0.1039036 -0.5046225 0.8570649 
-40.93626 51.20974 550.4726 -0.01940178 -0.46528 0.8849509 
-38.54202 50.87671 550.4302 -0.02607821 -0.4491511 0.8930752 
-35.24548 50.8888 550.5731 0.07698049 -0.4841967 0.8715662 
-7.493508 52.70106 547.9032 0.6758435 -0.4252999 0.6019597 
-6.26493 53.6925 546.134 0.6424018 -0.4139338 0.6449643 
-64.70637 56.75609 544.5517 -0.8365801 -0.2798887 0.4709524 
-63.27553 56.30394 545.9679 -0.7102014 -0.2960792 0.6387104 
-61.21408 55.60927 546.9781 -0.4442062 -0.4292324 0.7864098 
-58.95802 55.12191 548.0054 -0.29798 -0.4568109 0.8381717 
-56.86553 54.45966 548.7582 -0.3309272 -0.4614519 0.8231338 
-53.50978 54.49643 549.5999 -0.2846297 -0.5037393 0.815618 
-49.55791 53.93353 549.9141 -0.2371386 -0.5077729 0.8282101 
-6.027371 54.70151 546.024 0.9768112 -0.2117321 -0.03177241 
-6.009284 55.75154 546.9149 0.8987693 -0.2800869 0.3372907 
-5.403718 56.33836 545.275 0.7183383 -0.4110792 0.5612522 
-65.19732 59.14095 546.084 -0.7355202 -0.376513 0.5632477 
-64.59376 59.39182 546.9578 -0.9197815 -0.186506 0.3452789 
-61.88539 58.63813 548.3679 -0.4234069 -0.4406517 0.7915508 
-58.97015 57.36957 549.261 -0.374933 -0.45751 0.806294 
-55.44304 56.20224 549.9377 -0.357719 -0.4717176 0.8059279 
-5.647426 57.82347 547.342 0.8505021 -0.3405931 0.4008024 
-5.24045 59.15558 547.2236 0.9700866 -0.2084467 0.1244269 
-4.638925 59.39618 544.7502 0.7726558 -0.4005779 0.4924839 
-66.17208 62.06102 547.0114 -0.8100623 -0.3525087 0.4685474 
-65.48522 61.82661 547.3943 -0.8717349 -0.321133 0.3700702 
-63.09307 60.7524 548.8384 -0.4478161 -0.4556815 0.7692952 
-5.217658 60.47226 548.16 0.94034 -0.2759996 0.1989598 
-4.784454 61.83606 547.7958 0.8894002 -0.2834434 0.3586464 
-4.344637 62.29055 545.929 0.893486 -0.2404477 0.3792989 
-68.19293 66.11175 546.1431 -0.6716602 -0.4156488 0.613277 
-67.02986 64.30628 546.9937 -0.7145052 -0.3951106 0.577382 
-65.80836 63.56312 548.3765 -0.824448 -0.3803309 0.4190871 
-4.79599 63.09454 548.5865 0.7120264 -0.3847815 0.5873343 
-4.435868 64.20746 548.1168 0.5509576 -0.4028511 0.7308602 
-4.099538 64.57861 546.6027 0.8778118 -0.2729461 0.393633 
-69.10786 68.46829 546.2532 -0.7458056 -0.3922033 0.5384707 
-67.86548 67.08884 547.8924 -0.7580402 -0.4150696 0.5030829 
-66.92721 66.56349 549.2075 -0.8045527 -0.383938 0.4530855 
-3.819906 66.85416 548.5346 0.8331113 -0.362418 0.4178264 
-3.236433 68.07961 546.7963 0.8409305 -0.329517 0.4292487 
-69.76882 70.78679 547.3309 -0.8687956 -0.3079886 0.3877335 
-69.02253 69.99506 548.2496 -0.7513458 -0.4443778 0.4878606 
-67.83453 68.43545 549.2887 -0.9412866 -0.2981915 0.158308 
-3.544099 67.92303 548.0643 0.9375759 -0.318183 0.140396 
-2.884568 69.94323 548.4705 0.8540276 -0.4418111 0.2746632 
-2.038871 70.80867 546.7748 0.843453 -0.3737639 0.3858597 
-1.305903 72.36754 547.3824 0.8136104 -0.3834992 0.4369972 
-70.58278 73.34057 547.6341 -0.8458145 -0.3422381 0.4092321 
-69.76793 71.98663 548.8522 -0.6905363 -0.4697203 0.5500205 
-1.963013 72.0279 549.0635 0.8118122 -0.4730851 0.3422741 
-0.8192574 73.38265 547.4931 0.6989527 -0.5216562 0.4892238 
-0.5024817 73.59461 547.0591 0.9041226 -0.2936703 0.3103547 
-71.93083 76.72384 547.1342 -0.8743806 -0.3401822 0.3460268 
-71.66652 76.19039 547.4271 -0.878322 -0.3190786 0.3560046 
-0.1334913 75.01429 547.8403 0.7276639 -0.4968459 0.4729159 
0.9584709 77.01614 547.3633 0.9201896 -0.2790706 0.2745371 
-72.95248 79.66105 547.4229 -0.9050072 -0.3134906 0.2875512 
-72.43327 78.38141 547.4486 -0.953817 -0.2343359 0.1879358 
1.932712 79.52508 547.4784 0.9485168 -0.2137319 0.2337403 
-73.84472 82.32179 547.5098 -0.9492099 -0.2677781 0.1652135 
2.797489 82.40058 547.6375 0.9798449 -0.1386656 0.1437915 
3.326851 83.38776 546.3206 0.9919472 0.03528772 -0.121637 
-74.71928 85.74168 547.5474 -0.9850056 -0.1717575 0.01623217 
-74.5129 85.09567 547.679 -0.9654641 -0.2264227 0.1288869 
3.370212 85.79689 547.7385 0.9923366 -0.07332765 0.09945425 
3.36079 85.92292 547.7554 0.981992 0.0648636 -0.1774384 
-75.27084 88.58678 547.4421 -0.9842162 -0.1673057 0.05768278 
-75.18938 88.09718 547.0431 -0.9845299 -0.1680151 0.04971755 
3.545228 88.42354 547.7303 0.9967385 -0.07657727 0.02546198 
3.57568 88.37797 547.2323 0.9710448 0.09632768 -0.2186158 
-75.69893 91.49474 547.5862 -0.9809214 -0.1881035 0.0490939 
-75.55679 90.08637 548.0555 -0.979579 -0.19905 0.0283603 
3.666241 91.03169 547.123 0.9940888 -0.0959383 -0.05082756 
3.590094 91.51714 547.7867 0.9906501 0.05002346 -0.1269251 
-76.14751 94.33672 547.085 -0.9868645 -0.1608994 -0.01448887 
3.636742 94.38967 548.0138 0.9996552 -0.02616769 -0.00217462 
3.471617 94.67463 547.0662 0.9813117 0.02571914 -0.1906984 
-76.78552 97.54353 547.2124 -0.984292 -0.1675857 -0.05553774 
3.201057 97.48521 546.8026 0.9939463 0.002165464 -0.1098461 
3.392158 97.12509 547.5664 0.9767722 0.05888937 -0.2060295 
-77.26462 100.1398 547.0671 -0.9830221 -0.09800409 -0.1551217 
2.663445 100.7066 546.0757 0.9328291 0.1432613 -0.3306148 
3.214766 100.4584 548.0853 0.9739891 0.06345823 -0.2175276 
-77.59504 103.2124 547.5765 -0.9777259 -0.07404617 -0.1963906 
2.630246 104.0798 546.8649 0.9046934 0.1912526 -0.3807261 
2.931335 103.6051 547.6038 0.9711561 0.06813212 -0.2285037 
-77.79589 105.2341 548.0345 -0.9738428 -0.06072928 -0.218957 
-77.65468 106.2228 546.9 -0.9617618 -0.03309896 -0.27188 
2.558282 106.3755 547.264 0.9224223 0.149588 -0.3560344 
2.714799 106.5708 547.9531 0.9612345 0.1082365 -0.2536007 
-78.00181 110.6456 549.1491 -0.891302 -0.1014209 -0.4419214 
-77.57277 109.3219 547.1202 -0.940024 0.0001143966 -0.3411083 
1.746149 109.1705 547.0858 0.9141642 0.1599092 -0.3724687 
2.426328 110.0313 548.6381 0.976144 0.008772379 -0.2169468 
0.3611067 112.9566 545.9391 0.8758954 0.2220374 -0.4283767 
1.719509 112.1729 547.4393 0.8918024 0.1851113 -0.4128224 
2.08114 112.1936 547.9112 0.9721869 -0.0700223 -0.223494 
-43.14803 43.48214 545.632 -0.07739194 -0.5204294 0.8503904 
-45.44445 45.85754 546.6266 -0.1641503 -0.4693167 0.8676385 
-42.77156 44.35305 546.3414 -0.0647569 -0.507256 0.859359 
-39.60522 45.21459 547.3724 -0.01751472 -0.4729686 0.8809052 
-36.81668 45.11423 547.3663 -0.005165796 -0.4813749 0.8764996 
-34.94495 44.64795 547.3865 0.03994923 -0.4901822 0.870704 
-30.64682 44.13594 548.3702 0.1151506 -0.4784311 0.8705424 
-28.3285 44.73452 548.8018 0.1401383 -0.4682868 0.8723925 
-52.24568 49.52766 546.61 -0.3276619 -0.4073799 0.8524548 
-45.52206 47.44123 547.7599 -0.1639037 -0.4435623 0.8811288 
-39.79256 47.65755 548.831 -0.03792882 -0.4741258 0.8796398 
-37.59662 48.07414 549.0692 -0.02504803 -0.4924618 0.8699736 
-31.49228 46.97302 549.7703 0.1168973 -0.4649353 0.8775935 
-28.96375 46.5946 549.7702 0.1525803 -0.4550875 0.8772769 
-25.75737 46.62153 549.7908 0.1360038 -0.4468207 0.8842252 
-21.89481 47.14342 549.387 0.1839689 -0.4613339 0.8679438 
-20.60871 47.25797 549.3723 0.0676372 -0.4283289 0.901088 
-57.47226 51.82442 547.2986 -0.4483952 -0.3602291 0.8180323 
-55.01133 51.04258 547.6223 -0.3825062 -0.3800698 0.8421615 
-51.5667 50.98616 547.7849 -0.328412 -0.4045953 0.8534918 
-42.34156 49.41636 549.555 -0.08195522 -0.4682461 0.8797892 
-40.82903 49.41698 549.6453 -0.05665577 -0.4838927 0.8732915 
-37.24085 49.67245 549.7659 -0.2163649 -0.4737938 0.8536426 
-34.87923 49.69555 549.9549 -0.19276 -0.4594789 0.8670195 
-31.66979 49.09943 550.5782 -0.133333 -0.4547733 0.88057 
-28.86386 49.4184 551.129 0.05573993 -0.4533439 0.8895912 
-25.57659 49.43301 551.1922 0.03820612 -0.4547648 0.8897917 
-22.79222 49.35865 550.7194 0.07186671 -0.448024 0.8911284 
-19.856 49.3485 550.3779 0.2004598 -0.4700858 0.8595553 
-16.05231 48.62184 550.0601 0.14553 -0.452924 0.8795913 
-13.3085 49.62054 550.2009 0.1696359 -0.4532051 0.8751165 
-10.89441 49.73121 549.34 0.2733163 -0.4503002 0.8500164 
-8.20261 51.33601 548.059 0.8343718 -0.2978729 0.4637839 
-57.98437 54.38091 548.4922 -0.4491342 -0.3859422 0.8058084 
-55.58982 53.32267 548.9666 -0.4013402 -0.3742283 0.83599 
-52.5817 53.32522 549.4321 -0.2690581 -0.4444092 0.8544637 
-49.43464 53.29924 549.752 -0.0398173 -0.5384831 0.8416951 
-42.87086 52.23858 550.8153 -0.188496 -0.5177879 0.8344849 
-40.50476 51.32601 550.5125 -0.2121988 -0.4959128 0.8420464 
-37.97396 52.12768 551.1746 -0.1741571 -0.4953009 0.8510854 
-34.75069 52.0159 551.2962 -0.1310631 -0.4972904 0.8576274 
-31.51194 51.89796 551.6686 -0.1267859 -0.5037025 0.8545228 
-28.53258 51.92102 552.4794 -0.07564116 -0.4980258 0.8638569 
-24.26446 50.89006 551.7109 -0.006697911 -0.4538241 0.8910661 
-22.30822 52.28896 552.0727 0.03728132 -0.4913951 0.8701385 
-18.52271 52.00554 551.4647 0.1421628 -0.5018651 0.853183 
-16.37243 52.14024 551.6234 0.1383487 -0.4955806 0.8574728 
-12.88384 51.84016 551.2773 0.1856187 -0.4866056 0.8536749 
-10.25022 52.21759 550.7004 0.3061122 -0.4769412 0.8239068 
-7.941998 53.52909 549.4885 0.6914965 -0.3860992 0.6105408 
-60.18612 56.65892 548.1592 -0.3401624 -0.4311527 0.8357015 
-58.52537 56.5079 549.1297 -0.2848531 -0.4667219 0.837275 
-56.34058 55.78573 549.7793 -0.2585793 -0.4515515 0.8539543 
-53.07006 55.09097 549.9938 -0.102968 -0.4884309 0.8665062 
-48.96643 55.39967 550.8282 -0.1604735 -0.5158202 0.841533 
-46.62482 55.35028 551.2779 -0.1684929 -0.5367293 0.8267598 
-43.82656 54.85005 552.0023 -0.07408287 -0.5506061 0.8314714 
-41.01801 54.83408 552.5073 -0.1207614 -0.5458339 0.8291454 
-37.95351 54.08053 552.278 -0.1056255 -0.5188711 0.8483019 
-34.76301 54.14876 552.596 -0.0007037753 -0.5209702 0.8535746 
-12.43485 54.262 552.3453 0.2121943 -0.5102423 0.8334425 
-9.465292 54.67543 551.6998 0.3673199 -0.5296137 0.7645819 
-7.538809 55.6977 550.4049 0.541993 -0.4769029 0.691959 
-6.291277 56.06945 548.6651 0.7072898 -0.3971652 0.5848085 
-63.42168 60.11402 548.3383 -0.5681186 -0.4731722 0.6733122 
-61.19772 58.98536 549.2375 -0.4218578 -0.4885311 0.7637888 
-57.76791 58.72859 550.3976 -0.1887721 -0.4996832 0.8453885 
-55.43077 58.23956 550.6721 -0.2434145 -0.5003926 0.8308771 
-52.95153 58.14121 551.2347 -0.2240791 -0.492569 0.8409306 
-49.86496 57.98561 551.8225 -0.228166 -0.5232425 0.821071 
-44.93163 57.24861 552.9077 -0.2322999 -0.5608388 0.7946677 
-40.84993 56.67483 553.6195 0.03560622 -0.5666243 0.8232066 
-38.43558 55.48943 553.0557 0.009405387 -0.5399091 0.8416708 
-36.21967 56.36683 554.0458 0.0153073 -0.5433431 0.8393712 
-32.63723 55.73454 553.9195 0.07157123 -0.5495611 0.8323823 
-6.784507 57.37239 550.6321 0.8570029 -0.272816 0.4371699 
-5.773583 59.04177 549.6531 0.7245127 -0.428817 0.5396271 
-65.1199 62.74464 548.9913 -0.8281869 -0.3247942 0.456744 
-63.83292 61.99463 549.5518 -0.6926355 -0.4556751 0.559121 
-62.09186 61.96045 550.6454 -0.4773851 -0.4914921 0.7283811 
-58.69252 60.63023 550.9852 -0.3768861 -0.4923075 0.7845956 
-56.33129 60.88626 551.7657 -0.3446909 -0.5089105 0.7887955 
-52.4232 60.34295 552.3761 -0.304869 -0.5109627 0.8037239 
-5.187298 61.70804 550.29 0.8385978 -0.326138 0.4363343 
-4.707119 63.0704 548.4638 0.7365345 -0.3850955 0.556074 
-66.1003 65.05671 549.6429 -0.8516257 -0.3818455 0.359065 
-64.81401 64.31323 550.2238 -0.7699914 -0.4431652 0.4590403 
-61.96872 63.6813 551.6588 -0.4246365 -0.4857002 0.7640544 
-59.79395 62.6347 551.9854 -0.3787664 -0.5171532 0.7675211 
-57.07958 62.91765 553.0407 -0.394354 -0.4775271 0.7851451 
-4.570383 64.25434 550.0973 0.9772809 -0.2044916 0.05572535 
-4.153471 65.69783 549.3332 0.7590688 -0.3623671 0.540837 
-67.94473 67.98137 549.0389 -0.852955 -0.3641934 0.3739398 
-67.25514 67.63387 550.0718 -0.8836778 -0.3635719 0.2948371 
-65.82346 66.87553 551.0944 -0.4748498 -0.4926907 0.729228 
-62.8894 65.83396 552.8663 -0.400908 -0.5183789 0.7553517 
-4.244228 65.92184 550.7118 0.457436 -0.439079 0.77328 
-3.910122 66.96534 550.5904 0.9051257 -0.3155122 0.2849551 
-3.498537 68.18725 550.0638 0.8438144 -0.3192188 0.431366 
-69.1357 71.25552 549.929 -0.8263321 -0.3640877 0.4296691 
-68.01955 70.25366 551.1284 -0.904584 -0.3502915 0.242948 
-66.6726 69.48517 552.3524 -0.4921015 -0.5130922 0.7032585 
-3.108347 69.24846 550.445 0.5203199 -0.5042909 0.6891719 
-2.408766 71.10973 549.9849 0.7849951 -0.3895304 0.4817143 
-70.1228 73.97802 550.2872 -0.7861081 -0.3935655 0.4765923 
-68.98328 72.5336 551.4509 -0.7752846 -0.4264153 0.4659439 
-1.956757 72.61154 550.1384 0.819415 -0.4636063 0.3370881 
-1.465121 73.9172 550.1575 0.777303 -0.3672018 0.5108452 
-1.276081 74.50363 550.3682 0.8954551 -0.3100801 0.3193907 
-70.55977 76.38925 550.6453 -0.4659632 -0.5140793 0.7201394 
-70.63854 76.33459 550.476 -0.8347825 -0.3573291 0.4188726 
-69.75349 75.08344 551.787 -0.8465098 -0.3470241 0.4037271 
-0.4376392 76.39627 549.9987 0.7167524 -0.5059009 0.4799276 
-0.1742877 77.04433 550.0809 0.8047076 -0.3898674 0.4477156 
-72.09862 80.20312 550.4755 -0.8918107 -0.3231391 0.3166305 
-71.41879 78.84978 550.887 -0.7770523 -0.4100625 0.4775338 
-69.55103 76.73532 553.4723 -0.8962275 -0.3410972 0.2836002 
-0.2574246 78.31287 551.4515 0.7721368 -0.4192332 0.477544 
0.7004474 79.85738 550.3928 0.8949887 -0.2803811 0.3469608 
-73.21544 82.61445 550.5582 -0.8958121 -0.3432218 0.2823464 
-71.99627 81.15673 551.8997 -0.6003903 -0.5517927 0.5788406 
1.801072 82.4079 549.8526 0.9358684 -0.2232474 0.2726004 
-74.2225 85.62051 551.4472 -0.911382 -0.348388 0.219109 
-74.29358 85.48322 550.6103 -0.9428371 -0.2588464 0.2098972 
2.37307 85.35075 550.4669 0.9650062 -0.1452303 0.2183372 
-75.14325 88.65103 550.4543 -0.9795041 -0.1918096 0.06148799 
-75.05793 88.42149 550.5085 -0.9663676 -0.2300773 0.1148829 
2.985333 88.25903 550.6782 0.9829484 -0.1113141 0.146361 
3.335475 89.02377 549.7355 0.9980162 -0.01942873 -0.0598858 
-75.7396 91.39444 550.8183 -0.9808306 -0.192384 0.03098051 
-75.55464 90.708 550.688 -0.9674462 -0.2305977 0.1042717 
3.427298 91.42167 550.2571 0.9918562 -0.06896463 0.1070758 
3.457631 91.59583 550.3702 0.9898981 0.01714857 -0.14074 
-76.20585 94.40984 550.1237 -0.971961 -0.2266525 0.06261369 
3.706139 94.53897 550.4187 0.9947945 -0.07565765 0.06826378 
3.715755 94.63972 550.3798 0.9845157 0.05304358 -0.1670788 
-76.93126 97.64853 550.006 -0.984609 -0.1726179 -0.02735204 
3.709944 97.42673 549.9542 0.9962962 -0.08598712 -0.0002684821 
3.769796 97.42233 550.3735 0.9937321 0.004699064 -0.1116894 
-77.55087 100.7896 550.7494 -0.9830807 -0.1789118 0.03927976 
-77.3502 100.413 550.4475 -0.9855285 -0.1570085 -0.06388959 
3.728124 100.1368 550.4838 0.9949331 -0.005698445 -0.1003777 
-77.87913 103.9967 550.6454 -0.9865516 -0.1503712 -0.0640668 
-77.80411 103.1161 550.686 -0.9884391 -0.1112475 -0.1030149 
3.295925 102.8895 549.2392 0.932844 0.20959 -0.293043 
3.468364 103.4209 550.4395 0.981927 0.04173608 -0.1846011 
-78.1007 106.1683 550.9453 -0.9706657 -0.2399072 -0.01589797 
-78.00525 106.3578 550.0649 -0.9865832 -0.06374048 -0.1503021 
3.027104 106.7643 549.9794 0.9243346 0.1909989 -0.3303409 
3.170963 106.5445 550.6786 0.9786853 0.06692726 -0.1941543 
-78.38258 109.8287 550.9352 -0.9359615 -0.231996 -0.2648658 
-78.09504 109.0939 550.2516 -0.9689831 -0.1170881 -0.2176286 
2.539554 109.7038 549.7388 0.9445829 0.159514 -0.2869119 
3.206453 109.3085 551.1957 0.9788036 0.05035881 -0.1985136 
-42.69118 51.47345 550.6171 -0.09616075 -0.483285 0.8701659 
-39.82434 51.51016 550.862 -0.0563731 -0.5073888 0.8598714 
-36.53542 51.68223 551.1164 -0.005384395 -0.5190254 0.8547419 
-34.1918 51.39515 551.2421 0.08896239 -0.4989088 0.8620764 
-30.79729 50.55377 551.3969 0.1582829 -0.4623684 0.872446 
-28.4882 50.9453 551.9813 0.1628703 -0.454436 0.8757632 
-26.14019 49.68635 551.447 0.1688639 -0.4465515 0.878679 
-22.96854 51.01774 551.6996 0.1706021 -0.4654143 0.8684955 
-50.71818 53.29821 549.8755 -0.3418261 -0.4308572 0.8351749 
-42.72831 53.43837 551.5865 -0.120896 -0.4965561 0.8595442 
-39.8487 53.37259 551.9131 -0.07310399 -0.5197745 0.8511699 
-37.01693 53.30539 552.0663 -0.0164074 -0.5368819 0.8434979 
-33.62592 53.40428 552.425 0.1354284 -0.5210252 0.8427289 
-31.33103 53.48679 552.7723 0.1920919 -0.5065371 0.840548 
-28.68852 53.14946 553.2571 0.173563 -0.4800277 0.8599124 
-25.84853 52.60239 552.9234 0.08600779 -0.4897417 0.867615 
-22.68715 53.1936 552.9064 0.170596 -0.47227 0.8647879 
-20.14742 53.04897 552.3264 0.2143973 -0.4759608 0.8529333 
-15.60649 53.94442 552.3834 0.123094 -0.5372879 0.8343678 
-54.55521 57.24266 550.8315 -0.3825752 -0.414292 0.8258319 
-52.66303 56.17536 550.777 -0.3775176 -0.4080921 0.8312288 
-36.43145 55.6295 553.3763 -0.193554 -0.5693199 0.7990068 
-34.92035 55.89954 553.7495 -0.1848952 -0.6005427 0.7779218 
-31.35549 55.23259 553.9367 -0.1271517 -0.5917599 0.796023 
-28.60179 54.8626 554.1924 -0.004489471 -0.5852067 0.8108718 
-25.45549 54.94612 554.1321 0.07747132 -0.5429556 0.8361803 
-22.53443 55.20313 553.8834 0.07232913 -0.5542107 0.829228 
-19.56613 55.4811 553.6407 0.1430855 -0.53527 0.8324738 
-16.20594 55.77734 553.4037 0.153259 -0.5482737 0.8221361 
-13.51463 55.63322 553.2666 0.1778019 -0.5516065 0.8149337 
-10.40092 56.01795 552.8602 0.255088 -0.5613052 0.7873161 
-8.168364 56.61136 552.0767 0.6894915 -0.4285754 0.5838876 
-55.42587 59.41623 551.4943 -0.3655018 -0.4357892 0.8224939 
-49.88529 59.36507 552.5297 -0.1875346 -0.5182968 0.8343855 
-46.57839 58.46273 552.9429 -0.1069454 -0.5278019 0.8426078 
-43.95641 57.93727 553.5735 -0.1584217 -0.5725985 0.804384 
-40.76024 58.38368 554.7972 -0.160719 -0.6250858 0.7638306 
-38.00602 57.41507 554.632 -0.1211729 -0.6072423 0.7852222 
-32.39737 57.48521 555.6725 -0.03521846 -0.6003187 0.7989851 
-25.40086 56.98585 555.5469 0.01691148 -0.6365083 0.7710844 
-18.38389 57.24218 554.5112 0.1288792 -0.5645956 0.8152435 
-16.34106 57.94667 554.777 0.1796474 -0.5524247 0.8139741 
-13.38116 57.81179 554.8324 0.1887443 -0.5542146 0.8106922 
-10.00477 58.07845 554.1608 0.2677226 -0.5689613 0.7775652 
-7.446437 58.68213 552.9723 0.574625 -0.4796482 0.6631319 
-5.913543 60.10249 551.5236 0.8106052 -0.4693525 0.3501822 
-63.59601 62.74093 550.3971 -0.8689334 -0.2608581 0.4206042 
-60.8483 62.74787 551.8494 -0.3677673 -0.5414217 0.7560488 
-57.69744 61.88585 552.4396 -0.2573753 -0.5218343 0.8132939 
-55.08685 61.7673 552.9875 -0.0589108 -0.5651482 0.8228833 
-52.27832 61.85233 553.6348 -0.1633714 -0.5322378 0.8306822 
-50.0113 61.16825 553.5125 -0.1609533 -0.5331544 0.8305663 
-46.88876 60.8569 554.0996 -0.1372962 -0.5371917 0.8322108 
-43.55925 59.93183 554.8928 -0.09001347 -0.5631557 0.8214336 
-41.59082 60.82064 556.213 -0.01702095 -0.493617 0.8695129 
-38.30825 59.79661 556.5126 0.00524219 -0.5253325 0.8508809 
-9.919939 60.12534 555.5143 0.2611418 -0.5295981 0.8070508 
-7.139093 61.16534 554.8543 0.3945494 -0.5101148 0.7642733 
-5.576436 62.26134 553.2821 0.6703725 -0.4321298 0.6032119 
-65.37031 66.17927 551.4999 -0.7236412 -0.4872173 0.4888382 
-63.56412 65.33418 552.3341 -0.4862886 -0.5663006 0.6654526 
-61.36864 64.75287 553.0906 -0.3268644 -0.5661928 0.7566937 
-58.51795 64.17396 553.7736 -0.2606564 -0.5384974 0.8012982 
-55.74862 63.98716 554.3627 -0.2905595 -0.5645363 0.7725762 
-52.16061 64.05493 555.2004 -0.3317305 -0.5972618 0.7302282 
-50.11543 63.70696 555.6013 -0.2743422 -0.5954012 0.7551383 
-46.06876 62.8432 555.6982 -0.0230115 -0.491352 0.8706571 
-4.758806 64.56657 552.8535 0.815303 -0.3497826 0.4614469 
-67.79179 69.44331 550.9753 -0.8300141 -0.412466 0.375431 
-66.32785 68.60426 552.5265 -0.7802316 -0.4346628 0.4497854 
-63.09222 67.29729 553.9217 -0.3748352 -0.5992002 0.7074304 
-61.48077 66.32896 553.8733 -0.4288642 -0.5070576 0.7476417 
-59.46893 66.20975 554.7023 -0.3941212 -0.5430378 0.7414705 
-3.891309 67.46725 553.6579 0.8983104 -0.2741037 0.3433739 
-3.596152 68.10109 553.3476 0.6954874 -0.3819523 0.608613 
-68.19207 71.27462 552.173 -0.8539767 -0.3632949 0.3724789 
-67.38398 71.05117 553.2633 -0.9635486 -0.2363973 0.1252615 
-62.40868 69.28436 555.4588 -0.4313784 -0.520305 0.7370179 
-59.65729 68.71802 556.359 -0.4144017 -0.5482246 0.7264441 
-3.096534 69.84708 553.9005 0.9807359 -0.1906623 0.04248636 
-2.635612 71.06541 552.0892 0.8390139 -0.3406422 0.4242862 
-69.15254 74.02052 552.8945 -0.9014786 -0.2953292 0.3164128 
-68.25576 73.18842 553.5954 -0.9491315 -0.2675348 0.1660558 
-66.64247 72.56429 555.0857 -0.4430755 -0.5329425 0.720872 
-2.364345 73.09875 554.3057 0.9591255 -0.2624944 0.1057126 
-2.076784 73.45734 553.3818 0.7596168 -0.3826779 0.5258707 
-1.796342 74.4877 553.7466 0.8185607 -0.3523019 0.4536979 
-70.65396 78.13926 552.0246 -0.458557 -0.511627 0.726611 
-69.86481 76.86768 553.3762 -0.8181154 -0.3720512 0.4384806 
-68.81689 75.45636 554.3015 -0.8322884 -0.4028758 0.3807719 
-1.554958 76.33046 554.5405 0.8590643 -0.3709892 0.3526693 
-1.174611 76.82765 553.274 0.7127013 -0.360155 0.6019512 
-0.7230366 78.03351 552.5464 0.9018067 -0.2714621 0.3362336 
-70.98866 79.94869 552.8856 -0.7754506 -0.3960445 0.4917572 
-70.85978 79.71449 553.0961 -0.8134344 -0.3981418 0.4240373 
-70.01434 78.86235 554.2084 -0.8267328 -0.4193369 0.3750593 
-1.151855 78.62242 554.6119 0.9027189 -0.3582493 0.2382354 
-0.7159961 79.67483 553.4596 0.78515 -0.3597252 0.5041203 
-0.480994 80.07393 553.2527 0.9160032 -0.2299708 0.328712 
-72.19563 83.22598 553.6404 -0.9196137 -0.3096192 0.2417574 
-71.6897 82.11793 553.7133 -0.8028084 -0.4563001 0.3837824 
-70.33723 81.53973 555.7134 -0.8425989 -0.4611239 0.278194 
-0.2800127 81.90806 553.9039 0.8270149 -0.3326618 0.4531915 
0.2333436 82.58121 553.0648 0.8792296 -0.2719171 0.3911731 
-73.36005 85.2422 553.3215 -0.8545597 -0.3982737 0.3333254 
-71.67311 83.67474 555.3763 -0.6657218 -0.5750049 0.4755879 
1.087596 85.37377 553.2903 0.9119663 -0.2149907 0.3494231 
-74.80811 88.80421 552.9786 -0.9509127 -0.2480353 0.18505 
-74.53315 88.35086 553.8069 -0.9281341 -0.2988442 0.2219443 
