ply
format ascii 1.0
comment PCL generated
element vertex 670
property float x
property float y
property float z
property float nx
property float ny
property float nz
property float curvature
element camera 0
property float view_px
property float view_py
property float view_pz
property float x_axisx
property float x_axisy
property float x_axisz
property float y_axisx
property float y_axisy
property float y_axisz
property float z_axisx
property float z_axisy
property float z_axisz
property float focal
property float scalex
property float scaley
property float centerx
property float centery
property int viewportx
property int viewporty
property float k1
property float k2
end_header
-0.027805531 0.1019691 0.52151346 0.090321623 0.331444 -0.93914157 0
-0.02523773 0.1010281 0.52172995 0.1299502 0.32519349 -0.93667608 0
-0.023162821 0.10191 0.52251363 0.1649341 0.31911549 -0.93325353 0
-0.02054096 0.1009497 0.52279711 0.09207651 0.34780899 -0.93303311 0
-0.016430549 0.1009703 0.52360165 0.2019005 0.40659031 -0.89102221 0
-0.01349339 0.1005193 0.52369833 0.22672421 0.40278849 -0.8867681 0
-0.01082479 0.1003943 0.52409446 0.35253239 0.408667 -0.84185052 0
-0.008079431 0.100002 0.52466244 0.41308349 0.39506781 -0.82053858 0
-0.0063346489 0.099488564 0.5254423 0.4311668 0.3768031 -0.81982613 0
-0.060563628 0.1016248 0.52621448 -0.3256889 0.3878864 -0.86224759 0
-0.05726042 0.1024145 0.52578729 -0.26312599 0.38347831 -0.88527352 0
-0.054959562 0.1028241 0.52501822 -0.2100376 0.37875751 -0.90134728 0
-0.052399218 0.10335781 0.52438349 -0.1915089 0.38249889 -0.90389103 0
-0.049484991 0.1032963 0.52365941 -0.16038629 0.3648974 -0.91712928 0
-0.04669477 0.1032709 0.52295285 -0.1597514 0.35239249 -0.92211658 0
-0.043538008 0.1041883 0.5228337 -0.073542587 0.35861751 -0.93058318 0
-0.040210579 0.1041687 0.52257013 0.01220948 0.37810901 -0.92568058 0
-0.038308159 0.1038174 0.52222461 -0.0054060882 0.36749581 -0.93000948 0
-0.03472919 0.1041444 0.52198136 0.031446069 0.3749361 -0.92651719 0
-0.031573702 0.1042276 0.5220753 -0.0152864 0.3482888 -0.93726271 0
-0.02861117 0.1039333 0.52225089 0.1296722 0.32167739 -0.93792802 0
-0.025394171 0.1036078 0.5226776 0.1163608 0.31226149 -0.94284302 0
-0.02274086 0.1037063 0.52313131 0.1264625 0.3971943 -0.90897971 0
-0.019397261 0.10296579 0.52370507 0.1658534 0.4057377 -0.89881557 0
-0.01684152 0.10298169 0.52421254 0.1947082 0.39959991 -0.8957727 0
-0.013986981 0.1030899 0.52457547 0.2298933 0.39597559 -0.8890177 0
-0.01122124 0.10310759 0.52515888 0.265591 0.39144951 -0.88103843 0
-0.0086514028 0.1027551 0.52569926 0.36496919 0.40144721 -0.84002239 0
-0.054839019 0.1053664 0.52580869 -0.24314781 0.38925341 -0.88845992 0
-0.051737998 0.10602301 0.52517229 -0.18131579 0.38615569 -0.9044382 0
-0.049283762 0.106143 0.52471584 -0.1582457 0.37920451 -0.91168112 0
-0.046283469 0.10632981 0.52410609 -0.1147301 0.37537071 -0.91974658 0
-0.04356255 0.1063099 0.52367872 -0.089880019 0.3686204 -0.92522472 0
-0.04047925 0.1065666 0.52345538 -0.066674247 0.3791433 -0.9229328 0
-0.037467238 0.1066576 0.5231334 -0.045583051 0.38726151 -0.92084241 0
-0.03485759 0.1066519 0.52315366 -0.020709779 0.3966977 -0.91771573 0
-0.031486791 0.10652021 0.52308822 0.051683191 0.36155501 -0.9309172 0
-0.028611152 0.1069157 0.52344924 0.082246438 0.3811444 -0.92084992 0
-0.025530279 0.1062659 0.52359116 0.1064743 0.37532669 -0.92075688 0
-0.02262653 0.106337 0.52413851 0.1533732 0.4081504 -0.89993888 0
-0.019758441 0.1058393 0.52444708 0.1947311 0.41285199 -0.88973761 0
-0.017442031 0.1058509 0.52483428 0.23623291 0.41622919 -0.87803602 0
-0.01393396 0.10608999 0.52527928 0.2368 0.4000358 -0.88537967 0
-0.01093697 0.10493959 0.52568346 0.2597509 0.42181069 -0.86868018 0
-0.053821981 0.1078561 0.5264557 -0.21209989 0.42437181 -0.88029671 0
-0.05185682 0.1081538 0.5260222 -0.1502209 0.43341991 -0.88858372 0
-0.049674019 0.1083036 0.5255233 -0.1329581 0.42400441 -0.89584732 0
-0.046899401 0.108856 0.52516168 -0.143961 0.3829523 -0.91248173 0
-0.04379246 0.1094458 0.52492189 -0.098825127 0.37287569 -0.92260349 0
-0.040485971 0.1088709 0.52435398 -0.1189374 0.37565309 -0.91909659 0
-0.037310768 0.10912079 0.52412874 -0.04060252 0.36835951 -0.92879641 0
-0.034545891 0.109124 0.52403599 -0.022672189 0.40717289 -0.91306973 0
-0.032067031 0.10914981 0.5241465 0.032235961 0.40778491 -0.91250879 0
-0.02887495 0.10859381 0.5241155 0.064140521 0.38955551 -0.91876692 0
-0.02562315 0.1087303 0.52454573 0.1091981 0.39881241 -0.9105078 0
-0.023018539 0.1091125 0.52510762 0.144758 0.4234508 -0.89427882 0
-0.019816499 0.1086385 0.52545971 0.2169103 0.42294559 -0.87981081 0
-0.017801201 0.10883351 0.5257895 0.26720101 0.41648301 -0.86899108 0
-0.04221518 0.1123536 0.52572781 -0.110285 0.36600789 -0.92405379 0
-0.03978651 0.111646 0.52526534 -0.1053859 0.39729851 -0.91161817 0
-0.037573978 0.11183339 0.52504212 -0.067430288 0.39298791 -0.917068 0
-0.034683101 0.1115126 0.52497196 -0.01045076 0.4140158 -0.91020972 0
-0.031520739 0.1115698 0.52515692 0.056197509 0.4362976 -0.89804578 0
-0.02889319 0.1116685 0.52536792 0.101413 0.44244701 -0.89104217 0
-0.025344469 0.1113084 0.52566683 0.098995559 0.43792951 -0.89354217 0
-0.019066932 0.1105023 0.52645564 0.2495659 0.4273839 -0.86894178 0
-0.041913059 0.1135814 0.5260129 -0.12625 0.37287691 -0.91925168 0
-0.035567679 0.1145459 0.52594709 -0.0088892346 0.4523752 -0.89178342 0
-0.049886711 0.0080231801 0.52502662 -0.150663 -0.76036721 0.63177723 0
-0.043214511 0.0077717798 0.52367574 0.26589391 -0.91666508 0.29837161 0
-0.057433471 0.01020537 0.52391493 -0.67821473 -0.61303478 0.40523219 0
-0.054595679 0.0092639644 0.52513438 -0.44862309 -0.71935397 0.53034627 0
-0.052900299 0.0092128161 0.52609682 -0.39373931 -0.50122648 0.7705462 0
-0.048893847 0.0084720924 0.52596182 -0.087969683 -0.87095678 0.48342079 0
-0.046338033 0.0086688977 0.52628899 -0.0067246389 -0.88209993 0.4710145 0
-0.042910561 0.008920108 0.52544129 0.087015681 -0.92249358 0.37607679 0
-0.040349413 0.0092102177 0.52449405 0.3312045 -0.89543939 0.29747599 0
-0.037900981 0.010054381 0.5247128 0.40324831 -0.89683479 0.1818742 0
-0.02803413 0.0091572711 0.52348071 -0.021879399 -0.388455 0.92120802 0
-0.0578226 0.01148621 0.52487016 -0.59747827 -0.62013012 0.50838798 0
-0.055679262 0.01049196 0.5258882 -0.4553403 -0.71370202 0.53225428 0
-0.052754451 0.01011168 0.5272646 -0.22912569 -0.7710045 0.59418291 0
-0.04950982 0.0095760021 0.52755046 -0.14965419 -0.79828531 0.5833903 0
-0.045744672 0.0096512716 0.52753365 -0.03004224 -0.77408773 0.63236523 0
-0.043289557 0.0098448554 0.52693421 0.24674889 -0.82769549 0.50401908 0
-0.040019348 0.01052686 0.52615649 0.2400168 -0.87053472 0.42960599 0
-0.036821771 0.010711701 0.52529871 0.35444641 -0.90824318 0.2224007 0
-0.034488961 0.0111655 0.52515459 0.30287379 -0.88982862 0.34128079 0
-0.03196577 0.01204733 0.52515364 0.092442743 -0.60143268 0.79355723 0
-0.027758481 0.01171183 0.52439696 0.0020704749 -0.27292529 0.96203297 0
-0.02605583 0.01095499 0.52401978 0.067771427 -0.2966761 0.95257038 0
-0.022498989 0.01200382 0.52448249 0.199907 -0.39323211 0.89744401 0
-0.019711928 0.011448869 0.52443957 0.29362121 -0.4674322 0.83384281 0
-0.060484521 0.0149514 0.52485168 -0.64212638 -0.57578468 0.50610852 0
-0.058133759 0.0132542 0.52633977 -0.59981823 -0.55332297 0.57797217 0
-0.0559748 0.01292561 0.52802712 -0.3511394 -0.60387957 0.71556312 0
-0.053133771 0.01156885 0.52864909 -0.2098002 -0.61779708 0.75783288 0
-0.040320259 0.011997639 0.52850401 0.47307101 -0.8022384 0.36416689 0
-0.038827222 0.01288309 0.52892518 0.42376301 -0.86453593 0.27019 0
-0.034189321 0.0124644 0.52661312 0.070320711 -0.66495168 0.74356848 0
-0.031953171 0.013224981 0.52629495 0.36594751 -0.8261779 0.42838359 0
-0.02891325 0.01420776 0.5261603 0.43111819 -0.7101897 0.55656779 0
-0.02534334 0.01426062 0.52535307 0.02160682 -0.25388479 0.96699321 0
-0.0224037 0.013790459 0.52517962 0.1486074 -0.35166749 0.92425418 0
-0.019500839 0.01413585 0.52528477 0.2189237 -0.40142921 0.88934082 0
-0.01715957 0.0143184 0.52501863 0.26017559 -0.38066179 0.88735861 0
-0.06201398 0.018190229 0.52573401 -0.88396198 -0.35802051 0.30071989 0
-0.060961671 0.017053271 0.52620322 -0.70196903 -0.52384412 0.48252141 0
-0.059201729 0.01577509 0.52732629 -0.53304249 -0.46886969 0.70429182 0
-0.03906912 0.01240061 0.52831817 0.47986019 -0.76485628 0.4298012 0
-0.036560323 0.01341299 0.52872276 0.26790929 -0.78374422 0.56032991 0
-0.033736173 0.0145069 0.52905983 0.30428159 -0.7832498 0.54215533 0
-0.030598339 0.01474886 0.52756017 0.075179793 -0.4001894 0.91334349 0
-0.027547549 0.015873279 0.52698243 0.31406441 -0.64755559 0.69428772 0
-0.025718959 0.01661608 0.52683395 0.33688509 -0.6264748 0.70287818 0
-0.02231 0.017107559 0.526627 0.082188137 -0.4642171 0.88190001 0
-0.019952999 0.01625846 0.52592498 0.13090511 -0.30797669 0.94234508 0
-0.01658869 0.016944861 0.52580959 0.28679389 -0.39794269 0.8714304 0
-0.014213259 0.017270451 0.52514726 0.26757541 -0.36469311 0.89185327 0
-0.063339226 0.020277651 0.52552366 -0.69862878 -0.44228691 0.56240559 0
-0.06143485 0.018708019 0.52743959 -0.88293183 -0.37273401 0.28548369 0
-0.061054792 0.01863075 0.52774626 -0.79885417 -0.4256649 0.4250192 0
-0.03265145 0.016230181 0.53082508 0.43230709 -0.89621818 0.099516228 0
-0.03081226 0.01642322 0.53016919 0.4296611 -0.77286607 0.46697909 0
-0.027750071 0.017417481 0.52901351 0.1047827 -0.46682501 0.87812018 0
-0.024985161 0.0179126 0.5278517 0.50405312 -0.74129242 0.44318861 0
-0.02208519 0.019348249 0.52803171 0.2782608 -0.60058558 0.74957848 0
-0.019307328 0.018741159 0.52699 0.1597854 -0.46326399 0.87169671 0
-0.015811309 0.019664271 0.52669472 0.1825639 -0.38200709 0.90594763 0
-0.01375245 0.02001759 0.52596509 0.4085702 -0.46947971 0.78272551 0
-0.01154797 0.019979851 0.52514601 0.33303499 -0.38773739 0.85950422 0
-0.065508291 0.024499821 0.52527469 -0.89212811 -0.228349 0.389826 0
-0.064432085 0.023114718 0.5265646 -0.82142252 -0.353513 0.44754189 0
-0.06262812 0.02098966 0.52784389 -0.82522953 -0.38750151 0.4109 0
-0.02088541 0.02048447 0.52850187 0.68844622 -0.68861759 0.22770061 0
-0.019018391 0.020625379 0.5279628 0.41985819 -0.62467468 0.65840763 0
-0.01316515 0.022046611 0.52645725 0.3173731 -0.37988091 0.86888713 0
-0.01108765 0.02294153 0.52613419 0.3912285 -0.4684771 0.7921297 0
-0.0085326582 0.02345592 0.52510309 0.6462087 -0.3750228 0.66465962 0
-0.0066823731 0.02452492 0.52426672 0.6695013 -0.4335112 0.60318822 0
-0.065989926 0.02587877 0.52531797 -0.80681813 -0.31470111 0.50000769 0
-0.065342613 0.02570704 0.52669019 -0.84159738 -0.33900061 0.42046711 0
-0.063487731 0.02385444 0.52891409 -0.92936277 -0.30778101 0.203852 0
-0.01823484 0.022718731 0.52899766 0.65350819 -0.66030878 0.3700262 0
-0.015337 0.023955481 0.52829742 0.54350013 -0.5454675 0.63802272 0
-0.0124194 0.02415679 0.52724296 0.45732319 -0.3617343 0.81240618 0
-0.010438579 0.02505607 0.5269469 0.43640691 -0.53991079 0.71975368 0
-0.0079021333 0.02607031 0.52617043 0.63964099 -0.46663889 0.61082542 0
-0.0065605338 0.026012622 0.52517861 0.72764331 -0.40873709 0.55088049 0
-0.066513203 0.029014321 0.52606988 -0.89303702 -0.2640456 0.36436921 0
-0.065568574 0.02783132 0.52729559 -0.82070857 -0.27461529 0.50102282 0
-0.064672828 0.02718552 0.52875811 -0.8190071 -0.32560599 0.47244909 0
-0.01490831 0.02548936 0.52905512 0.62292469 -0.55246383 0.5538488 0
-0.0088599911 0.027543409 0.52733493 0.3946647 -0.42905629 0.81249642 0
-0.005016908 0.02889554 0.52578872 0.76223201 -0.39791521 0.51055461 0
-0.0038323761 0.03021257 0.5253976 0.78109002 -0.370583 0.50256002 0
-0.068009168 0.032739539 0.52472919 -0.93210417 -0.23157699 0.27848509 0
-0.066914469 0.031246901 0.52612656 -0.80408841 -0.2529889 0.5379948 0
-0.06608402 0.03060155 0.52734137 -0.70605677 -0.2284354 0.67029917 0
-0.011152799 0.028848561 0.52939379 0.54529738 -0.52327281 0.65485591 0
-0.0084756752 0.02909217 0.52809364 0.40264541 -0.46601471 0.78784961 0
-0.006249194 0.02996297 0.52720147 0.3734313 -0.46539301 0.80247021 0
-0.0040761144 0.031357031 0.52634585 0.70174432 -0.39144361 0.59525383 0
-0.0029264318 0.032466169 0.5255422 0.84456229 -0.31441551 0.43342531 0
-0.067997977 0.035128631 0.52625048 -0.92563272 -0.200523 0.3209281 0
-0.067588739 0.034593958 0.52658522 -0.85852277 -0.26801339 0.43715841 0
-0.066881076 0.0339409 0.52774191 -0.66400927 -0.28851739 0.68981838 0
-0.0053926511 0.03374698 0.5287407 0.43492281 -0.45881739 0.77480882 0
-0.0040049893 0.033543609 0.52742577 0.50810111 -0.44768041 0.73580939 0
-0.0022100699 0.034589373 0.52595115 0.8732776 -0.2790944 0.39936519 0
-0.069197476 0.037614688 0.52551973 -0.94458562 -0.1632541 0.28479129 0
-0.068266183 0.037565161 0.52713031 -0.84149718 -0.27083671 0.46747199 0
-0.0055012032 0.035399061 0.52985525 0.48802969 -0.48189369 0.72773999 0
-0.002986144 0.036734242 0.52798229 0.44218111 -0.44456619 0.7789973 0
-0.0014276969 0.037555531 0.52636909 0.80522501 -0.34234539 0.48416159 0
-0.069894284 0.040531639 0.52604055 -0.91889858 -0.170753 0.35562459 0
-0.069170929 0.040605981 0.5273602 -0.90421999 -0.2002902 0.37718689 0
-0.00035457069 0.040759023 0.52606875 0.90756059 -0.2308109 0.35079929 0
-0.00051316887 0.040488221 0.52640933 0.9260301 -0.19667231 0.322162 0
-0.07030502 0.043322239 0.5265829 -0.947761 -0.1242631 0.293782 0
2.106568e-06 0.043439459 0.52735543 0.93515801 -0.1450337 0.3231793 0
0.00059341622 0.043937247 0.52586877 0.98164481 -0.1222082 0.1464196 0
-0.070808329 0.04640507 0.52680159 -0.97115988 -0.1168739 0.2078196 0
0.001084692 0.04672192 0.52605981 0.99869871 -0.033913359 0.03808957 0
0.00095706788 0.046445802 0.52631569 0.99966472 0.0094342725 -0.024116751 0
-0.071477689 0.049265109 0.52674478 -0.97023022 -0.12654939 0.2064911 0
0.001233942 0.049122263 0.5262534 0.99697769 -0.001474138 -0.077674478 0
0.001179495 0.04940844 0.52644157 0.99197853 0.02406274 -0.124095 0
0.001074153 0.048668459 0.52680761 0.78052408 -0.32407299 0.53456408 0
-0.071984872 0.052394539 0.52612793 -0.99355203 -0.057074551 0.097964689 0
-0.07181596 0.052310538 0.52674574 -0.98910582 -0.1190969 0.086519651 0
0.001462281 0.05200785 0.5270288 0.9988606 -0.046772599 0.0094835823 0
0.001269793 0.05257671 0.52640879 0.99726832 -0.00402587 -0.073755421 0
-0.072297029 0.055427391 0.5262149 -0.99939537 -0.030605551 0.016495859 0
-0.072289631 0.05542345 0.52687925 -0.97861522 -0.1670395 0.1200426 0
0.00095009647 0.056918401 0.52520508 0.99549592 -0.0121562 -0.09402287 0
0.0013121541 0.055411801 0.52654999 0.99847019 -0.01405685 -0.053476419 0
-0.072413974 0.058709018 0.52630377 -0.9723264 -0.15749601 0.1725585 0
-0.072454907 0.058127042 0.52638179 -0.99443263 0.04577269 -0.094914302 0
0.001459589 0.059230272 0.52724701 0.99789131 -0.02798331 -0.058564719 0
0.001212836 0.058451451 0.5265488 0.98752213 0.041843168 -0.1518202 0
-0.072236456 0.061694678 0.5267725 -0.98494983 -0.05616359 0.1634617 0
-0.072102629 0.061729699 0.52617764 -0.95644879 0.1115108 -0.2697612 0
0.00045349009 0.061851472 0.52527332 0.86415857 0.13044579 -0.48601839 0
0.001066571 0.061489448 0.52673525 0.9764058 0.078992963 -0.2009771 0
-0.071571216 0.064634293 0.52623069 -0.99141282 0.1263911 0.03355515 0
-0.071624205 0.064438649 0.52622008 -0.94734931 0.1113812 -0.30020589 0
-2.054588e-05 0.065172918 0.52554995 0.82324117 0.25967509 -0.50481951 0
0.00036953611 0.064638689 0.52645451 0.94714922 0.1260893 -0.29497439 0
-0.070971772 0.067953192 0.52671099 -0.99597001 0.073613398 -0.051234599 0
-0.071006112 0.067465886 0.52658612 -0.93174243 0.062320251 -0.35773209 0
-0.0004833228 0.06794484 0.52601677 0.83052492 0.23036741 -0.50710881 0
0.00026867579 0.067664899 0.52714288 0.97479957 0.079930641 -0.208271 0
-0.070433632 0.070606172 0.52641201 -0.92744792 0.084211379 -0.36434719 0
-0.069705941 0.070768803 0.52514321 -0.88759041 0.1286169 -0.44231331 0
-0.0020078339 0.070479102 0.52498877 0.84813058 0.1922612 -0.4936702 0
-0.0012102451 0.070095479 0.5262664 0.9030239 0.13590211 -0.40752739 0
-0.00044393429 0.070826247 0.52746397 0.98293722 0.048717842 -0.1773726 0
-0.070859015 0.074347354 0.52747637 -0.94887203 0.017116589 -0.31519681 0
-0.070455812 0.072658576 0.52642471 -0.88854671 0.05632076 -0.45531619 0
-0.06976492 0.073728316 0.52481347 -0.93881619 0.061696731 -0.33884749 0
-0.0026713072 0.073727369 0.52511001 0.81926697 0.1545102 -0.55220312 0
-0.0015159081 0.07348112 0.5266732 0.90480489 0.1218857 -0.4080098 0
-0.0012949781 0.073624238 0.52699202 0.99559438 0.036146801 -0.086517073 0
-0.070404217 0.076825418 0.52676928 -0.8777926 0.1006919 -0.46833891 0
-0.069548398 0.077681154 0.52398217 -0.98509592 -0.151306 -0.081808589 0
-0.0035873889 0.076178588 0.52350068 0.92530608 -0.094611697 -0.3672291 0
-0.0023212039 0.076144472 0.52597827 0.80861849 0.103111 -0.57922733 0
-0.0018688281 0.076261438 0.52672112 0.93420881 0.064934343 -0.35076699 0
-0.0014362771 0.076477781 0.5273729 0.99403948 0.049671311 -0.097047597 0
-0.069980688 0.079443201 0.52664399 -0.79205471 0.2164446 -0.57078999 0
-0.069632739 0.080167793 0.52518433 -0.98731571 -0.1564987 -0.026757799 0
-0.002685776 0.079478234 0.52583534 0.93538612 -0.060048088 -0.34849271 0
-0.0023694849 0.079232298 0.52654076 0.92971522 0.087154523 -0.3578181 0
-0.001680922 0.079826102 0.52793902 0.98943359 0.069988184 -0.1269751 0
-0.070062473 0.082350038 0.52696979 -0.85412502 0.2165315 -0.4728474 0
-0.069411404 0.082485601 0.52515996 -0.69157392 0.28830749 -0.6622721 0
-0.067343526 0.084802091 0.52256513 -0.43724921 0.3993791 -0.80579752 0
-0.002923497 0.082473636 0.52533722 0.97078311 -0.01023007 -0.2397408 0
-0.0024060439 0.082240649 0.5270353 0.87396449 0.1679211 -0.4560577 0
-0.0016522469 0.081537165 0.52846259 0.9857524 0.076973133 -0.1495571 0
-0.069934316 0.085533887 0.52723658 -0.69944698 0.28281879 -0.656344 0
-0.069803789 0.085048892 0.52655244 -0.91774052 0.1412809 -0.37120369 0
-0.06927406 0.085499473 0.52564049 -0.49210671 0.40869379 -0.76863551 0
-0.0028467618 0.08575502 0.52514428 0.89127803 0.1814964 -0.41555089 0
-0.00239676 0.085583791 0.5273394 0.94348449 0.1113272 -0.312159 0
-0.069965318 0.087894984 0.5271827 -0.61609709 0.3064591 -0.72560823 0
-0.069736548 0.088463463 0.52686518 -0.94189799 0.094425187 -0.3223539 0
-0.002891385 0.088886902 0.52523899 0.67080098 0.3533133 -0.6520704 0
-0.002467013 0.087988839 0.52697247 0.99795938 -0.040623881 -0.04926306 0
-0.070301145 0.090455435 0.52873522 -0.71043962 0.2778849 -0.64657229 0
-0.069755606 0.091221064 0.5271439 -0.82534683 0.2070384 -0.52529788 0
-0.06806355 0.091940776 0.52545148 -0.77039957 0.23826189 -0.59136772 0
-0.062594838 0.092725143 0.52337736 -0.52226019 0.34267831 -0.78090709 0
-0.060734201 0.093548492 0.52320468 -0.51326197 0.31105599 -0.79987901 0
-0.0034803802 0.091385029 0.52429247 0.25709611 0.43308911 -0.86390722 0
-0.0030398332 0.091826379 0.52537405 0.89723808 0.194282 -0.39650771 0
-0.0024704849 0.091579422 0.52723211 0.99024069 0.03463671 -0.1349951 0
-0.069405407 0.094305225 0.5276798 -0.66712427 0.28238761 -0.68934917 0
-0.067625001 0.094397001 0.52610666 -0.60672921 0.32235891 -0.72661161 0
-0.060143068 0.095259495 0.52379751 -0.51112193 0.28431681 -0.8111217 0
-0.056586683 0.096049622 0.52315742 -0.36991301 0.303314 -0.87816 0
-0.0118847 0.0976431 0.52254623 0.25763509 0.32983211 -0.90820432 0
-0.0035608972 0.094832152 0.52581513 0.86731392 0.2364547 -0.43801349 0
-0.0028575889 0.09478268 0.52740252 0.93777198 0.1433588 -0.3162784 0
-0.069084026 0.096754961 0.52806491 -0.71398711 0.2254039 -0.66288441 0
-0.06707973 0.097364835 0.52680874 -0.57124162 0.29435471 -0.76618439 0
-0.064712353 0.097110629 0.52577788 -0.37984771 0.36456439 -0.85018152 0
-0.061255049 0.099260114 0.5258497 -0.58362401 0.24426299 -0.77441502 0
-0.05926415 0.098315872 0.52499801 -0.428821 0.29488721 -0.8539052 0
-0.056630392 0.098068543 0.52403903 -0.33683631 0.2931703 -0.89475828 0
-0.053376172 0.098632798 0.52275598 -0.1886906 0.35956529 -0.91384268 0
-0.0510513 0.099509411 0.52241689 -0.1606371 0.37032709 -0.91490632 0
-0.01872948 0.098717406 0.52260649 0.27993441 0.34817579 -0.8946566 0
-0.01524758 0.098793879 0.52313089 0.29435989 0.35489821 -0.88735539 0
-0.01194802 0.0993063 0.523592 0.3147001 0.3477855 -0.88318127 0
-0.0044499612 0.097222134 0.52593684 0.76358879 0.28602099 -0.57889903 0
-0.0032794052 0.096958615 0.5275225 0.8510232 0.2388546 -0.4676623 0
-0.068478078 0.1000096 0.5284034 -0.68098217 0.21124279 -0.70117033 0
-0.066514164 0.1002041 0.52741742 -0.45889279 0.319774 -0.82895237 0
-0.064496905 0.1000033 0.52673501 -0.45327589 0.32398161 -0.83040762 0
-0.061585311 0.1006474 0.52625483 -0.298859 0.35553181 -0.8855961 0
-0.05864973 0.1007756 0.52577531 -0.37645131 0.3171649 -0.87045437 0
-0.055454578 0.1003112 0.52441716 -0.28024361 0.3375935 -0.89860678 0
-0.053584382 0.1013453 0.52418548 -0.1663429 0.34179261 -0.92493671 0
-0.02201103 0.1011517 0.52262324 0.28624979 0.29476681 -0.91168731 0
-0.01936106 0.1003738 0.52309942 0.2662341 0.2832641 -0.92134732 0
-0.0092115449 0.1016035 0.52497441 0.230389 0.36481899 -0.90212423 0
-0.0074504307 0.1012548 0.52560413 0.66813248 0.35399729 -0.6544348 0
-0.0053915409 0.1003384 0.52666849 0.5894472 0.3143729 -0.74412483 0
-0.0039101811 0.099960439 0.52847803 0.79855752 0.26000479 -0.54286611 0
-0.066863671 0.1026932 0.52867657 -0.48668671 0.32610261 -0.81042773 0
-0.063855097 0.1030646 0.52776676 -0.36164051 0.34599209 -0.86573988 0
-0.061311532 0.1034346 0.5271675 -0.2999419 0.34623349 -0.88890779 0
-0.058429509 0.10298169 0.52630186 -0.28452751 0.36249849 -0.88749027 0
-0.05706951 0.1042433 0.52642971 -0.27096331 0.33122951 -0.90380639 0
-0.053220291 0.1038657 0.52510679 -0.2101219 0.34451371 -0.91496402 0
-0.050222579 0.1041804 0.52438623 -0.1824809 0.34133431 -0.9220584 0
-0.02229747 0.1038638 0.52339321 0.2778405 0.2590819 -0.92503041 0
-0.01922024 0.1043982 0.5242148 0.25631091 0.2511147 -0.9334057 0
-0.01715265 0.10600241 0.52504891 0.25412601 0.26705489 -0.92957067 0
-0.0099830385 0.103717 0.52558929 0.4358699 0.380804 -0.81547892 0
-0.0075569549 0.1035786 0.52653193 0.3819097 0.35286471 -0.85418469 0
-0.0056014946 0.1028394 0.527659 0.56985128 0.35630319 -0.74048477 0
-0.004202453 0.1021751 0.52904797 0.73086917 0.3307021 -0.5970481 0
-0.065192714 0.10536329 0.52931988 -0.39547211 0.31332311 -0.86338317 0
-0.0632843 0.1057482 0.5289315 -0.34006879 0.32917741 -0.88090611 0
-0.061072923 0.1056225 0.52815068 -0.27955279 0.34027719 -0.89780939 0
-0.058177311 0.10615721 0.52736187 -0.2484106 0.3565613 -0.90064222 0
-0.055371109 0.1062358 0.52642 -0.26826999 0.35416299 -0.89587939 0
-0.052788328 0.106959 0.52583688 -0.27623391 0.3576335 -0.89207238 0
-0.049524911 0.1068049 0.525051 -0.2202912 0.3681615 -0.90328783 0
-0.046559509 0.1070772 0.52456677 -0.1447411 0.36209789 -0.92083389 0
-0.044201642 0.10745481 0.52423602 -0.1073671 0.36480609 -0.92487228 0
-0.03951706 0.1074753 0.52378082 -0.046651632 0.35460821 -0.93385053 0
-0.035242099 0.1084829 0.5239374 0.076946907 0.29510331 -0.95236188 0
-0.03109893 0.10818 0.52387458 -0.072755009 0.29761699 -0.95190912 0
-0.029796841 0.1076417 0.5237267 -0.070768401 0.30902001 -0.94841897 0
-0.025566781 0.108061 0.52438813 0.22863451 0.32692701 -0.91697598 0
-0.02189525 0.10800499 0.5249697 0.114816 0.3877289 -0.91459483 0
-0.01891252 0.1075236 0.52522719 0.2473425 0.28137591 -0.92717272 0
-0.01632032 0.106931 0.52535403 0.19128349 0.36585611 -0.91080183 0
-0.0135331 0.1069336 0.52557522 0.21941181 0.39802131 -0.89075112 0
-0.01050659 0.1068237 0.52635056 0.33016181 0.3891907 -0.85995573 0
-0.0080494508 0.1064457 0.52723747 0.31355861 0.37597451 -0.87196571 0
-0.0061507667 0.1058904 0.52837521 0.46290609 0.35865131 -0.81060922 0
-0.06246344 0.1079393 0.52947748 -0.3138192 0.3387652 -0.88699251 0
-0.06095507 0.1089947 0.52937269 -0.27039739 0.35816729 -0.89364499 0
-0.058078382 0.1086162 0.52818233 -0.25426391 0.36708549 -0.8947615 0
-0.055125277 0.1092064 0.5272947 -0.2172285 0.3920199 -0.89394188 0
-0.052608952 0.1093159 0.52665305 -0.1955851 0.37707961 -0.90529412 0
-0.05003643 0.1099891 0.52635109 -0.19265079 0.38036311 -0.90454942 0
-0.04667294 0.109818 0.52553231 -0.1378835 0.385061 -0.91253293 0
-0.04344188 0.1101477 0.52519345 -0.06051201 0.37123609 -0.92656469 0
-0.040704042 0.1097473 0.52471417 -0.005296472 0.35386649 -0.93528098 0
-0.037565701 0.1100479 0.52450311 -0.055596329 0.3302694 -0.94224793 0
-0.034471191 0.1099727 0.52447098 0.054009739 0.30738631 -0.95005077 0
-0.03128596 0.1101124 0.52460289 0.0594883 0.33731899 -0.93950897 0
-0.02876108 0.1103132 0.52485102 0.1589898 0.36040789 -0.91914552 0
-0.02534147 0.1104525 0.52535468 0.1719276 0.34677079 -0.92205799 0
-0.02262624 0.1102692 0.52577549 0.1573033 0.37436649 -0.91384101 0
-0.019429261 0.1097764 0.52607721 0.1254528 0.40014541 -0.90782452 0
-0.01649721 0.1094228 0.52616149 0.2002272 0.41410711 -0.88793272 0
-0.013422419 0.1094102 0.52639562 0.20989101 0.4098711 -0.88766629 0
-0.01085952 0.1094748 0.52716339 0.24898151 0.4099181 -0.87748241 0
-0.0084501719 0.108774 0.52777839 0.32082689 0.4391019 -0.83920181 0
-0.057911947 0.1108232 0.52867979 -0.2462997 0.40037769 -0.88262922 0
-0.055310503 0.1115113 0.52806157 -0.1894179 0.407433 -0.89337522 0
-0.05226545 0.111731 0.52749103 -0.1959457 0.40958941 -0.89097798 0
-0.049588118 0.1121183 0.52703351 -0.17595179 0.41524509 -0.89253151 0
-0.046153858 0.1123508 0.52641231 -0.1481671 0.40990129 -0.90001529 0
-0.043400582 0.11224379 0.52592438 -0.1073938 0.3858465 -0.91629088 0
-0.040768459 0.1125279 0.52564001 -0.062833883 0.37843239 -0.92349392 0
-0.03777777 0.1132307 0.52561182 -0.00059681671 0.35279059 -0.93570209 0
-0.034619398 0.11293609 0.5254069 0.0096587036 0.37115711 -0.92851979 0
-0.030789169 0.1128378 0.52570862 0.03322012 0.34625909 -0.93755049 0
-0.0282987 0.1126949 0.52590591 0.1018265 0.38183501 -0.91860408 0
-0.025451941 0.1124337 0.52620101 0.1600302 0.4152427 -0.89552438 0
-0.0223085 0.11230741 0.52663529 0.1810028 0.43065721 -0.88417888 0
-0.019457171 0.1118803 0.5270251 0.16553099 0.41575891 -0.89428413 0
-0.016725691 0.1118516 0.52729243 0.2434452 0.42196321 -0.87331641 0
-0.014125341 0.1117121 0.52747667 0.2389185 0.41748929 -0.87671012 0
-0.01159809 0.1111524 0.52761829 0.3148759 0.4340077 -0.84409148 0
-0.051582858 0.11502951 0.52883005 -0.18483821 0.45526889 -0.87095642 0
-0.049029753 0.1150019 0.52827632 -0.1617797 0.46422541 -0.87081689 0
-0.046063948 0.1150393 0.52766383 -0.1377656 0.5011484 -0.85432488 0
-0.04339774 0.11518139 0.52714866 -0.1083668 0.4746128 -0.87349838 0
-0.040509831 0.1152766 0.52670693 -0.067118987 0.484319 -0.87231308 0
-0.037390981 0.1152868 0.52646148 -0.017944651 0.44938049 -0.89316022 0
-0.034548149 0.1155851 0.52664369 0.0051116562 0.4684571 -0.88347149 0
-0.031853203 0.115256 0.52660042 0.050431959 0.44042891 -0.89636987 0
-0.02870672 0.1150735 0.52695942 0.1006367 0.50657761 -0.85630113 0
-0.026056249 0.11496 0.52743292 0.1076214 0.48237759 -0.86932701 0
-0.02244281 0.114643 0.52794737 0.1442541 0.49336001 -0.8577801 0
-0.01969979 0.11462741 0.52837312 0.1999801 0.48176551 -0.85317641 0
-0.01748552 0.114445 0.52848297 0.27287009 0.49287421 -0.82620639 0
-0.04605224 0.1168836 0.52901781 -0.14690369 0.49889001 -0.85412413 0
-0.043548308 0.1178029 0.529136 -0.1174306 0.57727402 -0.80806237 0
-0.040352151 0.1169687 0.52787733 -0.095671177 0.59552258 -0.79762143 0
-0.037976328 0.1171575 0.52781761 -0.03784534 0.56939411 -0.82119322 0
-0.03488256 0.11737259 0.52801347 0.02055453 0.58173251 -0.81312042 0
-0.031318229 0.11745761 0.52876639 0.077367254 0.62861007 -0.77386278 0
-0.02862158 0.1166923 0.52852809 0.094549373 0.59351861 -0.79924732 0
-0.02594406 0.1165193 0.52900279 0.121841 0.58887362 -0.79898858 0
-0.051523801 0.0088736862 0.52611518 -0.217815 -0.70534998 0.67456508 0
-0.04926791 0.0089668883 0.5268802 -0.1240662 -0.67276669 0.72937822 0
-0.046598438 0.0091655264 0.52737451 0.0100983 -0.67581922 0.73699832 0
-0.043048888 0.0095702251 0.52657068 0.17072541 -0.73895568 0.65176469 0
-0.04109291 0.010211331 0.52648741 0.2244601 -0.71087033 0.6665442 0
-0.057340261 0.01267183 0.52665102 -0.55291092 -0.54601091 0.62941378 0
-0.0549413 0.0113872 0.52762765 -0.38758561 -0.53626668 0.74979693 0
-0.049134947 0.01094528 0.5292502 -0.113051 -0.52243912 0.8451491 0
-0.046260409 0.01063729 0.52892357 0.0026168721 -0.64590949 0.76340961 0
-0.04345718 0.01104721 0.52869898 0.1005595 -0.66545248 0.73963559 0
-0.040555038 0.01156619 0.52815223 0.23405769 -0.78310257 0.57616597 0
-0.038131777 0.01209235 0.52787018 0.1067434 -0.74933892 0.65352672 0
-0.034814909 0.012238651 0.52654272 0.28385991 -0.8651346 0.4134798 0
-0.031558 0.0132947 0.5264889 0.48644319 -0.84645551 0.2165323 0
-0.03028859 0.013919409 0.52658916 0.5807302 -0.78839219 0.20295399 0
-0.05875415 0.01492977 0.52698249 -0.65150541 -0.4833892 0.58470142 0
-0.057269983 0.01423396 0.52803445 -0.4828454 -0.53781641 0.69109619 0
-0.054723449 0.01313254 0.52903086 -0.3630293 -0.44665739 0.81774497 0
-0.052834149 0.01327817 0.52997708 -0.25062099 -0.51611787 0.81903082 0
-0.0497014 0.01286798 0.53040099 -0.1516749 -0.54568821 0.82414752 0
-0.046412829 0.01239829 0.53017461 -0.054197371 -0.58173567 0.81157029 0
-0.043219291 0.01296904 0.53021193 0.02900135 -0.60850531 0.79301971 0
-0.04050852 0.013290619 0.52986497 0.057134371 -0.66335732 0.74611843 0
-0.038051061 0.01348126 0.52935523 0.25277361 -0.80577213 0.53557158 0
-0.034900568 0.01422388 0.5293088 0.29515389 -0.85424161 0.42796659 0
-0.031801589 0.01471733 0.52831042 0.3576847 -0.76521409 0.53526539 0
-0.029271798 0.01548077 0.52778572 0.52078718 -0.79709309 0.30565229 0
-0.020816971 0.016387729 0.52618122 0.32312489 -0.4772799 0.81718677 0
-0.060097151 0.017418899 0.52838898 -0.65747797 -0.42007551 0.6255073 0
-0.058350831 0.016764039 0.52936989 -0.50435829 -0.52299541 0.68709439 0
-0.056076068 0.015866229 0.5300734 -0.29539061 -0.51372713 0.80549908 0
-0.053311981 0.015718849 0.53103447 -0.22561979 -0.47133291 0.85260838 0
-0.049982108 0.01502486 0.5315817 -0.1195477 -0.46065769 0.87949008 0
-0.046179451 0.01559548 0.5319733 -0.1059296 -0.45149341 0.88596427 0
-0.042948458 0.01493003 0.53149849 -0.077433333 -0.48342711 0.87195319 0
-0.039009973 0.01546235 0.53140491 -0.038062699 -0.45851699 0.88787007 0
-0.037234299 0.01472143 0.53049362 0.19426499 -0.78061128 0.59405982 0
-0.034079049 0.01539094 0.53058422 0.4255428 -0.80510449 0.41318291 0
-0.03151568 0.01616941 0.53042132 0.35807219 -0.85928458 0.36525929 0
-0.028593041 0.016416 0.52850765 0.42958191 -0.76479077 0.48016089 0
-0.02539107 0.017765069 0.5280593 0.52194721 -0.80355 0.28614429 0
-0.022468291 0.017209239 0.52683401 0.307684 -0.47224101 0.82602602 0
-0.020818898 0.01847305 0.52721393 0.32368931 -0.46874511 0.82189012 0
-0.01764016 0.01804818 0.52652287 0.35430601 -0.47817981 0.80362391 0
-0.062417611 0.020817209 0.5282355 -0.78788412 -0.30919999 0.53257298 0
-0.061035991 0.01982644 0.52935386 -0.70065612 -0.4458043 0.5570814 0
-0.058827888 0.019202931 0.53075045 -0.36416581 -0.50978732 0.77942312 0
-0.056086183 0.01883409 0.53178883 -0.121414 -0.490394 0.863002 0
-0.05267654 0.017135 0.53175765 -0.44603121 -0.3146252 0.8378945 0
-0.030442631 0.01777317 0.53168046 0.61305082 -0.78993672 0.0129891 0
-0.022961969 0.01951116 0.5287745 0.56886101 -0.68568361 0.45413131 0
-0.019902069 0.020842521 0.52862191 0.36805809 -0.55002308 0.74967182 0
-0.01795282 0.02044837 0.52772242 0.31120509 -0.44870591 0.83774358 0
-0.01418561 0.021361031 0.52677882 0.42432639 -0.43931299 0.79180253 0
-0.063594505 0.02300762 0.52832758 -0.70501941 -0.37838969 0.59980738 0
-0.062080201 0.02246039 0.53013831 -0.76748669 -0.3858082 0.51197302 0
-0.026785919 0.020208349 0.5324319 0.57874769 -0.81546873 0.0078775231 0
-0.02475848 0.020474439 0.53106892 0.29802981 -0.70916897 0.63895029 0
-0.021649191 0.021194501 0.52970695 0.054982781 -0.4943102 0.86754501 0
-0.019717621 0.02239316 0.52981073 0.59235388 -0.6248216 0.50864011 0
-0.0166947 0.02262455 0.52841884 0.24873041 -0.43444151 0.86567527 0
-0.01444391 0.02381267 0.52808398 0.36504149 -0.4451662 0.81766242 0
-0.01194821 0.02389323 0.52699989 0.41447479 -0.49473479 0.76383781 0
-0.065081105 0.026583839 0.52793998 -0.78036058 -0.33936241 0.52523369 0
-0.064058967 0.025380328 0.52919209 -0.72120208 -0.38802129 0.57385278 0
-0.06315805 0.02522267 0.5303697 -0.9340753 -0.3073799 0.1817167 0
-0.023807421 0.022134271 0.53300548 0.60695982 -0.78304261 0.13580979 0
-0.021426549 0.023462521 0.53217638 0.091135509 -0.42121801 0.90236902 0
-0.018413549 0.02429905 0.53040195 0.40760139 -0.5499801 0.72896028 0
-0.01672521 0.0253876 0.53005016 0.4725861 -0.60139883 0.64419091 0
-0.013888489 0.025903311 0.5289647 0.2553449 -0.43352279 0.86420888 0
-0.01121923 0.02675931 0.52836514 0.4061752 -0.46086439 0.78906637 0
-0.0095825605 0.02717605 0.52778226 0.49675909 -0.45192209 0.74094319 0
-0.065134719 0.02934473 0.52924681 -0.80360752 -0.32086301 0.50126052 0
-0.064598344 0.028155211 0.52960402 -0.85894293 -0.30402511 0.41205081 0
-0.063649528 0.027237711 0.5305714 -0.88740063 -0.26826471 0.37490559 0
-0.018829759 0.026318301 0.53261471 0.249936 -0.40477869 0.87959433 0
-0.016036069 0.027123479 0.53076303 0.66553009 -0.62846041 0.40262529 0
-0.01455262 0.027977671 0.53062218 0.58981031 -0.58119059 0.56066161 0
-0.01153632 0.02849571 0.52959251 0.29381281 -0.44471511 0.84611022 0
-0.008097169 0.029383169 0.52834761 0.59712458 -0.43399471 0.67460418 0
-0.0067082737 0.029194171 0.52738595 0.74221438 -0.40074959 0.53713828 0
-0.06591171 0.032184053 0.52883929 -0.8421858 -0.28137249 0.45994851 0
-0.065275833 0.031562291 0.53005689 -0.77114761 -0.29961619 0.56174868 0
-0.064505495 0.03038732 0.53095567 -0.95202208 -0.1236866 0.27992061 0
-0.01287891 0.02944121 0.5306989 0.76457143 -0.60960537 0.20931301 0
-0.0077477251 0.031778779 0.52980828 0.51931822 -0.39998221 0.75519723 0
-0.0055689998 0.032320131 0.52839613 0.797795 -0.35896379 0.48442549 0
-0.066487342 0.034618832 0.5289188 -0.87495458 -0.25129819 0.41388839 0
-0.065881789 0.03384513 0.52982461 -0.76502299 -0.26434311 0.58725011 0
-0.064772554 0.033565748 0.53227174 -0.95753741 -0.137702 0.25329909 0
-0.010555279 0.03226357 0.53168684 0.78550708 -0.60010397 0.15117501 0
-0.004705146 0.03499895 0.52915615 0.70558769 -0.3515352 0.61527967 0
-0.0040786727 0.034098141 0.52764362 0.74032807 -0.3222881 0.58995318 0
-0.067402899 0.037566762 0.52909493 -0.91654563 -0.19564579 0.3488079 0
-0.06706471 0.037369501 0.52949548 -0.86514908 -0.24945121 0.435076 0
-0.066411331 0.03656017 0.53015035 -0.73778552 -0.30638289 0.60149992 0
-0.0049156416 0.03699493 0.53044152 0.55717301 -0.49104699 0.66965002 0
-0.0038716299 0.037035771 0.52939761 0.60840732 -0.4037545 0.68324441 0
-0.00262245 0.037912231 0.5281859 0.86365068 -0.2733402 0.42354751 0
-0.068630159 0.04066173 0.5285778 -0.90600681 -0.1874844 0.37947521 0
-0.067843772 0.040337458 0.52962393 -0.8603155 -0.2269116 0.45647389 0
-0.066735074 0.040009301 0.5312714 -0.72587317 -0.25609189 0.63837689 0
-0.0044565359 0.038720358 0.53104931 0.60863978 -0.53969872 0.58162087 0
-0.0031081801 0.039328929 0.52976203 0.49204189 -0.4967522 0.714935 0
-0.002130548 0.040876333 0.52920389 0.82077909 -0.26473379 0.50619918 0
-0.069406144 0.04369301 0.52847081 -0.94667548 -0.13910221 0.29061341 0
-0.068559259 0.04374199 0.52988595 -0.8383193 -0.2127753 0.50194359 0
-0.0024477388 0.042558122 0.53101009 0.65429688 -0.46291479 0.59800118 0
-0.00095288374 0.043645211 0.52954799 0.81763822 -0.28752509 0.49879569 0
-0.0003969587 0.04399946 0.5284937 0.80913699 -0.3099629 0.49921981 0
-0.069680683 0.047025293 0.52925271 -0.93573499 -0.1548368 0.31690001 0
-0.06873177 0.046299253 0.5304606 -0.83080578 -0.25705811 0.49364251 0
-0.001449829 0.044683103 0.53109771 0.65890777 -0.4480249 0.60424691 0
-0.00026740989 0.045936137 0.5302 0.90754998 -0.1831269 0.37791201 0
0.00044126969 0.046953708 0.52910304 0.96692562 -0.1480017 0.2077269 0
-0.070319965 0.049739569 0.52924979 -0.95741481 -0.1634189 0.2380152 0
-0.069945119 0.04984263 0.53038752 -0.8488158 -0.25765401 0.46165591 0
0.00079071859 0.049202807 0.5297786 0.93650991 -0.16530479 0.30923051 0
0.00093698589 0.049412899 0.52955782 0.92341 -0.2049513 0.32451341 0
0.001062889 0.050071467 0.52826703 0.76160377 -0.32216591 0.56228888 0
-0.071733579 0.05386018 0.52890337 -0.99941683 -0.026305091 -0.02177649 0
-0.071324944 0.052698541 0.5293231 -0.97083032 -0.1624258 0.17636999 0
-0.070316002 0.052303743 0.53098571 -0.88943487 -0.26808199 0.370186 0
0.0011774091 0.05201295 0.53062403 0.94707668 -0.1692847 0.27274239 0
0.00148487 0.052519709 0.52924401 0.99723679 -0.072602659 0.01573672 0
0.00164631 0.053806048 0.53020036 0.77549082 -0.3410989 0.53128678 0
-0.071594208 0.055630039 0.530343 -0.99008578 -0.079471 0.115821 0
-0.071859881 0.055611599 0.5299198 -0.9565146 -0.17489021 0.233438 0
0.001827038 0.055347759 0.53007972 0.97749698 -0.13629951 0.1610031 0
0.001891251 0.055504791 0.52953929 0.99840498 -0.0442761 -0.035028651 0
0.001826126 0.055344202 0.53003663 0.80310011 -0.337565 0.4909991 0
-0.072610043 0.058747552 0.52854109 -0.99992192 0.01221452 -0.0026783149 0
-0.072432719 0.05827998 0.52936387 -0.99380612 -0.086802632 0.069388501 0
0.0019889718 0.058207501 0.52948493 0.99837333 -0.01247451 -0.0556347 0
-0.072568648 0.061519329 0.52967715 -0.9882946 -0.1058464 0.109865 0
-0.072565034 0.061491903 0.52926975 -0.99305022 0.01547892 -0.1166697 0
0.0018631361 0.061292689 0.52969265 0.98265332 0.0034149811 -0.1854208 0
-0.07240165 0.064307094 0.5299319 -0.99712491 -0.074818753 -0.01200715 0
-0.072382562 0.064307891 0.52940142 -0.99977022 0.0016262661 -0.021378029 0
0.001527985 0.064623743 0.52963781 0.97166598 0.067624219 -0.2264777 0
-0.072320417 0.067315392 0.53030127 -0.96120018 -0.2174599 0.1697218 0
-0.07217402 0.067276753 0.52957159 -0.98437959 -0.0043575219 -0.1760048 0
0.0002850247 0.068099476 0.52760684 0.8157416 0.252745 -0.52027458 0
0.001088975 0.067544222 0.52926689 0.95771062 0.099613987 -0.26993969 0
-0.071879402 0.07060723 0.5296666 -0.98381269 -0.064299762 -0.1672667 0
-0.071688108 0.070258431 0.52937019 -0.99353123 -0.018748891 -0.1120007 0
-5.5375691e-05 0.070990928 0.52829772 0.8456803 0.17778701 -0.50320631 0
0.00075338577 0.070342667 0.52960557 0.94800347 0.1155529 -0.29654151 0
-0.07163316 0.073209979 0.52931279 -0.98000997 -0.040042069 -0.19487721 0
-0.071579769 0.073079422 0.5291965 -0.90190142 0.102854 -0.41951761 0
-0.0002757214 0.073845156 0.52885729 0.89851582 0.1297742 -0.41931859 0
0.00057172118 0.073139586 0.53010136 0.97300792 0.052620951 -0.2246924 0
-0.071832784 0.076553486 0.52999079 -0.96722668 0.0043066642 -0.25387809 0
-0.071555473 0.076432414 0.52944875 -0.8938306 0.07384938 -0.44228181 0
-0.001464844 0.076420486 0.52753663 0.79740882 0.14105999 -0.58672088 0
-0.00060470833 0.076839529 0.52907485 0.89301878 0.091557547 -0.44060719 0
0.000275492 0.075979732 0.53026521 0.99518359 0.033153638 -0.092251733 0
-0.071296468 0.079616219 0.53011769 -0.93572313 0.097117253 -0.3391026 0
-0.071090139 0.079458445 0.52973861 -0.90127552 0.080967031 -0.42561349 0
-0.070178516 0.081019171 0.52753037 -0.95242459 -0.028668391 -0.3034229 0
-0.00094207359 0.079696953 0.52938956 0.90737039 0.083635949 -0.4119271 0
-0.0002434913 0.079127371 0.5304423 0.96229458 0.071433373 -0.26246241 0
-0.071234614 0.08176057 0.53069621 -0.87895697 0.182469 -0.440613 0
-0.07085216 0.082391828 0.5299772 -0.88829857 0.1630789 -0.4293378 0
-0.070321374 0.082983136 0.52823138 -0.97483402 0.018896209 -0.2221299 0
-0.002090794 0.082626387 0.52806294 0.95857549 -0.028626939 -0.28339621 0
-0.001429096 0.082429193 0.52929872 0.95510548 0.027580351 -0.2949796 0
-0.00087536598 0.082287498 0.53020871 0.93554211 0.13610519 -0.3259393 0
-0.070653476 0.085211068 0.5293262 -0.84607291 0.19993509 -0.49415249 0
-0.070409521 0.085654289 0.52874762 -0.93183368 0.1101737 -0.3457568 0
-0.001989766 0.085742392 0.5288102 0.97000611 -0.02413513 -0.2418796 0
-0.001596958 0.085385643 0.52960593 0.89208812 0.21139839 -0.39936131 0
-0.001179965 0.085623659 0.53065556 0.98398829 0.059695669 -0.1679392 0
-0.070678048 0.08867801 0.52940369 -0.8833726 0.140793 -0.44702369 0
-0.070314668 0.088738829 0.52869529 -0.93453771 0.082268506 -0.3462241 0
-0.0022759859 0.089362279 0.52832931 0.81366539 0.27868861 -0.51017767 0
-0.0019624401 0.088306531 0.52987659 0.97611922 0.047201179 -0.2120456 0
-0.001834161 0.088616572 0.53050798 0.98991889 0.01330265 -0.1410093 0
-0.070452005 0.09140759 0.52951097 -0.9269864 0.074259236 -0.36767089 0
-0.064216904 0.093568154 0.52432859 -0.54006582 0.34488589 -0.76771259 0
-0.0023946781 0.091550626 0.52814615 0.88150543 0.2285815 -0.4131569 0
-0.0020518538 0.09091603 0.5296393 0.99932277 -0.035357419 -0.01019371 0
-0.0021739081 0.090246655 0.52977151 0.99544579 0.0124329 -0.094515383 0
-0.070747867 0.094124265 0.53008878 -0.67493862 0.30193469 -0.6732707 0
-0.070438854 0.094622888 0.52974737 -0.93022251 0.063790463 -0.36140949 0
-0.069214821 0.095729478 0.52804428 -0.76906198 0.201938 -0.60643607 0
-0.063730724 0.0961513 0.52549183 -0.5684076 0.28583711 -0.77149862 0
-0.002754526 0.095273465 0.52822292 0.8114025 0.2568323 -0.52503639 0
-0.0022247101 0.094023772 0.52945662 0.9989354 -0.01557404 -0.04342344 0
-0.07099998 0.096999399 0.53104496 -0.65539008 0.2864728 -0.69885433 0
-0.070160002 0.097517565 0.52978921 -0.81360769 0.1731789 -0.55502403 0
-0.068771891 0.097845972 0.52828306 -0.67759538 0.24088439 -0.69486642 0
-0.062452771 0.098683089 0.52616054 -0.61959982 0.24265289 -0.74646878 0
-0.010561091 0.1003821 0.5243237 0.3533088 0.3855105 -0.85238171 0
-0.003520034 0.097834863 0.52831268 0.77964318 0.28375739 -0.55824578 0
-0.002634401 0.096805774 0.53003913 0.9954353 -0.0017420501 -0.095422879 0
-0.070301466 0.100351 0.53045642 -0.92097062 0.0125518 -0.38942981 0
-0.069946565 0.1005332 0.53015631 -0.7129721 0.2163405 -0.6669839 0
-0.06835483 0.1003695 0.5285722 -0.56189269 0.2768231 -0.77951622 0
-0.061699983 0.1010659 0.52667385 -0.60509509 0.2365462 -0.76020122 0
-0.0044887629 0.1021381 0.52862418 0.38562489 0.322947 -0.86429089 0
-0.0041767359 0.100831 0.52864504 0.73784709 0.29754341 -0.60584611 0
-0.0029872451 0.099614605 0.53065521 0.96396261 0.077380776 -0.25453591 0
-0.070548393 0.1042769 0.5324288 -0.90714282 0.09401077 -0.4101879 0
-0.069638945 0.10298549 0.53075421 -0.67180032 0.25146329 -0.69674289 0
-0.067481168 0.1031925 0.52926773 -0.58811551 0.26954359 -0.76253939 0
-0.065413713 0.1035134 0.5284242 -0.3415246 0.28199479 -0.89657122 0
-0.062570758 0.1050008 0.52858555 -0.60437429 0.17107511 -0.77811629 0
-0.052584227 0.1048852 0.52524149 -0.154098 0.33558011 -0.92932218 0
-0.0057698549 0.10363749 0.52781922 0.55789483 0.3278515 -0.76240861 0
-0.0047409581 0.103863 0.52906078 0.76977891 0.26384971 -0.58122611 0
-0.0036710771 0.1027584 0.53033501 0.85013598 0.2055265 -0.4847964 0
-0.069058411 0.1059312 0.5315001 -0.61405921 0.27764809 -0.73881179 0
-0.067003377 0.1060899 0.53033173 -0.53153569 0.29704499 -0.79324281 0
-0.064004287 0.10611 0.52928054 -0.33377171 0.32498589 -0.88486201 0
-0.061288763 0.1067256 0.528813 -0.39205149 0.25686741 -0.88335431 0
-0.059421137 0.1069488 0.52829164 -0.29155859 0.3030366 -0.90728301 0
-0.055981301 0.1067615 0.52686501 -0.23950671 0.31348121 -0.91889399 0
-0.053610161 0.108607 0.52679718 -0.165479 0.32625201 -0.930686 0
-0.01589247 0.1086973 0.52600068 0.2825641 0.30128911 -0.91070437 0
-0.0066105444 0.1070228 0.52831674 0.72244167 0.30613971 -0.6199649 0
-0.0050671548 0.1063185 0.52961135 0.6494348 0.3208597 -0.68940812 0
-0.0038741021 0.10556 0.53126395 0.81468439 0.26192909 -0.51738048 0
-0.069308221 0.10782479 0.53232038 -0.73535877 0.2236519 -0.63970882 0
-0.066325396 0.1089322 0.53120285 -0.46070379 0.33167389 -0.82325238 0
-0.064027846 0.1089506 0.53047913 -0.34763601 0.36109379 -0.86530948 0
-0.0613706 0.1094981 0.52970254 -0.28787091 0.3463085 -0.89286101 0
-0.05841225 0.1097184 0.52866858 -0.27293909 0.2917037 -0.91674048 0
-0.05615316 0.1100549 0.52796721 -0.2349834 0.31620911 -0.91912711 0
-0.053628519 0.1101529 0.52741528 -0.1990746 0.3316192 -0.92217028 0
-0.01946741 0.110253 0.52646524 0.2417015 0.3073554 -0.92038739 0
-0.0099407583 0.1100784 0.52780849 0.41980991 0.36925271 -0.82910317 0
-0.0073042633 0.1096401 0.52873433 0.44663289 0.36660969 -0.81615949 0
-0.0054703499 0.1091705 0.53009915 0.56077772 0.39068329 -0.72999662 0
-0.0040435353 0.1085579 0.53174871 0.76675707 0.34575921 -0.54086441 0
-0.065826401 0.1117814 0.53183192 -0.45949671 0.37827799 -0.80359727 0
-0.06377916 0.1117335 0.5310778 -0.3589983 0.395448 -0.84542358 0
-0.061173741 0.1122851 0.53036761 -0.26985139 0.43053779 -0.86128819 0
-0.05853834 0.1123669 0.52943289 -0.2402266 0.3777737 -0.89419138 0
-0.05555553 0.1126737 0.52863896 -0.221104 0.37474051 -0.90037918 0
-0.0529081 0.1128775 0.52832109 -0.2058446 0.36182609 -0.90923589 0
-0.049904171 0.1131775 0.52770609 -0.197771 0.3679803 -0.90855777 0
-0.047184713 0.1132508 0.5269751 -0.174825 0.37766719 -0.90928751 0
-0.045114331 0.1142285 0.52692217 -0.15149499 0.370949 -0.91621298 0
-0.040933751 0.1146196 0.52656072 -0.1212511 0.3482112 -0.92954141 0
-0.02651098 0.1146122 0.52720141 0.180705 0.37167001 -0.91060811 0
-0.02274012 0.113151 0.52708071 0.21389569 0.34252721 -0.91483539 0
-0.01920444 0.1138045 0.52817851 0.25131339 0.3356517 -0.90784341 0
-0.01625919 0.11396769 0.5283981 0.2371722 0.42448151 -0.87382197 0
-0.01340181 0.1126528 0.52795476 0.26195601 0.45284721 -0.85223728 0
-0.01030736 0.1127779 0.52872181 0.36098409 0.44948381 -0.81710148 0
-0.0079627763 0.1126578 0.52967668 0.3984367 0.46840289 -0.78857273 0
-0.0059004179 0.112044 0.53079575 0.52366573 0.4686282 -0.71145052 0
-0.0041382024 0.1105308 0.53184789 0.75297922 0.35161909 -0.55622512 0
-0.063093267 0.1140038 0.53146392 -0.28037179 0.49053031 -0.82508892 0
-0.060874581 0.1152558 0.53116822 -0.25062639 0.49313319 -0.83307028 0
-0.058104441 0.114948 0.53051037 -0.22532339 0.4959271 -0.83862138 0
-0.05504512 0.1150264 0.5298053 -0.2105912 0.49993369 -0.84007001 0
-0.052543219 0.1150269 0.52953029 -0.19824331 0.44323999 -0.87420708 0
-0.049949761 0.1156626 0.5292775 -0.15827259 0.42555401 -0.89098471 0
-0.047188789 0.11611991 0.52912563 -0.168837 0.3755101 -0.9113102 0
-0.044073042 0.1162874 0.52827591 -0.1252238 0.41462329 -0.90133601 0
-0.040797051 0.11666761 0.5280295 -0.1073177 0.39995521 -0.91022998 0
-0.036613498 0.116775 0.5277288 -0.099594273 0.3921372 -0.91449958 0
-0.030558519 0.1168155 0.5286299 0.13910501 0.42780489 -0.89310288 0
-0.028282749 0.1159751 0.52822196 0.1393007 0.43051741 -0.89176798 0
-0.02501319 0.1161849 0.52909869 0.17311271 0.4001452 -0.89995319 0
-0.022154721 0.115688 0.5290848 0.1619678 0.4111608 -0.89705813 0
-0.019334201 0.11558609 0.52946979 0.1944629 0.42784241 -0.88268632 0
-0.0165185 0.1153014 0.52946198 0.25497729 0.4710367 -0.844459 0
-0.013873241 0.1152856 0.53007877 0.2524488 0.53491467 -0.80631012 0
-0.011296489 0.1148916 0.53045315 0.28920451 0.52028531 -0.80353218 0
-0.0085375337 0.1149629 0.53178698 0.36543599 0.55453932 -0.74762481 0
-0.0069222497 0.1143648 0.53211069 0.458482 0.51449412 -0.72463107 0
-0.0599529 0.1171139 0.53210199 -0.225711 0.58739412 -0.77718902 0
-0.056817699 0.1179279 0.53190178 -0.19748791 0.5592609 -0.80512482 0
-0.055404898 0.11756501 0.53134996 -0.2018979 0.55602181 -0.80627352 0
-0.05220855 0.117753 0.53107297 -0.1887864 0.60926718 -0.77016437 0
-0.049425628 0.1178837 0.53051817 -0.1497788 0.54793239 -0.82300448 0
-0.046447799 0.11824749 0.5302791 -0.1455822 0.60450298 -0.78318709 0
-0.04340725 0.1186323 0.53012389 -0.099464111 0.56271487 -0.82064539 0
-0.04054299 0.1186997 0.52932644 -0.094062082 0.61215383 -0.78512418 0
-0.03772084 0.1187535 0.52911961 -0.02451128 0.57459033 -0.81807423 0
-0.034381401 0.1186966 0.52937001 0.059372161 0.51671642 -0.85409552 0
-0.03147446 0.1186857 0.52978617 0.054413691 0.57340938 -0.81746 0
