ply
format ascii 1.0
comment PCL generated
element vertex 658
property float x
property float y
property float z
property float nx
property float ny
property float nz
property float curvature
element camera 0
property float view_px
property float view_py
property float view_pz
property float x_axisx
property float x_axisy
property float x_axisz
property float y_axisx
property float y_axisy
property float y_axisz
property float z_axisx
property float z_axisy
property float z_axisz
property float focal
property float scalex
property float scaley
property float centerx
property float centery
property int viewportx
property int viewporty
property float k1
property float k2
end_header
-0.01123215 -0.03359637 0.48691761 0.47842199 -0.84118408 -0.25203499 0
-0.031755552 -0.040968418 0.49584767 0.2343957 -0.90662807 0.3508338 0
-0.070648581 0.016346291 0.4963688 -0.92424399 0.06557449 -0.37612891 0
-0.01083902 -0.0083268136 0.50799662 0.32857579 -0.2178392 0.91901249 0
-0.01448693 -0.033986859 0.48375627 0.40087339 -0.82936633 -0.38916841 0
-0.065741278 0.02556858 0.49284342 -0.80549031 0.1633241 -0.56965822 0
-0.019628599 -0.037817121 0.4872576 0.46525291 -0.85489959 -0.2295353 0
-0.069480568 0.006566762 0.4935292 -0.98882979 -0.082220919 -0.1243195 0
-0.05535413 0.0043598507 0.48171169 0.1161657 0.27558851 -0.95423079 0
-0.06153769 0.0155879 0.4869214 -0.37353289 0.2916953 -0.88056058 0
-0.046976041 0.00407195 0.4843013 0.18249699 0.016054951 -0.98307532 0
-0.022559259 0.020400491 0.52953112 0.35930651 -0.6943292 0.62354302 0
-0.06387952 0.027981801 0.49070379 -0.77213752 0.1055332 -0.62663102 0
-0.031590268 -0.0094118454 0.5130915 0.068098433 -0.82071489 0.56726509 0
-0.06711106 0.01025167 0.48860559 -0.76456541 0.2484196 -0.59474999 0
-0.049752459 -0.02892239 0.50321978 -0.1551661 0.075102203 0.98502958 0
-0.063261926 0.017704621 0.52273494 -0.80917531 -0.42433599 0.40641639 0
-0.047467731 0.0041444614 0.51883668 -0.13273101 -0.67477483 0.72599012 0
-0.071580991 0.016330291 0.50576019 -0.98241299 -0.1378525 0.1259418 0
-0.065390617 0.01060814 0.51792824 -0.59892839 -0.30935881 0.73863518 0
-0.019371081 -0.02899093 0.50585723 0.069921762 -0.4266043 0.90173149 0
-0.0017284281 -0.0038626771 0.47466049 0.40380731 0.58408892 -0.70411652 0
-0.051115889 -0.051930599 0.47634658 -0.88267392 -0.3004798 0.36138421 0
-0.063789062 0.01333494 0.51994151 -0.62045801 -0.2695553 0.73645902 0
-0.0084945941 0.02828766 0.49732542 0.63955128 0.48868439 -0.59343213 0
-0.038304619 -0.062708281 0.4709363 0.1288297 -0.98198771 0.13821401 0
-0.016935039 -0.022751829 0.5074572 -0.018029351 -0.06082198 0.99798578 0
-0.062211022 0.01057188 0.52021259 -0.56220973 -0.32729161 0.75947368 0
-0.040769503 -0.062986761 0.46859992 0.090596423 -0.98127627 -0.1699682 0
-0.069539912 0.011450499 0.51063919 -0.94813889 -0.2296731 0.21973351 0
-0.04641258 -0.055035301 0.45801651 -0.47105059 -0.1887469 -0.86167622 0
-0.01448103 -0.025208639 0.50685519 0.1140321 -0.34859109 0.93031222 0
-0.055938639 -0.001646072 0.51454496 -0.1572732 -0.39536849 0.90495801 0
-0.0071363603 -0.0059467638 0.47044441 0.39491189 0.454115 -0.798639 0
-0.05239195 -0.05254636 0.46611068 -0.94972509 -0.26835549 -0.1612687 0
-0.034417838 -0.043061439 0.45581099 0.1251391 0.18807819 -0.97414923 0
-0.05358297 -0.047190219 0.4710449 -0.9756394 -0.059327379 0.2112062 0
-0.052495379 -0.043426 0.4752208 -0.95838982 -0.1169866 0.26039031 0
-0.019374041 -0.020307031 0.50712651 -0.1325772 0.0075084888 0.99114418 0
-0.034796309 0.018513691 0.53378165 0.03951836 -0.59388947 0.80357552 0
-0.049905919 0.001704653 0.51671821 -0.1655367 -0.4637554 0.87036109 0
-0.034034271 -0.0096247168 0.51308548 0.05958293 -0.80938452 0.58424878 0
-0.035256643 -0.046028599 0.45544001 0.0086772814 0.01980089 -0.99976629 0
0.0030973712 -0.01123615 0.47581422 0.81025869 -0.2719 -0.5191831 0
-0.058581799 0.01043415 0.5227921 -0.54363292 -0.5551843 0.629471 0
-0.01080287 0.0039530979 0.48076141 0.27319619 0.5972774 -0.75407141 0
-0.043433603 -0.060196541 0.47594628 -0.2734336 -0.77625233 0.56803751 0
-0.058615003 0.0068098889 0.51960403 -0.24425989 -0.6294682 0.73763603 0
-0.05614195 -0.0094248727 0.51064539 -0.2974157 -0.491063 0.81878018 0
-0.031240009 -0.03745243 0.50089848 0.1293596 -0.72256708 0.67908973 0
-0.038312119 0.020610001 0.53506839 -0.050577391 -0.46800429 0.88227773 0
-0.034299221 0.022372918 0.5362162 -0.058659021 -0.50811148 0.85929149 0
-0.0496151 0.02817288 0.53772634 -0.068857007 -0.46192241 0.88424343 0
-0.034657959 0.048678003 0.54963374 -0.1614368 -0.46631199 0.86976498 0
0.001061714 0.1010251 0.56477362 0.85948241 -0.27648079 0.42993999 0
-0.0010379141 0.096964367 0.56683421 0.88976651 -0.1669829 0.42477319 0
-0.002375531 0.095031068 0.56908643 0.86852121 -0.1129547 0.48260969 0
-0.01156974 0.096958935 0.57616305 0.36130029 -0.24573749 0.89948612 0
-0.02153972 0.084666193 0.57422912 0.2441472 -0.61137241 0.75273901 0
-0.01636686 0.09014459 0.57553416 0.36700749 -0.37997961 0.84907073 0
-0.01387078 0.096958898 0.5770238 0.31182429 -0.30385941 0.90024167 0
-0.02271718 0.087331966 0.57655561 0.18162289 -0.4118394 0.89297342 0
-0.019804701 0.091842294 0.57721227 0.2138342 -0.2427711 0.9462226 0
-0.01633494 0.095045537 0.57716709 0.26732999 -0.27543211 0.92340243 0
-0.003986367 0.099408239 0.5719226 0.93355751 -0.18144511 0.3091087 0
0.0009319862 0.096964248 0.56194532 0.88593167 -0.2821618 0.36811629 0
-0.0020188929 0.079860739 0.55950731 0.95977563 -0.1296654 0.2490333 0
-0.065307245 0.0759781 0.5589729 -0.52301991 -0.50777131 0.6845572 0
-0.057945862 0.070807867 0.55898148 -0.3541508 -0.58103019 0.73278999 0
-0.001152145 0.082307696 0.55705559 0.93903631 -0.15478081 0.3070077 0
0.003704424 0.1006183 0.55706871 0.97912091 -0.1443329 0.1431448 0
-0.058952998 0.068341002 0.55658615 -0.34246969 -0.55663711 0.75688148 0
-0.065111093 0.073146671 0.55697167 -0.52688098 -0.53726399 0.65859228 0
-0.067618884 0.076023176 0.55675673 -0.72285497 -0.4006055 0.56302392 0
-0.062318537 0.070728607 0.5567733 -0.38336551 -0.5482617 0.74326313 0
0.001951654 0.088817626 0.55376047 0.90052289 -0.21613979 0.37728259 0
-0.06478782 0.069869779 0.5547998 -0.49627051 -0.53412551 0.68441629 0
-0.033653911 0.05301632 0.55219263 -0.1109026 -0.5198822 0.84700841 0
0.0032688119 0.092067257 0.5521884 0.95843428 -0.15969861 0.23643219 0
-0.068282761 0.070728041 0.5510096 -0.82465571 -0.40899339 0.39072669 0
0.0037212679 0.094521157 0.54972386 0.99861389 -0.051625699 0.01025202 0
0.002643696 0.084703393 0.54975563 0.92408842 -0.2044612 0.3228873 0
-0.065037519 0.066016227 0.55149126 -0.596439 -0.52343881 0.60850018 0
-0.03829103 0.052775361 0.55158585 -0.072793402 -0.51589698 0.85355228 0
-0.010192689 0.00098444847 0.4784089 0.1761653 0.73399299 -0.65591168 0
-0.071457103 0.01388504 0.50236672 -0.98480529 -0.1736059 0.004420667 0
-0.0227019 -0.035604358 0.50135529 0.206119 -0.78067237 0.58997083 0
-0.038404081 -0.040478021 0.49936381 0.1200666 -0.74554187 0.65555412 0
-0.070585243 0.02557626 0.51388627 -0.9233613 -0.1814684 0.33833879 0
-0.053490058 -0.049643267 0.46910641 -0.97403473 -0.2230311 0.038902968 0
-0.03355334 -0.04168494 0.49523589 0.26642689 -0.90242863 0.3385843 0
-0.0067156218 0.02614503 0.49774799 0.7495231 0.37134501 -0.54801267 0
-0.043163657 -0.062152311 0.46576449 0.01500865 -0.93357968 -0.3580555 0
-0.046537779 -0.060968049 0.4629755 -0.23525929 -0.87090498 -0.43148309 0
-0.034560099 -0.038348351 0.50063902 0.1537521 -0.68919557 0.70807463 0
-0.0218063 -0.032572169 0.50415289 0.1387725 -0.55939221 0.81720418 0
-0.053581629 -0.0080919769 0.51209027 -0.1426615 -0.45358941 0.87971842 0
-0.053580072 -0.0042902632 0.5137803 -0.12984741 -0.3931995 0.91023833 0
-0.0075360071 0.020096969 0.49321398 0.74204957 0.2477985 -0.62286288 0
-0.037478309 -0.04660124 0.45565569 -0.04629771 -0.02240064 -0.99867642 0
-0.055464819 0.01037255 0.52582318 -0.4177238 -0.70965171 0.56736338 0
-0.037920378 -0.0078466106 0.51531452 -0.055191979 -0.68540508 0.72606719 0
-0.05552423 -0.01604289 0.50522441 -0.33636841 -0.59092468 0.73325592 0
-0.055035681 -0.037319697 0.47835571 -0.62420011 -0.69117713 -0.36420941 0
-0.052571848 -0.040421139 0.47840852 -0.90772289 -0.4124096 0.077184647 0
-0.043260861 -0.052680328 0.45639881 -0.2541371 -0.14425901 -0.95634907 0
-0.06799496 0.01050858 0.51448852 -0.83947742 -0.29472241 0.45652649 0
-0.040857207 -0.050234798 0.45601207 -0.1003074 -0.01545394 -0.99483651 0
-0.049494818 -0.01366026 0.50838941 0.01234579 -0.68825978 0.7253592 0
-0.05114302 0.01334057 0.53039348 -0.1732669 -0.52843201 0.8311066 0
-0.06976714 0.028552169 0.51797193 -0.92151457 -0.2231385 0.31783649 0
-0.050775133 -0.040915322 0.48725697 -0.47964981 -0.87050807 0.1102354 0
-0.034552108 -0.061031409 0.47597939 0.038195841 -0.96178108 0.27114251 0
-0.046251751 -0.01328612 0.50847721 -0.019651471 -0.71760488 0.69617307 0
-0.01693324 -0.020305829 0.50740159 -0.066905133 0.03007563 0.99730593 0
-0.05311973 -0.01105806 0.51045966 -0.12818331 -0.56731182 0.81346571 0
-0.07097318 0.01303302 0.50575823 -0.96300322 -0.2252688 0.14791469 0
-0.066793665 0.01102052 0.51671755 -0.73250681 -0.28655851 0.61750942 0
-0.053577401 -0.00074550341 0.51514411 -0.110611 -0.35703811 0.92751771 0
0.0007358875 -0.0045007248 0.47589019 0.54135072 0.59476161 -0.59430468 0
-0.045837849 -0.05744702 0.4584046 -0.3508603 -0.40783831 -0.84295011 0
-0.053586733 0.01633236 0.53123969 -0.24817009 -0.4386754 0.86369878 0
-0.025297759 -0.034897339 0.5028168 0.093255207 -0.67146271 0.735147 0
-0.019381091 -0.02274956 0.50723422 -0.1071693 -0.0292826 0.99380952 0
-0.013874659 0.0041445461 0.48006672 0.17497499 0.60371518 -0.77776062 0
-0.01396202 0.0023034019 0.47858131 0.1943177 0.64769047 -0.73670739 0
-0.052820228 0.0099878758 0.52697366 -0.27229121 -0.74612701 0.60757881 0
-0.0408106 -0.052678742 0.4559136 -0.094327167 -0.1194012 -0.9883551 0
-0.045574401 0.0022506248 0.51808029 -0.1897487 -0.45952511 0.86765891 0
-0.052934978 -0.016432581 0.5055517 -0.090798482 -0.62535101 0.77504307 0
-0.043230999 -0.063060828 0.46857619 -0.016064741 -0.98889792 -0.14772519 0
-0.052159742 -0.047183782 0.47522432 -0.93481088 -0.094593018 0.34231669 0
-0.016424339 -0.029184379 0.50525397 0.14571241 -0.5129205 0.84597898 0
-0.049717382 -0.04206638 0.4848839 -0.60337162 -0.76031572 0.240547 0
-0.049366679 0.0038404979 0.51820695 -0.1341491 -0.64042902 0.75621068 0
-0.03403464 -0.0079327589 0.51536041 -0.02389721 -0.71561462 0.69808638 0
-0.064613931 0.0079259109 0.51731402 -0.65536118 -0.39365959 0.64461911 0
0.003146823 -0.0087385383 0.47586718 0.80441201 0.17079429 -0.56899083 0
-0.061193403 0.0084244022 0.51979011 -0.4587152 -0.45028859 0.76604217 0
-0.05355709 -0.04375726 0.4714559 -0.98263848 0.042882562 0.1805066 0
-0.055959061 -0.01103895 0.50960398 -0.33570769 -0.57545608 0.74575508 0
-0.03431103 -0.047166932 0.4555777 0.061239921 -0.026927659 -0.99775982 0
-0.038173821 0.018448759 0.53374439 -0.0051408359 -0.55709678 0.83043158 0
-0.034799449 0.020435641 0.53504384 -0.006940024 -0.50681329 0.86202782 0
-0.03831121 0.02314101 0.5361917 -0.079203539 -0.4353123 0.89678872 0
-0.045647498 0.027897401 0.53790778 -0.05869548 -0.44969061 0.89125371 0
-0.03832753 0.049019951 0.54943073 -0.066716023 -0.49405321 0.8668682 0
-0.00011883261 0.099411599 0.56607014 0.86748701 -0.226806 0.4427475 0
-0.002574322 0.092073418 0.5686807 0.87408328 -0.2224123 0.43186939 0
-0.02915694 0.082973868 0.57366669 -0.1168658 -0.62723893 0.77000892 0
-0.02576369 0.08520145 0.57561296 0.028312979 -0.59055167 0.806503 0
-0.026711179 0.087165028 0.57689351 0.0108341 -0.3814365 0.92433149 0
-0.016398029 0.092748418 0.57644922 0.3101289 -0.2928564 0.90446413 0
-0.020245649 0.09482912 0.57796037 0.1653778 -0.20298029 0.96511608 0
-0.0044677146 0.097538859 0.57217574 0.85930109 -0.1433149 0.49098119 0
0.0021574299 0.099406123 0.5612123 0.88598847 -0.29185349 0.3603414 0
0.0001177432 0.097330496 0.56422311 0.89222783 -0.25100759 0.37539929 0
-0.001772379 0.082303017 0.5595085 0.96159053 -0.1092374 0.25181511 0
0.0034484579 0.1018423 0.55951095 0.93957341 -0.22156081 0.26098379 0
-0.06334468 0.074983597 0.55949593 -0.4386012 -0.55909479 0.70359218 0
-0.001328062 0.079200603 0.55627066 0.95641732 -0.1675896 0.2391227 0
-0.05895802 0.070265025 0.55803841 -0.3524878 -0.57878482 0.7353642 0
-0.065105215 0.068324342 0.55328774 -0.57445687 -0.52293658 0.62971139 0
-0.067031145 0.073739097 0.5558604 -0.6150642 -0.56702131 0.54788947 0
-0.066854425 0.070790783 0.55356222 -0.67463481 -0.46762049 0.57113832 0
0.0034082429 0.0945144 0.55306786 0.97354978 -0.1302146 0.18773641 0
-0.034970451 0.051886231 0.55138123 -0.1164984 -0.48797041 0.86505091 0
0.001174608 0.084738009 0.55307978 0.87721038 -0.25526071 0.40662491 0
-0.066942304 0.068558827 0.55136609 -0.73875409 -0.48135731 0.4717387 0
0.0036066531 0.092077263 0.54972929 0.9970237 -0.048818149 0.05967059 0
0.002562701 0.087765381 0.55186653 0.91958362 -0.1714631 0.35350609 0
-0.071737878 0.016336611 0.5021925 -0.99682242 -0.073382132 -0.030986279 0
-0.035035338 -0.04032483 0.49866712 0.2033499 -0.80461073 0.55789828 0
-0.069689296 0.010139559 0.50820029 -0.94217718 -0.2711145 0.1969745 0
-0.070968106 0.028792489 0.51447606 -0.94703603 -0.1561473 0.28060791 0
-0.052785147 -0.05208347 0.4691008 -0.95122868 -0.30674899 0.032694399 0
-0.053335078 -0.049645789 0.4666355 -0.96334583 -0.18591981 -0.1933872 0
-0.0017459181 -0.002147903 0.47658992 0.3706795 0.7497679 -0.54812849 0
-0.064911664 0.016523721 0.52001631 -0.74183089 -0.25712299 0.61933398 0
-0.0082078427 0.025391491 0.49538559 0.68255693 0.43630821 -0.58630311 0
-0.05276892 -0.040249772 0.48070541 -0.73325223 -0.67995149 -0.0026815259 0
-0.055909101 -0.037912861 0.48087218 -0.55542552 -0.77770478 -0.294411 0
-0.037533741 -0.041987412 0.4971773 0.17417639 -0.85260153 0.4926796 0
-0.025575669 -0.03256049 0.50459182 0.036284599 -0.48215851 0.87533218 0
-0.0383671 -0.06148833 0.4750036 0.01437959 -0.93962622 0.3419005 0
-0.034463212 -0.061677959 0.47202781 0.26199999 -0.96384209 0.04862554 0
-0.0074011576 0.027727399 0.49811661 0.67002583 0.4509306 -0.58968389 0
-0.055833761 -0.007256221 0.5118826 -0.27851129 -0.43667671 0.85542101 0
-0.038173489 -0.04409875 0.45561931 -0.02077331 0.1474521 -0.98885107 0
-0.04699311 0.01259636 0.53034401 -0.016877791 -0.58619231 0.80999619 0
-0.0078691598 0.02252946 0.49392968 0.71707112 0.31868461 -0.61987841 0
-0.03769844 -0.0099328617 0.51310301 0.002939919 -0.74796981 0.66372639 0
-0.05580239 -0.004082547 0.51355731 -0.2282628 -0.4538826 0.86132848 0
-0.0536182 -0.038675308 0.4781906 -0.789074 -0.59222221 -0.1632023 0
-0.043261081 -0.050292078 0.45636991 -0.23801591 -0.034297131 -0.9706555 0
-0.067209661 0.0075008632 0.5135439 -0.82572562 -0.37759289 0.4190475 0
-0.040790729 -0.06192207 0.4652693 0.088517159 -0.92235762 -0.37606019 0
-0.071716264 0.026104031 0.51065332 -0.96978438 -0.1106462 0.2174294 0
0.0025962591 0.092299022 0.55451423 0.92120087 -0.21981689 0.32104421 0
-0.068357937 0.006133961 0.508192 -0.92779303 -0.31521201 0.1996032 0
-0.031582199 -0.02029662 0.50517601 -0.116728 -0.1322469 0.98431981 0
-0.043221228 -0.061145272 0.4635776 0.069738343 -0.89699823 -0.43649831 0
-0.065061972 -0.025675591 0.4729014 -0.64723909 -0.58218157 -0.49208361 0
-0.035075441 -0.056987017 0.4590278 0.30859351 -0.73829132 -0.59974658 0
-0.049304731 -0.05847194 0.47160441 -0.81438971 -0.48858309 0.31313899 0
-0.067033201 -0.025463641 0.4755061 -0.69588161 -0.56860638 -0.43867481 0
-0.043934751 -0.05598392 0.4573991 -0.1434513 -0.36282349 -0.9207502 0
-0.06482546 -0.02805933 0.47553611 -0.65018243 -0.6120019 -0.45024049 0
-0.028704612 -0.02323563 0.5057084 -0.14318611 0.080219239 0.98643929 0
-0.050843608 -0.043514129 0.46170542 -0.76415187 0.241501 -0.59812123 0
-0.034030128 -0.016835181 0.50572848 -0.031330232 -0.41049421 0.9113248 0
0.00075630809 -0.0089228619 0.4735319 0.56525397 0.2468605 -0.78711361 0
-0.034039021 -0.0053787306 0.51777226 -0.046094552 -0.611983 0.78952658 0
-0.033806432 -0.059141781 0.46301222 0.3363291 -0.82983577 -0.4452585 0
-0.05773408 -0.025191819 0.46723631 -0.29977879 -0.39355239 -0.86905068 0
-0.04625671 -0.063267909 0.46910042 0 0 0 0
-0.071890347 0.028565411 0.50817817 -0.9800052 0.1015286 -0.1711189 0
-0.049005829 -0.047181901 0.45886788 -0.63309199 0.018657191 -0.77385181 0
-0.051709641 -0.05262981 0.46366018 -0.93218988 -0.2034971 -0.29935101 0
-0.016246481 -0.032036442 0.5030607 0.1792825 -0.64750892 0.74066848 0
-0.068817466 0.01010995 0.51186562 -0.9152481 -0.277587 0.2920042 0
-0.0413647 -0.013385001 0.50864011 -0.01782841 -0.74278063 0.6692974 0
-0.034492169 0.016659809 0.53216165 0.16358431 -0.71582329 0.67884988 0
-0.02105863 -0.033813708 0.50287759 0.1828322 -0.69259632 0.69776988 0
-0.0058774627 0.01296083 0.49304998 0.86016178 0.2097809 -0.4648802 0
-0.03206512 0.00068803178 0.47903672 -0.31564599 0.77528328 -0.5470863 0
-0.06074072 -0.02562286 0.46869949 -0.41780391 -0.50561929 -0.75484371 0
-0.040604468 0.01302583 0.5296818 0.1991424 -0.67245638 0.7128427 0
-0.037800189 0.0016774561 0.51942354 -0.2185743 -0.27653909 0.93581587 0
-0.0059364727 -0.0105329 0.47004598 0.43722531 0.1009161 -0.89367223 0
-0.038933922 -0.00188407 0.51820332 -0.24561299 -0.27969369 0.928141 0
-0.051651228 -0.055129051 0.4660145 -0.9629795 -0.240804 -0.1211772 0
-0.041363709 0.0016854301 0.51861089 -0.16561019 -0.3670882 0.91532469 0
-0.064300984 0.02000053 0.52309996 -0.83599108 -0.3153533 0.4490779 0
0.0023068651 -0.01053474 0.4743402 0.74284852 0.004692086 -0.66944319 0
-0.047560699 -0.041933119 0.49266738 -0.40369189 -0.90314251 0.14617281 0
-0.071813814 0.01878147 0.5057531 -0.99844313 -0.04001113 0.038863949 0
-0.0078415945 -0.0081722746 0.46930209 0.41691929 0.1542872 -0.89575309 0
-0.003652937 0.01007771 0.49643141 0.92652768 0.28076279 -0.25043699 0
-0.053582951 0.02122278 0.53372538 -0.1721819 -0.4589664 0.87160963 0
-0.056030739 0.023660081 0.5344702 -0.2445164 -0.45387369 0.85686082 0
-0.046250951 0.026117189 0.53695679 -0.067972489 -0.4322589 0.89918399 0
-0.043808199 0.026114371 0.53709161 -0.055140041 -0.43414661 0.89915311 0
-0.04087681 0.028555559 0.53853589 -0.091153413 -0.4502013 0.88826227 0
-0.052905072 0.053920221 0.54947603 -0.1638415 -0.47468141 0.86477369 0
-0.05772851 0.058601439 0.55033916 -0.293585 -0.4230223 0.85723978 0
-0.065130815 0.064693816 0.55026394 -0.61618221 -0.50624132 0.60335672 0
-0.0024943701 0.079858065 0.56121409 0.9046852 -0.1624784 0.39388499 0
-0.016277889 0.08806818 0.57434189 0.3832303 -0.51555091 0.76638228 0
-0.02297364 0.091776863 0.57773995 0.1324589 -0.2263111 0.96500659 0
-0.019011231 0.089961678 0.57652658 0.29108021 -0.3172206 0.90257591 0
-0.026132641 0.094880626 0.57858145 0.007648509 -0.1449163 0.98941427 0
-0.01936494 0.085150048 0.5737192 0.36320561 -0.60122818 0.71176279 0
0.002463819 0.097607382 0.55895507 0.90692419 -0.26710731 0.32579499 0
-0.071606219 0.022141648 0.502644 -0.97741759 0.1062195 -0.1826808 0
-0.055278197 -0.03734646 0.4982785 -0.40892759 -0.82378918 0.39261901 0
-0.0071866009 0.01374908 0.49114919 0.7961548 0.2551198 -0.54868138 0
-0.066480882 0.01988627 0.51958382 -0.81971538 -0.1253213 0.55889273 0
-0.045637049 -0.062197201 0.46588102 -0.037872151 -0.95212162 -0.3033646 0
-0.063926272 -0.022107638 0.46849191 -0.43309101 -0.23249359 -0.87084961 0
-0.021819228 -0.028820431 0.506028 0.0091424743 -0.29783651 0.95457309 0
-0.052977148 -0.038988572 0.49659008 -0.3484388 -0.89845783 0.26714069 0
-0.050519481 -0.04077667 0.49057958 -0.4094871 -0.9061957 0.105497 0
-0.0042768242 0.084736213 0.5668503 0.76799911 -0.35088849 0.53577483 0
-0.046869542 -0.05821833 0.47584879 -0.62601382 -0.61629862 0.47778949 0
-0.050283279 -0.05486834 0.47462839 -0.82389909 -0.4799028 0.301469 0
-0.025582029 -0.02519194 0.50638419 -0.1208995 -0.01578442 0.99253929 0
-0.001738083 -0.011042221 0.47162768 0.47501081 0.076101817 -0.87668318 0
-0.0062440839 0.01561483 0.49329391 0.82169998 0.2046361 -0.53191471 0
-0.05602815 0.019605881 0.53222919 -0.29149699 -0.46502829 0.83592957 0
-0.045421809 -0.05266327 0.45718169 -0.3864606 -0.1078725 -0.91597581 0
-0.034036282 0.0041247257 0.52095205 -0.17771471 -0.28890619 0.94071817 0
-0.034036659 -0.01084694 0.51108593 0.07073272 -0.81539392 0.57456911 0
-0.058575649 -0.028139981 0.46950179 -0.3955735 -0.61756718 -0.67980319 0
-0.03836643 -0.058801338 0.46023279 0.1339521 -0.80547267 -0.57729578 0
-0.023430081 0.017890699 0.52730244 0.2462751 -0.62651992 0.73947382 0
-0.018945761 0.01569071 0.52564728 0.1168931 -0.3660613 0.92321998 0
-0.00052754406 0.026115431 0.51062423 0.99423099 -0.0053830161 -0.1071244 0
-0.0046558119 0.01613765 0.51805311 0.77004629 -0.31183559 0.55658537 0
-0.041368432 -0.03528998 0.50345623 -0.075673148 -0.41679999 0.9058429 0
-0.04626032 -0.027628981 0.50377423 -0.1866056 0.124321 0.97453707 0
-0.0036996261 0.01357312 0.5141179 0.84698242 -0.4523569 0.2792742 0
-0.04137497 -0.032543238 0.50449467 -0.093518637 -0.2099362 0.97323233 0
-0.028544901 0.018986309 0.5320785 0.35516399 -0.75976372 0.54462618 0
-0.052968558 -0.02335876 0.5024485 -0.090776123 -0.104157 0.99040949 0
-0.028503241 -0.044057231 0.45782793 0.55868798 0.27722639 -0.78167337 0
-0.019371402 0.001164272 0.51837218 0.3249467 -0.58584511 0.74242508 0
-0.01937674 -0.032912541 0.47823748 0.44874281 -0.7240504 -0.52381378 0
-0.02626761 -0.05740926 0.47582451 0.64178342 -0.74208689 0.19344489 0
-0.02914639 -0.0091687283 0.5130958 0.090125151 -0.78322369 0.61517322 0
-0.031587578 -0.0078522461 0.5152598 0.089232251 -0.7402482 0.66638589 0
-0.02847345 -0.052774522 0.45928949 0.55620259 -0.55888093 -0.61505347 0
-0.01426019 -0.0010011391 0.513358 0.50939858 -0.51344419 0.69057077 0
-0.001283937 0.01878049 0.50573087 0.97593588 -0.1075592 -0.1896843 0
-0.050265171 0.0033171671 0.48329589 0.38017571 0.2473124 -0.89123678 0
-0.02376947 -0.047806561 0.4613812 0.82607698 -0.061867692 -0.56015098 0
-0.02853778 -0.057754558 0.4666529 0.60857701 -0.73329508 -0.30317041 0
-0.01929887 -0.03503596 0.48119539 0.54302448 -0.72206128 -0.42866281 0
-0.0039215549 0.02615284 0.5020498 0.8335917 0.2812992 -0.47538999 0
-0.01916063 -0.01304071 0.50819433 0.137486 -0.31458309 0.93922049 0
-0.016933491 -0.016544942 0.50730801 0.01528683 -0.084073164 0.9963423 0
-0.001328849 0.02856393 0.50816429 0.93279481 0.076969683 -0.35209319 0
-0.060412627 0.006312672 0.4824813 -0.1897839 0.3573027 -0.91450357 0
-0.065812372 0.0065764971 0.48544651 -0.633452 0.26515809 -0.72693169 0
-0.0096699568 -0.032496329 0.48639828 0.51650089 -0.79971611 -0.30607361 0
-0.057933658 0.01565025 0.4857237 -0.2834608 0.25860119 -0.92345828 0
-0.03096563 0.020259371 0.5347017 0.1632866 -0.64222819 0.74891949 0
-0.045635831 -0.0032141111 0.47766268 0.1110947 0.87215108 -0.47645599 0
-0.031061331 -0.0600232 0.46873379 0.47290301 -0.86833382 -0.1495301 0
-0.049490828 -0.002028747 0.4784402 0.1342885 0.83140278 -0.53919941 0
-0.046447881 -0.001093837 0.4813666 0.1661403 0.80522138 -0.56922388 0
-0.066500716 0.0065920474 0.48615479 -0.76837772 0.2438812 -0.59170729 0
-0.064570107 0.01147026 0.4866693 -0.54781532 0.34671581 -0.76137149 0
-0.01451235 -0.0080554439 0.50936919 0.3327491 -0.40528801 0.8514809 0
-0.01637435 -0.036502879 0.488233 0.42239869 -0.88443768 -0.1983664 0
-0.0025765221 0.021923739 0.50226098 0.89757031 0.1739212 -0.40511611 0
-0.03096994 -0.046545293 0.4560208 0.24314439 0.03237522 -0.9694497 0
-0.025745621 0.018678619 0.5294295 0.37258309 -0.73229098 0.57002771 0
-0.02873102 -0.039855931 0.4965789 0.2032766 -0.89756072 0.3912333 0
-0.028536329 -0.037673961 0.50021571 0.1243424 -0.77996367 0.61334783 0
-0.028274 0.02282463 0.53656262 0.1139826 -0.65187979 0.74970698 0
-0.019860001 0.028901251 0.5379014 0.55661488 -0.63392538 0.53695297 0
-0.04319996 0.088763766 0.57502145 0.017655469 -0.46080831 0.88732398 0
-0.045564011 0.090067834 0.57573467 -0.038516331 -0.40811121 0.91211939 0
-0.04780861 0.096004337 0.5777784 -0.1395842 -0.35277161 0.92523962 0
-0.065059669 0.094621487 0.5729664 -0.45785671 -0.201103 0.865982 0
-0.067881972 0.09268333 0.57039583 -0.65878522 -0.2436849 0.71177232 0
-0.068979762 0.094834685 0.5699901 -0.71547723 -0.109429 0.69001281 0
-0.067353256 0.079496168 0.55944645 -0.71910203 -0.4404425 0.53749651 0
-0.0050137867 0.070672438 0.55907142 0.68968612 -0.42683461 0.58493203 0
-0.0078714537 0.06799265 0.55939615 0.39747021 -0.47778949 0.78341222 0
-0.004791216 0.068057731 0.55686104 0.78378463 -0.41231719 0.46440959 0
-0.077341348 0.1006718 0.55334461 -0.98314881 -0.17571589 0.050420512 0
-0.002074617 0.075406983 0.55666089 0.95364988 -0.22522309 0.19956569 0
-0.02915157 0.05297973 0.55292577 -0.103924 -0.50776511 0.85520428 0
-0.002695082 0.070390895 0.55026531 0.93174529 -0.33706629 0.1350445 0
-0.031397391 0.051504269 0.55173528 -0.14627901 -0.4517861 0.88005209 0
-0.025239419 0.046287738 0.54947335 0.054608241 -0.4438681 0.8944267 0
-0.029152149 0.048085891 0.55040622 -0.069467202 -0.4404825 0.89506948 0
-0.076807745 0.096955515 0.54972553 -0.98265499 -0.1853386 0.006217225 0
-0.05540115 0.00093773386 0.4799616 0.1033656 0.53287619 -0.83985633 0
-0.052991901 0.003418711 0.48207811 0.30663961 0.2724368 -0.91200352 0
-0.071303353 0.016341891 0.4983913 -0.97740549 -0.001511032 -0.21136729 0
-0.050415631 -0.025481461 0.50266111 -0.1369455 0.070413962 0.98807281 0
-0.02610787 -0.04389853 0.45987451 0.70437717 0.16371541 -0.69068801 0
-0.038011439 -0.03814977 0.501472 0.1046542 -0.64711928 0.7551716 0
-0.022745 -0.0395022 0.4906933 0.3031984 -0.95208728 0.04000584 0
-0.01348147 -0.034907509 0.4873713 0.43655321 -0.8611716 -0.26039371 0
-0.068340689 0.023676461 0.4957602 -0.79842162 0.32089061 -0.50946271 0
-0.070656769 0.01389632 0.49628869 -0.96235782 -0.052703459 -0.26662681 0
-0.058830969 0.01339925 0.4850117 -0.27759051 0.40955901 -0.86902529 0
-0.010420689 -0.01053219 0.50750971 0.229645 -0.064102598 0.97116119 0
-0.031747099 -0.039965741 0.49805868 0.21779551 -0.80729407 0.54849011 0
-0.025237611 -0.056147341 0.47097039 0.71536618 -0.67522311 -0.1797912 0
-0.069636911 0.01040872 0.4935104 -0.94894779 0.0031771041 -0.31541711 0
-0.02181256 -0.039126042 0.49231258 0.30210549 -0.95135039 0.060536589 0
-0.025985291 -0.040249221 0.492989 0.2418731 -0.95465648 0.17357519 0
-0.062737547 0.01347801 0.4864805 -0.4295494 0.38074061 -0.81885529 0
-0.045624822 0.00092323887 0.48403621 0.130509 0.496378 -0.85824019 0
-0.0554245 -0.019910861 0.5029493 -0.2082381 -0.3180128 0.92493498 0
-0.063810609 0.025550671 0.49029949 -0.74302769 0.077663742 -0.66473907 0
-0.065526009 0.02790538 0.4931156 -0.85630399 0.12640481 -0.50076479 0
-0.02340704 -0.043927569 0.46352288 0.88086838 0.1235093 -0.45696431 0
-0.031105511 -0.060493048 0.4724732 0.41698539 -0.90804589 -0.039697189 0
-0.053173359 0.0041596643 0.5179413 -0.080619089 -0.64923722 0.75630128 0
-0.013890371 -0.028899111 0.50501812 0.1252861 -0.5212782 0.84414011 0
-0.068330683 0.01583221 0.51573461 -0.85030621 -0.1056517 0.51557451 0
-0.011429771 -0.025760598 0.50618142 0.14041319 -0.34782979 0.92698348 0
-0.02915038 -0.032549199 0.5045805 -0.007933625 -0.42682129 0.90430123 0
-0.067089416 0.01314454 0.51707315 -0.79237378 -0.15415031 0.59023851 0
-0.055044301 0.013304261 0.52894425 -0.42351091 -0.55633879 0.71493047 0
-0.01938119 -0.025201321 0.50704503 -0.080802739 -0.15304451 0.98491031 0
-0.060887113 0.01331044 0.5228104 -0.70120299 -0.4750776 0.53161609 0
-0.004003345 -0.004322303 0.47319511 0.31863931 0.6079762 -0.72720963 0
-0.05543796 -0.01363064 0.5075922 -0.32399061 -0.6489228 0.6884253 0
-0.068920478 0.02856102 0.50085807 -0.85066819 0.3273136 -0.41137511 0
-0.069933243 0.018782031 0.5130893 -0.91982472 -0.097476833 0.3800275 0
-0.05243066 -0.052092399 0.47156009 -0.9156999 -0.34013879 0.21400771 0
-0.052062131 -0.049629632 0.47488949 -0.93418741 -0.1620075 0.31787971 0
-0.04991569 -0.01106979 0.51063293 -0.054494239 -0.56849819 0.82087761 0
-0.01552864 0.0017255419 0.47762719 0.2253931 0.6826942 -0.69507313 0
-0.053577211 0.0001591442 0.51547962 -0.1028373 -0.3835392 0.91778111 0
-0.040657699 -0.061250407 0.47509331 -0.060895681 -0.88578129 0.46009031 0
-0.040989559 -0.043669861 0.45579681 -0.1149545 0.1300728 -0.98481798 0
-0.048038229 0.0088228695 0.52674705 -0.02573088 -0.84254211 0.53801548 0
-0.053651489 -0.04718532 0.46666309 -0.97319728 -0.036609069 -0.2270394 0
-0.03726599 -0.061744209 0.46632549 0.23073541 -0.9218266 -0.31144339 0
-0.0089888508 -0.002951449 0.4727504 0.16353761 0.82613999 -0.53921062 0
-0.03437788 -0.06147141 0.4686403 0.32889801 -0.93447298 -0.1363316 0
-0.0432152 -0.063080654 0.4708356 -0.088919111 -0.97767252 0.1903943 0
-0.02914881 -0.034828559 0.50314009 0.072704323 -0.63138199 0.77205622 0
-0.046905339 0.01096091 0.52904528 0.02666687 -0.67996502 0.73275959 0
-0.069955066 -0.01952268 0.47590351 -0.93438971 -0.069772951 -0.34935331 0
-0.046249699 -0.00075821602 0.51657456 -0.2528502 -0.38006371 0.88972932 0
-0.049775198 -0.0010030051 0.51556009 -0.17537209 -0.377148 0.9093976 0
-0.0114045 -0.02331911 0.50691938 0.1101602 -0.2061965 0.97228992 0
-0.058968361 -0.03240113 0.47503328 -0.4888745 -0.72689492 -0.48231271 0
-0.062780358 0.005884748 0.51750958 -0.396846 -0.4968119 0.77181041 0
-0.018764861 0.003368356 0.47846019 0.052007388 0.70116991 -0.71109492 0
-0.01449053 -0.020304769 0.50749093 0.01678401 -0.01236403 0.99978262 0
-0.00731016 0.0077676466 0.48630232 0.71075958 0.4792434 -0.51492387 0
-0.04696878 -0.058571018 0.45966989 -0.2674481 -0.66357487 -0.69867003 0
-0.055006921 -0.039232351 0.48722079 -0.37366149 -0.92756242 -0.0022489331 0
-0.016296681 0.0057020988 0.48087811 0.091907293 0.61689103 -0.78166401 0
-0.060268071 -0.03051351 0.47342002 -0.46409419 -0.72097927 -0.51459241 0
-0.050091431 0.016562959 0.53223324 -0.1638712 -0.42574561 0.88988018 0
-0.04078079 0.01876024 0.53386378 -0.01744419 -0.4985632 0.86667782 0
-0.04071321 0.023256751 0.53598905 -0.081187509 -0.41213319 0.90749919 0
-0.0554795 0.02888714 0.53744787 -0.2205563 -0.4610891 0.85950673 0
-0.041052312 0.049767021 0.54974842 -0.1083128 -0.49507111 0.86207479 0
-0.001818645 0.0912861 0.56574643 0.91613841 -0.24995521 0.3133896 0
-0.002986697 0.097618602 0.57049543 0.80312443 -0.089978099 0.58897799 0
-0.001924135 0.099940613 0.56945395 0.84029001 -0.1577985 0.51866388 0
-0.029158769 0.084717751 0.57504994 -0.1615303 -0.5479911 0.82073969 0
-0.025385691 0.082909912 0.57368439 0.093990318 -0.6247282 0.77516478 0
-0.03159795 0.087947443 0.57622027 -0.2120899 -0.40399611 0.88983428 0
-0.028791109 0.087254591 0.57663059 -0.14613131 -0.40015069 0.9047237 0
-0.01045632 0.091665961 0.57409418 0.30764991 -0.36730769 0.87774521 0
-0.004175303 0.094924107 0.57175517 0.66093439 -0.090618089 0.74495238 0
-0.0064784959 0.091773368 0.5727343 0.4192189 -0.27652559 0.86474812 0
-0.0014549809 0.084755793 0.55948871 0.94714528 -0.1448524 0.28624031 0
-0.062471662 0.073215738 0.55856234 -0.39973009 -0.56483603 0.72192532 0
-0.06261576 0.066883557 0.55383444 -0.41642189 -0.54604417 0.7269308 0
-0.068121277 0.073568135 0.5540638 -0.7618615 -0.4536871 0.4623149 0
0.003712429 0.096955307 0.55340081 0.98976272 -0.1043881 0.097329102 0
0.00030979558 0.082680441 0.55352962 0.90065563 -0.2394512 0.36260521 0
0.00066304585 0.079931021 0.55091751 0.87418312 -0.29156381 0.38832259 0
-0.043539982 0.05288757 0.55102831 -0.1986544 -0.47953469 0.85474139 0
-0.00080793706 0.079221524 0.55396712 0.9225229 -0.25531489 0.28942299 0
0.003631958 0.1005413 0.54971528 0.98839378 0.050530009 -0.1432635 0
-0.053761549 -0.04352621 0.46909949 -0.99621862 0.086861283 -0.0019016319 0
-0.069441758 0.0065595522 0.5020864 -0.9598406 -0.26693419 0.086325847 0
-0.043261409 -0.04075079 0.49921039 -0.109215 -0.75597662 0.64542347 0
-0.040670961 -0.042088419 0.49759141 0.020456471 -0.85085207 0.52500677 0
-0.070283279 0.01031407 0.50541949 -0.95273483 -0.27913249 0.119923 0
-0.0043548779 -0.001909724 0.47570291 0.22802819 0.78647357 -0.5739882 0
-0.0047012083 0.02256218 0.49839911 0.82177341 0.2928842 -0.48878151 0
-0.0047209393 0.018568331 0.49687022 0.8758238 0.13120189 -0.4644554 0
-0.0069784089 0.023677401 0.49565288 0.74162573 0.3627165 -0.56429428 0
-0.05587009 -0.038774021 0.48425338 -0.4521879 -0.88829452 -0.080367006 0
-0.050443389 -0.058678422 0.4633176 -0.8389613 -0.44569829 -0.31224489 0
-0.046277221 -0.004537974 0.514929 -0.25639799 -0.41754141 0.87173343 0
-0.04136996 -0.00990244 0.51311964 -0.090967603 -0.6905598 0.71753198 0
-0.034716967 -0.05027283 0.4557029 0.06591478 -0.1090878 -0.99184418 0
-0.043834839 -0.047191367 0.45624301 -0.2616528 -0.039701071 -0.96434528 0
-0.045592979 0.01389197 0.53112298 0.0509229 -0.4987483 0.86524957 0
-0.0438256 -0.0081186211 0.51386869 -0.27712509 -0.48894551 0.82712388 0
-0.070701361 0.0139678 0.50814998 -0.95635867 -0.1987882 0.2141525 0
-0.070625238 0.01633835 0.5101456 -0.95319343 -0.1396416 0.26818359 0
-0.052309021 -0.04051372 0.48343611 -0.51219052 -0.85489559 0.082549073 0
-0.038335029 -0.052653968 0.45581409 0.01508806 -0.1068747 -0.99415803 0
-0.0496841 -0.016533939 0.50540292 0.01170597 -0.59081209 0.80672431 0
-0.049910098 0.009539159 0.52735168 -0.1065459 -0.77240658 0.6261279 0
-0.04932154 -0.054859649 0.46020859 -0.71438771 -0.1941044 -0.67228991 0
-0.050217431 0.005825982 0.52008617 -0.1139531 -0.78270292 0.61187488 0
-0.03404345 -0.00077236659 0.51976705 -0.16149621 -0.278263 0.94683093 0
-0.070720099 0.018555339 0.51069641 -0.94828671 -0.1121657 0.2969366 0
-0.038272109 0.01210789 0.52773243 0.22412691 -0.77192038 0.59490007 0
-0.06826999 0.02343736 0.51806986 -0.89157689 -0.231638 0.389146 0
-0.0058700251 -0.0166975 0.47028229 0.396377 -0.29253051 -0.8702364 0
-0.021824788 -0.02519688 0.50682318 -0.071421392 -0.14981981 0.9861303 0
-0.030699631 -0.025191352 0.50564331 -0.1545686 0.041049939 0.98712891 0
-0.069673337 0.01633995 0.51308399 -0.92328179 -0.1108737 0.36777419 0
-0.043810409 -0.00076329673 0.51728779 -0.2346289 -0.3336063 0.91304779 0
-0.071765773 0.022444541 0.50820053 -0.98759443 -0.074879557 0.138023 0
-0.067214206 -0.02321234 0.47297102 -0.74738538 -0.4493576 -0.48938 0
-0.071728371 0.026125981 0.50572962 -0.9655292 0.13903449 -0.2200518 0
-0.070539013 0.02760293 0.50329059 -0.87838048 0.28346711 -0.38482979 0
-0.034036722 -0.01302993 0.50823432 0.024326259 -0.65124333 0.758479 0
-0.041356351 -0.016614491 0.50566339 -0.072866432 -0.51824129 0.85212469 0
-0.051996041 -0.047186162 0.46266088 -0.85885751 0.01128521 -0.51209033 0
-0.043196801 -0.059036512 0.45972079 0.0087580699 -0.7893858 -0.61383492 0
-0.045877811 -0.047186151 0.45691669 -0.4242807 -0.0050842189 -0.90551651 0
-0.0043667289 -0.0073744329 0.4713805 0.44204301 0.3125324 -0.84078628 0
-0.02549744 0.0045249849 0.48061427 -0.2085637 0.69753528 -0.68552577 0
-0.043219652 0.01142303 0.52897054 0.17203949 -0.70031649 0.69279081 0
-0.038210768 -0.055870529 0.45681891 0.12616611 -0.50955659 -0.85113698 0
-0.068773568 0.018783368 0.51552898 -0.87562788 -0.1028627 0.47190559 0
-0.06914115 -0.019491659 0.4738766 -0.87219459 -0.1253705 -0.4728201 0
-0.068089783 0.02855457 0.52247059 -0.88708073 -0.25894839 0.38214329 0
-0.068220221 0.02625237 0.52033782 -0.88699001 -0.28764829 0.361258 0
-0.05119238 -0.0499871 0.46169892 -0.80672902 -0.1081425 -0.58094192 0
-0.046242062 -0.0080861421 0.51307619 -0.2264889 -0.4991357 0.83640069 0
-0.0353042 0.01423407 0.52947581 0.19039869 -0.75631118 0.62589258 0
-0.041372139 -0.0032121511 0.51714313 -0.25184679 -0.35051259 0.90206099 0
0.0004472305 -0.01346571 0.47345638 0.69282591 -0.35430461 -0.628061 0
-0.01055073 -0.031064751 0.50267786 0.1988582 -0.77049571 0.60563338 0
-0.0138996 -0.033731658 0.50082839 0.22726759 -0.81181318 0.53787428 0
-0.040841863 0.0043546748 0.51989901 -0.069541097 -0.49426621 0.86652458 0
-0.04631041 -0.062168811 0.4716748 -0.46061981 -0.79166442 0.40136859 0
-0.0077066142 -0.013676739 0.4692435 0.3710562 -0.055667158 -0.92694038 0
-0.061882921 -0.02823359 0.47207102 -0.58871418 -0.60086668 -0.54071689 0
-0.003730234 0.01313342 0.49831948 0.95494121 0.09659607 -0.2806358 0
-0.049919788 0.0185255 0.53312379 -0.1587798 -0.39922419 0.903 0
-0.04072864 0.016419461 0.53235191 0.02568477 -0.56976861 0.82140368 0
-0.053581242 0.02611318 0.53630984 -0.1257105 -0.47053629 0.87338001 0
-0.049916599 0.022161489 0.53471261 -0.1218777 -0.427544 0.89574099 0
-0.037277758 0.02561008 0.53749502 -0.1155578 -0.4464255 0.88732779 0
-0.036253732 0.029838989 0.54007643 -0.22184861 -0.5024519 0.83565861 0
-0.033922952 0.02861681 0.53993613 -0.202618 -0.51804048 0.83101141 0
-0.0022354149 0.084751278 0.5621047 0.94967723 -0.1282331 0.28577879 0
-0.0045096641 0.079845704 0.56468624 0.67851949 -0.30820191 0.66680038 0
-0.0019247921 0.089632265 0.56438863 0.90282398 -0.30598831 0.30212581 0
-0.0073922309 0.084825918 0.56924123 0.39963499 -0.4943381 0.77195972 0
-0.0042090961 0.088361137 0.56927198 0.72094858 -0.39154881 0.57177162 0
-0.028642001 0.091344565 0.57779306 -0.1035112 -0.2581012 0.96055669 0
-0.03098144 0.094931796 0.57844019 -0.054687131 -0.2215447 0.97361559 0
-0.0067919758 0.088312261 0.57130831 0.40558141 -0.4594982 0.79016769 0
-0.058292199 0.075984195 0.56289268 -0.34897989 -0.57029963 0.74362051 0
0.00014996021 0.090992652 0.55916011 0.89672482 -0.28081489 0.34209311 0
0.0025350689 0.09504161 0.55665505 0.92298287 -0.237694 0.30266181 0
-0.06062714 0.065750606 0.55398381 -0.36872491 -0.57846838 0.72760999 0
-0.061772387 0.061422039 0.55033112 -0.4699589 -0.50179219 0.72618413 0
-0.070383348 0.075584456 0.55057013 -0.88239592 -0.31413421 0.35028169 0
-0.04624993 0.051947668 0.54966921 -0.2457556 -0.48995301 0.83639121 0
-0.02634453 0.0022783319 0.47833192 -0.2060978 0.75115311 -0.62713063 0
-0.022488059 0.003452661 0.47863549 -0.093860149 0.72896332 -0.67808759 0
-0.046424519 -0.040386532 0.4986771 -0.23996671 -0.80245769 0.54633093 0
-0.025605571 -0.02030558 0.5059613 -0.1500746 -0.017350949 0.98852241 0
-0.050524928 -0.038155768 0.5004167 -0.21781909 -0.72186112 0.65686482 0
-0.058470149 -0.02005687 0.46608311 -0.3086485 -0.067272082 -0.94879419 0
-0.002725224 0.0073571932 0.49544761 0.86074972 0.47073871 -0.1936878 0
-0.0049459082 0.01550946 0.4957194 0.90368789 0.1028701 -0.4156512 0
-0.050588731 -0.059121188 0.46607041 -0.8614971 -0.5019117 -0.0768601 0
-0.052995719 -0.039573293 0.49353188 -0.3726446 -0.9203766 0.1185023 0
-0.049458321 -0.040570382 0.49567968 -0.3520478 -0.9021045 0.2495393 0
-0.0039702961 0.0079441201 0.49278203 0.80411881 0.4607797 -0.37559941 0
-0.04049192 0.0104544 0.52643031 0.27988791 -0.77466887 0.56705451 0
-0.043517489 -0.005445329 0.51548296 -0.28100181 -0.42665911 0.85965109 0
-0.029156679 -0.02894846 0.50572652 -0.087032087 -0.1805862 0.97970098 0
-0.055427331 -0.038623229 0.49309719 -0.38235351 -0.91508788 0.1281402 0
0.00039149608 -0.015892031 0.47612092 0.71636969 -0.54739439 -0.4326359 0
-0.001794212 -0.015973831 0.47285369 0.60820907 -0.48871401 -0.62549198 0
-0.037587892 -0.060980171 0.4642067 0.1866127 -0.87681788 -0.44313231 0
-0.041366991 -0.01118779 0.51159853 -0.025614331 -0.79016137 0.6123634 0
-0.0056348382 0.0089980662 0.49110261 0.79501939 0.41672611 -0.4407759 0
-0.048696041 0.01388574 0.53111738 -0.067960128 -0.49611261 0.86559433 0
-0.064384803 0.01145354 0.51900566 -0.5812211 -0.2416832 0.77702707 0
-0.0026342389 0.1017193 0.5728094 0.81222749 -0.27853969 -0.51254481 0
-0.01321887 -0.02654813 0.50615072 0.1147661 -0.41825151 0.90105182 0
-0.05602365 0.004247901 0.5178659 -0.079944693 -0.62278688 0.77829641 0
-0.065866761 0.012757069 0.51817387 -0.66046822 -0.1847432 0.72777182 0
-0.03159165 -0.0325411 0.50457478 0.0073347772 -0.38056481 0.92472512 0
-0.03159092 -0.03484292 0.50323153 0.061057542 -0.58444637 0.80913192 0
-0.06198968 0.0133294 0.52151632 -0.63573217 -0.3836295 0.66983062 0
-0.069876261 0.023664899 0.51466477 -0.89879668 -0.1861676 0.39687061 0
-0.052999601 -0.013444371 0.508672 -0.1449309 -0.65510488 0.74150687 0
-0.055924751 0.015313679 0.52978581 -0.40478611 -0.49806881 0.76686102 0
-0.059726261 0.01336297 0.5243513 -0.67136258 -0.52404821 0.52406639 0
-0.01639601 0.0033177719 0.47881001 0.18304139 0.65537578 -0.73278809 0
-0.05649627 -0.035425898 0.47722769 -0.54550618 -0.72062111 -0.4279348 0
-0.051798642 -0.05208163 0.47399971 -0.91406763 -0.30965659 0.26190281 0
-0.067573145 0.01634061 0.51694131 -0.78743881 -0.1192835 0.60474098 0
-0.056022 0.001148224 0.51576859 -0.071004443 -0.48087719 0.87390822 0
-0.053579669 0.001694958 0.5161652 -0.072727174 -0.50643837 0.8592037 0
-0.040791709 -0.063022949 0.47081798 0.059788439 -0.98090643 0.1850619 0
-0.045455959 0.009595356 0.52743012 0.1024512 -0.78317553 0.61330241 0
-0.046563677 0.0049482314 0.51974905 -0.1238001 -0.70888638 0.69437277 0
-0.03402701 -0.0609506 0.46664882 0.3165324 -0.9000392 -0.29956079 0
-0.038256377 -0.062537201 0.46843609 0.21281479 -0.9626587 -0.1673263 0
-0.043038379 -0.06180637 0.47404629 -0.1066178 -0.87439603 0.47335431 0
-0.016931619 -0.025208389 0.50712651 0.0388918 -0.24180029 0.96954632 0
-0.0067079091 -0.0038814389 0.47236469 0.31495029 0.68069679 -0.66140628 0
-0.062259 -0.030675609 0.47581321 -0.61573809 -0.65912151 -0.43177029 0
-0.053138301 -0.049641158 0.47156659 -0.95833039 -0.18825521 0.2148556 0
-0.048950747 -0.058992181 0.46120301 -0.58457518 -0.56766868 -0.57967591 0
-0.034673098 -0.052755401 0.45622557 0.17076939 -0.2866888 -0.94268101 0
-0.05002493 -0.0080773272 0.51242071 -0.1077769 -0.47423369 0.87377721 0
-0.062382288 0.015947409 0.5226801 -0.75275791 -0.3935551 0.52770251 0
-0.046256009 -0.01084846 0.51102632 -0.1102105 -0.64394462 0.75709248 0
-0.069710419 0.01351123 0.51171219 -0.94379169 -0.1887299 0.27136379 0
-0.068683319 0.01386734 0.51470786 -0.89523619 -0.1651172 0.4138701 0
-0.01373324 -0.023281541 0.50719362 0.097904027 -0.16586021 0.98127729 0
-0.05797109 -0.03353383 0.47570559 -0.51879919 -0.72446382 -0.45387191 0
-0.01141458 -0.028300591 0.50499749 0.1518801 -0.5031752 0.85073328 0
-0.054818358 -0.039332021 0.48468301 -0.4130877 -0.91068798 0.0024360451 0
-0.005031372 0.0063170581 0.48865351 0.72327852 0.55575907 -0.40987819 0
-0.0081218798 0.0068820072 0.484541 0.56759101 0.56292433 -0.60079682 0
-0.0078089717 -0.001719324 0.47508419 0.163058 0.81694281 -0.55318761 0
-0.056030028 -0.038862929 0.488083 -0.36045671 -0.93274403 0.007713174 0
-0.046646778 0.01588353 0.53221709 -0.00047509171 -0.46427459 0.88569123 0
-0.04305676 0.018355411 0.53359115 -0.025819739 -0.46061429 0.88722479 0
-0.041136019 0.02085118 0.5349189 -0.059142221 -0.44068539 0.89571118 0
-0.04380865 0.022404181 0.53540462 -0.064295091 -0.41381729 0.90808672 0
-0.05358272 0.028461911 0.53755957 -0.1130768 -0.46448481 0.87833232 0
-0.043493062 0.050561219 0.549788 -0.209445 -0.48055509 0.85158652 0
-0.0010285861 0.094524205 0.56560701 0.91861802 -0.2025664 0.33927551 0
-0.0022789869 0.097549044 0.56930041 0.86394513 -0.1167879 0.48985651 0
-0.01002753 0.094854735 0.57501644 0.37408131 -0.2366077 0.89670497 0
-0.031595401 0.084577583 0.57426947 -0.2044923 -0.55218661 0.80825299 0
-0.01396552 0.095180877 0.57645649 0.30462819 -0.3041572 0.9026019 0
-0.031595021 0.08963342 0.57683331 -0.14641009 -0.33416781 0.93107241 0
-0.014188481 0.09122958 0.57508111 0.3062788 -0.3946223 0.86629468 0
-0.0043572797 0.092545837 0.57158446 0.67760092 -0.21373899 0.7036851 0
0.00020349681 0.094349958 0.56204599 0.90494841 -0.25409451 0.34132731 0
-0.059091128 0.073259667 0.56028807 -0.3653793 -0.57090622 0.73523062 0
-0.001049579 0.087202713 0.55948275 0.92141289 -0.2106808 0.32651469 0
-0.062640533 0.075918153 0.56061232 -0.40870729 -0.54276848 0.73373067 0
0.00028603189 0.08842665 0.55694175 0.88408631 -0.25666779 0.3905291 0
-0.0003203318 0.084754631 0.5562042 0.90070951 -0.2156481 0.37711841 0
0.0039338781 0.1006306 0.55339038 0.99985892 -0.01371103 -0.0096992524 0
-0.069204889 0.075890444 0.55373138 -0.86054587 -0.32013789 0.39619741 0
-0.064902849 0.070959829 0.55557048 -0.50418103 -0.51662707 0.69202453 0
-0.040601797 0.05256182 0.55133003 -0.084137589 -0.499136 0.86242932 0
-0.00047144631 0.07806582 0.55203557 0.89968598 -0.29578531 0.3210547 0
0.0037558761 0.096967988 0.54971975 0.99766338 0.018705821 -0.0657093 0
-0.053480688 -0.043589819 0.46670231 -0.95991802 0.1357587 -0.24520791 0
-0.070504591 0.01006247 0.50198293 -0.96963048 -0.2437844 0.019642901 0
-0.0075272089 0.0097748712 0.48816988 0.74609452 0.45563701 -0.4855285 0
-0.040720422 -0.040358152 0.49975809 0.018838519 -0.707165 0.70679748 0
-0.05779811 -0.030698681 0.47174302 -0.42348441 -0.68301648 -0.59510452 0
-0.0057640518 0.021241881 0.4959434 0.80577677 0.23131821 -0.54517502 0
-0.01134237 -0.01966423 0.50736529 0.066278577 -0.05646497 0.99620217 0
-0.04397238 -0.04190037 0.49735528 -0.1657709 -0.87539858 0.45408949 0
-0.050455928 -0.0041398602 0.51416689 -0.1327395 -0.39916101 0.90722138 0
-0.043825351 -0.0092461994 0.51313078 -0.215755 -0.60630512 0.7654044 0
-0.041382093 -0.0072613494 0.51514727 -0.1824701 -0.55070257 0.81451303 0
-0.03818991 -0.05026415 0.45585001 -0.02431245 -0.053710818 -0.99826038 0
-0.053784303 -0.047917131 0.4691079 -0.99681193 -0.078784287 0.01261452 0
-0.041368593 -0.04718842 0.4558804 -0.097695708 -0.03648337 -0.99454743 0
-0.04383621 -0.044732958 0.45617428 -0.2653698 0.090496287 -0.95989019 0
-0.056059189 0.01263375 0.52777064 -0.51310879 -0.55420208 0.65542299 0
-0.071114212 0.016332239 0.5082047 -0.96494448 -0.1522332 0.21379229 0
-0.053376999 0.013572779 0.52984416 -0.2876904 -0.52207953 0.8029117 0
-0.046251081 -0.01682426 0.50505501 -0.02304985 -0.57019699 0.82118458 0
-0.050674301 0.011059809 0.52883285 -0.16315369 -0.64638138 0.74536699 0
-0.051161468 -0.054970831 0.4635109 -0.91475213 -0.1940787 -0.35434729 0
-0.053420059 -0.039780289 0.48742849 -0.35775241 -0.93261528 0.047349229 0
-0.0018291021 0.01550243 0.5106467 0.91050828 -0.37649721 0.1709515 0
-0.0042224862 0.010663209 0.50819069 0.89910841 -0.4142355 0.1414676 0
-0.0024150801 0.01386726 0.50819391 0.89480048 -0.44249421 0.05942193 0
-0.03770015 -0.025192261 0.50456619 -0.099217594 0.087610587 0.9912014 0
-0.0083732959 -0.02429498 0.47520119 0.57329053 -0.66468281 -0.4790979 0
-0.0093308296 0.001205158 0.5109511 0.62773848 -0.39361909 0.67157149 0
-0.01693242 -0.0056476952 0.512061 0.39541239 -0.51264948 0.76212841 0
-0.0082913153 -0.01919117 0.47027081 0.26589331 -0.70687753 -0.65545791 0
-0.068646498 -0.01359159 0.47603801 -0.84683692 0.47765991 -0.2338981 0
-0.021816829 -0.01785931 0.50679731 -0.1212955 -0.1785323 0.97642899 0
-0.021810869 -0.0032182678 0.51618791 0.32444051 -0.56895971 0.75566077 0
-0.024254169 -0.002157178 0.51798528 0.30030721 -0.5524326 0.77758199 0
-0.013494629 -0.029858779 0.4776794 0.41366109 -0.75485551 -0.50899673 0
-0.021809381 0.0040918486 0.52160782 0.1511423 -0.50168931 0.85174167 0
-0.002280277 0.026161 0.52038062 0.78410548 -0.34999511 0.5125252 0
-0.053132758 -0.031981722 0.50306988 -0.1037908 -0.09533976 0.99001908 0
-0.065076157 -0.01354785 0.47115639 -0.50837958 0.53647089 -0.67360908 0
-0.067645468 -0.015987059 0.47200328 -0.7435022 0.2387999 -0.62464333 0
-0.024974311 -0.053289149 0.46543548 0.72260201 -0.62352067 -0.29844299 0
-0.001580453 0.018734209 0.51413649 0.90693009 -0.2646459 0.3277809 0
-0.037775941 -0.00065864582 0.4806678 -0.28350481 0.78168058 -0.55551821 0
-0.031588431 -0.0032606181 0.51905721 0.0093876971 -0.4467288 0.89462018 0
-0.0141618 0.0189841 0.52574408 0.33661979 -0.34627771 0.87565911 0
-0.02290759 -0.01050558 0.51065427 0.1781954 -0.63833332 0.74885052 0
-0.0040852963 0.022230141 0.52046692 0.71362269 -0.33581001 0.61479598 0
-0.02156166 -0.047182549 0.4750343 0.98414308 0.0056196521 0.1772874 0
-0.02238358 -0.050108649 0.465965 0.92977011 -0.28695831 -0.2306139 0
-0.0076439059 0.021634821 0.52360553 0.53834569 -0.36310479 0.76048589 0
-0.030958429 0.01605195 0.52971089 0.34856269 -0.741606 0.57317072 0
-0.002731262 0.028066041 0.52238202 0.74220932 -0.38511279 0.54846472 0
