ply
format ascii 1.0
comment PCL generated
element vertex 656
property float x
property float y
property float z
property float nx
property float ny
property float nz
property float curvature
element camera 0
property float view_px
property float view_py
property float view_pz
property float x_axisx
property float x_axisy
property float x_axisz
property float y_axisx
property float y_axisy
property float y_axisz
property float z_axisx
property float z_axisy
property float z_axisz
property float focal
property float scalex
property float scaley
property float centerx
property float centery
property int viewportx
property int viewporty
property float k1
property float k2
end_header
-0.051715631 -0.034964759 0.46912992 -0.81258082 -0.073105127 -0.5782457 0
-0.058601219 -0.02892133 0.47024101 -0.38946149 -0.66357768 -0.63873672 0
-0.0067240857 -0.0061058332 0.47053781 0.45390519 0.4181799 -0.78682631 0
-0.05969407 -0.029689301 0.4718819 -0.43629631 -0.69397771 -0.57274812 0
-0.053580582 -0.032521628 0.47024262 -0.59835953 -0.42269069 -0.68066019 0
-0.062019162 -0.029907281 0.47420582 -0.52835619 -0.70144838 -0.47834069 0
-0.064423814 -0.027505441 0.47418249 -0.66345209 -0.58852941 -0.46202219 0
-0.038918171 -0.0054356572 0.47350609 -0.1546528 0.88086468 -0.44739249 0
-0.050017811 -0.054716572 0.4756341 -0.79882658 -0.4857839 0.35480991 0
-0.038094319 -0.003543922 0.4764396 -0.24808881 0.83166939 -0.49676749 0
-0.038263131 -0.0021444261 0.47868788 -0.28160569 0.80329049 -0.52480721 0
-0.02332492 0.0034456288 0.47873488 -0.1522695 0.72765052 -0.66883391 0
-0.05082665 -0.047699139 0.47851819 -0.9072417 -0.114443 0.4047412 0
-0.025922399 0.004009001 0.48022211 -0.2410198 0.72456658 -0.64568782 0
-0.02354786 0.0057384828 0.4812485 -0.1892519 0.66087139 -0.72624558 0
-0.049544491 -0.050281681 0.48011231 -0.7957558 -0.2233882 0.5629124 0
-0.063469298 -0.01597262 0.49873319 -0.8873958 -0.043420251 0.4589591 0
-0.063274242 -0.01381987 0.50049269 -0.85829961 -0.3815271 0.3431603 0
-0.01377014 -0.031323109 0.50332129 0.1349452 -0.64765972 0.74988449 0
-0.02105863 -0.033813708 0.50287759 0.20057289 -0.68687081 0.69855487 0
-0.016049441 -0.029990561 0.50467944 0.1475796 -0.55613363 0.81788498 0
-0.013943111 -0.02803736 0.50551069 0.1252006 -0.46103811 0.87850368 0
-0.046242062 -0.0080861421 0.51307619 -0.2397245 -0.5110898 0.82542068 0
-0.043817587 -0.01057023 0.51191741 -0.14147639 -0.72823238 0.67056853 0
-0.066341914 0.0065567768 0.51431406 -0.77664733 -0.4194749 0.46995711 0
-0.0438256 -0.0081186211 0.51386875 -0.27178869 -0.49705929 0.82405281 0
-0.0619254 0.0042126197 0.5166449 -0.36260051 -0.57789087 0.73113811 0
-0.064554706 0.006608556 0.51673323 -0.59583122 -0.44574139 0.66805673 0
-0.003159344 0.083528638 0.5228464 0.9867782 0.04352301 -0.15612321 0
-0.0029305068 0.080425292 0.52473789 0.9647876 -0.001763791 -0.2630246 0
-0.0022715051 0.087711357 0.52768689 0.97998571 0.0402801 -0.1949501 0
-0.001321858 0.084745824 0.53019398 0.91016632 0.1427341 -0.38887569 0
-0.062822461 0.027592449 0.5321694 -0.7561996 -0.33960739 0.55931097 0
-0.064191729 0.03059116 0.53178293 -0.83637369 -0.2700592 0.4770188 0
-0.048024699 0.088043407 0.57486308 -0.04239317 -0.41818851 0.90737039 0
-0.04564029 0.087044641 0.5742358 0.042245969 -0.46862179 0.88238817 0
-0.049918059 0.08351884 0.5721404 -0.095105648 -0.59197462 0.80032557 0
-0.043093048 0.085215159 0.57317579 0.0295326 -0.4596709 0.88759822 0
-0.04820662 0.082662083 0.57148731 -0.04965955 -0.68367648 0.72809368 0
-0.031590849 0.077779412 0.56888646 -0.097563043 -0.60762221 0.78821111 0
-0.031312119 0.074971385 0.56683707 0.001348605 -0.56763482 0.82327938 0
-0.02915087 0.07086207 0.56403542 0.184926 -0.41657591 0.8900938 0
-0.01448935 0.068357408 0.56119287 0.1550574 -0.48637301 0.85988289 0
-0.009596373 0.065716922 0.5588395 0.29975101 -0.47459999 0.82758939 0
-0.016932881 0.057873718 0.5548932 0.061596889 -0.56050068 0.82586002 0
-0.019378519 0.057885412 0.55519348 0.119267 -0.55761433 0.82148749 0
-0.0046705818 0.065687187 0.55397272 0.89389253 -0.3403571 0.29174161 0
-0.0080473376 0.06028226 0.55465746 0.56051952 -0.37297031 0.73939908 0
-0.014489911 0.056215119 0.55373162 0.079532988 -0.52482259 0.84748793 0
-0.021821171 0.051434398 0.55170029 0.112886 -0.46371391 0.87876397 0
-0.01891478 0.052993499 0.55218685 0.081306793 -0.47698519 0.8751424 0
-0.0035543512 0.068243429 0.55154061 0.94917947 -0.3046945 0.078863308 0
-0.057246201 0.04961545 0.54587436 -0.2122934 -0.50543243 0.83634311 0
-0.056024529 0.04810223 0.54521996 -0.17482001 -0.43944761 0.88109243 0
-0.04624765 0.040789358 0.54312986 -0.1404158 -0.44827059 0.88280058 0
-0.05335854 0.046598159 0.54477471 -0.073012874 -0.462383 0.88366908 0
-0.058039472 0.042731393 0.54312831 -0.2041392 -0.3168548 0.92624521 0
-0.059692908 0.044434719 0.54319108 -0.30413169 -0.31543529 0.89889067 0
-0.048130568 0.03541578 0.54105574 0.0095407879 -0.34488249 0.93859732 0
-0.043807738 0.0388963 0.54238957 -0.076194793 -0.43012431 0.89954841 0
-0.045662411 0.037584111 0.54181296 -0.01308883 -0.3535327 0.93533063 0
-0.06032712 0.04266873 0.54229361 -0.42833161 -0.35624439 0.8304348 0
-0.056033667 0.033896431 0.53998995 -0.27001771 -0.46897 0.84092659 0
-0.053585418 0.033230018 0.54007727 -0.1000852 -0.44633931 0.88924909 0
-0.06206055 0.02855259 0.53373218 -0.67142159 -0.40352139 0.62158138 0
-0.01855633 -0.036859419 0.49720418 0.2859588 -0.90012193 0.32864621 0
-0.06414859 -0.01598593 0.4971827 -0.92335629 0.063840508 0.37859961 0
-0.065785155 -0.0093091773 0.49597493 -0.95253468 -0.29932711 0.055506479 0
-0.0045076818 -0.03034329 0.4954868 0.60366309 -0.79708731 0.01557645 0
-0.01693083 -0.036792967 0.49536583 0.3331545 -0.92280221 0.193505 0
-0.065731652 -0.01038227 0.49314332 -0.98030448 -0.174715 0.09207385 0
-0.005962756 -0.031362519 0.49317139 0.59129453 -0.80461842 -0.054405879 0
-0.0092392825 -0.033446152 0.49293721 0.4894205 -0.87098902 -0.042961311 0
-0.01160831 -0.034718603 0.49290368 0.47404221 -0.87928993 -0.046188131 0
-0.038356092 0.0041139303 0.48485088 -0.053687681 0.17245311 -0.98355353 0
-0.033588167 0.0083192587 0.48494551 -0.03729628 0.044097241 -0.99833077 0
-0.040553007 0.0057589831 0.4848305 0.071391769 -0.1237041 -0.9897477 0
-0.035844743 0.01086995 0.48476151 0.15729 -0.06586501 -0.98535353 0
-0.04627341 -0.053305179 0.4819769 -0.54751152 -0.41650489 0.72577882 0
-0.048646729 -0.050161991 0.48127508 -0.73024333 -0.2388109 0.64008921 0
-0.02589353 0.0052105333 0.48145381 -0.2414653 0.66297162 -0.70863467 0
-0.054802809 -0.027635941 0.4675768 -0.35309809 -0.44868839 -0.82097518 0
-0.036478728 -0.0080021676 0.46631399 -0.1867829 0.87096602 -0.45445639 0
-0.030368838 -0.02671003 0.4628962 0.30169359 -0.3953819 -0.86755651 0
-0.033479623 -0.0089492807 0.46386403 -0.089446627 0.73066747 -0.67684883 0
-0.036120351 -0.01045015 0.46298251 -0.121792 0.66348171 -0.73821318 0
-0.040756769 -0.020309851 0.4601624 -0.13478179 -0.17452779 -0.97538412 0
-0.043490168 -0.03547157 0.46085 -0.31465781 0.60362953 -0.73254478 0
-0.037698139 -0.021534251 0.46032211 0.077719294 -0.2834326 -0.95583773 0
-0.038367223 -0.01853152 0.45978671 0.00041436061 -0.040970329 -0.99916029 0
-0.03582368 -0.023361349 0.46110889 0.090923034 -0.29712021 -0.9505012 0
-0.033406842 -0.02545928 0.46199939 0.068408333 -0.3012225 -0.95109689 0
-0.02353441 -0.01611485 0.46174619 0.1464292 0.167827 -0.97488081 0
-0.026046591 -0.01353807 0.46220341 0.1495162 0.2776815 -0.9489668 0
-0.02853678 -0.01175183 0.4623526 0.13057511 0.33426681 -0.93338943 0
-0.057619862 -0.02812759 0.46898741 -0.34117609 -0.59690988 -0.72615242 0
-0.052258868 -0.0325046 0.46914381 -0.61388022 -0.27948859 -0.73826629 0
-0.06060468 -0.028263479 0.4708961 -0.48846379 -0.63144892 -0.6022253 0
-0.0071435808 -0.0068547949 0.4698844 0.49732611 0.25648731 -0.82878292 0
-0.057485111 -0.03043572 0.47118929 -0.41274479 -0.67683852 -0.60953373 0
-0.0044605769 -0.0063252021 0.47164381 0.39863431 0.4036459 -0.82350522 0
-0.0065908371 -0.0045476048 0.47173199 0.33794379 0.599518 -0.72551513 0
-0.05350814 -0.034747712 0.47169572 -0.76648653 -0.3988792 -0.50338238 0
-0.055481009 -0.03251642 0.47195169 -0.56773949 -0.56070822 -0.60272551 0
-0.062936321 -0.02840678 0.4732911 -0.59233022 -0.62724489 -0.50567651 0
-0.05054874 -0.05502012 0.47362271 -0.86406308 -0.43064159 0.26065841 0
-0.041364577 -0.0055507398 0.47376049 -0.01384445 0.91201562 -0.4099218 0
-0.062696248 -0.030461671 0.47602388 -0.57646179 -0.69395709 -0.43141091 0
-0.06495934 -0.02824397 0.47598723 -0.6625284 -0.60944217 -0.43547249 0
-0.040883079 -0.004470353 0.47593591 -0.1000145 0.87581152 -0.4721773 0
-0.048982378 -0.055534191 0.47664341 -0.73509902 -0.55956358 0.38277659 0
-0.051115889 -0.051930599 0.47634658 -0.88799459 -0.29905981 0.34932631 0
-0.03403151 -0.001763323 0.47643709 -0.3088859 0.78308481 -0.53978479 0
-0.066836126 -0.02780878 0.47843492 -0.69773048 -0.59322208 -0.4015713 0
-0.0620028 -0.032364942 0.47827622 -0.54344028 -0.73762208 -0.4007321 0
-0.040141203 -0.0025707129 0.47887799 -0.2213829 0.82179117 -0.52502269 0
-0.026043382 0.0027745669 0.4788197 -0.22361159 0.7376315 -0.63710088 0
-0.050434187 -0.050221328 0.47862712 -0.88062531 -0.1643991 0.4443782 0
-0.024265891 0.004270636 0.47994339 -0.22556341 0.70709741 -0.67017502 0
-0.038644131 -0.00094017392 0.48070651 -0.2372953 0.79325378 -0.56074888 0
-0.049933109 -0.04791107 0.48011762 -0.84343481 -0.1392926 0.51885968 0
-0.062408198 -0.01604596 0.50046688 -0.7409237 -0.23994049 0.62726438 0
-0.063876927 -0.01297614 0.49964011 -0.89581478 -0.40139151 0.19078951 0
-0.0083720209 -0.031466141 0.50109088 0.4030191 -0.75417548 0.51845431 0
-0.018716481 -0.033183202 0.50273508 0.206053 -0.67488748 0.70856827 0
-0.016050279 -0.031417578 0.50354749 0.142874 -0.63917112 0.75567669 0
-0.02181405 -0.034983978 0.50184828 0.2216939 -0.75791168 0.61353219 0
-0.01382709 -0.02993321 0.5044269 0.13629781 -0.55347472 0.82163781 0
-0.0218063 -0.032572169 0.50415289 0.1532165 -0.57878488 0.80095738 0
-0.01692421 -0.02810948 0.50602019 0.1289207 -0.42579329 0.89558887 0
-0.019375151 -0.0276615 0.50645441 0.0090720383 -0.2950286 0.95544529 0
-0.043825351 -0.0092461994 0.51313078 -0.2241787 -0.60094321 0.76721001 0
-0.066847228 0.0060131438 0.51291448 -0.81396347 -0.42371669 0.39740101 0
-0.066793665 0.01102052 0.51671755 -0.72684228 -0.27798671 0.62803149 0
-0.062780358 0.005884748 0.51750958 -0.42410889 -0.5213846 0.74046588 0
-0.0029198539 0.082667179 0.524432 0.97839308 0.0098075317 -0.2065206 0
-0.0022255459 0.084750742 0.52752668 0.96681339 0.045169801 -0.25145879 0
-0.0016831029 0.087189525 0.53019279 0.94732541 0.1071363 -0.30182171 0
-0.063730299 0.028555691 0.53140461 -0.82725531 -0.29219821 0.47986329 0
-0.063384026 0.02967765 0.5326736 -0.81006151 -0.28996879 0.50962591 0
-0.043150119 0.088416025 0.57481736 0.042245571 -0.48067039 0.87588322 0
-0.05055967 0.087177671 0.5741694 -0.1172552 -0.42340171 0.89832193 0
-0.048046298 0.085502118 0.5734874 -0.020688031 -0.497973 0.86694568 0
-0.045686778 0.083518445 0.57224989 -0.00088911818 -0.58556187 0.81062728 0
-0.03892139 0.079868689 0.56957692 -0.071199059 -0.61376482 0.78627193 0
-0.043221969 0.082562864 0.5715059 -0.0139764 -0.62339258 0.78178412 0
-0.04558542 0.081298813 0.57029611 -0.03730908 -0.68726009 0.7254526 0
-0.026707839 0.077562831 0.56916291 -0.044472009 -0.67968512 0.73215461 0
-0.02670601 0.075099275 0.56670755 0.01021407 -0.67226779 0.74023759 0
-0.029158689 0.072559409 0.56488532 0.1179398 -0.55316979 0.82467782 0
-0.02426436 0.070109352 0.56282759 0.04617653 -0.46913511 0.88191831 0
-0.026709281 0.072493769 0.56439579 0.1028295 -0.54579687 0.83158398 0
-0.01937658 0.068069845 0.56172508 0.047088809 -0.47979721 0.87611479 0
-0.0218153 0.06518732 0.5604524 0.099835873 -0.46882999 0.87762809 0
-0.007133285 0.068225309 0.55921227 0.47494799 -0.476643 0.7397539 0
-0.01204064 0.062738501 0.55766159 0.1626054 -0.49424541 0.85397941 0
-0.004791216 0.068057731 0.55686104 0.79359978 -0.41172409 0.44797611 0
-0.0069038766 0.065186463 0.55717909 0.60751492 -0.45390081 0.65184331 0
-0.0095652267 0.062736489 0.5570811 0.2838023 -0.4975872 0.81967258 0
-0.01204346 0.060968071 0.55662489 0.16908421 -0.53204638 0.82966077 0
-0.0061327438 0.062737353 0.55463672 0.82130909 -0.4216266 0.38429469 0
-0.01938007 0.055957377 0.5539645 0.1153914 -0.51812291 0.84748662 0
-0.01448931 0.05327094 0.55204523 0.071439587 -0.46956649 0.88000208 0
-0.016932711 0.05053556 0.55081928 0.058126021 -0.44552639 0.89337993 0
-0.0049030562 0.06371396 0.55136627 0.93583739 -0.30147329 0.18254361 0
-0.0059485743 0.060668074 0.55178666 0.88842273 -0.3455016 0.30221471 0
-0.053334013 0.048934732 0.54612952 -0.079146177 -0.5327037 0.84259278 0
-0.05775908 0.04657137 0.54443902 -0.18064509 -0.33001181 0.92653102 0
-0.060176332 0.048851848 0.54455686 -0.3969371 -0.32253271 0.85930991 0
-0.05543083 0.043840881 0.5436039 -0.01868725 -0.3035363 0.95263672 0
-0.04869432 0.039099541 0.5423829 -0.0117935 -0.30593711 0.95197868 0
-0.051137563 0.038324311 0.542117 0.0054353918 -0.30606061 0.95199662 0
-0.04321428 0.035335418 0.54107487 -0.069651023 -0.32939729 0.94161892 0
-0.058477901 0.03343216 0.53885907 -0.35308889 -0.44535959 0.82278979 0
-0.060553961 0.03509121 0.53855109 -0.51977122 -0.385919 0.76217091 0
-0.06083196 0.03298261 0.53734446 -0.5208025 -0.3737219 0.76752633 0
-0.0064014802 -0.031328369 0.49805441 0.52577561 -0.82678002 0.1999868 0
-0.0089581236 -0.032970589 0.49780551 0.4697212 -0.86046082 0.1974064 0
-0.01226122 -0.03458783 0.4977572 0.36688331 -0.89464849 0.25495249 0
-0.064849213 -0.01134016 0.498153 -0.91960549 -0.37042609 0.13080589 0
-0.064611502 -0.01371651 0.4958798 -0.94397432 -0.034187481 0.32824361 0
-0.021381399 -0.03847051 0.49543369 0.3170574 -0.91150278 0.26198709 0
-0.0074099288 -0.032368831 0.495417 0.52478611 -0.84959191 0.052850042 0
-0.066270851 -0.008079146 0.493532 -0.94796872 -0.31806499 0.01378462 0
-0.065788254 -0.01545911 0.49351451 -0.88151997 0.2169544 0.4193486 0
-0.018974969 -0.038157083 0.49283099 0.3873491 -0.91736078 0.091705717 0
-0.02181256 -0.039126042 0.49231258 0.28308371 -0.95713258 0.061324429 0
-0.033415969 0.005334517 0.48440078 -0.2268353 0.3831147 -0.89541548 0
-0.0034973458 -0.026951 0.4849824 0.6137408 -0.69466048 -0.37519199 0
-0.03804411 0.0079214554 0.48483992 0.1178353 -0.1177979 -0.98602158 0
-0.036141258 0.0059587131 0.48495051 -0.1125055 0.12902971 -0.98523802 0
-0.038562451 0.0109937 0.48412129 0.27358791 -0.2014993 -0.94050401 0
-0.035655301 0.003132653 0.48392451 -0.292557 0.48641679 -0.82329148 0
-0.041067533 0.0085838158 0.48405051 0.2154415 -0.2868112 -0.93344748 0
-0.028602619 0.0035355338 0.48084408 -0.31079501 0.70988941 -0.63203132 0
-0.035729371 0.00043038771 0.48102859 -0.33718729 0.77299082 -0.5373919 0
-0.01148152 -0.0062602418 0.46833262 0.25774181 0.45775011 -0.8509019 0
-0.051112179 -0.037488911 0.46672198 -0.80401671 0.3671689 -0.46770081 0
-0.041111991 -0.0091867 0.465781 -0.1298767 0.80483752 -0.57911021 0
-0.023973579 -0.02547708 0.46625781 0.52057737 -0.59001011 -0.61716062 0
-0.048697449 -0.037406269 0.46340132 -0.6755209 0.4532114 -0.58161068 0
-0.051086497 -0.040035561 0.4642961 -0.73951608 0.42740521 -0.52003932 0
-0.038454831 -0.009818783 0.46420491 -0.1793897 0.75784391 -0.62728947 0
-0.026319019 -0.025518551 0.4641948 0.51841187 -0.55062842 -0.65426087 0
-0.02399862 -0.0231124 0.46389389 0.48987961 -0.56448328 -0.66436172 0
-0.04083287 -0.01116644 0.46343702 -0.1715088 0.67282748 -0.71964419 0
-0.03403157 -0.017862391 0.46025681 0.1857006 0.03749229 -0.9818908 0
-0.036475498 -0.020311689 0.46011582 0.1257937 -0.1991628 -0.9718591 0
-0.033703111 -0.020750521 0.4607057 0.13020539 -0.2067396 -0.96969342 0
-0.038261168 -0.025678189 0.46179458 -0.01974212 -0.33860859 -0.94072008 0
-0.040801812 -0.02336867 0.46108121 -0.1380094 -0.34613681 -0.92797768 0
-0.02849013 -0.01598186 0.4613961 0.1133067 0.1378926 -0.98394471 0
-0.03068828 -0.013372851 0.46148819 0.1382326 0.2548292 -0.95705467 0
-0.055222321 -0.03006999 0.46944711 -0.41525191 -0.58933532 -0.69300061 0
-0.0083731841 -0.0054695541 0.47016439 0.345393 0.60471648 -0.71765012 0
-0.01162077 -0.003478284 0.471257 0.1180038 0.83555901 -0.5365783 0
-0.033648547 -0.0032730452 0.4741219 -0.2844047 0.79006523 -0.54305702 0
-0.036474191 -0.0030406539 0.47621289 -0.33395031 0.7813077 -0.5272907 0
-0.03891908 -0.0031486 0.47752559 -0.22775251 0.82554621 -0.51633549 0
-0.064457178 -0.030270519 0.47833949 -0.63971293 -0.67293829 -0.37137759 0
-0.035730653 -0.00083040603 0.4789851 -0.34737381 0.79193652 -0.50216341 0
-0.033061519 0.0001492055 0.47881392 -0.31675771 0.7948041 -0.51763988 0
-0.048730899 -0.053308841 0.47959819 -0.70363992 -0.4179033 0.57467192 0
-0.047392011 -0.05461739 0.48002678 -0.61928302 -0.53286117 0.57666928 0
-0.0032274211 -0.0292651 0.49760762 0.61440682 -0.78410572 0.08765097 0
-0.01146671 -0.03333272 0.50023317 0.32857981 -0.83692771 0.43770689 0
-0.004798397 -0.02976362 0.50022531 0.49574631 -0.80392659 0.32853881 0
-0.065676786 -0.0087001733 0.5008409 -0.92678392 -0.35163891 0.131991 0
-0.01378488 -0.032581057 0.50214142 0.16368049 -0.72351998 0.67061728 0
-0.01936676 -0.0301174 0.5053165 0.147687 -0.53895313 0.82928771 0
-0.02182111 -0.027650788 0.50643772 -0.02601088 -0.2436744 0.96950817 0
-0.048691399 -0.0080779791 0.5125429 -0.1215034 -0.50701839 0.85332841 0
-0.065236054 0.003406015 0.51296961 -0.70981592 -0.51629299 0.4791691 0
-0.068541601 0.01022902 0.51308256 -0.90566093 -0.26513979 0.3308765 0
-0.06301716 0.0032670861 0.51512295 -0.4883405 -0.58329642 0.64906758 0
-0.065364927 0.0057701366 0.51515555 -0.68172538 -0.47082341 0.55997831 0
-0.066952378 0.0083481306 0.51480764 -0.78191519 -0.36974779 0.50189161 0
-0.065050036 0.0085180337 0.51724595 -0.65785837 -0.36064991 0.6611762 0
-0.062427238 0.0085103093 0.51922977 -0.49340829 -0.37024251 0.78706348 0
-0.064384803 0.01145354 0.51900566 -0.5883342 -0.23310579 0.77428973 0
-0.0027245951 0.087194256 0.5252921 0.97530383 0.02266491 -0.2197012 0
-0.0022048869 0.080129333 0.52685773 0.92223138 0.075626343 -0.37917009 0
-0.00050253409 0.079866461 0.53017491 0.88516212 0.13998321 -0.443726 0
-0.00090242585 0.082310736 0.53017074 0.89374411 0.13714109 -0.42709941 0
-0.062266868 0.02546332 0.53172821 -0.710944 -0.34024161 0.61546272 0
-0.04577399 0.088621423 0.57509309 0.029848671 -0.45090079 0.89207482 0
-0.050469182 0.085228086 0.57318437 -0.1221911 -0.50731349 0.85305482 0
-0.04315063 0.083521679 0.57223272 0.01197353 -0.53057641 0.84755248 0
-0.045640349 0.082564056 0.57148218 -0.020538321 -0.66376162 0.74766219 0
-0.04317306 0.081209704 0.57037795 -0.053746011 -0.66017753 0.74918407 0
-0.024263069 0.077474765 0.56924903 0.039139919 -0.63926172 0.76799262 0
-0.041086812 0.079783984 0.56929773 -0.090656288 -0.6528191 0.75206959 0
-0.024021499 0.07498955 0.56681079 -0.032476708 -0.69226611 0.72091109 0
-0.031594958 0.072546475 0.56534809 0.1226573 -0.46509781 0.87672073 0
-0.02426086 0.072530895 0.564376 -0.0116468 -0.60644019 0.79504383 0
-0.02671268 0.070106506 0.56311107 0.1377914 -0.4303647 0.89207608 0
-0.019373288 0.065191381 0.56016248 0.108901 -0.49837631 0.86009401 0
-0.0218201 0.067987263 0.56177533 0.048942041 -0.4187831 0.90676647 0
-0.0095811756 0.060281739 0.55551708 0.39093241 -0.44315249 0.80671418 0
-0.0050574462 0.064076394 0.553195 0.89737052 -0.38815829 0.20990279 0
-0.0067711547 0.06098783 0.5538069 0.72203428 -0.42107019 0.54896849 0
-0.021820739 0.05592427 0.55435061 0.1330805 -0.53862941 0.83196628 0
-0.016933318 0.05313592 0.55210578 0.058696229 -0.46834329 0.88159472 0
-0.01448755 0.050535291 0.5506829 0.1485939 -0.4741613 0.8678081 0
-0.0053967671 0.06152476 0.5509572 0.92667371 -0.30387771 0.2212109 0
-0.055306241 0.048988238 0.54594749 -0.15012451 -0.51761079 0.84234297 0
-0.048693959 0.040777069 0.5429213 -0.063258432 -0.3364906 0.9395597 0
-0.054802503 0.04223894 0.5431689 -0.01368944 -0.25518039 0.96679652 0
-0.058209091 0.04849178 0.54502332 -0.2451732 -0.4080154 0.87943941 0
-0.0533759 0.043940108 0.54360634 -0.02802442 -0.31836769 0.94755298 0
-0.060316298 0.04625592 0.54360193 -0.4033128 -0.29493329 0.8662293 0
-0.051137809 0.03998436 0.54260761 -0.017003501 -0.27417251 0.96153009 0
-0.04869451 0.03833393 0.54212654 0.0008678626 -0.3374157 0.94135529 0
-0.045467768 0.035383981 0.5410139 -0.018424969 -0.3363094 0.9415713 0
-0.04258699 0.033442479 0.54050404 -0.096889928 -0.31999519 0.94245178 0
-0.058605868 0.03578373 0.54000068 -0.38172361 -0.41796529 0.82437378 0
-0.0044626598 -0.030048611 0.49814221 0.55989307 -0.81243998 0.16266809 0
-0.01082778 -0.033831749 0.49809909 0.42298669 -0.87436128 0.237854 0
-0.06478098 -0.016125271 0.4958815 -0.87682521 0.1875315 0.44272959 0
-0.066218652 -0.0080954051 0.495976 -0.93485832 -0.35280919 0.03956829 0
-0.01875098 -0.037504088 0.49541128 0.34481749 -0.90530437 0.248042 0
-0.065575682 -0.01297767 0.49302232 -0.96280402 0.053715739 0.26480761 0
-0.007421684 -0.032380823 0.49294668 0.54549712 -0.83718538 -0.039416041 0
-0.02091061 -0.038783401 0.49330842 0.29840991 -0.94514281 0.1328783 0
-0.03350506 0.0065601771 0.48478091 -0.1362631 0.1770591 -0.97472179 0
-0.03892203 0.0090125054 0.4845157 0.2290225 -0.2182319 -0.94864303 0
-0.0364707 0.0041147741 0.48468938 -0.23478609 0.28668079 -0.92881089 0
-0.040857639 0.010637781 0.48340681 0.3129167 -0.26814941 -0.91114157 0
-0.0040137791 -0.02629878 0.4830671 0.60491419 -0.68131912 -0.41216871 0
-0.0333867 0.003429316 0.48318329 -0.32321879 0.61659998 -0.71786767 0
-0.03083791 0.002709985 0.48112538 -0.3394078 0.72647548 -0.5975247 0
-0.0335382 0.001235258 0.48076221 -0.33882231 0.74744451 -0.57142478 0
-0.055718239 -0.0282003 0.46828461 -0.32784131 -0.5068118 -0.79728413 0
-0.03823927 -0.0083360774 0.46646661 -0.1631207 0.87758529 -0.4508166 0
-0.02570723 -0.026332781 0.46555161 0.55786079 -0.55580682 -0.61633611 0
-0.023074949 -0.02391829 0.4655028 0.52567232 -0.59873468 -0.60430568 0
-0.049368631 -0.03739759 0.46420041 -0.71036267 0.42675081 -0.55970389 0
-0.038287029 -0.01074884 0.46316352 -0.1616454 0.67686719 -0.7181375 0
-0.026703171 -0.01174766 0.46263063 0.1360559 0.31712171 -0.93857479 0
-0.035787862 -0.02128016 0.46051511 0.1591052 -0.25989389 -0.95243931 0
-0.03299842 -0.018737739 0.46048599 0.1851076 -0.042411938 -0.98180258 0
-0.035887022 -0.01849897 0.45994848 0.1274038 -0.072288722 -0.98921311 0
-0.038310301 -0.02303469 0.46077421 0.01388379 -0.31745699 -0.94817108 0
-0.040632579 -0.02555933 0.46198958 -0.1197102 -0.33479479 -0.93465602 0
-0.031025721 -0.016075991 0.46097672 0.1615493 0.1084867 -0.98088348 0
-0.028418699 -0.01367738 0.46175268 0.1390219 0.2311271 -0.96293992 0
-0.02596407 -0.023949459 0.4631432 0.41264769 -0.50847638 -0.75576031 0
-0.01157003 -0.0046441662 0.46965548 0.16673569 0.72305548 -0.67036551 0
-0.0094381701 -0.0062532867 0.46910888 0.3343561 0.482364 -0.80964857 0
-0.05357093 -0.03039117 0.468813 -0.4336682 -0.47534549 -0.76549238 0
-0.0091975881 -0.003955137 0.47118309 0.2343695 0.72912067 -0.64300382 0
-0.05601614 -0.031697419 0.47155452 -0.4587785 -0.64170039 -0.61460787 0
-0.01375257 -0.02651177 0.4728218 0.39487299 -0.68955672 -0.60711348 0
-0.03646585 -0.0044914861 0.47400671 -0.2801809 0.82541811 -0.49008539 0
-0.051515497 -0.049627103 0.47644219 -0.92036998 -0.1184214 0.3726868 0
-0.065756306 -0.02890316 0.47817591 -0.67245603 -0.63918447 -0.37315679 0
-0.040680889 -0.0032572059 0.47800109 -0.1248717 0.85097432 -0.51014692 0
-0.063283086 -0.031260308 0.47817129 -0.60678512 -0.69852698 -0.37930429 0
-0.048604399 -0.054416031 0.4787398 -0.69077659 -0.53182173 0.48989111 0
-0.034036689 -0.00075724913 0.47797751 -0.30750301 0.79887861 -0.51694763 0
-0.027928961 0.0025161449 0.47924632 -0.26475489 0.73764873 -0.62111127 0
-0.049670942 -0.052586079 0.4786692 -0.80473799 -0.3437677 0.4839634 0
-0.065153249 -0.030718269 0.48076361 -0.65894222 -0.6816898 -0.31795311 0
-0.04800874 -0.05258448 0.48081079 -0.66652799 -0.3743898 0.64464909 0
-0.036797643 -0.00065378938 0.4800967 -0.33423659 0.79937482 -0.49928531 0
-0.065809891 -0.0089195454 0.49807951 -0.93755358 -0.3393597 0.07634265 0
-0.064638682 -0.01118884 0.50035483 -0.87112337 -0.45545331 0.1835928 0
-0.0094032148 -0.032431468 0.50017762 0.4019075 -0.8215853 0.40431169 0
-0.0066493647 -0.03079202 0.50036609 0.46775201 -0.808406 0.35733461 0
-0.003555943 -0.02887062 0.50045097 0.54461181 -0.77821338 0.31270081 0
-0.016442681 -0.032655299 0.50257391 0.17323171 -0.67777449 0.7145716 0
-0.02181763 -0.029822981 0.50567681 0.047922671 -0.39627361 0.91688091 0
-0.017886641 -0.03142206 0.5039922 0.17746191 -0.62028778 0.76403552 0
-0.01937134 -0.02919388 0.50580102 0.089741737 -0.4279699 0.8993265 0
-0.051136199 -0.0080767823 0.51231891 -0.076675549 -0.46645549 0.8812151 0
-0.068045184 0.0085212011 0.51285827 -0.8825596 -0.34481731 0.31967109 0
-0.068828247 0.01089725 0.5127424 -0.92428988 -0.2465895 0.2913447 0
-0.064687788 0.0040634181 0.51441383 -0.59876949 -0.564551 0.56811732 0
-0.067812748 0.01060176 0.51495725 -0.83543569 -0.27592361 0.47530341 0
-0.065390609 0.01060814 0.51792824 -0.6112653 -0.29125109 0.73588562 0
-0.063364848 0.0074668969 0.51809853 -0.54562408 -0.41021049 0.73076773 0
-0.062698156 0.01069915 0.51994419 -0.5460242 -0.3316842 0.7693134 0
-0.0027443951 0.084751099 0.52529573 0.9755668 0.0089531112 -0.2195204 0
-0.0021662081 0.082307391 0.52734476 0.94866067 0.063659228 -0.30982301 0
-0.06186302 0.023662161 0.53112501 -0.67627311 -0.4295038 0.59848249 0
-0.055426139 0.087751836 0.5734542 -0.23200341 -0.4108398 0.88169438 0
-0.052957069 0.085330643 0.5728687 -0.1958259 -0.5210377 0.83076578 0
-0.057090938 0.083354883 0.56990111 -0.30198979 -0.6401915 0.70636892 0
-0.055830989 0.084824726 0.57167494 -0.27228519 -0.57144022 0.77415562 0
-0.037944708 0.07649561 0.5672738 -0.1113577 -0.53802067 0.83554357 0
-0.04056453 0.078227915 0.56802946 -0.18230151 -0.60675043 0.77370542 0
-0.034035489 0.072533883 0.56545258 -0.026113341 -0.45263711 0.89131242 0
-0.040960658 0.075725064 0.56616557 -0.1915738 -0.52368033 0.83009553 0
-0.040702432 0.072567068 0.56437349 -0.19308209 -0.48831439 0.85103953 0
-0.038710799 0.071041234 0.56401366 -0.203435 -0.4741357 0.85662681 0
-0.01693099 0.063697532 0.55890727 0.114211 -0.52431738 0.8438288 0
-0.016932739 0.060606189 0.55686516 0.093454957 -0.56901759 0.81699759 0
-0.0067998562 0.057005811 0.5501824 0.89863288 -0.27468619 0.34206179 0
-0.0091048386 0.053470358 0.55037266 0.57631159 -0.41509509 0.70396101 0
-0.048689511 0.04879842 0.54677808 -0.27707729 -0.49722141 0.82219172 0
-0.04324466 0.044338539 0.54612702 -0.1372527 -0.53845167 0.8314032 0
-0.051136859 0.043222319 0.54350013 -0.094619453 -0.3304528 0.9390676 0
-0.05358069 0.040060397 0.54264408 -0.017498139 -0.2674056 0.96342522 0
-0.05602783 0.038321368 0.54200482 -0.1296261 -0.3191348 0.93880248 0
-0.04341777 0.032445289 0.5400762 -0.071011327 -0.3531574 0.93286508 0
-0.0163408 -0.035989631 0.49782652 0.283833 -0.89021838 0.35630059 0
-0.065680817 -0.01855067 0.49584273 -0.8105675 0.33559331 0.47995591 0
-0.06811811 -0.02589716 0.49524719 -0.88906509 -0.091160104 0.44861239 0
-0.069192782 -0.02576464 0.49284407 -0.92725861 -0.088205703 0.3638835 0
-0.069411397 -0.02813787 0.49058199 -0.9215762 -0.32752961 0.20837849 0
-0.068105333 -0.0309113 0.49061349 -0.80945683 -0.57402849 0.1235759 0
-0.065594882 -0.033590451 0.49056131 -0.61943448 -0.77694613 0.1124974 0
-0.062611431 -0.035621397 0.49066931 -0.5054093 -0.85298562 0.1302965 0
-0.064143278 -0.03470321 0.48864239 -0.59587443 -0.80270368 -0.024505081 0
-0.068644233 -0.03010611 0.4880878 -0.82937872 -0.54204381 -0.13534971 0
-0.043002531 -0.049675573 0.48566291 -0.3278223 -0.42401749 0.84424031 0
-0.045424838 -0.047341641 0.48542491 -0.56302589 -0.3346369 0.75565863 0
-0.023513 0.01056855 0.4841955 -0.052009519 0.29167509 -0.95510238 0
-0.025899 0.0085229985 0.4836545 -0.16647489 0.40379119 -0.89957702 0
-0.04595647 -0.050037153 0.4838084 -0.55072862 -0.3701385 0.74812812 0
-0.065775171 -0.031246711 0.483208 -0.66658652 -0.67709059 -0.31178629 0
-0.02863016 0.0059099877 0.48302758 -0.2859742 0.51810658 -0.80609202 0
-0.030993098 0.0040040798 0.48264691 -0.33054599 0.6202811 -0.71133018 0
-0.03151276 0.001644481 0.48017049 -0.3396115 0.76790178 -0.54313058 0
-0.004363718 -0.02533319 0.4810316 0.60613608 -0.63947552 -0.4729377 0
-0.01629338 -0.0056337188 0.46786401 0.1413269 0.61528438 -0.77553308 0
-0.052298062 -0.039820708 0.4666355 -0.85061997 0.37972191 -0.36367139 0
-0.04952646 -0.032522451 0.46667898 -0.60424978 -0.041207589 -0.79572862 0
-0.048693851 -0.03496547 0.465184 -0.73975861 0.27272701 -0.61512393 0
-0.01881285 -0.0064346101 0.46695551 0.056056332 0.61628771 -0.78552347 0
-0.045649219 -0.030690281 0.4642235 -0.4310444 0.052088808 -0.90082592 0
-0.023564171 -0.0087981895 0.4643749 0.1385127 0.53821468 -0.8313477 0
-0.02592336 -0.01089131 0.46301949 0.1411951 0.35546789 -0.92396241 0
-0.03340264 -0.016034361 0.46051708 0.1759569 0.13919529 -0.97450697 0
-0.035886422 -0.015999401 0.460107 0.089423738 0.19407541 -0.97690231 0
-0.035849221 -0.01378112 0.46074241 0.01520996 0.38565499 -0.9225176 0
-0.043837171 -0.03981024 0.45767969 -0.3289744 0.46532819 -0.8217333 0
-0.03095253 -0.01855382 0.46088541 0.1418861 -0.01345256 -0.98979157 0
-0.028487341 -0.020967051 0.46115851 0.1348231 -0.17196891 -0.97583258 0
-0.026343411 -0.022804109 0.46225461 0.33342579 -0.40633261 -0.85071802 0
-0.038110271 -0.0118857 0.46211621 -0.1410667 0.58676618 -0.79737431 0
-0.04875835 -0.039692 0.4616974 -0.64658958 0.4396925 -0.62337178 0
-0.043068342 -0.028104691 0.4631716 -0.20919231 -0.1643412 -0.96396601 0
-0.01382632 -0.0046369354 0.46933278 0.1213366 0.73893231 -0.66276431 0
-0.05364627 -0.042667739 0.46909729 -0.98809421 0.152135 -0.02290995 0
-0.016155239 -0.0032399171 0.47083709 0.086992539 0.82361108 -0.56044358 0
-0.0536189 -0.044737902 0.47138989 -0.98254931 0.01643274 0.18527479 0
-0.019376209 -0.002559867 0.47153941 0.001490481 0.81291038 -0.58238697 0
-0.0090379827 -0.02352733 0.47346619 0.53540832 -0.63803458 -0.55339837 0
-0.0064171948 -0.02102655 0.4732832 0.5711599 -0.60851258 -0.55089831 0
-0.0039310721 -0.01868584 0.47327098 0.6052081 -0.60433948 -0.51816678 0
-0.01161321 -0.025597941 0.47347581 0.49323449 -0.65774119 -0.56929457 0
-0.046011571 -0.060605727 0.47409189 -0.46276191 -0.658517 0.59347022 0
-0.052637 -0.047185179 0.47400919 -0.93895262 -0.088988163 0.33233881 0
-0.026706619 -0.0011075309 0.47432652 -0.17027891 0.76031202 -0.6268419 0
-0.00422971 -0.02093686 0.47598708 0.63629961 -0.61997741 -0.4590762 0
-0.043433603 -0.060196541 0.47594628 -0.2293665 -0.77648991 0.58690238 0
-0.0092117842 -0.02557108 0.4760333 0.5505935 -0.65488541 -0.51766008 0
-0.046355173 -0.058312889 0.47643077 -0.53666312 -0.69243342 0.48221239 0
-0.026704941 0.00069005851 0.47643241 -0.2072701 0.76712048 -0.60709578 0
-0.006785966 -0.02558893 0.47847807 0.57869059 -0.63551402 -0.51111567 0
-0.004334392 -0.023137739 0.47847879 0.62252128 -0.58980149 -0.51439428 0
-0.02892177 0.001763508 0.47880411 -0.28005069 0.74667192 -0.60336792 0
-0.065880366 -0.025925521 0.49848279 -0.73140699 -0.1007233 0.67446172 0
-0.0138754 -0.034427077 0.4996469 0.23141859 -0.86456841 0.44605699 0
-0.064499348 -0.02343495 0.49957949 -0.59599447 0.1662249 0.78559518 0
-0.01609602 -0.033837412 0.50116169 0.17069779 -0.77781123 0.60487348 0
-0.062782973 -0.02583657 0.50094807 -0.38430381 0.04436785 0.92213988 0
-0.0067330841 -0.02994849 0.50211251 0.39727679 -0.78133959 0.48133111 0
-0.004236951 -0.02804096 0.50276369 0.44283521 -0.68525487 0.5782063 0
-0.064338401 -0.0108608 0.50251502 -0.7918849 -0.50909942 0.3372477 0
-0.062581584 -0.01101869 0.50503331 -0.61994112 -0.56476521 0.54471397 0
-0.064514451 -0.0086843241 0.50477201 -0.77504009 -0.4298324 0.46320301 0
-0.006590059 -0.027580621 0.50448769 0.28702649 -0.54567999 0.78730488 0
-0.062981993 0.00081780337 0.51293457 -0.576873 -0.51373398 0.63505512 0
-0.053581629 -0.0080919769 0.51209027 -0.15169109 -0.45614931 0.87687951 0
-0.002447166 0.072967932 0.52504635 0.83923107 0.1468007 -0.52358443 0
-0.001585528 0.075509943 0.5270049 0.87194419 0.1046048 -0.47830009 0
6.0568227e-06 0.075436532 0.5298239 0.88234389 0.1218899 -0.454546 0
-0.001074126 0.078643948 0.5287115 0.88001162 0.1245421 -0.4583326 0
-0.033776451 0.08791922 0.57562321 -0.244767 -0.42007509 0.8738569 0
-0.04060363 0.087259859 0.57411933 -0.018791519 -0.45872349 0.88838029 0
-0.03840417 0.085176341 0.5731855 -0.078275584 -0.4698132 0.87928861 0
-0.036003109 0.083792381 0.5727576 -0.12885781 -0.51442963 0.84779602 0
-0.0364777 0.079871565 0.56977916 -0.087263167 -0.60715371 0.78977811 0
-0.0486947 0.08021494 0.5689311 -0.063590683 -0.7152459 0.69597381 0
-0.053418498 0.078108847 0.56624031 -0.1456223 -0.66896719 0.72888738 0
-0.05494852 0.074037902 0.56265801 -0.25251061 -0.56099957 0.78836399 0
-0.057767689 0.075904429 0.56308347 -0.32688549 -0.57555127 0.74959087 0
-0.060132541 0.078049406 0.56351811 -0.37623671 -0.56493992 0.7343629 0
-0.053738851 0.072479464 0.5619877 -0.23277751 -0.55147421 0.80105603 0
-0.060576223 0.075535871 0.56142241 -0.37761691 -0.56864423 0.73078668 0
-0.055333517 0.071458504 0.56062484 -0.32090381 -0.56839138 0.75759619 0
-0.053582001 0.05543039 0.55007333 -0.1853049 -0.4319618 0.88265002 0
-0.071233802 0.076078914 0.5488531 -0.88968039 -0.3277986 0.31783161 0
-0.024262091 0.046326891 0.54942101 0.078489721 -0.44167301 0.89373612 0
-0.02915059 0.043204539 0.54793328 -0.061045229 -0.43188271 0.89986151 0
-0.03159615 0.042776681 0.54745173 -0.1957704 -0.39528099 0.89745581 0
-0.072294258 0.077415325 0.5472886 -0.89746892 -0.311636 0.3121421 0
-0.034046508 0.040762488 0.54601705 -0.2864534 -0.34268939 0.89471132 0
-0.05846547 0.052994888 0.54728192 -0.47343671 -0.41851491 0.7750504 0
-0.05964797 0.051336553 0.545802 -0.3930783 -0.36376601 0.84449017 0
-0.038921859 0.038330458 0.5431245 -0.28423411 -0.40121979 0.8707661 0
-0.034045108 0.033427861 0.5428828 -0.2435796 -0.43386921 0.8674252 0
-0.03648331 0.035882611 0.54308772 -0.31949079 -0.36142281 0.87595612 0
-0.040614299 0.040511001 0.5437516 -0.171276 -0.49066141 0.85435122 0
-0.072354801 0.072513044 0.54241747 -0.89918458 -0.31675041 0.30188781 0
-0.041222289 0.037895828 0.54231769 -0.19191501 -0.40532669 0.89380032 0
-0.036089908 0.032605369 0.54187483 -0.2792823 -0.42239359 0.86231393 0
-0.074971572 0.087194033 0.53994501 -0.983082 -0.002047403 -0.1831543 0
-0.074337147 0.084756576 0.53748024 -0.94006068 0.058955848 -0.33587229 0
-0.073505178 0.082314506 0.53504163 -0.91093493 0.088941991 -0.4028486 0
-0.073153362 0.079867594 0.53364348 -0.91821051 0.083832033 -0.38711971 0
-0.0186898 0.02762505 0.5345394 0.6462335 -0.62593842 0.43655851 0
-0.0046734163 -0.03012782 0.49079278 0.6135146 -0.77914631 -0.12857249 0
-0.066965692 -0.0154096 0.49109909 -0.87407893 0.33279639 0.35388219 0
-0.010693691 -0.033959839 0.49027428 0.50279182 -0.85679561 -0.1144626 0
-0.017112289 -0.037243452 0.49068189 0.4292351 -0.90093601 -0.063808948 0
-0.066093586 -0.01053425 0.48863989 -0.99444431 0.030213719 0.1008346 0
-0.066657476 -0.01300112 0.4886325 -0.9055993 0.3505289 0.2387874 0
-0.0039212522 -0.0286789 0.48790929 0.6338613 -0.71710491 -0.28979391 0
-0.0070676361 -0.031272009 0.48780107 0.56088942 -0.79011112 -0.2472399 0
-0.0089606075 -0.03252599 0.4880484 0.53126723 -0.82176453 -0.2060544 0
-0.0122021 -0.034464378 0.4879345 0.4582333 -0.8658796 -0.20068569 0
-0.0082791634 -0.031345792 0.4856776 0.54587728 -0.77038759 -0.3294251 0
-0.031576678 -0.04720445 0.48621219 0.40452129 -0.3797355 0.8319636 0
-0.066374943 -0.01053924 0.48619533 -0.97690529 0.159934 0.1416938 0
-0.02137642 -0.038375918 0.48564482 0.50595492 -0.83429009 -0.2190198 0
-0.043288521 0.006578648 0.4843398 0.1558895 -0.32852939 -0.93154007 0
-0.043224849 0.0035392311 0.4848389 0.030179851 0.091978282 -0.99530351 0
-0.046259381 0.004133489 0.48457831 0.15241531 -0.1671095 -0.97408628 0
-0.066442706 -0.0080940844 0.48375809 -0.99474978 0.1010814 -0.015971789 0
-0.02774654 -0.04718814 0.48377979 0.58995092 -0.2399344 0.77096647 0
-0.059690401 0.0053512002 0.48199469 -0.1327326 0.36030579 -0.92334282 0
-0.05051038 0.008367694 0.48250988 0.039415881 -0.1804098 -0.9828015 0
-0.071134299 -0.022756848 0.48314968 -0.99083823 -0.1341213 0.01584419 0
-0.01929887 -0.03503596 0.48119539 0.53202379 -0.72403681 -0.43900031 0
-0.05789125 0.003563236 0.4811897 -0.001304012 0.39897969 -0.91695893 0
-0.043196831 -0.0018769241 0.4805575 0.0044795149 0.86672258 -0.4987703 0
-0.043128733 -0.0080962069 0.46788949 -0.03364839 0.85506368 -0.51742989 0
-0.06029762 -0.02578669 0.4685576 -0.40758649 -0.50218529 -0.7626816 0
-0.023899561 -0.02800579 0.4687047 0.54669529 -0.52764058 -0.6501689 0
-0.025644328 -0.03071795 0.46862659 0.72089171 -0.2931574 -0.62799197 0
-0.060289428 -0.01850732 0.46661499 -0.31786549 0.046863221 -0.94697702 0
-0.057860322 -0.020962602 0.4659701 -0.28606549 -0.15706331 -0.94525009 0
-0.026860951 -0.03342909 0.4670839 0.84312159 0.2082483 -0.4957605 0
-0.049917839 -0.01175142 0.46503541 -0.32633531 0.62551469 -0.70868647 0
-0.028009411 -0.03089137 0.46588582 0.71573287 -0.063827731 -0.6954512 0
-0.05297517 -0.025827169 0.46601322 -0.32644629 -0.35572121 -0.87572563 0
-0.052727748 -0.02323973 0.4649314 -0.3187955 -0.29842609 -0.89961731 0
-0.05516997 -0.023179779 0.46578062 -0.3035807 -0.28434461 -0.90938818 0
-0.047900632 -0.01055904 0.4654792 -0.224453 0.7001006 -0.67784947 0
-0.0267909 -0.03624101 0.46432951 0.70156819 0.53469533 -0.4710657 0
-0.028758559 -0.02798357 0.46417192 0.49686 -0.3540327 -0.79233259 0
-0.030874571 -0.030806351 0.46366063 0.43039659 0.099150181 -0.89717782 0
-0.043089643 -0.020792371 0.46071798 -0.2319728 -0.2219394 -0.94706458 0
-0.040644668 -0.03601896 0.4595058 -0.1630951 0.61813581 -0.7689656 0
-0.02833312 -0.042507488 0.45861772 0.56755698 0.3643145 -0.7383455 0
-0.042596169 -0.01847551 0.46026769 -0.2140162 -0.01653048 -0.97669029 0
-0.038209148 -0.034415502 0.4605439 -0.033713181 0.61202103 -0.79012263 0
-0.026962869 -0.038625531 0.46210751 0.64973211 0.46326149 -0.60269141 0
-0.04567321 -0.01845012 0.46117222 -0.29905471 -0.032308981 -0.95368892 0
-0.040786352 -0.03312001 0.4617511 -0.13311 0.50131798 -0.854963 0
-0.035918619 -0.028242961 0.4625943 0.05016933 -0.2261772 -0.97279328 0
-0.02365263 -0.030746112 0.47109139 0.69050622 -0.4784328 -0.54249728 0
-0.065239489 -0.02585407 0.4733423 -0.65635753 -0.57662362 -0.48651841 0
-0.03108686 -0.060537059 0.47334188 0.42043209 -0.90724093 -0.01227933 0
-0.02121944 -0.03069758 0.47364292 0.49450949 -0.67450827 -0.54817772 0
-0.01881028 -0.028841089 0.47278711 0.31993711 -0.74513429 -0.58516252 0
-0.045553599 -0.005667448 0.47281119 0.065660372 0.91476011 -0.39862591 0
-0.069107369 -0.020681569 0.47418189 -0.87155032 -0.252094 -0.4205339 0
-0.0286959 -0.059328999 0.47587219 0.4871906 -0.85306162 0.18689939 0
-0.045717482 -0.0042393953 0.47571608 0.1138022 0.87888348 -0.4632633 0
-0.070113152 -0.01861186 0.47601321 -0.94704819 0.04119736 -0.31843749 0
-0.019391431 -0.0316597 0.47645029 0.39285681 -0.75331038 -0.52743417 0
-0.06918902 -0.025136201 0.47868311 -0.77981579 -0.50422019 -0.37101129 0
-0.047471642 -0.00292926 0.47764781 0.15426131 0.85561728 -0.49408749 0
-0.045640979 -0.0025499598 0.47887439 0.118359 0.87581652 -0.4679065 0
-0.021718331 -0.035267569 0.47857511 0.76156592 -0.46945629 -0.4467977 0
-0.01937674 -0.032912541 0.47823748 0.43710369 -0.72746521 -0.52889973 0
-0.070676714 -0.02367555 0.48064631 -0.91179591 -0.33713171 -0.2344579 0
-0.021824788 -0.02519688 0.50682318 -0.079609677 -0.1124087 0.99046779 0
-0.01321887 -0.02654813 0.50615072 0.1253079 -0.40174749 0.90713662 0
-0.002033313 0.033448748 0.50775117 0.85558242 0.1372323 -0.49914521 0
-0.019381091 -0.02274956 0.50723422 -0.1071652 -0.029284781 0.99380988 0
-0.01693324 -0.020305829 0.50740159 -0.072029836 0.042098612 0.99651372 0
-0.01449001 -0.017862691 0.50737059 -0.02308373 0.02693728 0.99937052 0
-0.01204618 -0.01541994 0.507357 0.0079889456 0.002028951 0.99996603 0
-0.0042832834 -0.015980979 0.50632042 0.3116034 0.096388347 0.94531089 0
-0.009603126 -0.01297635 0.50729913 0.1067795 0.005623213 0.99426669 0
-0.0071555511 -0.01053228 0.50662988 0.34767309 0.053400509 0.93609393 0
-0.0010038579 0.035892669 0.51061499 0.91267091 0.1098095 -0.39366701 0
-0.041368302 -0.010568949 0.51239723 -0.045250099 -0.77320611 0.63253838 0
-0.01206618 -0.00074314338 0.51182574 0.53966957 -0.46129099 0.70424938 0
-0.038920779 -0.01001198 0.51310992 -0.01230964 -0.72462428 0.68903422 0
-0.0096062208 0.001684793 0.51151007 0.53951639 -0.52290362 0.65991962 0
-1.966974e-05 0.0309995 0.51306719 0.98934728 -0.028916519 -0.1426736 0
-0.04138137 -0.0081432573 0.51460248 -0.1599437 -0.60213572 0.78220892 0
2.4290281e-05 0.028548921 0.51552397 0.99470627 -0.099233642 0.026686219 0
-0.01204451 0.001680325 0.51378739 0.51128352 -0.60966527 0.60572052 0
-0.002155463 0.023321841 0.5181334 0.84110451 -0.3110655 0.44247201 0
-0.002280277 0.026161 0.52038062 0.7889455 -0.34853259 0.50605339 0
-0.01889172 0.0039741411 0.52051538 0.28707811 -0.60440499 0.7431559 0
-0.071946748 0.082820922 0.53200203 -0.89641422 0.096461892 -0.43259299 0
-0.0071442779 0.087663397 0.57107705 0.35840541 -0.51470453 0.77886128 0
-0.061987493 0.078719042 0.5630756 -0.38668811 -0.58159548 0.71569479 0
-0.064819843 0.078350753 0.5609799 -0.53916848 -0.50356382 0.67507088 0
-0.062640533 0.075918153 0.56061232 -0.41377309 -0.54912418 0.7261228 0
-0.049545959 0.066278212 0.55807346 -0.12970001 -0.65758759 0.74212968 0
-0.04811839 0.067655064 0.55949157 -0.1132327 -0.6404177 0.75963378 0
-0.043038961 0.064178996 0.55804545 -0.29118949 -0.55734289 0.77754593 0
-0.070553228 0.085095391 0.55901676 -0.81312698 -0.4216117 0.40133291 0
-0.048694611 0.065205261 0.55728018 -0.1396246 -0.64980388 0.74716789 0
-0.043061711 0.061160889 0.55593199 -0.30650121 -0.52635419 0.79310042 0
-0.045704141 0.063484363 0.55649531 -0.25200719 -0.57009113 0.78197742 0
-0.051132821 0.060334191 0.55289894 -0.185821 -0.50889432 0.84053391 0
-0.070587888 0.080287151 0.55417573 -0.85041088 -0.36352649 0.38032851 0
-0.026705151 0.048092991 0.55048352 0.020939739 -0.45230389 0.89161801 0
-0.05325618 0.056848202 0.55086386 -0.18942849 -0.4105292 0.89195442 0
-0.055408191 0.058409277 0.55097413 -0.2507194 -0.4029693 0.88020188 0
-0.01877513 0.048100229 0.54974681 0.063161068 -0.4439446 0.89382541 0
-0.02181888 0.046640109 0.54927194 0.092143297 -0.42615721 0.89994419 0
-0.01448292 0.04320896 0.54585105 0.4072682 -0.51643682 0.75327671 0
-0.016927611 0.04393303 0.54730231 0.2293189 -0.47799101 0.84790182 0
-0.06458845 0.05624406 0.54430431 -0.73794591 -0.38949081 0.55111939 0
-0.036481231 0.03099449 0.54081202 -0.2365939 -0.52296507 0.81885952 0
-0.031596132 0.028167879 0.54017133 -0.1669697 -0.54681581 0.82043499 0
-0.070651047 0.065362096 0.53986186 -0.89495522 -0.3061845 0.32450911 0
-0.02426018 0.02615563 0.53865021 0.2873432 -0.65160751 0.70202678 0
-0.014094731 0.035042241 0.53934723 0.59871352 -0.62886691 0.4960531 0
-0.0164552 0.032966819 0.53925592 0.53585941 -0.65167439 0.53681952 0
-0.02619205 0.024106219 0.53753 0.1951631 -0.64914119 0.73520541 0
-0.006840982 0.04413937 0.53683835 0.71050519 -0.35506931 0.60754269 0
-0.024467159 0.023650611 0.53619552 0.39260489 -0.70922703 0.58554119 0
-0.01423744 0.033187751 0.53669733 0.57909608 -0.66778958 0.46765891 0
-0.0034968969 0.048103891 0.53552932 0.69950593 -0.36221051 0.61603171 0
-0.07074777 0.060317613 0.53535259 -0.89610261 -0.26575249 0.35549361 0
-0.033351053 0.020195259 0.53491884 0.039528541 -0.56221211 0.82604778 0
-0.03588352 0.01833611 0.53372306 0.01989403 -0.57134521 0.82046872 0
-0.053586289 -0.038858157 0.4959777 -0.39290681 -0.89589721 0.2073462 0
-0.0042158761 0.01088579 0.4952974 0.90043831 0.27363801 -0.3381319 0
-0.052995719 -0.039573293 0.49353188 -0.37350711 -0.92045778 0.1151079 0
-0.0059291529 0.01145217 0.49225169 0.86138183 0.2294535 -0.4531804 0
-0.055427331 -0.038623229 0.49309728 -0.37690619 -0.91759819 0.1263136 0
-0.0041438588 0.0083741359 0.49297839 0.80468988 0.4521369 -0.38476789 0
-0.06874048 -0.00077507872 0.49108732 -0.98586279 -0.1562831 -0.060416531 0
-0.068721078 0.001684294 0.48862007 -0.98171008 -0.019600879 -0.1893703 0
-0.068386599 -0.001158824 0.4882907 -0.97206622 -0.1512723 -0.1794551 0
-0.027446171 -0.04356939 0.48539191 0.54912132 -0.52160078 0.65299201 0
-0.067529544 -0.0032132671 0.48618999 -0.94122189 -0.18260381 -0.2841782 0
-0.025419781 -0.041124452 0.48648709 0.56439072 -0.7962842 0.21770281 0
-0.065417506 0.001298156 0.48333061 -0.67969167 0.2261578 -0.69776207 0
-0.066494189 -0.005646985 0.4837583 -0.97160143 -0.02743491 -0.2350277 0
-0.023801729 -0.040385477 0.48318669 0.82047671 -0.52401841 0.2285226 0
-0.06249439 -0.018611562 0.46734381 -0.3484894 0.1045011 -0.93146908 0
-0.02795958 -0.050791539 0.45811871 0.55393553 -0.42469659 -0.71609229 0
-0.04072709 -0.057924069 0.45849288 0.02460664 -0.76433969 -0.64434409 0
-0.041479789 -0.05979535 0.46124241 0.1109175 -0.86014098 -0.49785009 0
-0.037503891 -0.058719229 0.4602513 0.202778 -0.83114862 -0.51775777 0
-0.062070049 -0.02513136 0.4691253 -0.50838882 -0.54951352 -0.66300517 0
-0.043118488 -0.0073876772 0.46908981 0.025595499 0.8969304 -0.44143039 0
-0.064471133 -0.022664351 0.46913511 -0.5866943 -0.44632599 -0.67570919 0
-0.0291373 -0.058918361 0.46909741 0.56727141 -0.80195838 -0.18725909 0
-0.031138161 -0.06041605 0.47095302 0.4487434 -0.88828421 -0.097879954 0
-0.027804421 -0.058188789 0.47063032 0.58903092 -0.79546487 -0.1424018 0
-0.045687109 -0.0064184372 0.47087768 0.035973672 0.91825688 -0.39434779 0
-0.021818301 -0.02763759 0.4697558 0.44090331 -0.61733061 -0.65154219 0
-0.067484207 -0.018677291 0.47092459 -0.75599259 0.0587557 -0.65193778 0
-0.064529404 -0.025140159 0.47157863 -0.62046432 -0.58401948 -0.52339798 0
-0.018776551 -0.027705299 0.47146249 0.28902039 -0.6877284 -0.6659556 0
-0.022920879 -0.031469449 0.4727695 0.59837818 -0.57319552 -0.5598129 0
-0.02182458 -0.03007305 0.47234741 0.55497891 -0.6384297 -0.53329718 0
-0.022717739 -0.036030337 0.47739968 0.89097917 -0.21548679 -0.3996518 0
-0.0027818489 0.01878769 0.50083786 0.92383778 0.04257464 -0.38040909 0
-0.04589273 -0.037308428 0.50195152 -0.079331331 -0.5842883 0.80765939 0
-0.055389568 -0.02822108 0.50265414 -0.064024873 0.14007141 0.98806918 0
-0.053242169 -0.03082305 0.50310761 -0.044593699 0.061902039 0.99708557 0
-0.0031415611 0.02613291 0.50327092 0.8473509 0.25324079 -0.46676081 0
-0.0041036648 0.0016833369 0.5054751 0.78861022 0.088619098 0.60847408 0
-0.030699631 -0.025191352 0.50564331 -0.1587535 0.064471342 0.98521101 0
-0.001529018 0.023683399 0.50572407 0.94153482 0.1296197 -0.3109836 0
-0.041357461 -0.016438881 0.5056873 -0.075876556 -0.52938771 0.84498012 0
-0.028704612 -0.02323563 0.5057084 -0.13987181 0.099937737 0.98511332 0
-0.02695553 -0.020304859 0.50573218 -0.1380166 -0.038708828 0.9896732 0
-0.0071679801 -0.0031991391 0.5075525 0.51698571 -0.2264695 0.8254922 0
-0.02426862 -0.02519282 0.5065639 -0.1170512 -0.033375919 0.99256492 0
-0.036483299 -0.01316523 0.5083918 0.080209583 -0.71653342 0.69292587 0
-0.001889223 0.03100571 0.50743437 0.89135319 0.1279451 -0.43487871 0
-0.041365411 -0.0119304 0.51064003 -0.047649652 -0.79451847 0.60536772 0
-0.0091734622 0.00093107991 0.51063162 0.58365941 -0.40031201 0.70646441 0
-0.00060904224 0.03100281 0.51061618 0.95852011 0.033116169 -0.2830947 0
-4.5574361e-05 0.033447169 0.51306182 0.97617519 0.03495872 -0.2141487 0
-0.04138292 -0.0062324563 0.51578289 -0.2477175 -0.47521579 0.8442784 0
0.00029467401 0.03588827 0.515149 0.98661703 0.00056821923 -0.1630538 0
-0.034038261 -0.0057058968 0.51754779 -0.0070793568 -0.64303547 0.76580358 0
-0.036496632 -0.003889451 0.51821977 -0.19028901 -0.38784871 0.90186667 0
