ply
format ascii 1.0
element vertex 926
property float x
property float y
property float z
property float nx
property float ny
property float nz
end_header
3502.59 1778.21 3213.9 0.247413 0.63795 0.729251
3505.41 1707.63 3276.74 -0.612048 -0.790661 0.0158538
3398.3 1793.7 3230.05 -0.139834 0.225474 0.964162
3524.92 1830.99 3272.71 0.0200058 -0.736828 0.675784
3501.08 1776.04 3210.38 -0.971124 0.154274 0.181983
3503.41 1778.16 3213.77 0.245973 0.634111 0.733076
3504.66 1717.32 3266.54 -0.863858 -0.463838 -0.196479
3425.9 1790.13 3226.18 -0.170972 0.130318 0.97662
3523.53 1831.05 3272.66 0.0210858 -0.731607 0.681401
3501.54 1775.97 3211.78 -0.970916 0.148099 0.188117
3502.95 1778.13 3213.66 0.235012 0.640725 0.730918
3505.78 1689.6 3291.52 -0.849655 -0.521183 0.0803382
3376.7 1796.16 3235.91 -0.266522 0.0731502 0.961049
3535.27 1866.69 3311.62 0.0240279 -0.735188 0.677437
3501.76 1775.87 3212.23 -0.972661 0.136655 0.187765
3502.22 1778.12 3213.67 0.22892 0.647715 0.726678
3506.25 1688.83 3293 -0.634479 -0.753361 -0.172868
3398.38 1794.49 3230.38 -0.548106 0.35361 0.757984
3519.23 1831.2 3272.74 0.0288531 -0.723433 0.689791
3501.14 1774.59 3210.6 -0.972009 0.158368 0.173548
3502.62 1778.4 3213.66 0.182157 0.637808 0.748345
3505.94 1729.4 3257.06 -0.652216 -0.720787 -0.234695
3432.73 1789.61 3223.42 -0.15064 0.11627 0.981727
3525.2 1832.92 3274.46 0.0104905 -0.734322 0.678721
3502.39 1779.58 3213.94 -0.96883 0.183429 0.1665
3503.31 1778.12 3213.58 0.263337 0.628589 0.731799
3504.77 1716.4 3267.1 -0.763785 -0.544692 -0.346327
3428.05 1790.21 3225.41 0.0718318 0.020326 0.99721
3521.73 1824.5 3264.98 0.0329966 -0.701209 0.712192
3502.3 1777.6 3213.51 -0.971377 0.199045 0.129644
3502.43 1779.03 3212.63 0.259039 0.618392 0.74195
3504.72 1728.32 3256.68 -0.70376 -0.707117 0.0686092
3477.78 1780.76 3216.81 -0.542981 0.524232 0.656012
3507.86 1789.01 3225.79 0.0383151 -0.717108 0.695909
3501.76 1776.55 3211.45 -0.972664 0.147577 0.179291
3501.98 1778.28 3213.76 0.207834 0.634944 0.744077
3504.36 1745.67 3243.15 -0.494995 -0.270558 0.825699
3473.01 1782.13 3217.25 -0.58205 0.412238 0.700912
3514.25 1805.54 3244.04 0.023638 -0.728362 0.684785
3501.76 1776.17 3211.72 -0.971318 0.145603 0.187994
3503.35 1777.86 3213.46 0.233113 0.643244 0.729312
3506 1686.4 3294.55 -0.797892 -0.586465 0.139379
3372.03 1796.69 3236.81 -0.541011 0.095386 0.835589
3538.75 1876.97 3322.75 0.0249881 -0.736199 0.676304
3501.83 1775.87 3212.1 -0.972859 0.135886 0.187299
3502.95 1778.33 3212.99 0.228953 0.64672 0.727553
3508.27 1661.19 3317.9 -0.626138 -0.697312 0.348865
3332.9 1801.35 3243.64 -0.285558 0.350642 0.891912
3538.78 1877.68 3323.4 0.0304808 -0.73941 0.672565
3501.89 1776.56 3211.8 -0.974211 0.149132 0.169332
3502.62 1778.59 3213.06 0.247758 0.640967 0.726483
3506.37 1704.59 3279 -0.214092 0.222935 0.951033
3404.69 1793.2 3228.14 -0.543099 0.334163 0.77031
3529.86 1844.99 3287.59 0.0279855 -0.729743 0.683148
3502.67 1778.4 3215.09 -0.973371 0.157898 0.166183
3501.99 1778.74 3213.19 0.254864 0.636943 0.727563
3504.4 1732.78 3254.99 -0.226225 0.253362 0.940548
3449.85 1783.45 3224.01 -0.198029 0.27714 0.940201
3511.61 1809.61 3248.6 0.0216729 -0.732533 0.680386
3501.51 1775.74 3210.2 -0.972357 0.155811 0.173913
3502.2 1778.73 3212.83 0.161405 0.634266 0.756078
3504.77 1753.64 3235.02 -0.548428 -0.804503 -0.228041
3458.36 1785.65 3218.36 -0.467262 0.460695 0.754603
3521.12 1821.95 3261.91 0.0377779 -0.703656 0.709536
3502.63 1778.33 3214.16 -0.962132 0.264644 0.0653173
3502.35 1779.01 3212.64 0.279303 0.614689 0.737663
3505.58 1732.32 3253.81 -0.661842 -0.749606 -0.0074091
3483.93 1779.37 3216.14 0 0 0
3503.59 1776.71 3212.22 0.040002 -0.711552 0.701494
3501.75 1775.87 3211.37 -0.974407 0.148709 0.168572
3502.41 1779.02 3212.71 0.17719 0.606408 0.77516
3504.22 1770.16 3220.08 -0.674256 -0.484108 0.557691
3478.08 1782.03 3215.34 -0.574131 0.00653259 0.818737
3517.2 1819.42 3258.96 0.0140238 -0.710163 0.703898
3502.47 1776.71 3213.5 -0.968016 0.143262 0.205962
3501.71 1778.21 3213.32 0.237562 0.633122 0.736696
3504.98 1723.98 3262.37 -0.62582 -0.73022 0.274094
3408.28 1792.07 3229.62 -0.654435 0.0277024 0.755611
3515.6 1814.13 3252.91 0.0148039 -0.70828 0.705777
3502.48 1776.24 3212.91 -0.969155 0.149884 0.195634
3501.87 1777.89 3213.34 0.236035 0.640272 0.730985
3505.62 1696.85 3285.26 -0.810295 -0.585727 -0.0186095
3384.15 1795.22 3234.49 -0.235479 -0.034611 0.971263
3534.72 1865.42 3309.73 0.0212219 -0.740733 0.671464
3501.97 1777.25 3211.09 -0.972419 0.136622 0.189037
3501.78 1777.91 3213.12 0.213488 0.642132 0.736267
3504.87 1722.77 3263.33 -0.262161 -0.371787 0.890531
3439.72 1786.67 3224.88 -0.704743 -0.10433 0.70175
3517.02 1816.73 3255.39 0.017047 -0.721871 0.691818
3502.46 1776.13 3212.26 -0.970971 0.145478 0.189873
3502.29 1777.75 3213.27 0.233503 0.645595 0.727106
3506.06 1683.6 3296.98 -0.764803 -0.643213 0.0367834
3368.51 1797.17 3237.5 -0.248825 -0.0926543 0.964106
3537.21 1873.36 3317.64 0.0189287 -0.730089 0.68309
3503.1 1776.98 3213.25 -0.970163 0.132778 0.202864
3501.73 1777.43 3212.98 0.223141 0.648693 0.727602
3505.16 1714.39 3271.1 -0.401318 -0.779554 0.480875
3403.42 1792.58 3230.81 -0.587289 -0.0820301 0.80521
3532.04 1857.33 3300.26 0.0203406 -0.739541 0.672804
3502.33 1776.65 3211.25 -0.972014 0.13896 0.189416
3502.8 1777.46 3213.34 0.229172 0.650561 0.724051
3505.66 1701.25 3282.51 -0.160041 -0.383518 0.909561
3404.35 1791.34 3231.64 -0.703105 -0.202658 0.681596
3525.34 1841.47 3282.16 0.0205162 -0.730776 0.682309
3502.79 1776.16 3212.24 -0.971471 0.141501 0.190321
3502.05 1777.58 3213.1 0.231363 0.650208 0.723672
3506.03 1690.97 3291.77 -0.150541 -0.375323 0.914587
3393.37 1792.73 3233.68 -0.703071 -0.206023 0.680621
3527.92 1849.06 3290.48 0.0216511 -0.732554 0.680364
3502.84 1776.19 3212.21 -0.971759 0.140156 0.189843
3502.25 1777.43 3213.13 0.230701 0.649233 0.724758
3506.85 1664.16 3314.57 -0.754287 -0.550146 -0.358316
3357.86 1797.3 3239.4 -0.165803 0.248686 0.954288
3537.31 1875.92 3320.17 0.0229603 -0.735606 0.67702
3503.27 1777.41 3212.78 -0.972524 0.128578 0.194073
3502.4 1777.65 3212.33 0.222886 0.652236 0.724507
3506.96 1681.79 3298.97 -0.467773 -0.791432 0.393476
3366.86 1796.8 3237.27 -0.589474 0.0579856 0.805703
3539.37 1879.27 3323.87 0.0280134 -0.742486 0.669276
3503.14 1777.96 3212.13 -0.974045 0.125181 0.188589
3503.22 1778.2 3211.72 0.223071 0.651935 0.72472
3507.77 1673.85 3304.91 -0.756269 -0.608732 0.239797
3359.21 1797.29 3238.39 -0.510345 0.510208 0.692268
3539.62 1880.39 3325.19 0.0298429 -0.74178 0.669979
3503.02 1777.87 3211.88 -0.973906 0.128054 0.187374
3503.26 1778.18 3211.9 0.225387 0.651217 0.72465
3507.95 1666.7 3311.35 -0.499532 -0.770414 0.396144
3351.74 1797.87 3240.89 -0.117094 0.207116 0.971284
3536.89 1875.15 3319.53 0.0274479 -0.743294 0.668402
3502.72 1776.78 3212.2 -0.972842 0.125158 0.194717
3503.53 1778.27 3215.16 0.22017 0.6527 0.724919
3522.09 1295.45 3644.67 -0.757466 0.223646 0.613375
2862.98 1862.21 3335.88 -0.0690651 0.046317 0.996536
3648.91 2205.35 3685.87 0.027624 -0.743675 0.66797
3501.62 1778.18 3213.02 -0.973572 0.127905 0.189204
3502.9 1778.11 3214.32 0.221839 0.652549 0.724546
3521.14 1308.01 3633.51 -0.669806 2.7807e-05 0.742536
2896.68 1857.32 3328.95 -0.17646 0.18885 0.966021
3644.67 2193.01 3672.19 0.0294288 -0.74301 0.668633
3501.67 1777.47 3213.64 -0.974029 0.126495 0.187795
3503.19 1778.24 3213.58 0.222384 0.653075 0.723905
3507.36 1660.61 3318.83 -0.841447 -0.461998 0.280222
3344.17 1800.6 3241.78 -0.288486 0.281896 0.915047
3543.51 1888.32 3337.25 0.0237706 -0.735895 0.676679
3500.68 1776.21 3211.84 -0.972868 0.13761 0.185989
3502.79 1778.78 3214.26 0.229992 0.643042 0.73048
3507.8 1647.03 3330.5 -0.761598 -0.550411 0.342075
3331.2 1801.86 3244.37 -0.406965 0.323221 0.854347
3543.26 1889.47 3337.94 0.0278286 -0.735306 0.677163
3500.43 1776.49 3212.12 -0.971927 0.139543 0.189433
3502.66 1778.9 3214.68 0.230834 0.638556 0.73414
3506.76 1675.1 3305.92 -0.845195 -0.492551 0.207459
3358.66 1798.73 3239.04 -0.143006 0.206436 0.967953
3539.06 1876.47 3323.62 0.0217315 -0.73885 0.673519
3500.96 1776.48 3211.88 -0.972354 0.13733 0.188862
3502.06 1778.74 3214.25 0.229119 0.641526 0.732085
3506.01 1691.31 3291.35 -0.828216 -0.509936 0.232431
3380.94 1795.8 3234.82 -0.127873 0.193927 0.972646
3534.22 1862.26 3307.83 0.0211719 -0.737901 0.674577
3501.05 1776.56 3211.76 -0.972072 0.138643 0.189351
3501.91 1778.92 3213.99 0.229422 0.643434 0.730314
3508.69 1644.44 3332.98 -0.833951 -0.510709 0.209051
3365.58 1797.36 3237.98 -0.50736 0.29484 0.809726
3539.14 1877.8 3324.53 0.0273332 -0.735611 0.676853
3501.37 1775.92 3212.21 -0.973348 0.134505 0.185746
3502.87 1778.58 3213.52 0.228438 0.647313 0.727188
3510.21 1617.85 3357.13 -0.855916 -0.499439 0.134045
3287.4 1807.5 3252.58 -0.299627 0.332072 0.8944
3555.66 1925.62 3378.03 0.0178015 -0.732577 0.680451
3500.86 1776.05 3212.06 -0.971629 0.144088 0.18755
3502.48 1778.66 3214.4 0.235939 0.633648 0.736765
3505.66 1699.79 3283.37 -0.900684 -0.428716 0.0705127
3390.48 1794.46 3233.32 -0.155464 0.152903 0.975936
3532.28 1857.65 3302.38 0.0208262 -0.736926 0.675653
3501.37 1776.01 3212.44 -0.972234 0.137907 0.189055
3501.92 1778.44 3213.99 0.229461 0.645305 0.728649
3508.32 1638.19 3339.1 -0.682802 -0.651397 0.330853
3363.88 1797.74 3238.43 -0.164123 0.117358 0.979434
3549.68 1908.36 3357.87 0.0239719 -0.741739 0.67026
3501.19 1775.41 3212.78 -0.973358 0.156771 0.167325
3502.17 1779.33 3213.47 0.257579 0.630869 0.731886
3505.63 1709.67 3274.36 -0.771965 -0.60766 -0.186601
3420.88 1791.43 3226.51 -0.125926 0.183043 0.975007
3522.69 1825.46 3267.33 0.00971072 -0.733631 0.679478
3500.72 1776.26 3211.05 -0.969652 0.155361 0.18878
3502.7 1778.58 3214.2 0.238448 0.629999 0.739083
3505.22 1713.46 3271.48 -0.901474 -0.429877 0.0505062
3407.47 1792.22 3230.02 -0.170283 0.145139 0.974648
3528.38 1846.34 3289.67 0.0196834 -0.736264 0.676408
3501.45 1776.19 3212.26 -0.97198 0.138786 0.18972
3501.91 1778.37 3213.95 0.229551 0.645397 0.728539
3508.04 1645.08 3333.18 -0.664609 -0.665906 0.338916
3370.08 1796.85 3237.19 -0.524882 0.152546 0.837394
3540.17 1880.81 3327.39 0.0246356 -0.737984 0.674368
3501.55 1776.93 3211.2 -0.972665 0.136036 0.188194
3502.99 1777.98 3213.48 0.222227 0.653516 0.723555
3505.88 1691.94 3290.57 -0.636673 -0.754776 -0.157988
3401.21 1794.52 3229.86 -0.458188 0.164415 0.873516
3526.77 1834.8 3277.13 0.0311863 -0.725432 0.687587
3500.83 1775.57 3210.32 -0.970986 0.167633 0.170543
3503.13 1778.5 3213.76 0.255833 0.630302 0.732986
3504.52 1724.24 3260.95 -0.787103 -0.581306 -0.206284
3442.62 1788.47 3222.5 -0.0851483 0.167934 0.982114
3518.12 1813.09 3253.41 0.00553167 -0.731369 0.68196
3501.12 1776.29 3211.38 -0.968819 0.15704 0.191648
3502.18 1778.5 3213.97 0.238447 0.633012 0.736504
3504.43 1735.26 3252.27 -0.829554 -0.524687 0.191163
3427.09 1789.6 3226.18 -0.140176 0.0723133 0.987482
3525.5 1838.01 3280.2 0.018507 -0.736125 0.676592
3501.68 1776.6 3211.82 -0.971521 0.140436 0.190854
3501.9 1778.25 3213.81 0.229744 0.644207 0.72953
3507.33 1663.75 3316.62 -0.674746 -0.662191 0.325915
3331.13 1802.09 3244.49 -0.412447 0.156597 0.897421
3532.03 1850.76 3294.11 0.0216991 -0.731152 0.68187
3501.25 1774.78 3210.44 -0.971657 0.110531 0.208962
3501.69 1778.8 3213.31 0.191246 0.642222 0.742277
3505.53 1716.62 3269.32 -0.261309 0.236955 0.935719
3424.87 1787.14 3228.8 -0.532443 0.536937 0.654373
3517.22 1824.37 3265.56 0.0252171 -0.727138 0.686028
3502.33 1779.59 3214.22 -0.96999 0.169386 0.174435
3502.97 1778.11 3213.54 0.19265 0.640614 0.743303
3504.31 1731.28 3254.26 -0.372476 0.482846 0.792541
3449.35 1783.54 3224.7 -0.0326002 0.100549 0.994398
3519.98 1816.8 3256.81 0.0044662 -0.731708 0.681604
3501.21 1776.26 3210.24 -0.966263 0.182571 0.18167
3502.5 1778.89 3212.79 0.198296 0.635342 0.746337
3504.51 1762.54 3227.04 -0.479284 -0.0376038 0.876854
3493.99 1779.83 3212.46 -0.138142 0.225704 0.964352
3513.11 1800.16 3238.09 0.0327373 -0.726909 0.685953
3502.32 1777.67 3213.44 -0.972773 0.106751 0.20571
3502.34 1779.08 3212.67 0.229788 0.581695 0.780275
3504.33 1751.31 3236.73 -0.676844 -0.676604 0.289983
3420.85 1788.68 3228.79 -0.531156 0.198051 0.823802
3518.43 1823.5 3263.88 0.0317957 -0.71591 0.697468
3502.27 1777.15 3213.28 -0.9719 0.13405 0.193495
3502.1 1778.54 3213.3 0.241696 0.624773 0.742456
3504.67 1727.06 3259.29 -0.863183 -0.503556 0.036698
3419.69 1790.52 3227.76 -0.236759 0.028499 0.97115
3526.52 1841.52 3283.69 0.0196791 -0.735842 0.676867
3501.88 1775.98 3212.4 -0.972066 0.138543 0.189457
3501.8 1778.15 3213.69 0.229546 0.646255 0.72778
3507.81 1652.28 3326.72 -0.783208 -0.608401 0.128195
3378.98 1795.17 3235.2 -0.570014 0.39695 0.719385
3534.5 1865.13 3309.66 0.0284532 -0.735734 0.676673
3501.93 1776.79 3211.45 -0.973355 0.133431 0.186482
3502.66 1778.82 3212.67 0.228107 0.645849 0.728592
3507 1694.11 3287.96 -0.236507 0.271515 0.932922
3394.1 1790.3 3234.72 -0.462342 0.389218 0.796711
3525.35 1848.53 3291.56 0.0318036 -0.733725 0.678702
3502.67 1778.49 3214.87 -0.971469 0.10865 0.210815
3502.22 1778.71 3213.14 0.198161 0.645884 0.737269
3506.22 1712.1 3273 -0.236028 0.111732 0.965301
3417.33 1787.31 3230.19 -0.624823 0.0569732 0.778685
3518.85 1828.7 3269.62 0.0230854 -0.726237 0.687057
3502.61 1778.87 3213.82 -0.969036 0.103067 0.224379
3503.12 1778.42 3212.9 0.286306 0.621687 0.729064
3504.61 1736.65 3249.27 -0.555495 -0.825413 -0.100594
3442.59 1784.52 3224.61 -0.570128 0.472555 0.672045
3511.45 1806.96 3245.59 0.0353588 -0.710756 0.70255
3501.43 1774.94 3210.15 -0.972801 0.172444 0.154664
3502.26 1778.92 3212.73 0.19099 0.637924 0.74604
3504.84 1752.96 3235.65 -0.325273 0.121673 0.93776
3487.53 1782.29 3212.21 -0.49177 0.501511 0.711792
3513 1798 3235.64 0.033091 -0.724541 0.688437
3502.41 1777.88 3213.7 -0.971373 0.0907952 0.219524
3503.55 1777.85 3211.2 0.0299605 -0.744898 0.666505
3504.59 1758.94 3230.17 -0.671413 -0.739259 0.0519703
3453.34 1783.47 3221.79 -0.53153 0.544843 0.648553
3509.6 1797.92 3235.66 0.0534276 -0.669182 0.741175
3502.44 1777.15 3213.04 -0.970307 0.128127 0.205151
3501.91 1778.03 3213.45 0.210184 0.64215 0.737201
3504.61 1740.9 3247.58 -0.374509 -0.40371 0.834722
3465.49 1783.58 3219.26 -0.640471 0.0728318 0.764521
3515.54 1809.82 3248.45 0.0177216 -0.724578 0.688965
3502.19 1775.97 3211.96 -0.970278 0.127891 0.205436
3501.48 1777.99 3213.4 0.21399 0.641184 0.736947
3504.29 1743.61 3245.32 -0.398026 -0.592884 0.700046
3448.84 1786.36 3222.25 -0.305779 -0.0447084 0.951052
3523.09 1831.2 3272 0.0168498 -0.736431 0.676303
3502.06 1776.7 3211.58 -0.971413 0.140651 0.191245
3503.11 1777.76 3213.34 0.228776 0.645519 0.728675
3506.31 1679.53 3300.22 -0.516033 -0.713039 0.474643
3431.34 1787.37 3226.53 -0.548219 -0.021892 0.836048
3524.56 1841.73 3283.28 0.0193808 -0.727144 0.686211
3502.93 1776.91 3213.59 -0.968855 0.134592 0.207859
3501.6 1777.63 3213.15 0.224037 0.643891 0.731582
3504.75 1728.75 3258.25 -0.524699 -0.731932 0.434702
3420.23 1790.38 3227.56 -0.293704 -0.133432 0.946538
3527.64 1845.06 3286.97 0.0194266 -0.737387 0.675191
3502.25 1776.75 3211.59 -0.971677 0.139041 0.191078
3502.17 1777.61 3213.17 0.214711 0.650287 0.728716
3505.63 1704.14 3280.11 -0.181078 -0.344847 0.921027
3419.67 1789.34 3228.71 -0.704798 -0.162169 0.690623
3521.76 1830.73 3270.53 0.0192917 -0.727502 0.685834
3502.65 1776.25 3212.16 -0.971346 0.142708 0.190057
3502.83 1777.42 3213.1 0.230776 0.647623 0.726173
3506.01 1685.38 3295.82 -0.650721 -0.70882 0.272281
3378.27 1795.9 3235.97 -0.588029 -0.121487 0.799664
3529.87 1857.42 3300.08 0.0216275 -0.732527 0.680394
3503.22 1777.07 3213.27 -0.970845 0.132184 0.199967
3501.82 1777.38 3212.88 0.223188 0.650412 0.726052
3505.58 1703.71 3280.59 -0.383747 -0.789162 0.479543
3393.66 1793.81 3232.68 -0.603853 -0.155192 0.781842
3532.6 1865.42 3308.8 0.0226702 -0.734094 0.67867
3503.26 1777.13 3213.18 -0.97136 0.131423 0.19796
3501.88 1777.38 3212.82 0.223389 0.651135 0.725341
3505.92 1695.88 3287.5 -0.401673 -0.791387 0.460831
3382.52 1795.36 3234.93 -0.393312 -0.234712 0.888941
3534.37 1865.22 3308.62 0.0266521 -0.743271 0.668459
3502.87 1777.8 3211.76 -0.97361 0.128399 0.188672
3502.24 1777.55 3212.87 0.216965 0.65258 0.725993
3507.21 1673.47 3306.7 -0.159084 -0.213497 0.963904
3376.48 1794.63 3236.48 -0.704718 -0.0814637 0.704795
3531.79 1860.35 3302.88 0.0267633 -0.738475 0.673749
3502.87 1776.81 3211.68 -0.973301 0.134987 0.185646
3503.27 1778.11 3212.06 0.218209 0.652409 0.725774
3508.15 1665.02 3313.04 -0.371627 0.152603 0.915754
3365.94 1795.57 3237.83 -0.438938 0.47113 0.765095
3534.07 1866.95 3310.28 0.029711 -0.742655 0.669015
3502.87 1777.27 3211.42 -0.974277 0.131045 0.183336
3502.94 1778.3 3212.03 0.219674 0.652199 0.72552
3507.86 1667.64 3310.54 -0.636193 -0.00840141 0.771484
3363.83 1796.23 3238.08 -0.339279 0.38979 0.856127
3535.51 1870.23 3314.21 0.028092 -0.738733 0.673413
3502.94 1778.04 3211.98 -0.97355 0.127607 0.189517
3503.43 1778.03 3212.1 0.222733 0.650827 0.725819
3514.38 1464.54 3494.12 -0.516742 0.405928 0.753791
2875.62 1861.35 3333.1 -0.194702 0.263413 0.94483
3651.77 2213.63 3694.92 0.0269355 -0.74394 0.667704
3501.61 1778.21 3212.87 -0.973553 0.128097 0.189172
3503.3 1778.1 3214.15 0.22193 0.652604 0.724469
3521.89 1280.33 3658.11 -0.695644 0.0136086 0.718258
2856.45 1862.95 3336.93 -0.167204 0.104976 0.980318
3648.19 2203.21 3683.41 0.0280133 -0.743224 0.668456
3501.67 1778.04 3213.06 -0.973717 0.127555 0.18869
3502.48 1778.91 3213.6 0.221904 0.652596 0.724484
3522.38 1306.7 3635.33 -0.688083 0.128779 0.714113
2368.02 1926.18 3429.85 -0.288263 0.288866 0.912941
3538.97 1880.32 3328.56 0.0235726 -0.736185 0.67637
3500.72 1776.58 3212.57 -0.972391 0.137575 0.188491
3502.46 1778.91 3214.66 0.226151 0.640796 0.733646
3507.63 1657.43 3321.56 -0.854411 -0.44647 0.265794
3341.34 1800.52 3242.65 -0.264667 0.25652 0.929596
3541.85 1886.03 3334.19 0.0255735 -0.735207 0.67736
3501 1776.12 3212.63 -0.972785 0.134775 0.18848
3501.73 1779.06 3214.15 0.227764 0.640961 0.733003
3506.67 1669.67 3310.63 -0.797072 -0.204519 0.568197
3367.5 1796.54 3238.54 -0.28969 0.271343 0.917852
3534.46 1865.02 3311.39 0.0224115 -0.735442 0.677217
3500.8 1776.61 3211.87 -0.971945 0.138511 0.1901
3502.9 1778.51 3214.33 0.228364 0.641821 0.732063
3506.98 1666.46 3313.33 -0.732307 -0.519836 0.439883
3353.29 1798.92 3240.55 -0.284528 0.244033 0.927088
3529.32 1849.78 3294.5 0.0208466 -0.733001 0.679908
3500.86 1776.67 3211.85 -0.971502 0.140861 0.190638
3502.84 1778.54 3214.22 0.229367 0.639984 0.733357
3506.36 1681.34 3299.88 -0.687664 -0.555912 0.46699
3368.38 1796.73 3237.43 -0.418181 0.429898 0.800195
3541 1883.04 3330.47 0.0230252 -0.73544 0.677198
3501.33 1775.94 3212.83 -0.972614 0.135936 0.188532
3501.71 1778.74 3213.92 0.228954 0.644668 0.729372
3508.38 1646.28 3332.04 -0.827023 -0.524893 0.201294
3314.35 1803.91 3247.43 -0.548354 0.471946 0.690344
3548.62 1905.6 3354.86 0.0266021 -0.740532 0.671494
3501.51 1776.55 3211.82 -0.973518 0.132668 0.186177
3502.58 1778.65 3214.63 0.229695 0.632523 0.739699
3505.49 1705.33 3279.04 -0.818226 -0.471675 0.328679
3420.81 1790.17 3227.82 -0.2921 0.22962 0.928414
3525.38 1837.32 3280.25 0.0176525 -0.73547 0.677327
3501.22 1776.75 3211.93 -0.971256 0.140293 0.1923
3502.65 1778.32 3214.06 0.228463 0.641112 0.732653
3506.55 1681.31 3300.99 -0.655167 -0.601295 0.457385
3357.55 1798.54 3239.63 -0.469516 0.143004 0.871266
3542.49 1887.55 3335.04 0.0219293 -0.731526 0.681461
3501.58 1776.9 3211.76 -0.972605 0.136332 0.188292
3503.21 1778.11 3213.66 0.228147 0.645139 0.729208
3506.53 1710.19 3275.54 -0.398004 0.149332 0.905148
3416.21 1787.48 3230.11 -0.329622 0.330559 0.884353
3525.46 1831.17 3273.72 0.0153711 -0.729575 0.683728
3500.28 1775.41 3210.66 -0.96917 0.170375 0.177996
3503.03 1778.67 3214.6 0.250835 0.616114 0.74665
3504.23 1732.96 3253.62 -0.816506 -0.4639 0.343677
3440.27 1787.54 3224.03 -0.374669 0.215786 0.901698
3520.86 1824.32 3265.7 0.0153238 -0.733828 0.679163
3501.36 1776.71 3211.89 -0.9708 0.142503 0.192979
3502.63 1778.2 3213.93 0.229074 0.639943 0.733484
3506.09 1691.68 3291.44 -0.636976 -0.603888 0.479146
3362.19 1797.96 3238.77 -0.514384 0.117329 0.849496
3540.37 1881.46 3328.18 0.0224005 -0.730653 0.682381
3501.68 1775.93 3212.63 -0.972044 0.138413 0.189666
3502.28 1778.16 3213.8 0.229243 0.646107 0.728006
3507.63 1644.68 3331.75 -0.830985 -0.537528 0.143275
2582.17 1898.36 3389.02 -0.396195 0.140746 0.907315
3526.39 1852.07 3296.28 0.0205235 -0.730235 0.682888
3502.15 1778.32 3215.32 -0.969391 0.114118 0.21739
3501.4 1779.46 3213.69 0.257935 0.6305 0.732079
3504.91 1720.12 3264.84 -0.433664 0.346335 0.831858
3430.98 1790.48 3223.99 -0.243211 0.214623 0.945931
3520.14 1816 3256.97 0.00716577 -0.722617 0.691212
3500.31 1775.54 3210.71 -0.966111 0.184676 0.180347
3502.95 1778.65 3214.38 0.246227 0.607358 0.755307
3503.84 1745.42 3242.81 -0.701213 -0.531495 0.475197
3446.52 1786.82 3222.66 -0.516892 0.166703 0.839662
3514.01 1805.35 3244.46 0.0120956 -0.724981 0.688663
3501.59 1776.77 3211.74 -0.969893 0.146081 0.194852
3502.68 1778.07 3213.74 0.229721 0.640359 0.732918
3505.47 1703.85 3279.82 -0.583105 -0.635076 0.506624
3391.53 1793.95 3233.3 -0.575739 0.0843062 0.813275
3534.88 1865.92 3310.71 0.0235376 -0.735344 0.677286
3501.54 1776.12 3212.11 -0.970609 0.114625 0.211612
3501.96 1778.46 3213.79 0.195376 0.645065 0.738728
3506.59 1698.46 3284.47 -0.312959 0.0381091 0.949002
3412.3 1788.3 3230.71 -0.607981 0.249774 0.753639
3520.43 1834.08 3276.11 0.0221148 -0.730023 0.683065
3502.2 1778.14 3214.4 -0.972764 0.107292 0.205471
3502.16 1778.9 3213.54 0.189344 0.637375 0.746929
3504.07 1733.01 3252.61 -0.633238 -0.719659 -0.284781
3412.62 1789.1 3231.12 -0.204468 0.109437 0.972737
3518.73 1827.63 3269.1 0.00889867 -0.734041 0.679047
3502.21 1779.16 3214.1 -0.967734 0.188848 0.166816
3502.88 1778.29 3213.95 0.299938 0.592999 0.747255
3502.98 1761.84 3227.27 -0.6475 -0.752243 -0.121961
3425.13 1787.16 3227.29 -0.521675 0.501223 0.690385
3513.07 1808.64 3247.59 0.0439975 -0.688893 0.723526
3501.71 1777.91 3213.32 -0.954151 0.229509 0.19215
3502.53 1778.92 3212.76 0.208008 0.642067 0.737891
3505.58 1733.55 3252.94 -0.468286 -0.0826134 0.879706
3472.03 1781.39 3217.9 -0.499442 0.366752 0.784889
3508.72 1790.92 3228.09 0.0210007 -0.732722 0.680204
3502.3 1777.54 3213.59 -0.971111 0.125703 0.202834
3502.21 1778.76 3212.92 0.208609 0.639573 0.739884
3504.82 1747.39 3240.95 -0.454492 -0.375816 0.807588
3470.24 1782.99 3218.12 -0.520966 0.0827653 0.849555
3515.63 1809.82 3248.74 0.0122103 -0.731948 0.681251
3501.95 1776.69 3211.85 -0.970346 0.14372 0.194354
3502.5 1777.91 3213.53 0.228905 0.642721 0.731103
3506.09 1694.59 3289.16 -0.541405 -0.681341 0.4926
3372.16 1796.62 3236.88 -0.5765 0.0700232 0.814091
3538.02 1875.08 3320.39 0.0254362 -0.737076 0.675331
3502.12 1776.42 3212.33 -0.973513 0.133313 0.185742
3501.93 1778.47 3213.13 0.229132 0.64637 0.727807
3506.97 1685.82 3294.96 -0.731049 -0.530176 0.429512
3381.39 1794.23 3234.34 -0.439855 0.462608 0.769754
3527.7 1855.34 3299.3 0.0274578 -0.734445 0.678112
3502.55 1778.95 3214.52 -0.972444 0.114873 0.202871
3502.26 1779.07 3212.81 0.201047 0.646311 0.736112
3506.57 1701.8 3282.14 -0.275817 0.232331 0.93271
3392.52 1790.95 3234.48 -0.592311 0.394464 0.702542
3523.4 1842.23 3284.92 0.0295756 -0.727949 0.684994
3502.59 1777.7 3215.42 -0.969687 0.120774 0.212417
3501.94 1778.45 3213.38 0.201505 0.644499 0.737575
3505.21 1722.82 3262.21 -0.357817 0.337498 0.870668
3451.88 1783.2 3223.44 -0.197023 0.255201 0.946602
3516.97 1806.61 3245.1 0.0306615 -0.729329 0.683476
3502.48 1778.1 3214.01 -0.972585 0.104326 0.207833
3502.3 1779.03 3212.73 0.166447 0.632515 0.756452
3504.59 1755.32 3233.51 -0.56693 -0.797054 -0.208076
3424.95 1786.89 3227.46 -0.537889 0.54061 0.646851
3515.03 1815.58 3255.3 0.0395161 -0.709149 0.70395
3502.51 1778.27 3214 -0.957467 0.283747 0.0523948
3502.4 1779.02 3212.71 0.204813 0.641912 0.738919
3505.57 1735.45 3251.26 -0.431632 0.0101105 0.901993
3477.54 1780.22 3217.24 0 0 0
3503.59 1776.66 3212.27 0.0341255 -0.731541 0.680942
3502.37 1777.79 3213.56 -0.97303 0.111136 0.202143
3502.36 1778.99 3212.69 0.193208 0.630728 0.751567
3505.91 1693.56 3289.21 -0.39122 -0.175851 0.90334
3409.34 1790.26 3231.05 -0.62455 0.135246 0.769185
3518.99 1824.99 3265.17 0.0165724 -0.711146 0.702849
3502.62 1776.52 3213.5 -0.966715 0.149861 0.207374
3501.76 1777.87 3213.41 0.236253 0.634799 0.735673
3505.7 1704.31 3279.74 -0.31822 -0.285862 0.903891
3431.04 1787.6 3226.7 -0.651472 0.00366702 0.758664
3515.99 1815.37 3253.99 0.0128614 -0.709406 0.704683
3502.45 1777 3212.27 -0.969283 0.14944 0.195341
3502.7 1777.67 3213.33 0.230437 0.642813 0.730541
3505.37 1704.81 3278.68 -0.77469 -0.54466 0.321249
3393.72 1793.51 3232.97 -0.163151 0.00712725 0.986575
3531.33 1857.12 3300.45 0.0216968 -0.73009 0.683007
3502.65 1777.54 3213.34 -0.971142 0.127894 0.201312
3501.97 1777.77 3213.39 0.213235 0.648967 0.730324
3505.05 1715.97 3269.91 -0.214007 -0.354805 0.910118
3437 1787.16 3225.43 -0.705154 -0.110043 0.700463
3517.57 1818.1 3256.82 0.0156959 -0.724017 0.689604
3502.51 1776.68 3211.71 -0.970547 0.143162 0.193759
3502.6 1777.56 3213.16 0.228411 0.646731 0.727714
3505.8 1693.51 3288.73 -0.547706 -0.691891 0.470431
3373.45 1795.03 3238.03 -0.603999 -0.0899508 0.791892
3529.25 1855.92 3298.54 0.0195468 -0.729748 0.683437
3503.19 1776.97 3213.43 -0.969827 0.133949 0.203697
3501.7 1777.34 3213 0.223916 0.649278 0.726842
3505.22 1712.41 3272.71 -0.529704 -0.781402 0.329887
3403.64 1792.41 3231.03 -0.467022 -0.213796 0.85801
3529.51 1851.61 3293.86 0.0185793 -0.734849 0.677976
3502.54 1776.45 3212.12 -0.971501 0.128118 0.199426
3501.98 1777.53 3213.18 0.215159 0.651987 0.727062
3505.91 1693.81 3289.38 -0.110753 -0.334806 0.935756
3403.89 1791.43 3231.81 -0.700864 -0.237196 0.672702
3525.51 1841.86 3282.56 0.0198714 -0.730621 0.682494
3502.6 1776.34 3212.05 -0.971624 0.128325 0.198697
3502.04 1777.53 3213.08 0.215713 0.652489 0.726448
3506.27 1686.48 3295.82 -0.0962416 -0.328543 0.939573
3393.67 1792.76 3233.72 -0.699801 -0.249257 0.669439
3527.88 1848.76 3290.14 0.0196686 -0.732408 0.680581
3502.81 1776.59 3211.73 -0.971522 0.138989 0.191904
3503.34 1778.04 3212.13 0.220336 0.651942 0.725551
3508.02 1661.94 3315.67 -0.366462 -0.410752 0.834858
3344.05 1798.76 3243.52 -0.632319 -0.0482679 0.773203
3537.29 1879.63 3324.32 0.0254968 -0.737669 0.674681
3503.36 1777.61 3212.79 -0.972631 0.128009 0.193916
3502.54 1777.65 3212.2 0.223258 0.652459 0.724191
3506.95 1681.2 3299.36 -0.800796 -0.594552 0.0723372
3334.07 1799.47 3244.59 -0.539764 0.537064 0.648241
3539.63 1886.08 3331.48 0.0307406 -0.742158 0.66952
3503.23 1778.05 3212.22 -0.974158 0.124717 0.188315
3503.22 1778.19 3211.65 0.223137 0.652447 0.72424
3507.72 1676.36 3302.65 -0.655297 -0.64308 0.396276
3335.22 1799.29 3244.04 -0.464817 0.451973 0.761357
3538.11 1880.67 3325.48 0.0298542 -0.742564 0.669109
3503.11 1777.84 3211.92 -0.974055 0.126963 0.187341
3502.28 1778.07 3212.53 0.219158 0.652329 0.72556
3508.16 1657.6 3319.53 -0.526317 0.171737 0.832765
3353.13 1797.42 3240.49 -0.408488 -0.308211 0.859153
3595.3 2053.14 3519.28 0.0265546 -0.743604 0.668093
3501.18 1776.78 3211.89 -0.973799 0.127323 0.188427
3503.55 1777.77 3214.42 0.221993 0.652374 0.724656
3520.31 1317.86 3624.48 -0.755603 0.0931761 0.648369
2921.94 1854.29 3324.24 -0.112659 0.0498603 0.992382
3639.36 2177.03 3654.64 0.0272882 -0.743127 0.668594
3501.61 1777.93 3213.07 -0.973583 0.127871 0.189168
3502.75 1778.33 3214.14 0.221836 0.652293 0.724778
3520.28 1333.49 3610.71 -0.640026 -0.117638 0.759295
2934.91 1851.92 3321 -0.449989 0.424359 0.785767
3631.27 2153.66 3628.3 0.0289506 -0.744233 0.667292
3501.19 1777.81 3213.64 -0.972501 0.138875 0.186966
3502.48 1778.69 3214.41 0.231292 0.643501 0.729664
3508.3 1633.55 3342.88 -0.8185 -0.547856 0.172948
3338.35 1801.48 3242.96 -0.229242 0.276151 0.933375
3548.94 1904.83 3354.7 0.0247535 -0.740149 0.671987
3501 1776.48 3211.51 -0.972826 0.136133 0.187291
3502.21 1778.67 3214.09 0.229109 0.645656 0.728448
3508.75 1631.48 3344.91 -0.72674 -0.609126 0.317513
3308.82 1804.81 3248.42 -0.184838 0.192514 0.963729
3540.36 1879.49 3327.15 0.0218609 -0.737345 0.675163
3500.8 1776.03 3211.83 -0.97231 0.139989 0.187127
3502.74 1778.5 3214.21 0.231571 0.643875 0.729246
3507.61 1643.83 3332.71 -0.901321 -0.432124 0.0298124
3324.43 1803.21 3245.83 -0.191028 0.17006 0.966741
3546.49 1898.61 3347.59 0.0249321 -0.737159 0.675259
3500.97 1776.25 3211.93 -0.97191 0.141976 0.187707
3502.63 1778.43 3214.17 0.232591 0.642911 0.729772
3507.05 1657.38 3320.46 -0.890872 -0.454058 0.0133584
3342.19 1800.85 3242.34 -0.155428 0.150086 0.976379
3542.8 1887.85 3335.59 0.0263501 -0.736697 0.675709
3501.41 1776.14 3211.9 -0.973851 0.133033 0.184165
3502.92 1778.38 3213.8 0.229765 0.645102 0.728733
3508.47 1640.92 3336.76 -0.685818 -0.654186 0.318897
3297.54 1806.38 3250.6 -0.475331 0.2498 0.8436
3557.45 1930.74 3382.47 0.0270788 -0.741632 0.670261
3501.52 1775.82 3212.06 -0.974191 0.131262 0.183637
3503.04 1778.46 3213.39 0.227733 0.648976 0.725926
3510.88 1582.49 3387.74 -0.859985 -0.476363 0.183045
3380.07 1796.16 3235.13 -0.339967 0.17452 0.924103
3536.74 1869.11 3315.07 0.0200776 -0.735085 0.677678
3501.17 1776.35 3211.39 -0.972077 0.141524 0.187185
3503.43 1778.12 3213.9 0.231825 0.643594 0.729414
3506.85 1662.59 3315.77 -0.867648 -0.489564 0.0866871
3347.21 1800.12 3241.52 -0.443066 0.126248 0.887555
3544.34 1892.67 3340.54 0.025095 -0.73751 0.67487
3501.53 1776.01 3211.9 -0.972956 0.135372 0.187166
3502.12 1778.14 3213.99 0.229571 0.646429 0.727617
3509.49 1599.35 3372.37 -0.898615 -0.434898 -0.0579128
3261.99 1811.22 3257.68 -0.561881 0.430668 0.706268
3530.94 1848.8 3292.58 0.0294228 -0.733851 0.678673
3500.96 1775.7 3210.53 -0.972729 0.14573 0.180445
3503.31 1778.25 3213.87 0.24016 0.639521 0.730299
3505.58 1693.67 3287.84 -0.85954 -0.459767 -0.223169
3397.76 1794.07 3231.52 -0.0219033 0.121301 0.992374
3529.27 1846.97 3290.44 0.019 -0.736554 0.676112
3501.31 1776.12 3211.54 -0.971852 0.143075 0.187172
3503.49 1778.06 3213.74 0.232882 0.643181 0.729441
3506.49 1673.1 3306.3 -0.85796 -0.510844 0.0542495
3357.89 1798.73 3239.48 -0.384533 0.107056 0.916882
3541.04 1883.12 3329.91 0.0248336 -0.737408 0.674991
3501.6 1775.88 3212.01 -0.972849 0.13582 0.187397
3502.11 1778.16 3213.86 0.229744 0.646384 0.727602
3508.45 1632.61 3344.24 -0.74197 -0.641161 0.195942
3285.17 1808.27 3253.23 -0.0129628 0.0252207 0.999598
3557.85 1932.37 3383.79 0.0285681 -0.743932 0.667645
3501.92 1777.95 3213.18 -0.972163 0.148268 0.181425
3502.7 1778.22 3213.89 0.24341 0.64024 0.728591
3505.91 1695.5 3287.43 -0.626006 -0.779416 0.0250613
3380.75 1795.86 3233.39 -0.109929 0.189182 0.975769
3528.48 1841.89 3284.71 0.0207147 -0.738304 0.67415
3501.12 1776.14 3210.39 -0.971665 0.149463 0.183108
3503.46 1778.11 3213.74 0.241746 0.638437 0.730724
3505.19 1703.42 3278.9 -0.855833 -0.459963 -0.236611
3409.33 1792.38 3229.29 -0.115205 0.0902748 0.989231
3526.99 1840.85 3283.38 0.0211194 -0.734022 0.678797
3501.55 1776.02 3211.58 -0.971228 0.14679 0.187531
3503.08 1778.03 3213.65 0.234534 0.642611 0.729414
3506.09 1680.32 3299.64 -0.854097 -0.520106 -0.00286053
3366.35 1797.63 3237.83 -0.222429 0.0381014 0.974204
3537.57 1873.11 3318.63 0.0236555 -0.736196 0.676355
3501.77 1775.87 3212.09 -0.972659 0.136731 0.187722
3502.29 1778.02 3213.7 0.22892 0.647885 0.726527
3506.72 1676.17 3304.19 -0.662576 -0.728631 -0.173462
3381.71 1796.57 3233.64 -0.557045 0.377585 0.739683
3527.16 1836.35 3278.24 0.0299158 -0.727082 0.685898
3501.14 1774.84 3210.67 -0.972528 0.152151 0.176178
3502.9 1778.35 3213.69 0.265163 0.628911 0.730862
3506.21 1719.79 3265.59 -0.682253 -0.695615 -0.225057
3416.33 1791.67 3226.71 -0.149495 0.0881615 0.984824
3529.65 1846.12 3289.11 0.010567 -0.73762 0.675134
3501.03 1775.68 3209.63 -0.969856 0.170605 0.173994
3503.25 1778.07 3213.66 0.252634 0.634725 0.730274
3505.32 1700.71 3281.1 -0.772107 -0.53724 -0.339446
3407.41 1792.92 3229.37 0.0646836 0.0137971 0.99781
3526.37 1837.76 3279.96 0.0826666 -0.401381 0.912173
3502.56 1778.41 3214.26 -0.973073 0.174252 0.150881
3502.44 1778.99 3212.69 0.251517 0.629697 0.734997
3505.27 1714.17 3269.32 -0.658264 -0.749322 0.0721506
3495.89 1778.97 3212.83 -0.550532 0.492319 0.674194
3509.58 1790.73 3227.64 0.034158 -0.724959 0.687945
3501.69 1776.35 3211.16 -0.972965 0.145378 0.179455
3501.92 1778.24 3213.85 0.200799 0.623572 0.755538
3503.72 1760.74 3230 -0.527672 -0.328837 0.783217
3474.81 1782.5 3216.49 -0.556968 0.382583 0.737168
3516.92 1812.2 3251.34 0.0231891 -0.732193 0.680702
3501.73 1776.15 3211.47 -0.971554 0.144645 0.187512
3503.49 1777.8 3213.44 0.233188 0.644498 0.72818
3506.26 1678.05 3301.85 -0.806137 -0.590001 0.0451825
3362.56 1798.07 3238.56 -0.511983 0.0575401 0.857066
3541.09 1883.52 3329.92 0.024691 -0.737 0.675441
3501.83 1775.87 3211.97 -0.97285 0.135957 0.187291
3503.02 1778.27 3212.96 0.229544 0.647184 0.726955
3508.44 1654.36 3323.99 -0.629999 -0.717222 0.297817
3322.16 1802.9 3245.69 -0.297674 0.36118 0.883708
3540.36 1881.93 3328.02 0.0307739 -0.739665 0.672271
3501.77 1776.49 3211.71 -0.974068 0.146439 0.172473
3502.71 1778.61 3213.13 0.243952 0.642332 0.726565
3506.69 1697.59 3285.37 -0.57522 -0.795144 -0.192012
3392.24 1794.64 3230.55 -0.505106 0.362028 0.783456
3533.32 1855.47 3299.26 0.0290537 -0.73061 0.682177
3501.23 1774.45 3210.7 -0.973785 0.1518 0.169407
3502.1 1778.82 3213.19 0.248815 0.63932 0.727572
3504.57 1727.21 3259.57 -0.222675 0.355169 0.907894
3443.39 1784.07 3225.53 -0.184609 0.255875 0.948919
3520.45 1817.61 3257.28 0.0227771 -0.734951 0.677738
3501.47 1775.82 3210.32 -0.972624 0.149946 0.177534
3502.38 1778.76 3212.88 0.156858 0.635638 0.755884
3505.29 1742.62 3244.85 -0.590631 -0.791029 -0.159464
3437.95 1788.18 3222.25 -0.450877 0.472905 0.757014
3525.96 1836.06 3277.57 0.0384592 -0.705808 0.707359
3502.71 1778.89 3214.76 -0.973463 0.183324 0.136977
3502.36 1779.05 3212.69 0.258712 0.62941 0.732742
3506.2 1716.57 3267.92 -0.645105 -0.76399 0.0125939
3493.27 1777.01 3215.25 -0.512371 0.527079 0.677984
3510.45 1790.58 3227.48 0.0346132 -0.724481 0.688425
3501.67 1775.74 3211.24 -0.974625 0.143957 0.171414
3503.55 1777.85 3211.2 0.0299605 -0.744898 0.666505
3504.42 1763.57 3226.01 -0.673644 -0.734789 0.0793017
3462.29 1784.47 3218.12 -0.610941 -0.076602 0.787961
3512.96 1807.05 3244.9 0.00279166 -0.689196 0.72457
3502.53 1776.76 3213.07 -0.966562 0.161571 0.199132
3501.95 1778.1 3213.33 0.241978 0.635127 0.733526
3505.23 1714.44 3270.69 -0.648146 -0.743476 0.16477
3394.27 1794.09 3232.25 -0.692278 -0.0842436 0.716697
3512.53 1804.41 3242 0.00981979 -0.709896 0.704238
3502.36 1776.06 3212.36 -0.96938 0.15399 0.191284
3502.06 1777.82 3213.39 0.237306 0.641689 0.729329
3505.93 1686.77 3294.1 -0.808063 -0.574912 -0.128495
3373.16 1796.8 3236.51 -0.179413 -0.0642651 0.981673
3537.01 1871.68 3316.58 0.0214386 -0.741518 0.67059
3501.97 1777.23 3210.89 -0.972565 0.136788 0.188164
3501.82 1777.61 3212.92 0.218011 0.641913 0.735132
3504.29 1735 3252.4 -0.153378 -0.408625 0.899723
3452.45 1785.25 3222.36 -0.679076 -0.187648 0.709679
3516.72 1814.05 3252.42 0.016092 -0.725075 0.688482
3502.32 1775.97 3211.85 -0.971155 0.146322 0.188277
3502.43 1777.69 3213.33 0.233985 0.646322 0.726305
3506.34 1675.24 3304.3 -0.764948 -0.638313 -0.086084
3359.38 1798.52 3239.15 -0.193794 -0.120246 0.973645
3539.22 1878.96 3323.42 0.0160597 -0.727563 0.685852
3503.37 1777 3213.12 -0.969374 0.136396 0.20423
3501.83 1777.24 3212.91 0.230725 0.647458 0.726336
3505.13 1711.59 3273.42 -0.453083 -0.846689 0.278987
3395.2 1793.95 3232.24 -0.536648 -0.107327 0.836953
3534.78 1864.68 3308.39 0.0206644 -0.740465 0.671777
3502.28 1776.61 3211.02 -0.972137 0.13933 0.18851
3502.92 1777.41 3213.33 0.229948 0.65185 0.722645
3505.22 1710.03 3274.65 -0.0484224 -0.401082 0.914762
3412.64 1790.46 3230.01 -0.687514 -0.281486 0.669396
3525.31 1839.55 3280.02 0.0196263 -0.731823 0.681212
3502.63 1775.92 3211.8 -0.971519 0.143194 0.188805
3502.16 1777.52 3213.18 0.232339 0.651584 0.72212
3505.62 1698.89 3284.68 -0.0381535 -0.388572 0.920628
3400.99 1791.94 3232.17 -0.686312 -0.287547 0.668051
3527.92 1847.28 3288.47 0.0208278 -0.733318 0.679566
3502.69 1775.94 3211.78 -0.97178 0.141904 0.188431
3502.38 1777.37 3213.19 0.231739 0.649322 0.724347
3507.07 1657.22 3320.64 -0.633383 -0.628524 -0.451423
3362.15 1796.87 3238.33 -0.203075 0.279189 0.938517
3536.83 1873.9 3317.59 0.0216729 -0.734954 0.677771
3503.49 1777.46 3212.69 -0.972284 0.130116 0.194253
3502.45 1777.48 3212.28 0.227342 0.651761 0.723549
3506.91 1680.36 3300.2 -0.4876 -0.868673 0.0874905
3361.2 1797.87 3238.18 -0.538815 0.0218919 0.84214
3541.58 1885.18 3330.06 0.0279025 -0.742477 0.669291
3503.32 1777.99 3211.98 -0.974135 0.125839 0.187685
3503.24 1778.14 3211.57 0.225916 0.651835 0.723929
3507.84 1673.5 3305.22 -0.665674 -0.744774 -0.0467982
3355.11 1798.03 3238.89 -0.534879 0.527347 0.660159
3541.45 1885.09 3330.09 0.0296739 -0.742129 0.6696
3503.12 1777.79 3211.69 -0.974098 0.129246 0.18555
3503.22 1778.19 3211.78 0.227645 0.651116 0.724034
3508.09 1665.05 3312.84 -0.444499 -0.876551 0.184606
3360.67 1796.87 3239.13 -0.154923 0.220845 0.962926
3535.89 1871.54 3315.37 0.0280476 -0.743273 0.6684
3502.55 1776.63 3211.99 -0.973255 0.136103 0.185069
3503.54 1778.23 3215.15 0.226082 0.651892 0.723825
3521.39 1312.98 3629.03 -0.767186 0.21439 0.604534
2886.25 1859.21 3331.43 -0.0693854 0.0488355 0.996394
3643.67 2189.87 3668.86 0.0275159 -0.7436 0.668059
3501.58 1778.16 3213.01 -0.973539 0.127985 0.189319
3502.91 1778.11 3214.36 0.221829 0.652411 0.724674
3520.39 1326.36 3617.12 -0.677938 -0.00844435 0.735071
2920.52 1854.24 3324.4 -0.179644 0.190271 0.965155
3639.16 2176.77 3654.34 0.0293915 -0.742893 0.668765
3501.64 1777.43 3213.64 -0.974013 0.12652 0.187861
3503.19 1778.24 3213.6 0.222358 0.653146 0.723849
3507.47 1656.78 3322.08 -0.82263 -0.550221 0.143305
3335.6 1801.91 3243.28 -0.284822 0.256924 0.923508
3546.47 1896.75 3346.26 0.0238573 -0.736731 0.675765
3500.75 1776.12 3211.5 -0.972997 0.137471 0.185415
3502.92 1778.68 3214.14 0.230549 0.644179 0.729302
3508.14 1637.83 3338.52 -0.766912 -0.581076 0.272392
3319.04 1803.62 3246.56 -0.387517 0.30946 0.868369
3546.21 1897.55 3346.68 0.0276944 -0.736479 0.675893
3500.56 1776.44 3211.83 -0.972078 0.141975 0.186835
3502.77 1778.75 3214.52 0.234083 0.639763 0.732058
3507.01 1667.86 3312.28 -0.83684 -0.536812 0.107387
3344.62 1800.7 3241.61 -0.106123 0.182393 0.977482
3542.46 1885.94 3333.87 0.0221903 -0.740012 0.672227
3501.01 1776.46 3211.58 -0.972531 0.137532 0.187797
3502.16 1778.64 3214.17 0.229844 0.643236 0.730356
3506.31 1682.43 3299.14 -0.819157 -0.558839 0.129157
3365.26 1797.99 3237.7 -0.085042 0.165919 0.982466
3538.08 1873.08 3319.56 0.0218176 -0.739452 0.672855
3501.1 1776.54 3211.45 -0.972317 0.138697 0.188051
3502.06 1778.82 3213.9 0.230175 0.644608 0.72904
3509.29 1630.09 3345.82 -0.847175 -0.515006 0.130627
3352.37 1799.25 3240.35 -0.487424 0.281375 0.826587
3542.7 1887.71 3335.33 0.0273172 -0.73696 0.675384
3501.4 1775.91 3212.02 -0.973432 0.134271 0.185476
3502.94 1778.54 3213.46 0.228459 0.648086 0.726492
3510.81 1602.91 3370.48 -0.854568 -0.513242 0.0793447
3269.42 1809.92 3255.93 -0.286131 0.32951 0.899751
3559.68 1937.24 3390.5 0.0188221 -0.735328 0.67745
3500.97 1775.94 3211.71 -0.972003 0.143123 0.18635
3502.62 1778.48 3214.22 0.236724 0.637613 0.733083
3506.17 1685.78 3295.63 -0.896792 -0.440123 -0.0453366
3373.72 1796.82 3236.36 -0.0991167 0.129052 0.986672
3535.93 1867.72 3313.34 0.0214178 -0.738674 0.673722
3501.39 1775.97 3212.14 -0.972439 0.137857 0.188035
3502.04 1778.37 3213.92 0.229613 0.646421 0.72761
3508.9 1622.67 3352.83 -0.69636 -0.663401 0.273828
3348.18 1799.95 3241.32 -0.129855 0.102969 0.986172
3554.4 1921.9 3372.72 0.0244136 -0.742316 0.669605
3501.24 1775.49 3212.53 -0.973583 0.150217 0.17196
3502.28 1779.23 3213.37 0.249294 0.635959 0.730349
3506.25 1693.07 3288.93 -0.781721 -0.585988 -0.21338
3398.4 1794.23 3230.91 -0.07904 0.135062 0.98768
3527.74 1840.81 3283.83 0.0140855 -0.73817 0.674467
3500.96 1776.4 3210.78 -0.97079 0.151058 0.186411
3502.94 1778.39 3213.98 0.238705 0.635897 0.733931
3505.78 1697.92 3285.09 -0.893967 -0.44063 -0.0816606
3388.33 1794.89 3233.51 -0.103678 0.120198 0.987321
3532.45 1857.6 3301.96 0.0205088 -0.7384 0.674051
3501.46 1776.17 3211.94 -0.972238 0.138751 0.188418
3502.04 1778.29 3213.89 0.229689 0.646522 0.727497
3508.62 1629.45 3347 -0.682935 -0.676188 0.276351
3354.22 1799.08 3240.1 -0.502381 0.136198 0.853852
3544.62 1893.46 3341.25 0.0249876 -0.739091 0.673142
3501.56 1776.93 3211.03 -0.972842 0.1356 0.187595
3502.99 1777.96 3213.49 0.222188 0.653493 0.723588
3506.36 1679.02 3301.84 -0.663412 -0.728651 -0.170155
3384.91 1796.45 3233.14 -0.408802 0.155795 0.899227
3529.85 1844.89 3288.08 0.0307518 -0.730201 0.68254
3500.98 1775.85 3210.35 -0.971637 0.157857 0.176073
3503.18 1778.39 3213.66 0.246525 0.637303 0.730117
3505.25 1704.95 3277.91 -0.789935 -0.561444 -0.246543
3416.66 1791.77 3227.53 -0.0341947 0.110719 0.993263
3524.04 1830.61 3272.32 0.0125688 -0.737842 0.674856
3501.25 1776.39 3210.95 -0.970446 0.152165 0.187297
3502.4 1778.36 3213.83 0.23759 0.638737 0.731823
3504.99 1718.86 3266.51 -0.834615 -0.550564 0.0172503
3405.18 1792.66 3230.19 -0.0559859 0.0462395 0.99736
3529.97 1850.42 3293.79 0.0196333 -0.738602 0.673855
3501.67 1776.6 3211.48 -0.971898 0.14023 0.189076
3502.08 1778.18 3213.75 0.230365 0.645413 0.728268
3507.86 1649.13 3329.49 -0.689122 -0.678152 0.255382
3310.42 1804.9 3248.38 -0.35337 0.154371 0.922659
3535.64 1862.04 3306.52 0.0225563 -0.734561 0.678167
3501.29 1774.81 3210.76 -0.97146 0.107863 0.21126
3501.65 1778.82 3213.31 0.258038 0.634799 0.728318
3505.93 1705.32 3279.04 -0.657647 -0.722799 -0.212276
3428.41 1786.37 3228.41 -0.522503 0.541462 0.658643
3524.01 1826.91 3268.01 0.0252974 -0.732439 0.680363
3501.12 1775.67 3210.02 -0.971248 0.156401 0.179486
3503.35 1778.07 3213.51 0.184801 0.64035 0.74552
3504.35 1727.99 3256.83 -0.668699 -0.619892 -0.41058
3432.16 1790.13 3224.07 0.0303954 0.0710692 0.997008
3525.86 1834.81 3276.5 0.0135586 -0.737997 0.674668
3501.37 1776.39 3210.25 -0.969988 0.159597 0.183446
3502.41 1778.95 3212.84 0.153286 0.607929 0.779054
3504.16 1771 3219.53 -0.641677 -0.762489 -0.0828284
3466.27 1784.03 3217.21 -0.124223 0.203727 0.971115
3520.02 1819.72 3259.71 0.0367681 -0.698222 0.714937
3502.26 1777.61 3213.55 -0.97199 0.126739 0.197921
3502.37 1779.05 3212.65 0.265412 0.610189 0.746476
3505.06 1732.38 3253.46 -0.677135 -0.714631 0.175471
3451.73 1784.67 3222.9 -0.539258 0.201789 0.817607
3511.42 1802.72 3240.92 0.0337025 -0.677549 0.734705
3502.1 1776.75 3212.61 -0.972551 0.154279 0.174189
3502.43 1778.46 3213.22 0.242546 0.633835 0.734456
3505.3 1709.47 3274.68 -0.861861 -0.487601 -0.139433
3400 1793.28 3231.34 -0.144408 0.0107643 0.98946
3530.59 1852.71 3295.98 0.0204995 -0.73816 0.674314
3501.85 1775.97 3212.09 -0.972321 0.138427 0.188228
3501.94 1778.1 3213.66 0.229746 0.64721 0.726868
3508.39 1636.59 3340.59 -0.796847 -0.603173 0.0348901
3367.28 1796.86 3237.27 -0.557631 0.392852 0.731242
3537.97 1874.71 3320.18 0.0283803 -0.737062 0.67523
3501.9 1776.7 3211.31 -0.973493 0.134039 0.185325
3502.64 1778.83 3212.65 0.22915 0.646249 0.72791
3507.27 1687.04 3294.26 -0.596296 -0.755953 -0.270123
3379.5 1796.68 3233.44 -0.496123 0.381383 0.780005
3525.59 1850.08 3293.31 0.0318586 -0.734387 0.677983
3501.32 1774.68 3210.44 -0.973499 0.149515 0.173047
3502.05 1778.75 3213.19 0.195432 0.646228 0.737696
3506.45 1706.77 3277.78 -0.556716 -0.817763 -0.146053
3404.56 1793.39 3228.6 -0.555456 0.0554601 0.829694
3517.42 1825.72 3266.37 0.0212397 -0.728084 0.685159
3502.68 1779.31 3214.03 -0.96854 0.0975845 0.228929
3503.02 1778.44 3212.96 0.262411 0.632079 0.729121
3505.44 1716.22 3267.65 -0.584055 -0.807328 -0.084274
3454 1782.62 3222.78 -0.565809 0.483476 0.667915
3510.68 1806.84 3245.57 0.0337029 -0.723841 0.689144
3501.53 1775.35 3210.55 -0.973802 0.152189 0.168962
3502.26 1778.93 3212.71 0.15822 0.629712 0.760545
3504.66 1757.98 3231.15 -0.202572 0.272212 0.940673
3463.27 1784.86 3217.37 -0.490258 0.509272 0.707311
3520.05 1818.92 3258.72 0.0379809 -0.699185 0.713931
3502.48 1778.2 3214.06 -0.935762 -0.061427 0.347241
3502.37 1779.06 3212.64 0.282737 0.609271 0.740843
3505.56 1735.43 3251.22 -0.661359 -0.7497 0.0235241
3483.61 1779.32 3216.16 0 0 0
3503.59 1776.7 3212.23 0.0444429 -0.696539 0.716142
3502.07 1775.68 3211.45 -0.968076 0.129425 0.214657
3501.82 1777.93 3213.37 0.203792 0.635309 0.744884
3503.89 1758.38 3231.93 -0.480246 -0.523446 0.703824
3462.8 1784.56 3219.23 -0.557366 0.0683652 0.827447
3519.83 1820.94 3260.72 0.0198295 -0.731334 0.681731
3502.34 1775.75 3211.71 -0.967924 0.130901 0.21445
3501.59 1777.83 3213.23 0.22509 0.633329 0.740424
3504.17 1744.71 3244.09 -0.531027 -0.737042 0.418065
3435.04 1788.54 3224.57 -0.19503 -0.0511434 0.979463
3527.94 1844.61 3286.78 0.0183728 -0.739175 0.673262
3501.99 1776.71 3211.24 -0.971808 0.140516 0.189325
3503.33 1777.73 3213.28 0.229937 0.646224 0.727684
3506.58 1672.03 3306.66 -0.452874 -0.802939 0.387548
3457.54 1784.1 3221.41 -0.582314 -0.0784134 0.809173
3518.39 1823.67 3263 0.0144773 -0.71964 0.694196
3503.16 1776.86 3213.35 -0.967392 0.144848 0.207777
3501.81 1777.57 3213.11 0.235397 0.641236 0.730346
3505.05 1719.44 3266.27 -0.600483 -0.774263 0.199843
3401.99 1792.99 3230.86 -0.183448 -0.13635 0.973527
3531.6 1855.84 3298.88 0.0202083 -0.739381 0.672984
3502.17 1776.76 3211.26 -0.971974 0.139232 0.189422
3502.11 1777.46 3213.04 0.213028 0.651042 0.728535
3504.97 1719.63 3266.18 -0.107506 -0.405283 0.907848
3431.5 1788.2 3226.11 -0.675884 -0.195954 0.710481
3522.25 1830 3269.83 0.0197172 -0.730345 0.682794
3502.45 1776.08 3211.72 -0.971774 0.142676 0.187882
3503.07 1777.44 3213.1 0.231919 0.647964 0.725504
3506.37 1675.29 3304.55 -0.697979 -0.710075 0.0928312
3366.28 1797.64 3238.09 -0.621424 -0.189348 0.76025
3525.04 1843.25 3284.1 0.0197427 -0.730622 0.682497
3503.39 1777.01 3213.06 -0.97057 0.136881 0.198133
3501.94 1777.32 3212.84 0.230221 0.64884 0.725262
3505.76 1697.94 3285.56 -0.462853 -0.847655 0.259325
3379.95 1795.84 3235.1 -0.633586 -0.218955 0.742042
3528.2 1852.47 3294.2 0.0212405 -0.73281 0.680102
3503.41 1777.07 3212.96 -0.971194 0.135372 0.196104
3501.98 1777.33 3212.78 0.229348 0.649836 0.724646
3506.08 1690.57 3292.09 -0.488291 -0.845545 0.215929
3369.51 1797.29 3237.22 -0.303565 -0.234503 0.923502
3537.54 1873.81 3317.93 0.0263634 -0.743818 0.667862
3502.88 1777.69 3211.46 -0.973674 0.12994 0.187281
3502.22 1777.41 3212.75 0.216513 0.653315 0.725466
3506.72 1684.6 3296.6 -0.0954855 -0.277201 0.956056
3384.96 1793.87 3234.58 -0.690911 -0.123678 0.712282
3532.08 1859.3 3301.77 0.0266741 -0.738972 0.673207
3502.68 1776.56 3211.32 -0.973402 0.135986 0.184382
3503.31 1777.99 3211.93 0.218276 0.652869 0.725339
3507.67 1676.37 3302.65 -0.382725 0.154139 0.910913
3375.2 1794.61 3235.8 -0.445225 0.484943 0.752732
3533.9 1865.04 3308.18 0.0299519 -0.742512 0.669163
3502.73 1776.94 3211.2 -0.974363 0.132357 0.181932
3503.07 1778.2 3211.89 0.220491 0.652339 0.725147
3507.54 1675.32 3303.48 -0.777504 -0.255946 0.574438
3368.05 1795.93 3237.01 -0.353195 0.408037 0.841878
3536.05 1870.78 3314.61 0.0276478 -0.73869 0.673478
3503 1778.01 3211.74 -0.973585 0.128961 0.188418
3503.49 1777.98 3212.02 0.224866 0.650153 0.725766
3514.58 1458.92 3499.09 -0.514335 0.41471 0.75065
2876.03 1863.6 3330.78 -0.197948 0.273962 0.941149
3645.44 2195.27 3674.78 0.0268716 -0.743903 0.667748
3501.56 1778.26 3212.94 -0.973539 0.127981 0.189321
3503.29 1778.19 3214.17 0.221745 0.652437 0.724676
3521.09 1301.83 3638.87 -0.692113 0.032788 0.721044
2884.19 1859.21 3331.61 -0.168217 0.137536 0.976108
3641.59 2184.04 3662.37 0.0280714 -0.743148 0.668538
3501.63 1778.07 3213.15 -0.973707 0.127428 0.188829
3502.45 1779 3213.62 0.221726 0.652419 0.724698
