ply
format ascii 1.0
element vertex 901
property float x
property float y
property float z
property float nx
property float ny
property float nz
end_header
3493.97 1769.11 3250.09 -0.942086 0.277403 0.188469
3493.86 1768.24 3250.56 -0.926722 0.356673 -0.118196
3493.03 1767.11 3250.39 -0.922882 0.373561 0.0934912
3492.92 1766.23 3250.86 -0.972261 0.198716 -0.123373
3492.8 1765.36 3251.33 -0.999821 -0.0177798 -0.00650217
3492.69 1764.48 3251.81 -0.993757 0.08121 0.0764943
3493.3 1763.87 3252.93 -0.967364 0.238903 0.0844476
3492.47 1762.73 3252.75 -0.953288 0.296384 -0.0582963
3492.36 1761.86 3253.22 -0.993552 0.108212 -0.0338394
3492.25 1760.98 3253.69 -0.993552 0.108212 -0.0338394
3492.14 1760.11 3254.17 -0.993552 0.108212 -0.0338394
3492.02 1759.23 3254.64 -0.993552 0.108212 -0.0338394
3491.91 1758.36 3255.11 -0.957021 0.290018 -0.000573888
3491.08 1757.23 3254.94 -0.945695 0.314225 0.0832078
3490.97 1756.35 3255.41 -0.970491 0.219082 0.100745
3490.86 1755.48 3255.88 -0.993552 0.108212 -0.0338394
3490.75 1754.6 3256.35 -0.970136 0.208041 0.124716
3490.64 1753.73 3256.82 -0.972399 0.193869 0.129823
3490.53 1752.86 3257.3 -0.973489 0.181708 0.138932
3490.42 1751.98 3257.77 -0.993552 0.108212 -0.0338394
3490.31 1751.11 3258.24 -0.993552 0.108212 -0.0338394
3490.19 1750.23 3258.71 -0.993552 0.108212 -0.0338394
3490.08 1749.36 3259.18 -0.993552 0.108212 -0.0338394
3489.97 1748.48 3259.66 -0.965334 0.260356 -0.018577
3489.86 1747.61 3260.13 -0.932698 0.357482 0.0477512
3489.03 1746.48 3259.95 -0.921643 0.34862 0.170407
3488.92 1745.6 3260.43 -0.970858 0.207202 0.120426
3488.81 1744.73 3260.9 -0.993552 0.108212 -0.0338394
3488.7 1743.85 3261.37 -0.993552 0.108212 -0.0338394
3488.59 1742.98 3261.84 -0.97448 0.178751 0.135785
3488.47 1742.1 3262.31 -0.969561 0.0781436 0.232045
3489.08 1741.49 3263.43 -0.988089 -0.00763213 0.153696
3489.08 1741.49 3263.43 -0.988089 -0.00763213 0.153696
3488.97 1740.61 3263.91 -0.993552 0.108212 -0.0338394
3488.86 1739.74 3264.38 -0.993552 0.108212 -0.0338394
3488.75 1738.86 3264.85 -0.993552 0.108212 -0.0338394
3488.64 1737.99 3265.32 -0.993552 0.108212 -0.0338394
3488.52 1737.11 3265.79 -0.993552 0.108212 -0.0338394
3488.41 1736.24 3266.27 -0.993552 0.108212 -0.0338394
3488.3 1735.37 3266.74 -0.993552 0.108212 -0.0338394
3488.19 1734.49 3267.21 -0.970491 0.219082 0.100745
3488.08 1733.62 3267.68 -0.944444 0.319577 0.0767874
3487.25 1732.48 3267.51 -0.957021 0.290018 -0.000573888
3487.14 1731.61 3267.98 -0.993552 0.108212 -0.0338394
3487.03 1730.74 3268.45 -0.994315 -0.0997738 -0.0371966
3486.92 1729.86 3268.92 -0.991929 -0.108575 -0.0654876
3486.8 1728.99 3269.4 -0.942783 -0.247684 -0.223188
3487.41 1728.37 3270.51 -0.972369 -0.194924 -0.128465
3487.3 1727.5 3270.99 -0.979793 0.135188 -0.147409
3486.47 1726.36 3270.81 -0.93349 0.19777 -0.299139
3486.36 1725.49 3271.28 -0.922459 -0.0748829 -0.378765
3486.25 1724.61 3271.76 -0.950213 -0.0864143 -0.29938
3486.14 1723.74 3272.23 -0.863928 -0.0478361 -0.501338
3486.03 1722.86 3272.7 -0.8252 -0.040504 -0.563386
3485.91 1721.99 3273.17 -0.796495 -0.572277 -0.195181
3486.52 1721.37 3274.29 -0.848418 -0.481431 -0.220028
3486.41 1720.5 3274.76 -0.900939 -0.383759 -0.202578
3487.02 1719.88 3275.88 -0.89903 -0.426959 0.0972131
3486.9 1719.01 3276.35 -0.860523 -0.505548 -0.0626214
3486.9 1719.01 3276.35 -0.860523 -0.505548 -0.0626214
3487.51 1718.39 3277.47 -0.784965 -0.445615 -0.430416
3487.4 1717.52 3277.95 -0.717745 -0.257806 -0.646822
3487.29 1716.64 3278.42 -0.796495 -0.572277 -0.195181
3487.89 1716.03 3279.54 -0.784965 -0.445615 -0.430416
3487.78 1715.15 3280.01 -0.649331 -0.526685 -0.548609
3488.39 1714.53 3281.13 -0.369946 -0.719753 -0.587448
3488.28 1713.66 3281.6 -0.347671 -0.446563 -0.824443
3488.17 1712.79 3282.07 -0.271359 -0.479546 -0.834506
3488.06 1711.91 3282.54 -0.225604 -0.615142 -0.755449
3489.35 1710.88 3283.06 -0.329001 -0.670731 -0.664739
3489.24 1710.01 3283.54 -0.230529 -0.70907 -0.666391
3489.84 1709.39 3284.65 -0.151247 -0.730811 -0.665612
3489.73 1708.52 3285.13 -0.108159 -0.56373 -0.818847
3489.62 1707.64 3285.6 0.0777848 -0.60583 -0.791783
3490.23 1707.03 3286.72 0.0777848 -0.60583 -0.791783
3490.12 1706.15 3287.19 -0.0214923 -0.472804 -0.880905
3490.01 1705.28 3287.66 0.0640074 -0.594293 -0.801698
3489.89 1704.4 3288.13 0.178013 -0.578698 -0.795877
3490.61 1704.66 3288.78 0.21291 -0.776492 -0.593068
3491.22 1704.04 3289.9 0.00844498 -0.681755 -0.731532
3491.11 1703.17 3290.37 -0.000752922 -0.634408 -0.772998
3491 1702.3 3290.84 0.00844498 -0.681755 -0.731532
3491.6 1701.68 3291.96 0.0923418 -0.753799 -0.650584
3492.21 1701.06 3293.08 0.0487041 -0.746207 -0.66393
3492.1 1700.19 3293.55 -0.100668 -0.67903 -0.727175
3492.7 1699.57 3294.67 -0.276389 -0.789563 -0.547904
3492.59 1698.7 3295.14 -0.276389 -0.789563 -0.547904
3493.2 1698.08 3296.26 -0.207223 -0.678792 -0.704485
3494.49 1697.05 3296.78 -0.576411 -0.612734 -0.540654
3494.38 1696.18 3297.26 -0.370755 -0.747013 -0.551827
3494.99 1695.56 3298.37 -0.369946 -0.719753 -0.587448
3494.88 1694.69 3298.85 -0.347671 -0.446563 -0.824443
3494.76 1693.81 3299.32 -0.338761 -0.376571 -0.862227
3494.65 1692.94 3299.79 -0.347671 -0.446563 -0.824443
3494.54 1692.06 3300.26 -0.338761 -0.376571 -0.862227
3494.43 1691.19 3300.73 -0.347671 -0.446563 -0.824443
3494.32 1690.31 3301.21 -0.283746 -0.784612 -0.551247
3494.93 1689.7 3302.33 -0.212099 -0.829212 -0.517128
3494.81 1688.82 3302.8 -0.160839 -0.798803 -0.579694
3495.42 1688.21 3303.92 -0.286984 -0.593066 -0.752272
3495.31 1687.33 3304.39 -0.373624 -0.61653 -0.693034
3495.2 1686.46 3304.86 -0.276389 -0.789563 -0.547904
3495.8 1685.84 3305.98 -0.100668 -0.67903 -0.727175
3495.69 1684.97 3306.45 -0.07612 -0.605953 -0.79185
3495.58 1684.09 3306.92 -0.1699 -0.599916 -0.781815
3495.47 1683.22 3307.4 -0.375608 -0.586694 -0.717432
3496.08 1682.6 3308.52 -0.375608 -0.586694 -0.717432
3495.97 1681.73 3308.99 -0.338761 -0.376571 -0.862227
3495.85 1680.85 3309.46 -0.313941 -0.674883 -0.667813
3495.74 1679.98 3309.93 -0.276389 -0.789563 -0.547904
3496.35 1679.36 3311.05 -0.286984 -0.593066 -0.752272
3496.24 1678.49 3311.52 -0.313941 -0.674883 -0.667813
3496.13 1677.61 3311.99 -0.503669 -0.751048 -0.4269
3496.73 1676.99 3313.11 -0.441228 -0.775046 -0.452351
3498.03 1675.97 3313.63 -0.53986 -0.643042 -0.543183
3497.92 1675.09 3314.11 -0.45703 -0.700549 -0.548047
3498.52 1674.48 3315.22 -0.527811 -0.732874 -0.429316
3498.41 1673.6 3315.7 -0.717745 -0.257806 -0.646822
3498.3 1672.73 3316.17 -0.649331 -0.526685 -0.548609
3498.91 1672.11 3317.29 -0.343216 -0.568582 -0.747608
3498.79 1671.24 3317.76 -0.338761 -0.376571 -0.862227
3498.68 1670.36 3318.23 -0.509388 -0.445444 -0.736277
3498.57 1669.49 3318.7 -0.531178 -0.55793 -0.637624
3498.46 1668.61 3319.18 -0.433185 -0.663343 -0.610185
3499.07 1667.99 3320.29 -0.269445 -0.615074 -0.741002
3498.96 1667.12 3320.77 -0.160839 -0.798803 -0.579694
3499.56 1666.5 3321.89 -0.276389 -0.789563 -0.547904
3499.45 1665.63 3322.36 -0.353518 -0.848237 -0.394359
3500.06 1665.01 3323.48 -0.258318 -0.855393 -0.448971
3500.66 1664.4 3324.6 -0.375608 -0.586694 -0.717432
3500.55 1663.52 3325.07 -0.338761 -0.376571 -0.862227
3500.44 1662.65 3325.54 -0.347671 -0.446563 -0.824443
3500.33 1661.77 3326.01 -0.373624 -0.61653 -0.693034
3500.22 1660.9 3326.48 -0.276389 -0.789563 -0.547904
3500.82 1660.28 3327.6 -0.375608 -0.586694 -0.717432
3500.71 1659.41 3328.07 -0.14888 -0.709284 -0.689022
3501.32 1658.79 3329.19 -0.0532561 -0.859602 -0.508182
3501.21 1657.92 3329.67 -0.295758 -0.726096 -0.620734
3502.5 1656.89 3330.19 -0.315578 -0.68765 -0.653872
3502.39 1656.01 3330.66 -0.299891 -0.718484 -0.627572
3503 1655.4 3331.78 -0.286984 -0.593066 -0.752272
3502.89 1654.52 3332.25 -0.338761 -0.376571 -0.862227
3502.77 1653.65 3332.72 -0.373624 -0.61653 -0.693034
3502.66 1652.77 3333.19 -0.373881 -0.64897 -0.66261
3503.16 1651.28 3334.78 -0.31848 -0.52619 -0.788476
3503.05 1650.41 3335.26 -0.509388 -0.445444 -0.736277
3502.94 1649.53 3335.73 -0.531178 -0.55793 -0.637624
3502.82 1648.66 3336.2 -0.532459 -0.677752 -0.507089
3503.43 1648.04 3337.32 -0.412621 -0.816223 -0.40438
3504.04 1647.43 3338.44 -0.55325 -0.690514 -0.465945
3503.93 1646.55 3338.91 -0.338761 -0.376571 -0.862227
3503.81 1645.68 3339.38 -0.338761 -0.376571 -0.862227
3503.7 1644.8 3339.85 -0.347671 -0.446563 -0.824443
3503.59 1643.93 3340.33 -0.338761 -0.376571 -0.862227
3503.48 1643.05 3340.8 -0.347671 -0.446563 -0.824443
3503.37 1642.18 3341.27 -0.283746 -0.784612 -0.551247
3503.98 1641.56 3342.39 -0.369946 -0.719753 -0.587448
3503.86 1640.69 3342.86 -0.309909 -0.766282 -0.562822
3504.47 1640.07 3343.98 -0.55826 -0.630631 -0.53912
3504.36 1639.2 3344.45 -0.523615 -0.245127 -0.815929
3504.25 1638.32 3344.92 -0.338761 -0.376571 -0.862227
3504.14 1637.45 3345.4 -0.313941 -0.674883 -0.667813
3504.03 1636.57 3345.87 -0.368514 -0.720939 -0.586894
3504.63 1635.96 3346.99 -0.286984 -0.593066 -0.752272
3504.52 1635.08 3347.46 -0.509388 -0.445444 -0.736277
3504.41 1634.21 3347.93 -0.532236 -0.215614 -0.818679
3504.3 1633.33 3348.4 -0.400689 -0.324504 -0.856823
3504.08 1631.58 3349.35 -0.302309 -0.434673 -0.848333
3503.96 1630.71 3349.82 -0.334578 -0.414322 -0.846401
3503.85 1629.83 3350.29 -0.338761 -0.376571 -0.862227
3503.74 1628.96 3350.76 -0.115981 -0.74064 -0.661817
3504.35 1628.34 3351.88 -0.344775 -0.694082 -0.631966
3504.24 1627.47 3352.35 -0.338761 -0.376571 -0.862227
3504.13 1626.59 3352.83 -0.347671 -0.446563 -0.824443
3504.01 1625.72 3353.3 -0.338761 -0.376571 -0.862227
3503.9 1624.85 3353.77 -0.338761 -0.376571 -0.862227
3503.79 1623.97 3354.24 -0.373624 -0.61653 -0.693034
3503.68 1623.1 3354.72 -0.289939 -0.700493 -0.652109
3504.29 1622.48 3355.83 -0.433146 -0.79043 -0.433133
3505.58 1621.45 3356.35 -0.588923 -0.595891 -0.54597
3505.47 1620.58 3356.83 -0.717745 -0.257806 -0.646822
3505.36 1619.7 3357.3 -0.510633 -0.489907 -0.706573
3505.25 1618.83 3357.77 -0.373624 -0.61653 -0.693034
3505.14 1617.95 3358.24 -0.258976 -0.382273 -0.887017
3505.02 1617.08 3358.71 -0.342951 -0.45415 -0.822273
3505.52 1615.59 3360.31 -0.320549 -0.512484 -0.796623
3505.41 1614.71 3360.78 -0.347671 -0.446563 -0.824443
3505.3 1613.84 3361.25 -0.334578 -0.414322 -0.846401
3505.18 1612.96 3361.72 -0.338761 -0.376571 -0.862227
3505.07 1612.09 3362.19 -0.283746 -0.784612 -0.551247
3505.68 1611.47 3363.31 -0.369946 -0.719753 -0.587448
3505.57 1610.6 3363.78 -0.373624 -0.61653 -0.693034
3505.46 1609.72 3364.26 -0.276389 -0.789563 -0.547904
3506.06 1609.11 3365.38 -0.375608 -0.586694 -0.717432
3505.95 1608.23 3365.85 -0.338761 -0.376571 -0.862227
3505.84 1607.36 3366.32 -0.271359 -0.479546 -0.834506
3505.73 1606.48 3366.79 -0.108159 -0.56373 -0.818847
3505.62 1605.61 3367.26 -0.160102 -0.714611 -0.680954
3506.22 1604.99 3368.38 -0.215225 -0.706176 -0.674532
3506.72 1603.5 3369.97 -0.466047 -0.593243 -0.656402
3506.61 1602.63 3370.45 -0.391313 -0.653931 -0.647493
3506.5 1601.75 3370.92 -0.331749 -0.608483 -0.720896
3507.82 1601.39 3372.68 -0.153974 -0.78979 -0.593737
3507.71 1600.52 3373.16 -0.338761 -0.376571 -0.862227
3507.6 1599.65 3373.63 -0.338761 -0.376571 -0.862227
3507.49 1598.77 3374.1 -0.25655 -0.615096 -0.745546
3507.38 1597.9 3374.57 -0.198902 -0.75123 -0.629358
3507.98 1597.28 3375.69 -0.355481 -0.599326 -0.717246
3507.87 1596.4 3376.16 -0.407362 -0.402774 -0.819652
3507.76 1595.53 3376.64 -0.26939 -0.504447 -0.820343
3507.65 1594.66 3377.11 -0.188478 -0.459173 -0.868122
3507.54 1593.78 3377.58 -0.298157 -0.494971 -0.816153
3508.72 1591.88 3378.57 -0.362048 -0.557981 -0.746712
3508.61 1591 3379.04 -0.364387 -0.696793 -0.61782
3508.5 1590.13 3379.52 -0.24373 -0.744061 -0.622068
3509.1 1589.51 3380.63 -0.0705304 -0.776272 -0.62644
3509.71 1588.9 3381.75 -0.276389 -0.789563 -0.547904
3509.6 1588.02 3382.23 -0.276389 -0.789563 -0.547904
3510.21 1587.41 3383.34 -0.280795 -0.769049 -0.57421
3510.7 1585.91 3384.94 -0.31848 -0.52619 -0.788476
3510.59 1585.04 3385.41 -0.347671 -0.446563 -0.824443
3510.48 1584.17 3385.88 -0.509388 -0.445444 -0.736277
3510.37 1583.29 3386.35 -0.717745 -0.257806 -0.646822
3510.25 1582.42 3386.82 -0.717745 -0.257806 -0.646822
3510.14 1581.54 3387.3 -0.552633 -0.314589 -0.771771
3510.03 1580.67 3387.77 -0.531178 -0.55793 -0.637624
3509.92 1579.79 3388.24 -0.527811 -0.732874 -0.429316
3510.53 1579.18 3389.36 -0.258318 -0.855393 -0.448971
3511.13 1578.56 3390.48 -0.439897 -0.567651 -0.69589
3510.91 1576.81 3391.42 -0.396077 -0.597098 -0.697565
3511.52 1576.19 3392.54 -0.368514 -0.720939 -0.586894
3511.41 1575.32 3393.01 -0.313941 -0.674883 -0.667813
3511.29 1574.45 3393.49 -0.286984 -0.593066 -0.752272
3511.9 1573.83 3394.6 -0.368514 -0.720939 -0.586894
3511.79 1572.95 3395.08 -0.350179 -0.782102 -0.515452
3512.4 1572.34 3396.2 -0.513961 -0.716465 -0.471723
3512.29 1571.46 3396.67 -0.541328 -0.492522 -0.681459
3512.06 1569.71 3397.61 -0.535074 -0.539217 -0.650338
3513.36 1568.69 3398.13 -0.455561 -0.803773 -0.382639
3513.96 1568.07 3399.25 -0.531438 -0.530326 -0.660552
3513.85 1567.19 3399.72 -0.717745 -0.257806 -0.646822
3513.74 1566.32 3400.19 -0.717745 -0.257806 -0.646822
3513.63 1565.45 3400.67 -0.59879 -0.442873 -0.667318
3513.52 1564.57 3401.14 -0.393697 -0.458513 -0.796723
3513.41 1563.7 3401.61 -0.287746 -0.383025 -0.877778
3513.29 1562.82 3402.08 -0.499955 -0.392662 -0.771921
3513.18 1561.95 3402.55 -0.408523 -0.546958 -0.730716
3513.68 1560.46 3404.15 -0.232006 -0.841097 -0.488599
3514.28 1559.84 3405.26 -0.286984 -0.593066 -0.752272
3514.17 1558.97 3405.74 -0.338761 -0.376571 -0.862227
3514.06 1558.09 3406.21 -0.373624 -0.61653 -0.693034
3513.95 1557.22 3406.68 -0.353518 -0.848237 -0.394359
3514.56 1556.6 3407.8 -0.216286 -0.627083 -0.748323
3514.33 1554.85 3408.74 -0.161324 -0.325914 -0.931533
3514.22 1553.98 3409.22 -0.347671 -0.446563 -0.824443
3514.11 1553.1 3409.69 -0.539208 -0.494778 -0.681505
3514 1552.23 3410.16 -0.814618 0.0745353 -0.575189
3513.89 1551.35 3410.63 -0.618614 0.112364 -0.777619
3510.33 1550.73 3408.64 0.0926 0.914208 -0.394523
3503.93 1798.08 3238.32 -0.45542 0.79846 -0.39377
3501.69 1797.1 3238.09 -0.500117 0.752943 -0.427737
3500.04 1794.84 3237.74 -0.707485 0.462177 -0.534656
3499.21 1793.7 3237.57 -0.875274 0.453128 -0.169029
3499.1 1792.83 3238.04 -0.891141 0.443613 -0.0952633
3498.27 1791.7 3237.87 -0.961502 0.273696 -0.0246036
3498.16 1790.82 3238.34 -0.96101 0.274814 -0.0306173
3498.04 1789.95 3238.81 -0.926691 0.375543 -0.0145347
3497.22 1788.81 3238.64 -0.961901 0.273068 -0.0133924
3497.1 1787.94 3239.11 -0.993552 0.108212 -0.0338394
3496.99 1787.07 3239.58 -0.993552 0.108212 -0.0338394
3496.88 1786.19 3240.05 -0.993552 0.108212 -0.0338394
3496.77 1785.32 3240.52 -0.993552 0.108212 -0.0338394
3496.66 1784.44 3241 -0.993552 0.108212 -0.0338394
3496.55 1783.57 3241.47 -0.953288 0.296384 -0.0582963
3495.72 1782.44 3241.29 -0.931278 0.350284 -0.100114
3495.61 1781.56 3241.77 -0.993552 0.108212 -0.0338394
3495.5 1780.69 3242.24 -0.993552 0.108212 -0.0338394
3495.38 1779.81 3242.71 -0.993552 0.108212 -0.0338394
3495.27 1778.94 3243.18 -0.993552 0.108212 -0.0338394
3495.16 1778.06 3243.65 -0.978504 0.156139 0.134724
3495.05 1777.19 3244.13 -0.975187 0.0780752 0.207157
3495.66 1776.57 3245.24 -0.985266 -0.0172102 0.170159
3495.55 1775.7 3245.72 -0.982278 0.152227 0.109348
3494.72 1774.57 3245.54 -0.858471 0.506688 -0.0793437
3494.6 1773.69 3246.01 -0.913796 0.405103 0.0294708
3493.78 1772.56 3245.84 -0.944444 0.319577 0.0767874
3493.66 1771.68 3246.31 -0.955628 0.28004 0.0913954
3493.55 1770.81 3246.78 -0.922882 0.373561 0.0934912
3492.72 1769.68 3246.61 -0.67963 0.614757 0.400222
3492.61 1768.8 3247.08 0.573206 -0.558204 -0.599869
3492.5 1767.93 3247.55 -0.68735 0.41084 0.598966
3492.39 1767.05 3248.03 -0.68735 0.41084 0.598966
3492.28 1766.18 3248.5 -0.68735 0.41084 0.598966
3492.17 1765.3 3248.97 -0.68735 0.41084 0.598966
3492.06 1764.43 3249.44 -0.68735 0.41084 0.598966
3491.94 1763.56 3249.91 -0.74865 0.251351 0.61347
3491.83 1762.68 3250.39 -0.93028 -0.0700713 0.360097
3492.55 1762.94 3251.03 -0.987533 -0.0286161 0.154787
3492.44 1762.06 3251.5 -0.99685 -0.0198214 0.0767958
3492.33 1761.19 3251.98 -0.953288 0.296384 -0.0582963
3491.5 1760.06 3251.8 -0.861055 0.498389 -0.100957
3491.39 1759.18 3252.27 -0.789 0.508537 0.344773
3491.99 1758.57 3253.39 -0.889376 0.382119 0.250991
3491.17 1757.43 3253.22 -0.817194 0.471834 0.331008
3491.05 1756.56 3253.69 -0.956697 0.00486264 0.291046
3490.94 1755.69 3254.16 -0.979236 -0.0842056 0.18441
3490.83 1754.81 3254.63 -0.993552 0.108212 -0.0338394
3490.72 1753.94 3255.11 -0.953288 0.296384 -0.0582963
3489.89 1752.8 3254.93 -0.921294 0.187041 0.340929
3490.5 1752.19 3256.05 -0.993495 -0.0194571 0.112205
3490.39 1751.31 3256.52 -0.993552 0.108212 -0.0338394
3490.27 1750.44 3256.99 -0.993552 0.108212 -0.0338394
3490.16 1749.56 3257.47 -0.993552 0.108212 -0.0338394
3490.05 1748.69 3257.94 -0.993552 0.108212 -0.0338394
3489.94 1747.81 3258.41 -0.953288 0.296384 -0.0582963
3489.11 1746.68 3258.24 -0.838226 0.527917 0.136678
3489 1745.81 3258.71 -0.927333 0.290906 0.235432
3488.89 1744.93 3259.18 -0.936243 0.220913 0.273217
3488.78 1744.06 3259.65 -0.936243 0.220913 0.273217
3488.67 1743.18 3260.12 -0.927333 0.290906 0.235432
3488.56 1742.31 3260.6 -0.936243 0.220913 0.273217
3488.44 1741.44 3261.07 -0.936243 0.220913 0.273217
3488.33 1740.56 3261.54 -0.84838 0.272934 0.453605
3488.94 1739.94 3262.66 -0.986568 0.0215194 0.161929
3488.83 1739.07 3263.13 -0.993552 0.108212 -0.0338394
3488.72 1738.2 3263.6 -0.993552 0.108212 -0.0338394
3488.6 1737.32 3264.08 -0.993552 0.108212 -0.0338394
3488.6 1737.32 3264.08 -0.993552 0.108212 -0.0338394
3488.49 1736.45 3264.55 -0.993552 0.108212 -0.0338394
3488.38 1735.57 3265.02 -0.971629 0.227208 -0.0656727
3487.55 1734.44 3264.85 -0.878542 0.474855 -0.051747
3487.44 1733.56 3265.32 -0.877287 0.439634 0.192588
3487.33 1732.69 3265.79 -0.879261 0.371092 0.298647
3487.22 1731.82 3266.26 -0.900792 0.289432 0.323733
3487.11 1730.94 3266.73 -0.904871 0.266184 0.332198
3487 1730.07 3267.21 -0.937705 0.127708 0.323111
3487.6 1729.45 3268.32 -0.966617 -0.149048 0.208413
3487.49 1728.58 3268.8 -0.991929 -0.108575 -0.0654876
3487.38 1727.7 3269.27 -0.998581 -0.0315104 -0.0429206
3487.27 1726.83 3269.74 -0.961795 0.233145 -0.143505
3487.16 1725.95 3270.21 -0.960539 0.0370623 -0.275665
3487.05 1725.08 3270.69 -0.885895 -0.220399 -0.408183
3486.94 1724.2 3271.16 -0.717745 -0.257806 -0.646822
3486.82 1723.33 3271.63 -0.717745 -0.257806 -0.646822
3486.71 1722.45 3272.1 -0.717745 -0.257806 -0.646822
3486.6 1721.58 3272.57 -0.720788 -0.59835 -0.349917
3487.21 1720.96 3273.69 -0.720788 -0.59835 -0.349917
3487.1 1720.09 3274.16 -0.813202 -0.378724 -0.441895
3486.98 1719.21 3274.64 -0.677015 -0.661069 -0.323478
3487.59 1718.6 3275.76 -0.717745 -0.257806 -0.646822
3487.59 1718.6 3275.76 -0.717745 -0.257806 -0.646822
3488.2 1717.98 3276.87 -0.691756 -0.621676 -0.367414
3488.09 1717.11 3277.35 -0.717745 -0.257806 -0.646822
3487.98 1716.23 3277.82 -0.532459 -0.677752 -0.507089
3488.58 1715.61 3278.94 -0.435026 -0.745177 -0.505433
3488.47 1714.74 3279.41 -0.527811 -0.732874 -0.429316
3489.08 1714.12 3280.53 -0.649331 -0.526685 -0.548609
3488.97 1713.25 3281 -0.717745 -0.257806 -0.646822
3488.85 1712.37 3281.47 -0.456949 -0.592545 -0.663391
3490.15 1711.35 3281.99 -0.263375 -0.626916 -0.733219
3490.04 1710.47 3282.46 -0.264661 -0.647013 -0.715072
3490.64 1709.86 3283.58 -0.18813 -0.779151 -0.597938
3490.53 1708.98 3284.06 -0.151247 -0.730811 -0.665612
3491.14 1708.36 3285.17 -0.054708 -0.797494 -0.600841
3491.74 1707.75 3286.29 -0.0361624 -0.748979 -0.661606
3491.63 1706.87 3286.77 0.0142387 -0.740029 -0.672424
3491.52 1706 3287.24 0.119662 -0.664348 -0.737782
3492.24 1706.26 3287.88 0.124918 -0.67715 -0.725164
3492.13 1705.38 3288.36 0.0640074 -0.594293 -0.801698
3492.02 1704.51 3288.83 -0.0458071 -0.668402 -0.742388
3492.62 1703.89 3289.95 -0.0562612 -0.729673 -0.681478
3492.51 1703.02 3290.42 0.0266583 -0.629219 -0.77677
3493.12 1702.4 3291.54 0.0487041 -0.746207 -0.66393
3493.01 1701.53 3292.01 -0.100668 -0.67903 -0.727175
3493.61 1700.91 3293.13 -0.151247 -0.730811 -0.665612
3493.5 1700.03 3293.6 -0.193076 -0.688769 -0.698798
3493.39 1699.16 3294.07 -0.151247 -0.730811 -0.665612
3494 1698.54 3295.19 -0.368514 -0.720939 -0.586894
3493.89 1697.67 3295.66 -0.351455 -0.767611 -0.53596
3495.18 1696.64 3296.18 -0.453421 -0.689988 -0.564204
3495.07 1695.77 3296.66 -0.532459 -0.677752 -0.507089
3495.67 1695.15 3297.78 -0.649331 -0.526685 -0.548609
3495.56 1694.28 3298.25 -0.717745 -0.257806 -0.646822
3495.45 1693.4 3298.72 -0.717745 -0.257806 -0.646822
3495.34 1692.53 3299.19 -0.717745 -0.257806 -0.646822
3495.23 1691.65 3299.66 -0.717745 -0.257806 -0.646822
3495.12 1690.78 3300.14 -0.509388 -0.445444 -0.736277
3495.01 1689.9 3300.61 -0.369946 -0.719753 -0.587448
3495.61 1689.29 3301.73 -0.291084 -0.83892 -0.459874
3496.22 1688.67 3302.85 -0.276389 -0.789563 -0.547904
3496.11 1687.8 3303.32 -0.373624 -0.61653 -0.693034
3496 1686.92 3303.79 -0.286984 -0.593066 -0.752272
3496.6 1686.3 3304.91 -0.164351 -0.854637 -0.492529
3497.21 1685.69 3306.03 -0.151247 -0.730811 -0.665612
3497.1 1684.81 3306.5 -0.07612 -0.605953 -0.79185
3496.99 1683.94 3306.97 -0.0214923 -0.472804 -0.880905
3496.88 1683.06 3307.44 -0.108159 -0.56373 -0.818847
3496.76 1682.19 3307.92 -0.1699 -0.599916 -0.781815
3496.65 1681.31 3308.39 -0.338761 -0.376571 -0.862227
3496.54 1680.44 3308.86 -0.375608 -0.586694 -0.717432
3497.15 1679.82 3309.98 -0.368514 -0.720939 -0.586894
3497.04 1678.95 3310.45 -0.313941 -0.674883 -0.667813
3496.93 1678.07 3310.92 -0.286984 -0.593066 -0.752272
3497.53 1677.46 3312.04 -0.288037 -0.762473 -0.57937
3497.42 1676.58 3312.51 -0.480537 -0.750859 -0.453096
3498.71 1675.56 3313.03 -0.453421 -0.689988 -0.564204
3498.6 1674.68 3313.51 -0.532459 -0.677752 -0.507089
3499.21 1674.06 3314.63 -0.435026 -0.745177 -0.505433
3499.1 1673.19 3315.1 -0.509388 -0.445444 -0.736277
3498.99 1672.32 3315.57 -0.344775 -0.694082 -0.631966
3499.59 1671.7 3316.69 -0.14888 -0.709284 -0.689022
3499.48 1670.82 3317.16 -0.347671 -0.446563 -0.824443
3499.37 1669.95 3317.63 -0.338761 -0.376571 -0.862227
3499.26 1669.08 3318.1 -0.26562 -0.604653 -0.750893
3499.87 1668.46 3319.22 -0.0483362 -0.721521 -0.690704
3499.75 1667.58 3319.7 -0.269445 -0.615074 -0.741002
3500.36 1666.97 3320.81 -0.276389 -0.789563 -0.547904
3500.25 1666.09 3321.29 -0.276389 -0.789563 -0.547904
3500.86 1665.48 3322.41 -0.164351 -0.854637 -0.492529
3501.46 1664.86 3323.52 -0.276389 -0.789563 -0.547904
3501.35 1663.99 3324 -0.373624 -0.61653 -0.693034
3501.24 1663.11 3324.47 -0.347671 -0.446563 -0.824443
3501.13 1662.24 3324.94 -0.347671 -0.446563 -0.824443
3501.02 1661.36 3325.41 -0.286984 -0.593066 -0.752272
3501.62 1660.74 3326.53 -0.160839 -0.798803 -0.579694
3501.51 1659.87 3327 -0.1699 -0.599916 -0.781815
3501.4 1659 3327.48 -0.344775 -0.694082 -0.631966
3502.01 1658.38 3328.59 -0.386506 -0.771561 -0.505279
3503.3 1657.35 3329.11 -0.244837 -0.688787 -0.682369
3503.19 1656.48 3329.59 -0.186969 -0.743686 -0.641852
3503.8 1655.86 3330.71 -0.18813 -0.779151 -0.597938
3503.69 1654.99 3331.18 -0.271359 -0.479546 -0.834506
3503.57 1654.11 3331.65 -0.338761 -0.376571 -0.862227
3503.46 1653.24 3332.12 -0.344776 -0.507814 -0.789465
3503.96 1651.75 3333.71 -0.368199 -0.620101 -0.692751
3503.85 1650.87 3334.18 -0.373624 -0.61653 -0.693034
3503.73 1650 3334.66 -0.347671 -0.446563 -0.824443
3503.62 1649.12 3335.13 -0.286984 -0.593066 -0.752272
3504.23 1648.51 3336.25 -0.160839 -0.798803 -0.579694
3504.12 1647.63 3336.72 -0.391189 -0.701699 -0.595474
3504.72 1647.01 3337.84 -0.499822 -0.689792 -0.523799
3504.61 1646.14 3338.31 -0.509388 -0.445444 -0.736277
3504.5 1645.27 3338.78 -0.338761 -0.376571 -0.862227
3504.39 1644.39 3339.26 -0.338761 -0.376571 -0.862227
3504.28 1643.52 3339.73 -0.407362 -0.402774 -0.819652
3504.17 1642.64 3340.2 -0.0332709 -0.563588 -0.825386
3504.06 1641.77 3340.67 -0.654243 -0.562964 -0.505013
3504.66 1641.15 3341.79 -0.309909 -0.766282 -0.562822
3504.55 1640.28 3342.26 -0.55325 -0.690514 -0.465945
3505.16 1639.66 3343.38 -0.649331 -0.526685 -0.548609
3505.05 1638.79 3343.85 -0.717745 -0.257806 -0.646822
3504.94 1637.91 3344.33 -0.717745 -0.257806 -0.646822
3504.82 1637.04 3344.8 -0.433185 -0.663343 -0.610185
3505.43 1636.42 3345.92 -0.433185 -0.663343 -0.610185
3505.32 1635.54 3346.39 -0.531178 -0.55793 -0.637624
3505.21 1634.67 3346.86 -0.539208 -0.494778 -0.681505
3505.1 1633.8 3347.33 -0.347671 -0.446563 -0.824443
3504.99 1632.92 3347.8 -0.258792 -0.372418 -0.891253
3504.76 1631.17 3348.75 -0.273544 -0.488298 -0.828697
3504.65 1630.3 3349.22 -0.347671 -0.446563 -0.824443
3504.54 1629.42 3349.69 -0.338761 -0.376571 -0.862227
3504.43 1628.55 3350.17 -0.344775 -0.694082 -0.631966
3505.04 1627.93 3351.28 -0.769828 -0.493877 -0.404291
3504.92 1627.06 3351.76 -0.717745 -0.257806 -0.646822
3504.81 1626.18 3352.23 -0.717745 -0.257806 -0.646822
3504.7 1625.31 3352.7 -0.717745 -0.257806 -0.646822
3504.59 1624.43 3353.17 -0.717745 -0.257806 -0.646822
3504.48 1623.56 3353.64 -0.451109 -0.504866 -0.735942
3505.77 1622.53 3354.16 -0.37452 -0.732714 -0.568211
3505.66 1621.66 3354.64 -0.476784 -0.661759 -0.578578
3506.27 1621.04 3355.76 -0.435026 -0.745177 -0.505433
3506.16 1620.17 3356.23 -0.509388 -0.445444 -0.736277
3506.05 1619.29 3356.7 -0.375608 -0.586694 -0.717432
3506.65 1618.68 3357.82 -0.286984 -0.593066 -0.752272
3506.54 1617.8 3358.29 -0.338761 -0.376571 -0.862227
3506.43 1616.93 3358.76 -0.297613 -0.444553 -0.844867
3506.21 1615.18 3359.71 -0.297613 -0.444553 -0.844867
3506.09 1614.3 3360.18 -0.338761 -0.376571 -0.862227
3505.98 1613.43 3360.65 -0.407362 -0.402774 -0.819652
3505.87 1612.55 3361.12 -0.0332709 -0.563588 -0.825386
3505.76 1611.68 3361.59 -0.143324 -0.748283 -0.647712
3506.37 1611.06 3362.71 -0.112927 -0.723397 -0.681135
3506.26 1610.19 3363.19 -0.502782 -0.672472 -0.543132
3506.86 1609.57 3364.3 -0.0483362 -0.721521 -0.690704
3506.75 1608.7 3364.78 -0.41527 -0.213909 -0.884191
3506.64 1607.82 3365.25 -0.717745 -0.257806 -0.646822
3506.53 1606.95 3365.72 -0.649331 -0.526685 -0.548609
3507.13 1606.33 3366.84 -0.434692 -0.806594 -0.40056
3507.02 1605.46 3367.31 -0.193076 -0.688769 -0.698798
3506.91 1604.58 3367.78 -0.23378 -0.625182 -0.744643
3507.41 1603.09 3369.38 -0.369232 -0.683643 -0.629524
3507.3 1602.22 3369.85 -0.305133 -0.670136 -0.676618
3507.9 1601.6 3370.97 -0.0818212 -0.890935 -0.4467
3508.51 1600.98 3372.09 -0.39522 -0.617737 -0.679855
3508.4 1600.11 3372.56 -0.717745 -0.257806 -0.646822
3508.29 1599.23 3373.03 -0.717745 -0.257806 -0.646822
3508.17 1598.36 3373.5 -0.479224 -0.498277 -0.72254
3508.78 1597.74 3374.62 -0.463611 -0.631606 -0.6214
3508.67 1596.87 3375.09 -0.574955 -0.543655 -0.611447
3508.56 1595.99 3375.56 -0.717745 -0.257806 -0.646822
3508.45 1595.12 3376.04 -0.717745 -0.257806 -0.646822
3509.63 1593.22 3377.03 -0.229019 -0.444251 -0.866136
3509.52 1592.34 3377.5 -0.113355 -0.649353 -0.751992
3509.41 1591.47 3377.97 -0.14532 -0.632548 -0.760766
3510.01 1590.85 3379.09 0.0420753 -0.725824 -0.686592
3510.62 1590.24 3380.21 -0.0951603 -0.691903 -0.715692
3510.51 1589.36 3380.68 -0.158804 -0.709097 -0.686996
3510.4 1588.49 3381.15 -0.0951603 -0.691903 -0.715692
3511 1587.87 3382.27 -0.205106 -0.766183 -0.609012
3511.5 1586.38 3383.86 -0.368199 -0.620101 -0.692751
3511.39 1585.5 3384.34 -0.373624 -0.61653 -0.693034
3511.28 1584.63 3384.81 -0.347671 -0.446563 -0.824443
3511.16 1583.75 3385.28 -0.338761 -0.376571 -0.862227
3511.05 1582.88 3385.75 -0.347671 -0.446563 -0.824443
3510.94 1582.01 3386.22 -0.338761 -0.376571 -0.862227
3510.83 1581.13 3386.7 -0.347671 -0.446563 -0.824443
3510.72 1580.26 3387.17 -0.375608 -0.586694 -0.717432
3511.33 1579.64 3388.29 -0.258318 -0.855393 -0.448971
3511.93 1579.02 3389.41 -0.527811 -0.732874 -0.429316
3511.82 1578.15 3389.88 -0.53625 -0.678225 -0.502441
3512.32 1576.66 3391.47 -0.46083 -0.717248 -0.522677
3512.2 1575.78 3391.94 -0.368514 -0.720939 -0.586894
3512.81 1575.17 3393.06 -0.286984 -0.593066 -0.752272
3512.7 1574.29 3393.53 -0.373624 -0.61653 -0.693034
3512.59 1573.42 3394.01 -0.368199 -0.620101 -0.692751
3513.88 1572.39 3394.53 -0.369831 -0.645391 -0.668353
3513.77 1571.52 3395 -0.481936 -0.565581 -0.66922
3513.66 1570.64 3395.47 -0.465074 -0.538016 -0.703026
3514.15 1569.15 3397.06 -0.530499 -0.729877 -0.431103
3514.76 1568.53 3398.18 -0.527811 -0.732874 -0.429316
3514.65 1567.66 3398.65 -0.717745 -0.257806 -0.646822
3514.54 1566.78 3399.12 -0.717745 -0.257806 -0.646822
3514.43 1565.91 3399.6 -0.717745 -0.257806 -0.646822
3514.32 1565.04 3400.07 -0.649331 -0.526685 -0.548609
3514.92 1564.42 3401.19 -0.459918 -0.640633 -0.61487
3514.7 1562.67 3402.13 -0.329003 -0.526609 -0.783862
3513.98 1562.41 3401.48 -0.399066 -0.491665 -0.773959
3514.48 1560.92 3403.07 -0.267258 -0.683948 -0.678814
3515.08 1560.3 3404.19 -0.433185 -0.663343 -0.610185
3514.97 1559.43 3404.67 -0.531178 -0.55793 -0.637624
3514.86 1558.55 3405.14 -0.509388 -0.445444 -0.736277
3514.75 1557.68 3405.61 -0.286984 -0.593066 -0.752272
3515.36 1557.06 3406.73 -0.471299 -0.709592 -0.52379
3515.85 1555.57 3408.32 -0.559473 -0.127965 -0.818911
3515.02 1554.44 3408.15 -0.632937 0.0719129 -0.770856
3514.91 1553.57 3408.62 -0.717745 -0.257806 -0.646822
3514.8 1552.69 3409.09 -0.84959 0.00708714 -0.527396
3514.69 1551.82 3409.56 -0.87341 0.199225 -0.444369
3513.86 1550.68 3409.39 -0.82536 0.387653 -0.410495
3509.69 1550.68 3406.28 0.184457 0.61683 -0.765177
3504.62 1797.67 3237.72 -0.37763 0.767208 -0.518447
3501.55 1795.56 3237.32 -0.470964 0.663453 -0.581398
3500.01 1794.17 3236.5 -0.5817 0.722526 -0.373606
3499.18 1793.03 3236.32 -0.844363 0.509456 -0.165848
3498.35 1791.9 3236.15 -0.872236 0.489002 -0.00906687
3498.24 1791.03 3236.62 -0.914272 0.388952 -0.113235
3497.3 1789.02 3236.92 -0.993552 0.108212 -0.0338394
3497.3 1789.02 3236.92 -0.993552 0.108212 -0.0338394
3497.18 1788.15 3237.39 -0.993552 0.108212 -0.0338394
3497.07 1787.27 3237.86 -0.993552 0.108212 -0.0338394
3496.96 1786.4 3238.33 -0.993552 0.108212 -0.0338394
3496.85 1785.52 3238.81 -0.993552 0.108212 -0.0338394
3496.74 1784.65 3239.28 -0.993552 0.108212 -0.0338394
3496.63 1783.77 3239.75 -0.993552 0.108212 -0.0338394
3496.52 1782.9 3240.22 -0.931278 0.350284 -0.100114
3495.69 1781.77 3240.05 -0.9062 0.365376 0.212845
3495.58 1780.89 3240.52 -0.936243 0.220913 0.273217
3495.47 1780.02 3240.99 -0.927333 0.290906 0.235432
3495.35 1779.14 3241.46 -0.96235 0.172367 0.210173
3495.24 1778.27 3241.94 -0.98224 0.10961 0.152281
3495.13 1777.39 3242.41 -0.898897 0.353614 0.258729
3495.02 1776.52 3242.88 -0.861273 0.38778 0.328384
3494.91 1775.65 3243.35 -0.783063 0.306997 0.540893
3495.51 1775.03 3244.47 -0.918431 0.233962 0.318978
3494.69 1773.9 3244.3 -0.850971 0.464906 0.244356
3493.86 1772.76 3244.12 -0.853543 0.416038 0.313651
3493.75 1771.89 3244.59 -0.927333 0.290906 0.235432
3493.63 1771.02 3245.07 -0.96235 0.172367 0.210173
3493.52 1770.14 3245.54 -0.778202 0.615728 0.123613
3492.01 1769.42 3245.96 -0.698101 0.670348 0.251572
3491.18 1768.29 3245.79 -0.879965 0.452115 0.145787
3491.07 1767.41 3246.26 -0.902455 0.0624224 0.426237
3491.67 1766.8 3247.38 -0.84838 0.272934 0.453605
3491.56 1765.92 3247.85 -0.936243 0.220913 0.273217
3491.45 1765.05 3248.32 -0.936243 0.220913 0.273217
3491.34 1764.17 3248.79 -0.927333 0.290906 0.235432
3491.23 1763.3 3249.27 -0.933901 -0.0639861 0.35176
3492.52 1762.27 3249.79 -0.915155 -0.106464 0.388789
3492.41 1761.4 3250.26 -0.918405 0.166092 0.359091
3492.3 1760.52 3250.73 -0.883728 0.414501 0.217286
3492.19 1759.65 3251.2 -0.805601 0.586321 0.0850519
3490.67 1758.93 3251.63 -0.834769 0.526199 0.162094
3490.56 1758.05 3252.1 -0.894895 0.358817 0.265354
3490.45 1757.18 3252.57 -0.890155 0.265059 0.370631
3490.34 1756.3 3253.04 -0.901824 0.111746 0.417404
3490.34 1756.3 3253.04 -0.901824 0.111746 0.417404
3490.91 1755.02 3252.92 -0.890952 0.0241265 0.453456
3490.8 1754.14 3253.39 -0.917267 0.145231 0.37085
3490.69 1753.27 3253.86 -0.856434 0.390479 0.337709
3489.17 1752.55 3254.28 -0.858694 0.330152 0.391974
3490.47 1751.52 3254.8 -0.973148 0.0398619 0.226701
3490.36 1750.64 3255.28 -0.918273 0.201407 0.340895
3490.24 1749.77 3255.75 -0.918273 0.201407 0.340895
3490.13 1748.89 3256.22 -0.918273 0.201407 0.340895
3490.02 1748.02 3256.69 -0.898897 0.353614 0.258729
3489.91 1747.15 3257.17 -0.799169 0.586326 0.132474
3488.39 1746.42 3257.59 -0.756165 0.608869 0.239778
3488.28 1745.55 3258.06 -0.878734 0.376266 0.293685
3488.17 1744.68 3258.53 -0.68735 0.41084 0.598966
3488.06 1743.8 3259.01 -0.68735 0.41084 0.598966
3487.95 1742.93 3259.48 -0.68735 0.41084 0.598966
3487.84 1742.05 3259.95 -0.68735 0.41084 0.598966
3487.73 1741.18 3260.42 -0.905742 0.292852 0.30638
3487.61 1740.3 3260.89 -0.944552 0.195635 0.263722
3487.5 1739.43 3261.37 -0.869959 0.0337884 0.491965
3488.8 1738.4 3261.89 -0.86507 0.0280543 0.500866
3488.69 1737.53 3262.36 -0.911715 0.306863 0.273149
3488.57 1736.65 3262.83 -0.993552 0.108212 -0.0338394
3488.46 1735.78 3263.3 -0.993552 0.108212 -0.0338394
3488.35 1734.9 3263.77 -0.883728 0.414501 0.217286
3488.24 1734.03 3264.25 -0.805601 0.586321 0.0850519
3486.72 1733.31 3264.67 -0.798177 0.574342 0.181782
3486.61 1732.43 3265.14 -0.899588 0.325024 0.291721
3486.5 1731.56 3265.61 -0.960321 -0.0350409 0.276689
3486.5 1731.56 3265.61 -0.960321 -0.0350409 0.276689
3486.39 1730.68 3266.09 -0.984341 -0.0506818 0.168831
3486.28 1729.81 3266.56 -0.967117 0.112775 -0.227962
3486.17 1728.93 3267.03 -0.932588 -0.085988 0.350551
3487.46 1727.91 3267.55 -0.98145 0.108914 0.15778
3487.35 1727.03 3268.02 -0.950341 -0.22049 0.219628
3487.24 1726.16 3268.5 -0.970612 -0.209065 0.119179
3487.13 1725.28 3268.97 -0.950213 -0.0864143 -0.29938
3487.02 1724.41 3269.44 -0.970185 -0.184705 -0.156921
3487.62 1723.79 3270.56 -0.900939 -0.383759 -0.202578
3487.51 1722.92 3271.03 -0.717745 -0.257806 -0.646822
3487.4 1722.04 3271.5 -0.717745 -0.257806 -0.646822
3487.29 1721.17 3271.97 -0.527811 -0.732874 -0.429316
3487.9 1720.55 3273.09 -0.283746 -0.784612 -0.551247
3487.78 1719.68 3273.57 -0.375608 -0.586694 -0.717432
3488.39 1719.06 3274.68 -0.420477 -0.77177 -0.477043
3488.28 1718.19 3275.16 -0.400898 -0.798113 -0.449775
3488.28 1718.19 3275.16 -0.400898 -0.798113 -0.449775
3488.89 1717.57 3276.28 -0.283771 -0.818669 -0.499254
3488.77 1716.7 3276.75 -0.286984 -0.593066 -0.752272
3489.38 1716.08 3277.87 -0.18813 -0.779151 -0.597938
3489.27 1715.2 3278.34 -0.271379 -0.742822 -0.612021
3489.88 1714.59 3279.46 -0.0483362 -0.721521 -0.690704
3489.76 1713.71 3279.93 -0.376771 -0.543665 -0.749981
3489.65 1712.84 3280.4 -0.531438 -0.530326 -0.660552
3490.26 1712.22 3281.52 -0.301058 -0.629489 -0.716316
3490.15 1711.35 3281.99 -0.263375 -0.626916 -0.733219
3491.44 1710.32 3282.51 -0.0723994 -0.730432 -0.679137
3492.05 1709.7 3283.63 -0.0562612 -0.729673 -0.681478
3491.94 1708.83 3284.1 -0.0562612 -0.729673 -0.681478
3492.54 1708.21 3285.22 -0.0765346 -0.860312 -0.503991
3492.43 1707.34 3285.69 -0.229664 -0.734293 -0.638803
3493.15 1707.59 3286.34 -0.235264 -0.725243 -0.64705
3493.04 1706.72 3286.81 -0.0919959 -0.868595 -0.486907
3493.64 1706.1 3287.93 -0.151247 -0.730811 -0.665612
3493.53 1705.23 3288.4 -0.141765 -0.609357 -0.78012
3493.42 1704.35 3288.88 -0.0562612 -0.729673 -0.681478
3494.03 1703.74 3290 -0.0562612 -0.729673 -0.681478
3493.92 1702.86 3290.47 -0.100668 -0.67903 -0.727175
3494.52 1702.25 3291.59 -0.151247 -0.730811 -0.665612
3494.41 1701.37 3292.06 -0.193076 -0.688769 -0.698798
3494.3 1700.5 3292.53 -0.269445 -0.615074 -0.741002
3494.91 1699.88 3293.65 -0.286984 -0.593066 -0.752272
3494.8 1699.01 3294.12 -0.373624 -0.61653 -0.693034
3494.68 1698.13 3294.59 -0.368199 -0.620101 -0.692751
3495.98 1697.1 3295.11 -0.411425 -0.591694 -0.693273
3495.87 1696.23 3295.59 -0.499822 -0.689792 -0.523799
3496.47 1695.61 3296.7 -0.527811 -0.732874 -0.429316
3496.36 1694.74 3297.18 -0.717745 -0.257806 -0.646822
3496.25 1693.86 3297.65 -0.717745 -0.257806 -0.646822
3496.14 1692.99 3298.12 -0.717745 -0.257806 -0.646822
3496.03 1692.12 3298.59 -0.509388 -0.445444 -0.736277
3495.92 1691.24 3299.06 -0.286984 -0.593066 -0.752272
3496.52 1690.62 3300.18 -0.100668 -0.67903 -0.727175
3496.41 1689.75 3300.66 -0.0562612 -0.729673 -0.681478
3497.02 1689.13 3301.77 -0.276389 -0.789563 -0.547904
3496.91 1688.26 3302.25 -0.276389 -0.789563 -0.547904
3497.51 1687.64 3303.37 -0.0562612 -0.729673 -0.681478
3497.4 1686.77 3303.84 -0.160102 -0.714611 -0.680954
3498.01 1686.15 3304.96 -0.276389 -0.789563 -0.547904
3497.9 1685.28 3305.43 -0.368514 -0.720939 -0.586894
3498.5 1684.66 3306.55 -0.284896 -0.72025 -0.632515
3498.39 1683.79 3307.02 -0.178004 -0.459568 -0.870122
3498.28 1682.91 3307.49 -0.208791 -0.239933 -0.948071
3498.17 1682.04 3307.96 -0.25655 -0.615096 -0.745546
3498.06 1681.16 3308.44 -0.07612 -0.605953 -0.79185
3497.95 1680.29 3308.91 -0.108159 -0.56373 -0.818847
3497.84 1679.41 3309.38 -0.269445 -0.615074 -0.741002
3498.44 1678.8 3310.5 -0.269445 -0.615074 -0.741002
3498.33 1677.92 3310.97 -0.300302 -0.701553 -0.646252
3499.62 1676.89 3311.49 -0.268844 -0.631892 -0.726935
3499.51 1676.02 3311.96 -0.283088 -0.654442 -0.701118
3499.4 1675.14 3312.44 -0.218551 -0.639742 -0.736862
3500.01 1674.53 3313.55 -0.160839 -0.798803 -0.579694
3499.9 1673.65 3314.03 -0.151247 -0.730811 -0.665612
3500.5 1673.04 3315.15 -0.332201 -0.828615 -0.450599
3501.11 1672.42 3316.26 -0.12909 -0.778115 -0.614713
3501 1671.55 3316.74 -0.07612 -0.605953 -0.79185
3500.89 1670.67 3317.21 -0.0214923 -0.472804 -0.880905
3500.78 1669.8 3317.68 0.0266583 -0.629219 -0.77677
3501.38 1669.18 3318.8 -0.0951603 -0.691903 -0.715692
3501.27 1668.31 3319.27 -0.07612 -0.605953 -0.79185
3501.16 1667.43 3319.74 -0.07612 -0.605953 -0.79185
3501.05 1666.56 3320.22 -0.151247 -0.730811 -0.665612
3501.65 1665.94 3321.33 -0.164351 -0.854637 -0.492529
3502.26 1665.32 3322.45 -0.276389 -0.789563 -0.547904
3502.15 1664.45 3322.93 -0.368514 -0.720939 -0.586894
3502.76 1663.83 3324.04 -0.269445 -0.615074 -0.741002
3502.65 1662.96 3324.52 -0.07612 -0.605953 -0.79185
3502.53 1662.08 3324.99 -0.0214923 -0.472804 -0.880905
3502.42 1661.21 3325.46 -0.0562612 -0.729673 -0.681478
3503.03 1660.59 3326.58 -0.209693 -0.66195 -0.719618
3502.92 1659.72 3327.05 -0.138281 -0.640113 -0.755734
3504.21 1658.69 3327.57 -0.31553 -0.713056 -0.626092
3504.1 1657.82 3328.04 -0.230529 -0.70907 -0.666391
3504.71 1657.2 3329.16 -0.151247 -0.730811 -0.665612
3504.59 1656.32 3329.63 -0.160839 -0.798803 -0.579694
3505.2 1655.71 3330.75 -0.0562612 -0.729673 -0.681478
3505.09 1654.83 3331.23 -0.0214923 -0.472804 -0.880905
3504.98 1653.96 3331.7 -0.0214923 -0.472804 -0.880905
3504.76 1652.21 3332.64 -0.134069 -0.546977 -0.826342
3504.64 1651.33 3333.11 -0.269445 -0.615074 -0.741002
3505.25 1650.72 3334.23 -0.269445 -0.615074 -0.741002
3505.14 1649.84 3334.7 -0.07612 -0.605953 -0.79185
3505.03 1648.97 3335.18 -0.160102 -0.714611 -0.680954
3505.64 1648.35 3336.3 -0.151247 -0.730811 -0.665612
3505.52 1647.48 3336.77 -0.193076 -0.688769 -0.698798
3505.41 1646.6 3337.24 -0.151247 -0.730811 -0.665612
3506.02 1645.99 3338.36 -0.0562612 -0.729673 -0.681478
3505.91 1645.11 3338.83 -0.0214923 -0.472804 -0.880905
3505.8 1644.24 3339.3 0.0266583 -0.629219 -0.77677
3506.4 1643.62 3340.42 -0.11246 -0.667865 -0.735737
3506.29 1642.75 3340.89 -0.00634006 -0.62049 -0.784188
3506.18 1641.87 3341.37 -0.0214923 -0.472804 -0.880905
3506.07 1641 3341.84 -0.0214923 -0.472804 -0.880905
3505.96 1640.12 3342.31 -0.141765 -0.609357 -0.78012
3505.85 1639.25 3342.78 -0.25655 -0.615096 -0.745546
3505.73 1638.37 3343.25 -0.338761 -0.376571 -0.862227
3505.62 1637.5 3343.73 -0.375608 -0.586694 -0.717432
3506.23 1636.88 3344.85 -0.368514 -0.720939 -0.586894
3506.12 1636.01 3345.32 -0.455023 -0.568021 -0.685789
3506.01 1635.13 3345.79 -0.717745 -0.257806 -0.646822
3506.5 1633.64 3347.38 -0.465074 -0.538016 -0.703026
3506.39 1632.77 3347.85 -0.282077 -0.487562 -0.826267
3506.28 1631.89 3348.32 -0.205052 -0.444599 -0.871943
3506.17 1631.02 3348.8 -0.219867 -0.420591 -0.880205
3506.06 1630.14 3349.27 -0.201318 -0.430692 -0.879759
3505.95 1629.27 3349.74 -0.139709 -0.480707 -0.86568
3507.24 1628.24 3350.26 -0.204541 -0.589024 -0.781801
3507.13 1627.37 3350.73 -0.187519 -0.415464 -0.890071
3507.02 1626.49 3351.21 -0.0214923 -0.472804 -0.880905
3506.91 1625.62 3351.68 -0.0214923 -0.472804 -0.880905
3506.79 1624.74 3352.15 -0.0214923 -0.472804 -0.880905
3506.68 1623.87 3352.62 -0.0704861 -0.573259 -0.816337
3506.57 1623 3353.09 -0.225553 -0.602165 -0.765848
3507.18 1622.38 3354.21 -0.151247 -0.730811 -0.665612
3507.07 1621.5 3354.68 -0.193076 -0.688769 -0.698798
3506.96 1620.63 3355.16 -0.151247 -0.730811 -0.665612
3507.56 1620.01 3356.28 -0.0562612 -0.729673 -0.681478
3507.45 1619.14 3356.75 -0.07612 -0.605953 -0.79185
3507.34 1618.26 3357.22 -0.201444 -0.570936 -0.795897
3507.23 1617.39 3357.69 -0.347671 -0.446563 -0.824443
3507.12 1616.52 3358.16 -0.320549 -0.512484 -0.796623
3507.61 1615.02 3359.75 -0.139811 -0.774594 -0.616811
3507.5 1614.15 3360.23 -0.0483362 -0.721521 -0.690704
3508.11 1613.53 3361.35 0.0244683 -0.69743 -0.716235
3508 1612.66 3361.82 -0.111292 -0.677318 -0.727224
3507.88 1611.78 3362.29 8.49863e-05 -0.556081 -0.831128
3508.49 1611.17 3363.41 -0.23286 -0.61671 -0.751961
3508.38 1610.29 3363.88 -0.407362 -0.402774 -0.819652
3508.27 1609.42 3364.35 -0.338761 -0.376571 -0.862227
3508.16 1608.54 3364.82 -0.114226 -0.430391 -0.895386
3507.33 1607.41 3364.65 -0.288155 -0.279034 -0.916028
3507.22 1606.54 3365.12 -0.55325 -0.690514 -0.465945
3507.82 1605.92 3366.24 -0.412621 -0.816223 -0.40438
3508.43 1605.3 3367.36 -0.422522 -0.630258 -0.651344
3508.21 1603.55 3368.3 -0.174754 -0.630501 -0.756261
3508.81 1602.94 3369.42 -0.115751 -0.824094 -0.554501
3509.42 1602.32 3370.54 -0.0532561 -0.859602 -0.508182
3509.31 1601.45 3371.01 -0.293549 -0.720688 -0.628043
3510.6 1600.42 3371.53 -0.537462 -0.565532 -0.625546
3510.49 1599.54 3372.01 -0.479999 -0.699461 -0.529485
3511.1 1598.93 3373.12 -0.55826 -0.630631 -0.53912
3510.99 1598.05 3373.6 -0.414107 -0.420255 -0.807404
3510.87 1597.18 3374.07 -0.472112 -0.388 -0.791559
3510.76 1596.3 3374.54 -0.361258 -0.574341 -0.734592
3511.26 1594.81 3376.13 -0.355179 -0.654 -0.66793
3511.15 1593.94 3376.6 -0.0571098 -0.574333 -0.816627
3511.03 1593.06 3377.08 -0.0214923 -0.472804 -0.880905
3510.92 1592.19 3377.55 0.0266583 -0.629219 -0.77677
3511.53 1591.57 3378.67 -0.0951603 -0.691903 -0.715692
3511.42 1590.7 3379.14 -0.193076 -0.688769 -0.698798
3511.31 1589.82 3379.61 -0.151247 -0.730811 -0.665612
3511.91 1589.21 3380.73 -0.0831131 -0.747538 -0.658998
3512.41 1587.72 3382.32 -0.160689 -0.631544 -0.758506
3512.3 1586.84 3382.79 -0.259718 -0.669674 -0.695761
3512.19 1585.97 3383.27 -0.269445 -0.615074 -0.741002
3512.79 1585.35 3384.38 -0.151247 -0.730811 -0.665612
3512.68 1584.48 3384.86 -0.178004 -0.459568 -0.870122
3512.57 1583.6 3385.33 -0.131057 -0.294788 -0.946533
3512.46 1582.73 3385.8 -0.338761 -0.376571 -0.862227
3512.35 1581.85 3386.27 -0.271359 -0.479546 -0.834506
3512.24 1580.98 3386.74 -0.07612 -0.605953 -0.79185
3512.12 1580.1 3387.22 -0.108159 -0.56373 -0.818847
3512.01 1579.23 3387.69 -0.212099 -0.829212 -0.517128
3512.62 1578.61 3388.81 -0.499822 -0.689792 -0.523799
3512.51 1577.74 3389.28 -0.605936 -0.594748 -0.528314
3513 1576.25 3390.87 -0.506018 -0.725066 -0.467146
3513.61 1575.63 3391.99 -0.5431 -0.729535 -0.415716
3513.5 1574.76 3392.46 -0.37283 -0.583354 -0.721593
3513.39 1573.88 3392.93 -0.451109 -0.504866 -0.735942
3514.68 1572.85 3393.45 -0.375825 -0.663684 -0.646744
3515.18 1571.36 3395.04 -0.432407 -0.506836 -0.745749
3515.06 1570.49 3395.52 -0.347671 -0.446563 -0.824443
3514.95 1569.61 3395.99 -0.539208 -0.494778 -0.681505
3514.84 1568.74 3396.46 -0.634534 -0.690382 -0.347476
3515.45 1568.12 3397.58 -0.720788 -0.59835 -0.349917
3515.34 1567.25 3398.05 -0.717745 -0.257806 -0.646822
3515.23 1566.37 3398.52 -0.509388 -0.445444 -0.736277
3515.11 1565.5 3399 -0.338761 -0.376571 -0.862227
3515 1564.62 3399.47 -0.55325 -0.690514 -0.465945
3515.61 1564.01 3400.59 -0.570381 -0.552598 -0.607701
3515.39 1562.26 3401.53 -0.271204 -0.343667 -0.899078
3515.28 1561.38 3402 -0.282456 -0.65138 -0.704218
3515.88 1560.77 3403.12 -0.527811 -0.732874 -0.429316
3515.77 1559.89 3403.59 -0.531178 -0.55793 -0.637624
3515.66 1559.02 3404.07 -0.433185 -0.663343 -0.610185
3516.27 1558.4 3405.19 -0.286984 -0.593066 -0.752272
3516.15 1557.53 3405.66 -0.509388 -0.445444 -0.736277
3516.04 1556.65 3406.13 -0.594518 -0.365931 -0.715991
3516.54 1555.16 3407.72 -0.580703 -0.498352 -0.643762
3515.82 1554.9 3407.07 -0.728246 -0.196442 -0.656558
3515.6 1553.15 3408.02 -0.861112 0.018685 -0.508072
3515.49 1552.28 3408.49 -0.882632 0.21044 -0.420328
3514.77 1552.02 3407.84 -0.882632 0.21044 -0.420328
3512.5 1550.37 3406.38 -0.288949 0.957136 0.0199565
3503.9 1797.41 3237.07 -0.409429 0.701684 -0.583101
3501.52 1794.89 3236.07 -0.509699 0.787109 -0.34737
3499.98 1793.5 3235.25 -0.600664 0.724859 -0.337317
3499.15 1792.37 3235.08 -0.802574 0.587018 -0.106231
3498.21 1790.36 3235.37 -0.884435 0.451865 0.116589
3497.38 1789.23 3235.2 -0.839584 0.515365 0.171749
3497.27 1788.35 3235.67 -0.935769 0.252173 0.246464
3497.15 1787.48 3236.14 -0.936243 0.220913 0.273217
3497.04 1786.6 3236.62 -0.936243 0.220913 0.273217
3496.93 1785.73 3237.09 -0.927333 0.290906 0.235432
3496.82 1784.85 3237.56 -0.952067 0.111764 0.284739
3496.71 1783.98 3238.03 -0.98555 0.093037 0.141549
3496.71 1783.98 3238.03 -0.98555 0.093037 0.141549
3496.6 1783.11 3238.5 -0.857038 0.469559 0.212131
3494.97 1781.51 3239.4 -0.854736 0.414111 0.312952
3494.86 1780.63 3239.87 -0.68735 0.41084 0.598966
3494.03 1779.5 3239.7 -0.879284 0.344678 0.328719
3494.75 1779.76 3240.35 -0.68735 0.41084 0.598966
3494.64 1778.89 3240.82 -0.68735 0.41084 0.598966
3493.7 1776.88 3241.11 -0.859358 0.459848 0.223705
3493.58 1776 3241.59 -0.90325 0.338689 0.263495
3493.47 1775.13 3242.06 -0.919285 0.176568 0.351764
3493.47 1775.13 3242.06 -0.919285 0.176568 0.351764
3494.08 1774.51 3243.18 -0.68735 0.41084 0.598966
3493.97 1773.64 3243.65 -0.851709 0.418455 0.315416
3493.14 1772.51 3243.47 -0.898575 0.388301 0.204415
3493.03 1771.63 3243.95 -0.888106 0.353111 0.294247
3492.92 1770.76 3244.42 -0.639776 0.559605 0.52681
3492.09 1769.62 3244.24 -0.876843 0.473154 0.0852739
3491.98 1768.75 3244.72 -0.694501 0.713708 -0.0910455
3491.04 1766.74 3245.01 -0.993552 0.108212 -0.0338394
3491.04 1766.74 3245.01 -0.993552 0.108212 -0.0338394
3490.92 1765.87 3245.49 -0.98725 -0.00484194 0.159106
3491.53 1765.25 3246.6 -0.975187 0.0780752 0.207157
3491.42 1764.38 3247.08 -0.97448 0.178751 0.135785
3491.31 1763.5 3247.55 -0.993552 0.108212 -0.0338394
3491.2 1762.63 3248.02 -0.970879 0.181454 0.156425
3491.09 1761.75 3248.49 -0.90952 0.197019 0.366
3490.97 1760.88 3248.97 -0.897906 0.264415 0.351923
3490.86 1760.01 3249.44 -0.918273 0.201407 0.340895
3490.75 1759.13 3249.91 -0.993552 0.108212 -0.0338394
3490.64 1758.26 3250.38 -0.964899 0.255557 -0.0605004
3489.81 1757.12 3250.21 -0.943373 0.300228 -0.141101
3489.7 1756.25 3250.68 -0.930011 0.107776 -0.351375
3489.59 1755.38 3251.15 -0.98188 0.122253 -0.144797
3489.48 1754.5 3251.62 -0.898897 0.353614 0.258729
3489.37 1753.63 3252.09 -0.890143 0.325392 0.319006
3489.25 1752.75 3252.57 -0.849537 0.450102 0.275128
3489.14 1751.88 3253.04 -0.883596 0.278708 0.376272
3488.31 1750.74 3252.86 -0.936761 0.250938 0.243944
3488.92 1750.13 3253.98 -0.811981 0.315399 0.491131
3488.81 1749.25 3254.46 -0.892237 0.347873 0.28792
3488.7 1748.38 3254.93 -0.993552 0.108212 -0.0338394
3488.7 1748.38 3254.93 -0.993552 0.108212 -0.0338394
3488.59 1747.5 3255.4 -0.993552 0.108212 -0.0338394
3488.48 1746.63 3255.87 -0.993552 0.108212 -0.0338394
3488.36 1745.76 3256.34 -0.834861 0.533405 0.135962
3487.53 1744.62 3256.17 -0.945695 0.314225 0.0832078
3487.42 1743.75 3256.64 -0.970491 0.219082 0.100745
3487.31 1742.87 3257.11 -0.993552 0.108212 -0.0338394
3487.2 1742 3257.59 -0.993552 0.108212 -0.0338394
