ply
format ascii 1.0
element vertex 900
property float x
property float y
property float z
property float nx
property float ny
property float nz
end_header
338.936 -245.531 1102.32 -0.0891856 -0.156854 0.983587
336.186 -245.146 1102.86 0.189044 -0.199341 0.961523
334.811 -244.953 1103.13 0.087372 -0.11879 0.989068
333.437 -244.76 1103.4 -0.0121908 -0.100147 0.994898
331.275 -244.252 1103.14 -0.00107581 -0.207005 0.978339
329.9 -244.059 1103.41 0.105394 -0.125341 0.9865
328.525 -243.866 1103.68 0.270466 -0.215622 0.938273
325.962 -242.54 1104.5 0.00865942 -0.223156 0.974744
324.588 -242.347 1104.77 -0.0771321 -0.109582 0.990981
322.426 -241.839 1104.51 -0.177886 -0.110676 0.977807
319.676 -241.453 1105.04 -0.106667 -0.182846 0.977338
317.514 -240.945 1104.78 -0.0153334 -0.0978785 0.99508
316.139 -240.752 1105.05 -0.0723216 -0.210811 0.974848
313.977 -240.244 1104.79 0.00401786 -0.200832 0.979618
311.415 -238.917 1105.61 -0.0404893 -0.354427 0.934207
310.04 -238.725 1105.88 0.140622 -0.31038 0.940154
308.665 -238.532 1106.15 0.140622 -0.31038 0.940154
305.915 -238.146 1106.69 0.140622 -0.31038 0.940154
304.54 -237.954 1106.96 -0.0468704 -0.293476 0.954817
302.379 -237.445 1106.7 -0.0417873 -0.279787 0.959152
300.217 -236.937 1106.44 0.365857 -0.313336 0.876339
299.041 -237.183 1108.04 0.268573 -0.156795 0.950412
296.879 -236.674 1107.78 -0.0220004 -0.342973 0.939088
295.691 -235.541 1108.33 -0.0113406 -0.317072 0.948334
294.316 -235.348 1108.6 0.140622 -0.31038 0.940154
291.567 -234.963 1109.14 0.140622 -0.31038 0.940154
290.192 -234.77 1109.41 -0.0823252 -0.404035 0.911031
288.03 -234.261 1109.14 0.118236 -0.460488 0.879756
286.067 -234.192 1110.21 -0.173669 -0.495983 0.850788
283.905 -233.683 1109.95 -0.0490105 -0.497167 0.866269
282.53 -233.49 1110.22 0.247067 -0.654855 0.714229
280.567 -233.421 1111.29 0.169642 -0.767598 0.618073
279.979 -233.544 1112.09 0.0299442 -0.705654 0.707924
278.792 -232.41 1112.64 0.0983193 -0.734767 0.671156
277.417 -232.218 1112.91 0.560922 -0.610775 0.558856
276.829 -232.341 1113.71 0.624986 -0.617714 0.477306
275.653 -232.587 1115.31 0.701416 -0.562856 0.437275
275.065 -232.71 1116.11 0.512521 -0.741122 0.433659
274.477 -232.833 1116.91 0.424027 -0.88857 0.175054
273.889 -232.956 1117.71 0.424027 -0.88857 0.175054
273.301 -233.079 1118.51 0.424027 -0.88857 0.175054
272.713 -233.202 1119.31 0.424027 -0.88857 0.175054
272.125 -233.326 1120.11 0.512521 -0.741122 0.433659
271.537 -233.449 1120.9 0.7314 -0.644665 -0.2224
271.548 -234.828 1121.95 0.743694 -0.66654 -0.0514131
270.372 -235.075 1123.55 0.904513 -0.366758 -0.217588
271.159 -235.391 1124.08 0.892741 -0.117421 -0.435
271.358 -235.829 1125.41 0.956809 -0.267288 0.114338
270.77 -235.953 1126.21 0.937871 -0.300886 0.172817
270.969 -236.392 1127.54 0.83938 -0.464439 0.282379
269.793 -236.638 1129.14 0.904149 -0.266783 0.333678
269.205 -236.761 1129.94 0.987129 -0.102236 0.122984
269.404 -237.2 1131.27 0.945136 -0.119795 -0.30392
270.191 -237.516 1131.8 0.697497 -0.716489 -0.0118426
489.009 -234.117 954.279 0.218669 -0.94802 -0.231175
488.421 -234.24 955.079 0.0607886 -0.994118 -0.0896328
487.833 -234.363 955.878 0.108559 -0.952572 -0.28429
487.444 -234.925 958.007 0.392469 -0.870204 -0.297848
486.856 -235.049 958.806 0.35887 -0.931257 -0.0630254
487.055 -235.487 960.136 0.355957 -0.932908 -0.054566
486.467 -235.611 960.935 0.382241 -0.923983 0.0120984
485.879 -235.734 961.735 0.252895 -0.956487 0.145524
485.291 -235.857 962.534 0.153516 -0.978657 0.136611
484.504 -235.541 962.004 -0.0755113 -0.979425 -0.187148
483.916 -235.664 962.804 -0.0625075 -0.983659 -0.168842
483.328 -235.787 963.603 -0.0820928 -0.994274 -0.0684068
481.953 -235.594 963.872 -0.18722 -0.940794 -0.282588
481.365 -235.718 964.672 -0.200672 -0.974741 0.0980367
480.178 -234.584 965.224 -0.0598627 -0.989746 -0.129689
479.59 -234.707 966.023 0.282888 -0.898811 -0.334832
479.601 -236.087 967.07 0.239548 -0.906036 -0.348878
479.013 -236.21 967.869 0.183544 -0.975156 -0.124026
478.425 -236.333 968.669 0.0369653 -0.991407 -0.125484
477.837 -236.456 969.468 -0.0128651 -0.986801 -0.161427
477.436 -235.639 970.55 0.0990761 -0.980727 -0.168399
477.448 -237.018 971.597 0.239548 -0.906036 -0.348878
476.86 -237.141 972.397 0.136137 -0.968268 -0.209578
476.272 -237.264 973.196 0.151539 -0.987072 -0.0521965
475.684 -237.388 973.995 -0.18722 -0.940794 -0.282588
475.096 -237.511 974.795 -0.18722 -0.940794 -0.282588
474.508 -237.634 975.594 0.129012 -0.989118 -0.0707252
473.92 -237.757 976.394 0.158941 -0.986547 0.0382449
473.332 -237.88 977.193 -0.111771 -0.983679 0.141006
472.144 -236.746 977.745 -0.111771 -0.983679 0.141006
471.556 -236.87 978.544 0.273614 -0.9617 -0.0164131
470.968 -236.993 979.344 0.285066 -0.900651 -0.327972
470.98 -238.372 980.391 0.314602 -0.879948 -0.355973
470.392 -238.496 981.19 0.120369 -0.99122 -0.0547146
469.804 -238.619 981.99 0.2008 -0.976869 -0.0735249
470.003 -239.058 983.319 0.346976 -0.913749 -0.211355
469.415 -239.181 984.119 0.229441 -0.956426 -0.180571
468.827 -239.304 984.918 0.306197 -0.9445 -0.11901
468.239 -239.427 985.718 0.290336 -0.931582 0.218768
466.864 -239.234 985.987 -0.120737 -0.992615 0.0117515
467.063 -239.673 987.316 0.401735 -0.912246 0.0801002
466.475 -239.796 988.116 0.0348089 -0.974738 0.220623
465.1 -239.604 988.385 0.0171803 -0.9903 -0.137882
464.512 -239.727 989.185 0.117268 -0.973874 -0.194469
464.711 -240.166 990.514 0.240368 -0.959052 -0.149811
464.123 -240.289 991.314 0.149965 -0.976331 -0.155849
463.535 -240.412 992.113 -0.18722 -0.940794 -0.282588
462.947 -240.535 992.912 -0.18722 -0.940794 -0.282588
462.359 -240.658 993.712 0.0216475 -0.929551 -0.368059
462.557 -241.097 995.042 0.475198 -0.879799 -0.011849
461.969 -241.22 995.841 0.424027 -0.88857 0.175054
461.381 -241.343 996.64 0.119312 -0.983627 0.135067
460.793 -241.466 997.44 0.0420879 -0.996817 0.0677155
459.418 -241.274 997.709 -0.0292303 -0.995744 -0.0873999
458.83 -241.397 998.508 -0.0491434 -0.997089 -0.0582899
458.242 -241.52 999.308 -0.0510438 -0.986704 -0.154301
457.055 -240.386 999.86 -0.176984 -0.9607 -0.21385
457.066 -241.766 1000.91 0.0398332 -0.960777 -0.274446
456.478 -241.889 1001.71 0.0734682 -0.973981 -0.214389
455.89 -242.012 1002.51 0.0144992 -0.987242 -0.158564
456.089 -242.451 1003.84 0.220965 -0.959366 -0.175474
455.501 -242.574 1004.63 0.183544 -0.975156 -0.124026
454.913 -242.697 1005.43 0.183544 -0.975156 -0.124026
454.325 -242.82 1006.23 0.183544 -0.975156 -0.124026
453.737 -242.944 1007.03 0.0811993 -0.996583 0.0151152
453.149 -243.067 1007.83 0.183544 -0.975156 -0.124026
452.561 -243.19 1008.63 0.0712222 -0.992391 -0.100438
451.973 -243.313 1009.43 0.183544 -0.975156 -0.124026
451.385 -243.436 1010.23 0.0811993 -0.996583 0.0151152
450.797 -243.559 1011.03 0.183544 -0.975156 -0.124026
450.209 -243.682 1011.83 0.183544 -0.975156 -0.124026
449.621 -243.805 1012.63 0.183544 -0.975156 -0.124026
449.033 -243.928 1013.43 0.424027 -0.88857 0.175054
448.445 -244.052 1014.23 0.0811993 -0.996583 0.0151152
447.857 -244.175 1015.03 0.0834518 -0.995699 -0.0402502
447.269 -244.298 1015.83 -0.00508504 -0.969644 -0.244468
447.468 -244.737 1017.16 0.220965 -0.959366 -0.175474
446.88 -244.86 1017.96 0.238992 -0.960695 -0.141239
446.292 -244.983 1018.76 0.263061 -0.948935 0.174128
445.704 -245.106 1019.55 0.171251 -0.962879 0.208656
444.329 -244.913 1019.82 -0.0128029 -0.988142 -0.153007
443.741 -245.036 1020.62 -0.00183139 -0.997019 -0.0771307
443.153 -245.16 1021.42 0.424027 -0.88857 0.175054
442.565 -245.283 1022.22 0.424027 -0.88857 0.175054
441.977 -245.406 1023.02 0.424027 -0.88857 0.175054
441.977 -245.406 1023.02 0.424027 -0.88857 0.175054
441.389 -245.529 1023.82 0.424027 -0.88857 0.175054
440.801 -245.652 1024.62 0.424027 -0.88857 0.175054
440.213 -245.775 1025.42 -0.0708074 -0.967548 0.242565
439.025 -244.642 1025.97 -0.161104 -0.983702 0.0798483
438.437 -244.765 1026.77 -0.0706523 -0.995841 -0.0575249
437.849 -244.888 1027.57 -0.18722 -0.940794 -0.282588
437.261 -245.011 1028.37 -0.18722 -0.940794 -0.282588
436.673 -245.134 1029.17 -0.0663567 -0.989179 -0.130847
435.298 -244.941 1029.44 -0.0679259 -0.997674 -0.00578459
434.71 -245.064 1030.24 -0.162986 -0.96522 0.204415
434.122 -245.188 1031.04 0.161095 -0.974004 0.159263
432.747 -244.995 1031.31 0.0480357 -0.983077 0.176784
432.159 -245.118 1032.11 0.0762196 -0.995583 0.0548231
430.784 -244.925 1032.38 0.186794 -0.982301 -0.0138755
430.983 -245.364 1033.7 0.202691 -0.97653 0.072842
430.395 -245.487 1034.5 0.18073 -0.983023 0.0316527
429.02 -245.294 1034.77 0.161095 -0.974004 0.159263
428.432 -245.418 1035.57 0.225394 -0.973175 0.0461347
427.844 -245.541 1036.37 0.296257 -0.95368 0.0522138
427.256 -245.664 1037.17 0.320521 -0.94617 0.0450328
426.668 -245.787 1037.97 0.349396 -0.935641 -0.0499935
426.867 -246.226 1039.3 0.349396 -0.935641 -0.0499935
426.279 -246.349 1040.1 0.320521 -0.94617 0.0450328
425.691 -246.472 1040.9 0.424027 -0.88857 0.175054
425.103 -246.595 1041.7 0.424027 -0.88857 0.175054
424.515 -246.718 1042.5 0.424027 -0.88857 0.175054
423.927 -246.841 1043.3 0.424027 -0.88857 0.175054
423.339 -246.965 1044.1 0.249923 -0.942224 0.223053
421.964 -246.772 1044.37 0.292948 -0.95555 -0.0332497
421.376 -246.895 1045.17 0.31375 -0.944076 -0.101394
421.575 -247.334 1046.5 0.442643 -0.896667 0.00746746
420.987 -247.457 1047.3 0.492079 -0.87008 0.0286232
420.399 -247.58 1048.09 0.467879 -0.880049 -0.0812575
420.598 -248.019 1049.42 0.475198 -0.879799 -0.011849
420.01 -248.142 1050.22 0.424027 -0.88857 0.175054
419.422 -248.265 1051.02 0.424027 -0.88857 0.175054
418.834 -248.388 1051.82 0.424027 -0.88857 0.175054
418.246 -248.511 1052.62 0.424027 -0.88857 0.175054
417.658 -248.635 1053.42 0.424027 -0.88857 0.175054
417.07 -248.758 1054.22 0.395125 -0.892735 -0.216566
416.482 -248.881 1055.02 0.346976 -0.913749 -0.211355
416.681 -249.32 1056.35 0.193481 -0.958507 -0.209353
416.093 -249.443 1057.15 0.153255 -0.98813 0.0106169
415.505 -249.566 1057.95 0.208207 -0.975393 0.0725093
414.917 -249.689 1058.75 0.240505 -0.909925 -0.337925
414.928 -251.069 1059.8 0.239548 -0.906036 -0.348878
414.34 -251.192 1060.59 0.120369 -0.99122 -0.0547146
413.752 -251.315 1061.39 0.208207 -0.975393 0.0725093
413.164 -251.438 1062.19 0.193481 -0.958507 -0.209353
413.363 -251.877 1063.52 0.456793 -0.845747 -0.275776
412.775 -252 1064.32 0.424027 -0.88857 0.175054
412.187 -252.123 1065.12 0.424027 -0.88857 0.175054
411.599 -252.246 1065.92 0.424027 -0.88857 0.175054
411.011 -252.369 1066.72 0.424027 -0.88857 0.175054
410.423 -252.493 1067.52 0.475198 -0.879799 -0.011849
410.622 -252.932 1068.85 0.473291 -0.87938 -0.051825
410.034 -253.055 1069.65 0.363489 -0.930441 0.0464305
409.446 -253.178 1070.45 0.471911 -0.881118 0.0305065
409.645 -253.617 1071.78 0.499962 -0.848024 0.175766
409.057 -253.74 1072.58 0.505009 -0.827918 0.243961
407.682 -253.547 1072.85 0.329484 -0.909256 0.25435
407.094 -253.67 1073.65 0.472407 -0.879333 0.0600414
407.293 -254.109 1074.98 0.768835 -0.568448 0.292849
406.705 -254.232 1075.78 0.801758 -0.514527 0.304051
406.117 -254.355 1076.57 0.682845 -0.66565 0.301053
405.529 -254.478 1077.37 0.554716 -0.821348 0.132956
404.941 -254.602 1078.17 0.430202 -0.897461 -0.0974153
405.139 -255.041 1079.5 0.344621 -0.915873 -0.205946
404.551 -255.164 1080.3 0.369406 -0.919447 -0.134745
403.963 -255.287 1081.1 0.349396 -0.935641 -0.0499935
404.162 -255.726 1082.43 0.274552 -0.952454 -0.132107
403.574 -255.849 1083.23 0.225035 -0.974301 -0.00987654
402.986 -255.972 1084.03 0.226089 -0.945494 0.234361
401.611 -255.779 1084.3 0.1716 -0.947248 0.270693
401.023 -255.902 1085.1 0.424027 -0.88857 0.175054
400.435 -256.025 1085.9 0.424027 -0.88857 0.175054
399.847 -256.148 1086.7 0.270233 -0.935564 0.227365
398.472 -255.956 1086.97 0.274444 -0.905486 0.323692
397.884 -256.079 1087.77 0.283143 -0.958476 0.0339762
398.083 -256.518 1089.1 0.386265 -0.886331 -0.255375
398.87 -256.834 1089.63 0.365901 -0.911313 -0.188747
398.282 -256.957 1090.43 0.351002 -0.929286 -0.114999
397.694 -257.08 1091.23 0.197196 -0.977499 -0.0749
397.106 -257.203 1092.02 0.184451 -0.982717 -0.015663
396.518 -257.326 1092.82 0.236396 -0.971534 -0.0154406
395.93 -257.449 1093.62 0.296257 -0.95368 0.0522138
395.342 -257.572 1094.42 0.424027 -0.88857 0.175054
394.754 -257.695 1095.22 0.424027 -0.88857 0.175054
394.166 -257.819 1096.02 0.424027 -0.88857 0.175054
393.578 -257.942 1096.82 0.355529 -0.934535 0.0156244
392.99 -258.065 1097.62 0.349396 -0.935641 -0.0499935
393.189 -258.504 1098.95 0.423213 -0.905943 -0.0125412
392.601 -258.627 1099.75 0.424027 -0.88857 0.175054
392.013 -258.75 1100.55 0.282336 -0.829542 0.481816
390.638 -258.557 1100.82 0.236531 -0.731019 0.64005
390.05 -258.68 1101.62 0.158632 -0.62449 0.764754
388.675 -258.488 1101.89 0.225057 -0.41571 0.881212
386.513 -257.979 1101.63 -0.0936963 0.00962567 0.995554
384.351 -257.47 1101.37 0.0979258 0.0390897 0.994426
381.789 -256.144 1102.19 0.0264749 0.0467521 0.998556
379.627 -255.636 1101.93 -0.134113 0.11967 0.983714
377.465 -255.127 1101.66 -0.156147 0.144966 0.977038
374.517 -254.303 1100.87 -0.07805 0.0909413 0.992793
372.355 -253.794 1100.61 0.00139459 0.156138 0.987734
370.98 -253.601 1100.88 0.0310578 0.0701466 0.997053
369.005 -252.152 1100.9 0.0911292 -0.164924 0.982087
366.256 -251.767 1101.44 0.0361786 -0.0622481 0.997405
364.881 -251.574 1101.71 -0.0115261 -0.236894 0.971467
362.719 -251.065 1101.45 0.140622 -0.31038 0.940154
361.344 -250.873 1101.72 -0.0349956 -0.316069 0.948091
359.182 -250.364 1101.46 -0.174031 -0.251357 0.95212
357.208 -248.915 1101.48 0.241702 -0.294162 0.924688
355.245 -248.845 1102.55 0.317463 -0.344546 0.883462
353.87 -248.652 1102.82 -0.0313051 -0.135239 0.990318
351.708 -248.144 1102.56 -0.135285 -0.145505 0.980064
349.546 -247.635 1102.3 -0.174031 -0.251357 0.95212
347.384 -247.127 1102.04 -0.200615 -0.142623 0.969233
344.635 -246.741 1102.57 0.0260811 -0.119942 0.992438
342.66 -245.292 1102.6 -0.0245366 -0.271054 0.962251
341.285 -245.099 1102.87 -0.03885 -0.31488 0.948336
339.123 -244.591 1102.6 -0.113419 -0.228731 0.96686
336.374 -244.205 1103.14 -0.027383 -0.253805 0.966868
334.999 -244.012 1103.41 0.0624651 -0.223114 0.972789
332.837 -243.504 1103.15 0.052892 -0.150429 0.987205
331.462 -243.311 1103.42 0.140622 -0.31038 0.940154
329.3 -242.803 1103.16 0.0298354 -0.175191 0.984082
327.525 -241.792 1104.51 0.258742 -0.331885 0.907141
326.15 -241.599 1104.78 -4.27955e-05 -0.250331 0.96816
323.988 -241.091 1104.52 -0.138983 -0.108777 0.984302
321.826 -240.582 1104.26 0.0706456 -0.101933 0.99228
319.076 -240.197 1104.8 -0.103682 -0.166359 0.980599
317.701 -240.004 1105.07 0.00661132 -0.296393 0.955043
315.54 -239.496 1104.81 -0.112885 -0.264916 0.957641
314.165 -239.303 1105.08 0.000544496 -0.299416 0.954122
311.602 -237.977 1105.9 -0.111738 -0.367091 0.923449
310.227 -237.784 1106.17 0.140622 -0.31038 0.940154
308.852 -237.591 1106.43 0.140622 -0.31038 0.940154
307.477 -237.398 1106.7 0.0747017 -0.161448 0.98405
304.728 -237.013 1107.24 -0.110977 -0.282254 0.952899
302.566 -236.504 1106.98 -0.0468704 -0.293476 0.954817
301.191 -236.312 1107.25 0.245256 -0.378176 0.892655
298.441 -235.926 1107.79 0.411448 -0.273644 0.869385
297.853 -236.049 1108.59 -0.00691809 -0.315181 0.949006
295.879 -234.6 1108.61 -0.00538014 -0.23172 0.972768
294.504 -234.407 1108.88 0.140622 -0.31038 0.940154
291.754 -234.022 1109.42 -0.0146716 -0.382317 0.923915
290.379 -233.829 1109.69 0.140622 -0.31038 0.940154
288.217 -233.32 1109.43 0.179456 -0.581362 0.793608
286.254 -233.251 1110.5 0.289311 -0.575094 0.765223
284.879 -233.058 1110.76 -0.0284565 -0.67316 0.738949
283.504 -232.865 1111.03 -0.00890139 -0.645407 0.763787
281.542 -232.796 1112.1 0.374236 -0.755711 0.537446
280.954 -232.919 1112.9 -0.0144319 -0.730552 0.682705
279.766 -231.785 1113.45 -0.0299464 -0.780807 0.624054
278.391 -231.593 1113.72 0.1716 -0.947248 0.270693
277.803 -231.716 1114.52 0.143229 -0.963915 0.224395
277.215 -231.839 1115.32 0.312016 -0.944212 0.105407
276.039 -232.085 1116.92 0.424027 -0.88857 0.175054
275.451 -232.208 1117.72 0.424027 -0.88857 0.175054
274.863 -232.331 1118.52 0.424027 -0.88857 0.175054
274.275 -232.454 1119.32 0.424027 -0.88857 0.175054
273.687 -232.578 1120.12 0.424027 -0.88857 0.175054
273.099 -232.701 1120.92 0.475198 -0.879799 -0.011849
273.298 -233.14 1122.25 0.473291 -0.87938 -0.051825
272.71 -233.263 1123.05 0.382241 -0.923983 0.0120984
272.122 -233.386 1123.85 0.708883 -0.659226 0.250813
271.534 -233.509 1124.65 0.840023 -0.520787 0.152126
271.545 -234.889 1125.69 0.9741 -0.220443 -0.05034
270.957 -235.012 1126.49 0.912544 -0.404196 0.0623667
269.781 -235.258 1128.09 0.83938 -0.464439 0.282379
269.98 -235.697 1129.42 0.959831 -0.190535 0.205963
269.392 -235.82 1130.22 0.971794 -0.191989 0.136955
269.591 -236.259 1131.55 0.786253 -0.350007 -0.509217
270.378 -236.575 1132.08 0.78704 -0.55619 0.266874
269.202 -236.821 1133.68 0.839897 -0.30439 0.449354
268.614 -236.944 1134.48 0.875193 -0.481148 0.0503363
268.813 -237.383 1135.81 0.883887 -0.449109 -0.130557
268.225 -237.506 1136.61 0.836103 -0.483248 -0.25962
268.424 -237.945 1137.94 0.467224 -0.883417 -0.0357278
489.984 -233.492 955.092 0.371063 -0.917875 -0.140777
490.182 -233.931 956.421 0.318752 -0.928816 -0.18894
489.594 -234.054 957.221 0.310947 -0.939237 -0.145417
489.006 -234.177 958.02 0.261427 -0.955944 -0.133521
489.205 -234.616 959.35 0.291176 -0.945019 -0.148846
488.617 -234.739 960.149 0.276806 -0.955508 -0.101897
488.029 -234.862 960.949 0.296257 -0.95368 0.0522138
487.441 -234.986 961.748 0.424027 -0.88857 0.175054
486.853 -235.109 962.548 0.424027 -0.88857 0.175054
486.265 -235.232 963.347 0.424027 -0.88857 0.175054
485.677 -235.355 964.146 0.259663 -0.954606 0.145957
485.089 -235.478 964.946 0.19357 -0.966906 0.166204
483.714 -235.285 965.215 0.153373 -0.968736 0.195007
483.126 -235.408 966.015 0.178998 -0.97396 0.139143
482.538 -235.532 966.814 0.252895 -0.956487 0.145524
481.95 -235.655 967.613 0.118305 -0.926921 0.35612
481.163 -235.339 967.083 0.227046 -0.903826 0.362696
480.575 -235.462 967.883 0.304596 -0.897984 0.317562
479.987 -235.585 968.682 0.424027 -0.88857 0.175054
479.399 -235.708 969.482 0.423213 -0.905943 -0.0125412
479.598 -236.147 970.811 0.199698 -0.978401 -0.0534006
479.01 -236.27 971.611 0.306197 -0.9445 -0.11901
478.422 -236.393 972.41 0.424027 -0.88857 0.175054
477.834 -236.516 973.209 0.424027 -0.88857 0.175054
477.445 -237.078 975.338 0.559748 -0.827956 -0.0342229
476.857 -237.202 976.138 0.424027 -0.88857 0.175054
476.857 -237.202 976.138 0.424027 -0.88857 0.175054
476.269 -237.325 976.937 0.301373 -0.91734 0.260119
474.894 -237.132 977.207 0.321289 -0.890957 0.320887
474.306 -237.255 978.006 0.424027 -0.88857 0.175054
473.718 -237.378 978.805 0.0348089 -0.974738 0.220623
472.343 -237.185 979.075 0.15457 -0.925955 -0.34455
471.755 -237.309 979.874 0.385688 -0.87162 -0.302528
471.954 -237.747 981.204 0.475198 -0.879799 -0.011849
471.366 -237.871 982.003 0.424027 -0.88857 0.175054
470.778 -237.994 982.802 0.508388 -0.856615 0.0880464
470.19 -238.117 983.602 0.313357 -0.929417 -0.194915
470.389 -238.556 984.932 0.529785 -0.847306 0.03743
469.801 -238.679 985.731 0.424027 -0.88857 0.175054
469.213 -238.802 986.53 0.424027 -0.88857 0.175054
468.625 -238.925 987.33 0.424027 -0.88857 0.175054
468.037 -239.048 988.129 0.424027 -0.88857 0.175054
467.449 -239.171 988.929 0.424027 -0.88857 0.175054
466.861 -239.294 989.728 0.424027 -0.88857 0.175054
466.273 -239.418 990.528 0.424027 -0.88857 0.175054
465.685 -239.541 991.327 0.442643 -0.896667 0.00746746
465.884 -239.98 992.656 0.467879 -0.880049 -0.0812575
465.296 -240.103 993.456 0.468744 -0.881672 0.0541689
464.708 -240.226 994.255 0.296257 -0.95368 0.0522138
464.12 -240.349 995.055 0.316531 -0.948037 0.032154
463.531 -240.472 995.854 0.296257 -0.95368 0.0522138
462.943 -240.595 996.654 0.424027 -0.88857 0.175054
462.355 -240.718 997.453 0.424027 -0.88857 0.175054
461.767 -240.841 998.253 0.178998 -0.97396 0.139143
461.179 -240.964 999.052 0.168727 -0.980055 0.104995
459.805 -240.772 999.321 0.0589475 -0.99632 0.0622222
460.003 -241.211 1000.65 0.170379 -0.985343 -0.00837724
459.415 -241.334 1001.45 0.121817 -0.990555 -0.0629399
458.04 -241.141 1001.72 0.165847 -0.963098 -0.211981
458.239 -241.58 1003.05 0.292966 -0.956056 -0.0113097
457.651 -241.703 1003.85 0.294762 -0.954224 -0.0507118
457.063 -241.826 1004.65 0.296257 -0.95368 0.0522138
456.475 -241.949 1005.45 0.424027 -0.88857 0.175054
455.887 -242.072 1006.25 0.424027 -0.88857 0.175054
455.299 -242.196 1007.05 0.424027 -0.88857 0.175054
454.711 -242.319 1007.85 0.424027 -0.88857 0.175054
454.123 -242.442 1008.65 0.424027 -0.88857 0.175054
453.535 -242.565 1009.44 0.424027 -0.88857 0.175054
452.947 -242.688 1010.24 0.424027 -0.88857 0.175054
452.359 -242.811 1011.04 0.424027 -0.88857 0.175054
451.771 -242.934 1011.84 0.424027 -0.88857 0.175054
451.183 -243.057 1012.64 0.424027 -0.88857 0.175054
450.595 -243.18 1013.44 0.424027 -0.88857 0.175054
450.007 -243.304 1014.24 0.424027 -0.88857 0.175054
449.419 -243.427 1015.04 0.320521 -0.94617 0.0450328
448.831 -243.55 1015.84 0.349396 -0.935641 -0.0499935
449.03 -243.989 1017.17 0.408101 -0.910265 -0.0697906
448.442 -244.112 1017.97 0.424027 -0.88857 0.175054
447.854 -244.235 1018.77 0.424027 -0.88857 0.175054
447.266 -244.358 1019.57 0.424027 -0.88857 0.175054
446.678 -244.481 1020.37 0.424027 -0.88857 0.175054
446.09 -244.604 1021.17 0.249923 -0.942224 0.223053
444.715 -244.411 1021.44 0.286486 -0.952032 0.107522
444.127 -244.535 1022.24 0.401735 -0.912246 0.0801002
444.326 -244.974 1023.56 0.205285 -0.978197 0.031432
442.951 -244.781 1023.83 0.219526 -0.940682 0.258699
442.363 -244.904 1024.63 0.424027 -0.88857 0.175054
441.775 -245.027 1025.43 0.424027 -0.88857 0.175054
441.187 -245.15 1026.23 0.499969 -0.865917 0.0147906
441.386 -245.589 1027.56 0.237369 -0.967127 0.0912193
440.011 -245.396 1027.83 -0.000998366 -0.998206 -0.0598682
439.423 -245.519 1028.63 0.177375 -0.978059 -0.109263
438.835 -245.643 1029.43 0.170704 -0.942325 0.287895
438.835 -245.643 1029.43 0.170704 -0.942325 0.287895
437.46 -245.45 1029.7 -0.109565 -0.989621 0.0929826
436.872 -245.573 1030.5 0.1292 -0.989371 -0.0667202
436.284 -245.696 1031.3 -0.122927 -0.981925 0.143919
435.096 -244.563 1031.85 -0.21359 -0.969103 0.123367
434.508 -244.686 1032.65 -0.0650287 -0.997452 -0.0293376
433.92 -244.809 1033.45 0.137806 -0.98626 -0.091112
433.332 -244.932 1034.25 -0.18722 -0.940794 -0.282588
431.957 -244.739 1034.52 0.00645725 -0.997121 0.0755457
431.369 -244.862 1035.32 -0.0665502 -0.996708 -0.0463143
430.781 -244.985 1036.12 0.0543641 -0.99843 0.0134992
430.193 -245.108 1036.92 0.0319539 -0.999377 0.0150169
429.605 -245.232 1037.72 0.424027 -0.88857 0.175054
429.017 -245.355 1038.51 0.424027 -0.88857 0.175054
428.429 -245.478 1039.31 0.424027 -0.88857 0.175054
427.841 -245.601 1040.11 0.424027 -0.88857 0.175054
427.253 -245.724 1040.91 0.424027 -0.88857 0.175054
426.665 -245.847 1041.71 0.424027 -0.88857 0.175054
426.077 -245.97 1042.51 0.424027 -0.88857 0.175054
425.489 -246.093 1043.31 0.424027 -0.88857 0.175054
424.901 -246.216 1044.11 0.424027 -0.88857 0.175054
424.313 -246.34 1044.91 0.21353 -0.976914 0.00661984
423.725 -246.463 1045.71 -0.0762616 -0.984923 -0.155275
423.137 -246.586 1046.51 0.0184709 -0.957338 -0.288379
422.549 -246.709 1047.31 0.118051 -0.958737 -0.258627
422.748 -247.148 1048.64 -0.18722 -0.940794 -0.282588
422.16 -247.271 1049.44 -0.0423559 -0.977795 -0.205237
421.572 -247.394 1050.24 0.143203 -0.957845 -0.249049
420.984 -247.517 1051.04 0.239548 -0.906036 -0.348878
420.996 -248.897 1052.08 -0.0151022 -0.994996 -0.0987652
419.808 -247.763 1052.64 -0.122927 -0.981925 0.143919
419.22 -247.886 1053.43 0.115925 -0.982824 -0.143591
418.632 -248.01 1054.23 0.239548 -0.906036 -0.348878
418.643 -249.389 1055.28 0.239548 -0.906036 -0.348878
418.055 -249.512 1056.08 0.136137 -0.968268 -0.209578
417.467 -249.636 1056.88 0.151539 -0.987072 -0.0521965
416.879 -249.759 1057.68 -0.18722 -0.940794 -0.282588
416.291 -249.882 1058.48 -0.10513 -0.897852 -0.427563
416.49 -250.321 1059.81 0.036882 -0.95243 -0.302516
415.902 -250.444 1060.61 0.28086 -0.94241 -0.181608
415.314 -250.567 1061.41 0.424027 -0.88857 0.175054
414.726 -250.69 1062.21 0.300183 -0.952364 0.0537892
414.138 -250.813 1063.01 0.473291 -0.87938 -0.051825
414.337 -251.252 1064.34 0.442643 -0.896667 0.00746746
413.749 -251.375 1065.14 0.424027 -0.88857 0.175054
413.161 -251.498 1065.93 0.424027 -0.88857 0.175054
412.573 -251.621 1066.73 0.424027 -0.88857 0.175054
411.985 -251.745 1067.53 0.468744 -0.881672 0.0541689
411.397 -251.868 1068.33 0.444569 -0.890098 -0.100417
411.596 -252.307 1069.66 0.475198 -0.879799 -0.011849
411.008 -252.43 1070.46 0.424027 -0.88857 0.175054
410.42 -252.553 1071.26 0.49831 -0.854361 0.147494
409.832 -252.676 1072.06 0.682845 -0.66565 0.301053
409.244 -252.799 1072.86 0.590049 -0.685078 0.427212
408.656 -252.922 1073.66 0.44514 -0.850923 0.27889
408.068 -253.045 1074.46 0.552353 -0.819048 0.155133
407.48 -253.168 1075.26 0.596168 -0.772203 0.219739
406.892 -253.291 1076.06 0.664739 -0.64541 0.376256
406.304 -253.415 1076.86 0.768835 -0.568448 0.292849
406.503 -253.854 1078.19 0.514587 -0.846811 -0.134579
406.702 -254.292 1079.52 0.506157 -0.827573 -0.242749
406.9 -254.731 1080.85 0.444569 -0.890098 -0.100417
406.312 -254.854 1081.65 0.382206 -0.920871 -0.0769135
405.724 -254.978 1082.44 0.455026 -0.886819 0.0806389
405.923 -255.417 1083.77 0.497451 -0.866537 0.0407066
405.335 -255.54 1084.57 0.331874 -0.89532 0.297089
403.96 -255.347 1084.84 0.301822 -0.916729 0.261747
403.372 -255.47 1085.64 0.235008 -0.895839 0.377153
402.784 -255.593 1086.44 0.26848 -0.871176 0.41106
401.409 -255.4 1086.71 0.301721 -0.909206 0.286895
400.821 -255.524 1087.51 0.54572 -0.761852 0.348957
400.233 -255.647 1088.31 0.772694 -0.620084 0.135795
400.233 -255.647 1088.31 0.772694 -0.620084 0.135795
399.645 -255.77 1089.11 0.773935 -0.627409 -0.0859218
399.844 -256.209 1090.44 0.619837 -0.757241 -0.205886
400.043 -256.648 1091.77 0.546841 -0.837206 -0.00707632
399.455 -256.771 1092.57 0.685744 -0.699602 0.200776
398.867 -256.894 1093.37 0.52271 -0.834683 0.173431
398.279 -257.017 1094.17 0.424027 -0.88857 0.175054
397.691 -257.14 1094.97 0.348253 -0.872804 0.341954
397.103 -257.263 1095.77 0.307513 -0.860868 0.405391
395.728 -257.07 1096.04 0.301822 -0.916729 0.261747
395.14 -257.194 1096.83 0.475198 -0.879799 -0.011849
395.339 -257.633 1098.16 0.469964 -0.88011 -0.0673767
394.751 -257.756 1098.96 0.294762 -0.954224 -0.0507118
394.163 -257.879 1099.76 0.296257 -0.95368 0.0522138
393.575 -258.002 1100.56 0.424027 -0.88857 0.175054
392.987 -258.125 1101.36 0.174056 -0.871342 0.458767
391.612 -257.932 1101.63 0.136253 -0.552345 0.822405
390.237 -257.74 1101.9 0.202302 -0.487174 0.84955
388.862 -257.547 1102.17 -0.0350421 -0.151327 0.987863
386.7 -257.038 1101.91 -0.12843 0.0587995 0.989974
384.539 -256.53 1101.65 0.159665 0.121598 0.979654
381.189 -254.888 1101.94 -0.0824356 0.154621 0.984529
378.241 -254.063 1101.15 -0.175425 0.143968 0.973909
376.079 -253.555 1100.89 -0.0755963 0.08579 0.993441
373.917 -253.046 1100.63 -0.0877688 0.0261949 0.995796
371.755 -252.537 1100.37 0.104878 -0.0722439 0.991858
370.567 -251.404 1100.92 0.0567802 -0.110741 0.992226
367.818 -251.019 1101.46 0.12813 -0.152788 0.979918
366.443 -250.826 1101.72 0.0985139 -0.208825 0.972979
364.281 -250.317 1101.46 -0.0106446 -0.170736 0.985259
362.906 -250.125 1101.73 0.140622 -0.31038 0.940154
361.531 -249.932 1102 0.127993 -0.186486 0.974085
359.369 -249.423 1101.74 -0.118816 -0.0854587 0.989232
357.395 -247.974 1101.76 0.249482 -0.284771 0.925562
355.432 -247.904 1102.83 0.0157721 -0.098719 0.99499
353.27 -247.396 1102.57 -0.0472776 -0.0269719 0.998518
351.895 -247.203 1102.84 -0.0335126 -0.0900688 0.995372
349.733 -246.694 1102.58 -0.155882 -0.142345 0.977465
346.785 -245.87 1101.79 0.163071 -0.313449 0.935499
344.822 -245.8 1102.86 0.0752497 -0.270808 0.959688
342.847 -244.351 1102.88 -0.02152 -0.248353 0.96843
341.472 -244.158 1103.15 0.0232746 -0.191635 0.98119
339.311 -243.65 1102.89 -0.125225 -0.205591 0.970593
336.561 -243.264 1103.43 -0.0562447 -0.276936 0.959241
334.399 -242.756 1103.16 -0.103682 -0.166359 0.980599
333.024 -242.563 1103.43 0.140622 -0.31038 0.940154
331.649 -242.37 1103.7 0.140622 -0.31038 0.940154
329.675 -240.921 1103.73 0.117794 -0.366364 0.922985
327.712 -240.851 1104.79 0.298414 -0.362804 0.882792
326.337 -240.659 1105.06 0.0232746 -0.191635 0.98119
324.175 -240.15 1104.8 -0.131334 -0.0914772 0.987109
322.013 -239.641 1104.54 0.0774213 -0.195087 0.977725
320.05 -239.572 1105.61 0.0960643 -0.22371 0.96991
317.889 -239.063 1105.35 0.140622 -0.31038 0.940154
316.514 -238.871 1105.62 -0.031778 -0.288536 0.956942
314.539 -237.421 1105.64 0.157689 -0.273843 0.948759
312.576 -237.352 1106.71 0.0651034 -0.35427 0.932874
310.414 -236.843 1106.45 0.140622 -0.31038 0.940154
309.04 -236.65 1106.72 0.140622 -0.31038 0.940154
307.665 -236.458 1106.99 0.0189925 -0.107773 0.993994
304.915 -236.072 1107.53 0.0776026 -0.216463 0.973202
302.753 -235.564 1107.26 -0.0666625 -0.366332 0.928093
301.378 -235.371 1107.53 -0.0404893 -0.354427 0.934207
298.816 -234.045 1108.35 0.01193 -0.263195 0.964669
298.228 -234.168 1109.15 0.168247 -0.209332 0.963262
296.066 -233.659 1108.89 0.140622 -0.31038 0.940154
294.691 -233.466 1109.16 0.140622 -0.31038 0.940154
291.941 -233.081 1109.7 -0.0823252 -0.404035 0.911031
290.566 -232.888 1109.97 0.140622 -0.31038 0.940154
289.191 -232.696 1110.24 -0.0613601 -0.503457 0.861839
287.228 -232.626 1111.31 0.302332 -0.705452 0.641041
285.853 -232.433 1111.58 0.103557 -0.774694 0.6238
284.479 -232.24 1111.85 -0.074641 -0.712474 0.697717
283.291 -231.107 1112.4 0.0986711 -0.636069 0.765297
282.703 -231.23 1113.2 0.400428 -0.756119 0.51763
280.74 -231.16 1114.27 0.355976 -0.804889 0.474799
280.152 -231.284 1115.07 0.424027 -0.88857 0.175054
279.564 -231.407 1115.87 0.278197 -0.955031 0.102573
278.976 -231.53 1116.67 0.19357 -0.966906 0.166204
277.601 -231.337 1116.93 0.178072 -0.956217 0.232248
277.013 -231.46 1117.73 0.311207 -0.929546 0.197724
275.837 -231.706 1119.33 0.424027 -0.88857 0.175054
275.249 -231.829 1120.13 0.424027 -0.88857 0.175054
274.661 -231.953 1120.93 0.424027 -0.88857 0.175054
274.073 -232.076 1121.73 0.591071 -0.801328 -0.0922405
274.272 -232.515 1123.06 0.661995 -0.747442 -0.0556159
273.684 -232.638 1123.86 0.540608 -0.832489 0.121261
273.096 -232.761 1124.66 0.424027 -0.88857 0.175054
272.508 -232.884 1125.46 0.424027 -0.88857 0.175054
271.92 -233.007 1126.26 0.800881 -0.59214 -0.0892153
271.931 -234.387 1127.31 0.828917 -0.529016 -0.181765
271.343 -234.51 1128.1 0.572428 -0.784535 0.238393
270.167 -234.756 1129.7 0.58871 -0.795705 0.142386
269.579 -234.879 1130.5 0.738749 -0.568948 -0.361316
271.153 -235.511 1131.56 0.659893 -0.569447 -0.490175
270.565 -235.634 1132.36 0.608445 -0.77543 0.168827
269.389 -235.88 1133.96 0.626876 -0.700803 0.340443
268.801 -236.003 1134.76 0.91748 -0.39368 0.0569754
269 -236.442 1136.09 0.883887 -0.449109 -0.130557
269.199 -236.881 1137.42 0.760198 -0.50747 -0.405677
269.986 -237.197 1137.95 0.741874 -0.636782 0.210078
268.81 -237.443 1139.55 0.901542 0.368373 -0.226988
269.597 -237.759 1140.08 0.906403 0.409849 -0.102259
270.582 -238.514 1141.94 0.79932 0.561537 -0.213924
491.546 -232.744 955.105 0.560243 -0.673923 -0.481617
491.745 -233.183 956.435 0.384464 -0.892392 -0.236272
491.943 -233.622 957.764 0.530803 -0.821507 -0.208265
491.554 -234.184 959.893 0.410126 -0.909 -0.0742693
491.554 -234.184 959.893 0.410126 -0.909 -0.0742693
490.966 -234.307 960.693 0.244871 -0.969042 -0.0315498
490.378 -234.43 961.492 0.184451 -0.982717 -0.015663
489.79 -234.553 962.292 0.184451 -0.982717 -0.015663
489.202 -234.676 963.091 0.184451 -0.982717 -0.015663
488.614 -234.8 963.89 0.126649 -0.990875 0.0461201
488.026 -234.923 964.69 0.0983889 -0.989336 0.107393
486.651 -234.73 964.959 0.196241 -0.967706 0.158226
486.063 -234.853 965.759 0.176204 -0.96889 0.173795
485.475 -234.976 966.558 0.167557 -0.963712 0.207809
484.1 -234.783 966.827 0.171251 -0.962879 0.208656
483.512 -234.907 967.627 0.288801 -0.894376 0.341593
482.924 -235.03 968.426 0.318576 -0.857225 0.404567
481.549 -234.837 968.695 0.170704 -0.942325 0.287895
481.549 -234.837 968.695 0.170704 -0.942325 0.287895
480.961 -234.96 969.495 0.275461 -0.88712 0.370323
480.572 -235.522 971.624 0.341608 -0.937023 -0.0727421
479.984 -235.645 972.423 0.278197 -0.955031 0.102573
479.396 -235.768 973.223 0.424027 -0.88857 0.175054
478.808 -235.891 974.022 0.424027 -0.88857 0.175054
478.22 -236.015 974.822 0.520578 -0.833951 0.183096
477.632 -236.138 975.621 0.786884 -0.315835 0.530152
477.044 -236.261 976.42 0.786884 -0.315835 0.530152
476.456 -236.384 977.22 0.301373 -0.91734 0.260119
476.655 -236.823 978.549 0.192304 -0.968869 0.155921
475.868 -236.507 978.019 0.310724 -0.943968 0.111244
475.28 -236.63 978.819 0.269742 -0.937022 0.221874
474.692 -236.753 979.618 0.424027 -0.88857 0.175054
474.104 -236.876 980.418 0.424027 -0.88857 0.175054
473.516 -236.999 981.217 0.424027 -0.88857 0.175054
472.928 -237.123 982.016 0.424027 -0.88857 0.175054
472.34 -237.246 982.816 0.475198 -0.879799 -0.011849
472.539 -237.685 984.145 0.550466 -0.834665 -0.0179394
471.951 -237.808 984.945 0.508388 -0.856615 0.0880464
471.363 -237.931 985.744 0.424027 -0.88857 0.175054
470.775 -238.054 986.544 0.424027 -0.88857 0.175054
470.187 -238.177 987.343 0.424027 -0.88857 0.175054
469.599 -238.3 988.143 0.424027 -0.88857 0.175054
469.011 -238.423 988.942 0.424027 -0.88857 0.175054
468.423 -238.546 989.741 0.424027 -0.88857 0.175054
467.835 -238.669 990.541 0.424027 -0.88857 0.175054
467.247 -238.793 991.34 0.424027 -0.88857 0.175054
466.659 -238.916 992.14 0.517257 -0.853465 -0.063577
466.858 -239.355 993.469 0.499969 -0.865917 0.0147906
466.27 -239.478 994.269 0.424027 -0.88857 0.175054
465.682 -239.601 995.068 0.424027 -0.88857 0.175054
465.292 -240.163 997.197 0.435847 -0.891665 -0.122353
465.292 -240.163 997.197 0.435847 -0.891665 -0.122353
464.704 -240.286 997.997 0.244871 -0.969042 -0.0315498
464.116 -240.409 998.796 0.184451 -0.982717 -0.015663
463.528 -240.532 999.595 0.119622 -0.991794 0.0451172
462.94 -240.655 1000.39 0.140907 -0.989952 0.0118545
461.566 -240.463 1000.66 0.125063 -0.990302 -0.0605137
461.764 -240.902 1001.99 0.153193 -0.988178 -0.00596881
461.176 -241.025 1002.79 0.126158 -0.991779 0.021408
459.801 -240.832 1003.06 0.117723 -0.992753 -0.0241497
459.213 -240.955 1003.86 0.261286 -0.964964 -0.0239725
459.412 -241.394 1005.19 0.340441 -0.936455 -0.0845642
458.824 -241.517 1005.99 0.30922 -0.949388 -0.0551795
458.236 -241.64 1006.79 0.184451 -0.982717 -0.015663
457.648 -241.763 1007.59 0.184451 -0.982717 -0.015663
457.06 -241.886 1008.39 0.184451 -0.982717 -0.015663
456.472 -242.01 1009.19 0.184451 -0.982717 -0.015663
455.884 -242.133 1009.99 0.184451 -0.982717 -0.015663
455.296 -242.256 1010.79 0.140788 -0.988763 0.05026
454.708 -242.379 1011.59 0.0983889 -0.989336 0.107393
453.333 -242.186 1011.86 0.19357 -0.966906 0.166204
452.745 -242.309 1012.66 0.337705 -0.941119 -0.0158222
452.157 -242.432 1013.45 0.355957 -0.932908 -0.054566
452.356 -242.871 1014.78 0.349396 -0.935641 -0.0499935
451.768 -242.994 1015.58 0.32582 -0.944326 -0.0457211
451.18 -243.117 1016.38 0.236396 -0.971534 -0.0154406
450.592 -243.241 1017.18 0.263781 -0.959664 -0.0972843
450.004 -243.364 1017.98 0.292966 -0.956056 -0.0113097
450.203 -243.803 1019.31 0.217099 -0.973715 0.0689018
448.828 -243.61 1019.58 0.27577 -0.953972 0.117851
448.24 -243.733 1020.38 0.263061 -0.948935 0.174128
447.652 -243.856 1021.18 0.424027 -0.88857 0.175054
447.064 -243.979 1021.98 0.178998 -0.97396 0.139143
446.476 -244.102 1022.78 0.204045 -0.971112 0.123724
445.101 -243.91 1023.05 0.217826 -0.975026 0.0433056
445.3 -244.349 1024.38 0.401735 -0.912246 0.0801002
444.712 -244.472 1025.18 0.286486 -0.952032 0.107522
443.337 -244.279 1025.45 0.171251 -0.962879 0.208656
442.749 -244.402 1026.25 0.394877 -0.917322 -0.0509099
442.161 -244.525 1027.05 0.416524 -0.908667 0.0288599
442.36 -244.964 1028.37 0.254883 -0.929665 0.266004
440.985 -244.771 1028.64 0.331874 -0.89532 0.297089
440.397 -244.895 1029.44 0.424027 -0.88857 0.175054
439.809 -245.018 1030.24 0.349508 -0.896548 0.272114
439.221 -245.141 1031.04 0.15371 -0.959015 0.23804
438.434 -244.825 1030.51 0.118305 -0.926921 0.35612
437.846 -244.948 1031.31 0.269742 -0.937022 0.221874
437.258 -245.071 1032.11 0.424027 -0.88857 0.175054
436.67 -245.194 1032.91 0.225177 -0.946959 0.229266
435.295 -245.001 1033.18 -0.0292303 -0.995744 -0.0873999
434.707 -245.125 1033.98 0.153255 -0.98813 0.0106169
434.119 -245.248 1034.78 0.273614 -0.9617 -0.0164131
433.531 -245.371 1035.58 0.310515 -0.948241 0.0664816
432.943 -245.494 1036.38 0.0811993 -0.996583 0.0151152
432.355 -245.617 1037.18 -0.122927 -0.981925 0.143919
431.167 -244.484 1037.73 -0.142744 -0.977129 0.157617
430.579 -244.607 1038.53 0.273614 -0.9617 -0.0164131
429.991 -244.73 1039.33 0.153255 -0.98813 0.0106169
429.403 -244.853 1040.13 0.153255 -0.98813 0.0106169
428.815 -244.976 1040.93 0.200318 -0.978276 -0.0533674
428.227 -245.099 1041.73 0.153255 -0.98813 0.0106169
427.639 -245.222 1042.53 0.200318 -0.978276 -0.0533674
427.051 -245.345 1043.32 0.153255 -0.98813 0.0106169
426.463 -245.468 1044.12 0.153255 -0.98813 0.0106169
425.875 -245.591 1044.92 0.285066 -0.900651 -0.327972
425.887 -246.971 1045.97 0.314602 -0.879948 -0.355973
425.299 -247.094 1046.77 0.183544 -0.975156 -0.124026
424.711 -247.217 1047.57 0.0112726 -0.999315 -0.0352592
424.123 -247.341 1048.37 0.0479948 -0.984332 -0.169668
424.322 -247.78 1049.7 0.118051 -0.958737 -0.258627
423.734 -247.903 1050.5 0.122021 -0.958266 -0.25853
423.146 -248.026 1051.3 -0.0111947 -0.982263 -0.187173
422.558 -248.149 1052.1 -0.057288 -0.949456 -0.308629
421.97 -248.272 1052.9 0.150929 -0.980657 -0.124627
421.382 -248.395 1053.7 -0.170368 -0.97313 -0.154893
420.794 -248.518 1054.49 -0.0111947 -0.982263 -0.187173
420.206 -248.641 1055.29 0.131606 -0.982223 -0.133858
419.618 -248.764 1056.09 0.266403 -0.943007 -0.199415
419.03 -248.887 1056.89 0.349396 -0.935641 -0.0499935
419.228 -249.326 1058.22 0.323351 -0.925436 -0.197517
418.64 -249.45 1059.02 0.290069 -0.937409 -0.192675
418.839 -249.888 1060.35 0.355957 -0.932908 -0.054566
418.251 -250.012 1061.15 0.32582 -0.944326 -0.0457211
417.663 -250.135 1061.95 0.236396 -0.971534 -0.0154406
417.075 -250.258 1062.75 0.184451 -0.982717 -0.015663
416.487 -250.381 1063.55 0.184451 -0.982717 -0.015663
415.899 -250.504 1064.35 0.263781 -0.959664 -0.0972843
415.311 -250.627 1065.15 0.340441 -0.936455 -0.0845642
415.51 -251.066 1066.48 0.355957 -0.932908 -0.054566
414.922 -251.189 1067.28 0.382241 -0.923983 0.0120984
414.334 -251.312 1068.08 0.424027 -0.88857 0.175054
413.746 -251.435 1068.88 0.424027 -0.88857 0.175054
413.158 -251.559 1069.68 0.424027 -0.88857 0.175054
412.57 -251.682 1070.48 0.355529 -0.934535 0.0156244
411.982 -251.805 1071.27 0.355957 -0.932908 -0.054566
412.181 -252.244 1072.6 0.349396 -0.935641 -0.0499935
411.593 -252.367 1073.4 0.382241 -0.923983 0.0120984
411.005 -252.49 1074.2 0.424027 -0.88857 0.175054
410.417 -252.613 1075 0.278197 -0.955031 0.102573
409.829 -252.736 1075.8 0.27577 -0.953972 0.117851
408.454 -252.543 1076.07 0.272722 -0.962069 -0.00671952
408.653 -252.982 1077.4 0.333982 -0.941784 0.0387098
408.065 -253.105 1078.2 0.484243 -0.869304 -0.0990866
407.477 -253.229 1079 0.474154 -0.871457 -0.125464
407.676 -253.667 1080.33 0.550924 -0.79583 -0.251272
407.874 -254.106 1081.66 0.591071 -0.801328 -0.0922405
407.286 -254.23 1082.46 0.424027 -0.88857 0.175054
406.698 -254.353 1083.26 0.508388 -0.856615 0.0880464
406.11 -254.476 1084.06 0.682845 -0.66565 0.301053
405.522 -254.599 1084.86 0.384567 -0.849947 0.360137
404.934 -254.722 1085.66 0.345908 -0.862457 0.369481
404.346 -254.845 1086.46 0.247129 -0.81878 0.518196
402.971 -254.652 1086.72 0.33069 -0.766955 0.549931
402.383 -254.775 1087.52 0.332363 -0.828126 0.451378
402.383 -254.775 1087.52 0.332363 -0.828126 0.451378
400.421 -254.706 1088.59 0.479364 -0.87049 0.111614
400.421 -254.706 1088.59 0.479364 -0.87049 0.111614
400.619 -255.145 1089.92 0.5875 -0.741994 -0.322937
400.818 -255.584 1091.25 0.702555 -0.696818 -0.144436
400.23 -255.707 1092.05 0.612441 -0.744318 0.266286
399.642 -255.83 1092.85 0.74619 -0.641019 0.17971
399.841 -256.269 1094.18 0.661995 -0.747442 -0.0556159
399.253 -256.392 1094.98 0.540103 -0.839299 0.0621727
398.665 -256.515 1095.78 0.262825 -0.924262 0.276879
397.29 -256.322 1096.05 0.273797 -0.867507 0.415291
396.702 -256.445 1096.85 0.500704 -0.843193 0.195757
396.114 -256.569 1097.65 0.517257 -0.853465 -0.063577
396.313 -257.008 1098.98 0.514587 -0.846811 -0.134579
396.512 -257.447 1100.31 0.34957 -0.936896 -0.00525912
395.924 -257.57 1101.11 0.638796 -0.398125 0.658359
395.336 -257.693 1101.91 0.397571 -0.740365 0.54203
393.961 -257.5 1102.17 -0.0244408 -0.641741 0.766532
391.799 -256.991 1101.91 0.0500732 -0.300505 0.952465
390.424 -256.799 1102.18 0.228831 -0.28853 0.929724
388.263 -256.29 1101.92 -0.132322 0.177479 0.975188
385.314 -255.466 1101.13 0.106808 0.0711543 0.99173
382.751 -254.139 1101.95 -0.0824356 0.154621 0.984529
380.59 -253.631 1101.69 -0.15225 0.160669 0.975195
377.641 -252.807 1100.9 -0.116428 0.00184941 0.993197
375.479 -252.298 1100.64 -0.0394578 0.0264779 0.99887
374.104 -252.105 1100.91 -0.0256463 -0.0446032 0.998676
371.942 -251.597 1100.65 0.0205262 -0.166602 0.985811
370.755 -250.463 1101.2 0.0442434 -0.139448 0.989241
368.005 -250.078 1101.74 -0.0134348 -0.0557428 0.998355
365.843 -249.569 1101.48 0.105714 -0.0962102 0.989731
365.255 -249.692 1102.28 0.0562874 -0.0929082 0.994082
363.093 -249.184 1102.02 0.105069 -0.176441 0.978687
361.718 -248.991 1102.29 -0.00661825 0.0309965 0.999498
359.557 -248.482 1102.02 -0.0689287 -0.0746581 0.994824
357.582 -247.033 1102.05 0.39762 -0.193094 0.897002
355.619 -246.963 1103.11 0.189844 -0.0939475 0.977309
353.457 -246.455 1102.85 -0.0877688 0.0261949 0.995796
351.296 -245.946 1102.59 -0.0139854 -0.0436339 0.99895
349.921 -245.754 1102.86 -0.0578172 -0.123945 0.990603
347.759 -245.245 1102.6 -0.208978 -0.153235 0.96584
345.009 -244.86 1103.14 0.0411273 -0.298122 0.953641
343.035 -243.41 1103.16 -0.0412328 -0.265147 0.963326
341.66 -243.218 1103.43 -0.0306225 -0.144225 0.989071
339.498 -242.709 1103.17 -0.0689437 -0.217446 0.973634
336.748 -242.324 1103.71 0.348788 -0.232353 0.907942
335.373 -242.131 1103.98 -0.0300603 -0.33003 0.943492
333.211 -241.622 1103.72 0.140622 -0.31038 0.940154
331.836 -241.43 1103.99 0.140622 -0.31038 0.940154
330.462 -241.237 1104.26 -0.159472 -0.260593 0.952187
327.899 -239.911 1105.08 0.341525 -0.201473 0.918025
326.524 -239.718 1105.35 -0.0350421 -0.151327 0.987863
324.362 -239.209 1105.08 -0.138983 -0.108777 0.984302
322.201 -238.701 1104.82 0.165824 -0.299675 0.93952
320.238 -238.631 1105.89 0.0866288 -0.246103 0.965365
318.076 -238.123 1105.63 -4.27955e-05 -0.250331 0.96816
316.701 -237.93 1105.9 -0.0684802 -0.355695 0.93209
314.726 -236.48 1105.92 0.148372 -0.177764 0.972824
312.763 -236.411 1106.99 0.16136 -0.259456 0.952179
310.602 -235.902 1106.73 0.140622 -0.31038 0.940154
309.227 -235.71 1107 0.140622 -0.31038 0.940154
307.065 -235.201 1106.74 0.16136 -0.259456 0.952179
305.102 -235.131 1107.81 0.160353 -0.327165 0.931262
302.94 -234.623 1107.55 -0.0747889 -0.386836 0.919111
301.753 -233.489 1108.1 -0.0415263 -0.293998 0.954903
299.003 -233.104 1108.64 -0.117924 -0.290043 0.949721
297.628 -232.911 1108.91 0.134381 -0.189706 0.972601
296.253 -232.718 1109.18 0.140622 -0.31038 0.940154
294.878 -232.526 1109.45 0.140622 -0.31038 0.940154
292.915 -232.456 1110.51 0.0898967 -0.508737 0.856216
290.753 -231.947 1110.25 0.13808 -0.426779 0.893753
289.379 -231.755 1110.52 0.147986 -0.62201 0.768898
287.416 -231.685 1111.59 0.367743 -0.781212 0.504454
286.828 -231.808 1112.39 0.295347 -0.795767 0.528702
285.453 -231.616 1112.66 0.0271461 -0.714796 0.698806
284.265 -230.482 1113.21 -0.00595869 -0.827317 0.561704
282.89 -230.289 1113.48 0.243695 -0.894724 0.374275
281.714 -230.535 1115.08 0.424027 -0.88857 0.175054
281.126 -230.659 1115.88 0.424027 -0.88857 0.175054
280.538 -230.782 1116.68 0.424027 -0.88857 0.175054
279.95 -230.905 1117.48 0.346574 -0.879817 0.325281
279.362 -231.028 1118.28 0.273797 -0.867507 0.415291
277.987 -230.835 1118.55 0.332688 -0.918695 0.212879
278.186 -231.274 1119.88 0.313311 -0.940926 0.128432
276.223 -231.205 1120.94 0.424027 -0.88857 0.175054
275.635 -231.328 1121.74 0.424027 -0.88857 0.175054
275.047 -231.451 1122.54 0.590703 -0.802369 0.0852866
274.459 -231.574 1123.34 0.661995 -0.747442 -0.0556159
274.658 -232.013 1124.67 0.591071 -0.801328 -0.0922405
274.07 -232.136 1125.47 0.424027 -0.88857 0.175054
273.482 -232.259 1126.27 0.424027 -0.88857 0.175054
272.894 -232.382 1127.07 0.552615 -0.800435 -0.232207
272.906 -233.762 1128.12 0.704383 -0.681624 -0.198074
272.318 -233.885 1128.92 0.543633 -0.799125 0.256637
271.729 -234.008 1129.72 0.594959 -0.791302 0.140943
271.141 -234.131 1130.52 0.495203 -0.855051 -0.153823
271.34 -234.57 1131.85 0.722559 -0.627738 -0.289574
271.539 -235.009 1133.18 0.660174 -0.750436 -0.0318681
270.951 -235.132 1133.97 0.424027 -0.88857 0.175054
269.775 -235.378 1135.57 0.517634 -0.849317 0.103515
269.187 -235.501 1136.37 0.707709 -0.549831 -0.44366
270.761 -236.133 1137.43 0.691546 -0.549213 -0.46918
270.173 -236.256 1138.23 0.683771 -0.662813 0.305182
268.997 -236.502 1139.83 0.845488 -0.317011 0.429714
269.784 -236.818 1140.36 0.798761 0.111595 -0.591208
269.983 -237.257 1141.69 0.888201 0.427555 -0.168214
270.181 -237.696 1143.02 0.800179 0.260231 0.540364
268.219 -237.627 1144.09 0.849502 -0.110336 0.515919
269.005 -237.942 1144.62 0.511318 0.725517 -0.460629
493.307 -232.435 956.448 0.773058 -0.524076 -0.357388
492.918 -232.997 958.577 0.617891 -0.775061 -0.132256
493.116 -233.436 959.907 0.465006 -0.883845 -0.0508559
492.528 -233.559 960.706 0.512403 -0.858628 0.0141875
492.727 -233.998 962.036 0.513307 -0.853428 -0.0904248
492.139 -234.121 962.835 0.400556 -0.916026 -0.0212565
491.551 -234.244 963.635 0.424027 -0.88857 0.175054
490.963 -234.367 964.434 0.424027 -0.88857 0.175054
490.375 -234.49 965.233 0.278197 -0.955031 0.102573
489.787 -234.614 966.033 0.19357 -0.966906 0.166204
488.412 -234.421 966.302 0.0317209 -0.982695 0.182497
487.824 -234.544 967.102 0.0436913 -0.988112 0.147397
487.824 -234.544 967.102 0.0436913 -0.988112 0.147397
486.449 -234.351 967.371 0.136499 -0.979873 0.145661
485.861 -234.474 968.17 0.0972614 -0.992751 0.0706146
485.273 -234.597 968.97 0.184451 -0.982717 -0.015663
484.685 -234.721 969.769 0.184451 -0.982717 -0.015663
484.097 -234.844 970.568 0.184451 -0.982717 -0.015663
483.509 -234.967 971.368 0.184451 -0.982717 -0.015663
482.921 -235.09 972.167 0.184451 -0.982717 -0.015663
482.333 -235.213 972.967 0.184451 -0.982717 -0.015663
481.745 -235.336 973.766 0.118744 -0.989705 0.0798996
481.157 -235.459 974.566 0.148729 -0.98768 0.0486594
479.782 -235.266 974.835 0.217099 -0.973715 0.0689018
479.981 -235.705 976.164 0.333982 -0.941784 0.0387098
479.393 -235.829 976.964 0.382241 -0.923983 0.0120984
478.805 -235.952 977.763 0.424027 -0.88857 0.175054
478.217 -236.075 978.563 0.424027 -0.88857 0.175054
477.629 -236.198 979.362 0.424027 -0.88857 0.175054
477.041 -236.321 980.162 0.249923 -0.942224 0.223053
475.666 -236.128 980.431 0.196241 -0.967706 0.158226
475.078 -236.251 981.23 0.278197 -0.955031 0.102573
474.49 -236.374 982.03 0.424027 -0.88857 0.175054
473.902 -236.498 982.829 0.424027 -0.88857 0.175054
473.314 -236.621 983.629 0.400556 -0.916026 -0.0212565
472.726 -236.744 984.428 0.513307 -0.853428 -0.0904248
472.925 -237.183 985.758 0.471911 -0.881118 0.0305065
472.337 -237.306 986.557 0.424027 -0.88857 0.175054
471.749 -237.429 987.356 0.424027 -0.88857 0.175054
