ply
format ascii 1.0
comment PCL generated
element vertex 813
property float x
property float y
property float z
property float nx
property float ny
property float nz
property float curvature
element camera 0
property float view_px
property float view_py
property float view_pz
property float x_axisx
property float x_axisy
property float x_axisz
property float y_axisx
property float y_axisy
property float y_axisz
property float z_axisx
property float z_axisy
property float z_axisz
property float focal
property float scalex
property float scaley
property float centerx
property float centery
property int viewportx
property int viewporty
property float k1
property float k2
end_header
-81 -48 764 -0.26448196 -0.87846607 -0.39792791 0.0083386963
-62 -41 654 -0.92568874 0.22264507 -0.30582604 0.0035545742
-60 -41 651 -0.47200832 0.32267308 -0.82042074 0.019567495
-59 -41 651 -0.78132749 0.31833944 -0.53683078 0.025441699
-58 -41 648 -0.7127226 0.26454192 -0.6496492 0.011062112
-57 -41 647 -0.74209148 0.18058455 -0.64551491 0.015996302
-56 -41 646 -0.72312248 0.18995444 -0.66408676 0.013220535
-55 -41 645 -0.78673124 0.27495694 -0.55267775 0.013833058
-53 -41 643 -0.80517733 0.14830163 -0.57419181 0.0093529578
-52 -41 641 -0.86051875 0.18875425 -0.47315881 0.011717735
-51 -41 639 -0.89167416 0.33705205 -0.30218041 0.0049586473
-50 -40 637 -0.80816507 0.34340155 -0.47848153 0.0072879978
-49 -40 635 -0.76917368 0.33674276 -0.54311705 0.0078931032
-48 -40 634 -0.59358954 0.31070229 -0.74237162 0.012437852
-46 -40 633 -0.70026493 0.34333429 -0.62589985 0.022341629
-45 -40 631 -0.84217006 0.36470369 -0.39716592 0.011185881
-44 -40 629 -0.84095573 0.29629117 -0.45277464 0.015004581
-43 -40 626 -0.88059741 0.14837165 -0.45003772 0.0064921277
-42 -40 625 -0.81655949 0.18624339 -0.54639167 0.010428414
-41 -40 623 -0.82755953 0.18496777 -0.53003043 0.0089256261
-40 -39 622 -0.75065267 0.15979899 -0.64108109 0.015337392
-38 -39 620 -0.77661562 0.14735189 -0.61249942 0.012948992
-37 -39 619 -0.7539351 0.18409944 -0.63062608 0.010127998
-36 -39 618 -0.76951975 0.27149582 -0.57803911 0.015021575
-35 -39 616 -0.81649655 0.40824828 -0.40824828 0
-34 -39 614 -0.8283639 0.35149565 -0.43619266 0.0039077336
-33 -39 612 -0.72624993 0.43093061 -0.53559309 0.0080311811
-32 -39 611 -0.59076941 0.48944661 -0.64143085 0.01047389
-31 -39 610 -0.74991512 0.42811835 -0.5043233 0.008254909
-30 -39 608 -0.80370677 0.39947784 -0.44099098 0.0069302949
-29 -39 607 -0.72374594 0.51316231 -0.46136349 0.035476308
-28 -38 606 -0.69633585 0.44279394 -0.56484497 0.02143383
-27 -38 605 -0.72405994 0.24991098 -0.64287001 0.015114072
-26 -38 603 -0.73772031 0.33370528 -0.58686405 0.010996018
-25 -38 602 -0.66929018 0.32264736 -0.66929018 0.014199421
-24 -38 601 -0.69932604 0.31542078 -0.64144582 0.012762624
-23 -38 600 -0.59113693 0.47178432 -0.6541993 0.035471234
-22 -38 600 -0.055616342 0.51033902 -0.85817301 0.029098129
-21 -38 600 0.17445874 0.59797007 -0.78230166 0.036313627
-20 -38 600 0.44279394 0.56484497 -0.69633585 0.02143383
-19 -38 601 0.47178435 0.59113693 -0.65419936 0.03547122
-18 -38 602 0.59848917 0.22481164 -0.76894116 0.021566542
-17 -38 602 0.50866288 0.3290467 -0.79560685 0.035606209
-16 -38 603 0.72065032 0.43329599 -0.54121882 0.018772468
-15 -38 605 0.71220183 0.37121272 -0.59579331 0.043423239
-14 -38 606 0.71143359 0.41274282 -0.56877559 0.060869366
-13 -39 607 0.65416121 0.40240207 -0.6404261 0.041473504
-12 -39 607 0.49489364 0.54572618 -0.67621249 0.036441941
-11 -39 608 0.52955109 0.53691524 -0.65673262 0.017856319
-10 -39 609 0.41985148 0.64992273 -0.6335023 0.032327402
-9 -39 610 0.56484497 0.44279394 -0.69633585 0.02143383
-8 -39 611 0.59496647 0.34170687 -0.72749662 0.019240312
-7 -39 611 0.59496647 0.34170687 -0.72749662 0.019240312
-6 -39 612 0.56484497 0.44279394 -0.69633585 0.02143383
-5 -39 613 0.53316075 0.53316075 -0.65687072 0.014216077
-4 -39 614 0.56484497 0.44279394 -0.69633585 0.02143383
-3 -39 615 0.59496647 0.34170687 -0.72749662 0.019240312
-2 -39 615 0.59496647 0.34170687 -0.72749662 0.019240312
-1 -39 616 0.56484497 0.44279394 -0.69633585 0.02143383
0 -39 617 0.53316075 0.53316075 -0.65687072 0.014216077
1 -39 618 0.64992279 0.41985145 -0.63350224 0.032327384
2 -39 619 0.67028505 0.22680624 -0.7065953 0.020447001
3 -39 620 0.74209148 0.18058455 -0.64551491 0.015996302
4 -39 621 0.69908053 0.36759421 -0.61331958 0.010287205
5 -40 623 0.77064073 0.43510523 -0.46561387 0.010225718
6 -40 624 0.65454215 0.43584082 -0.61775184 0.022268262
7 -40 625 0.46258456 0.46258456 -0.75632739 0.021831086
8 -40 625 0.59496647 0.34170687 -0.72749662 0.019240312
9 -40 626 0.56484497 0.44279394 -0.69633585 0.02143383
10 -40 627 0.53316075 0.53316075 -0.65687072 0.014216077
11 -40 628 0.60463011 0.63492721 -0.48092598 0.0069540199
12 -40 629 0.49343997 0.67946553 -0.54299498 0.0087059578
13 -40 630 0.64143085 0.48944661 -0.59076941 0.01047389
14 -40 631 0.69034028 0.42981446 -0.58197069 0.012898033
15 -40 632 0.71178532 0.40422222 -0.57442671 0.0063533718
16 -40 634 0.69908053 0.36759421 -0.61331958 0.010287205
17 -40 635 0.66929018 0.32264736 -0.66929018 0.014199421
18 -40 636 0.55736399 0.32155418 -0.76547259 0.010999016
20 -40 637 0.62470508 0.30159098 -0.72026837 0.01523817
21 -40 638 0.76580977 0.40190312 -0.50200528 0.035417702
22 -41 639 0.71374577 0.38637915 -0.58419007 0.037018392
23 -41 640 0.64772117 0.11845966 -0.75261194 0.023545962
24 -41 641 0.67092031 0.16456077 -0.72303927 0.020969678
25 -41 642 0.5646596 0.27251789 -0.77903366 0.030584496
26 -41 642 0.44279394 0.56484497 -0.69633585 0.02143383
27 -41 643 0.70069975 0.45351598 -0.55076599 0.010902056
28 -41 644 0.71178532 0.40422222 -0.57442671 0.0063533718
29 -41 646 0.6043036 0.39229843 -0.69348329 0.015708214
30 -41 646 0.68955684 0.35849959 -0.62927687 0.019044446
31 -41 648 0.58136404 0.49955478 -0.64223111 0.017568327
33 -41 649 0.59205276 0.29886726 -0.74843299 0.037442636
34 -41 650 0.70710677 -0 -0.70710677 0
35 -41 651 0.64772117 0.11845966 -0.75261194 0.023545962
36 -41 652 0.64533263 0.26173121 -0.71766466 0.028434481
37 -41 653 0.67815226 0.39052075 -0.62257767 0.01202446
38 -41 654 0.74030358 0.3221195 -0.59007597 0.022062989
39 -42 655 0.68504333 0.31744912 -0.65569943 0.020217529
40 -42 656 0.64138395 0.34531403 -0.68511671 0.021521457
42 -42 657 0.49281317 0.29983532 -0.81684387 0.017476751
43 -42 658 0.64992279 0.41985145 -0.63350224 0.032327384
44 -42 659 0.53316075 0.53316075 -0.65687072 0.014216077
45 -42 660 0.56484497 0.44279394 -0.69633585 0.02143383
46 -42 661 0.74209148 0.18058455 -0.64551491 0.015996302
47 -42 662 0.59797001 0.17445873 -0.78230172 0.036313627
48 -42 662 0.098664045 0.27388307 -0.95668876 0.050827403
49 -42 662 0.198283 0.35912463 -0.91198319 0.035820149
51 -42 663 0.34311268 0.38586923 -0.8563754 0.021533504
52 -42 664 0.46258456 0.46258456 -0.75632739 0.021831086
53 -42 664 0.64752847 0.27779615 -0.70960283 0.019897496
54 -42 666 0.85527545 0.27751026 -0.43759805 0.0036363471
55 -42 668 0.90597969 0.11572994 -0.40719444 0.0043936218
-134 -47 766 -0.14745732 -0.86874145 -0.47280505 0.02167647
-133 -47 766 -0.16661505 -0.83437228 -0.52541614 0.014561781
-132 -47 765 -0.20623507 -0.82526308 -0.52574515 0.013722605
-130 -47 765 -0.067732751 -0.82355237 -0.56318188 0.0090318182
-129 -47 764 -0.12525912 -0.90202397 -0.41311365 0.0050662034
-128 -47 764 -0.099354543 -0.89881319 -0.42692345 0.0039763115
-127 -47 764 -5.5828742e-10 -0.89442718 -0.44721359 0
-125 -47 764 0 -0.89442718 -0.44721359 0
-124 -47 764 0.16159241 -0.87039006 -0.46509036 0.0048804642
-123 -47 764 0.16240221 -0.85821271 -0.48692551 0.005392882
-122 -47 765 0.13016878 -0.80912966 -0.57303172 0.0098348456
-121 -47 765 0.1037697 -0.78072912 -0.61619312 0.0068680448
-119 -47 765 -0.040526923 -0.94235045 -0.33216435 0.0015378604
-118 -47 765 -0.10169464 -0.88289833 -0.45841989 0.0097313114
-117 -47 764 -0.079190999 -0.94837517 -0.30710486 0.0011595117
-115 -47 764 -0.079541668 -0.93484551 -0.34603032 0.0014730658
-114 -47 764 -0.10265746 -0.92560178 -0.3643114 0.0032088743
-113 -47 763 -0.092952371 -0.91644478 -0.38921571 0.0032965159
-112 -47 763 -0.062800437 -0.89760005 -0.43631437 0.0031127641
-110 -47 763 0.075322427 -0.91479468 -0.39683408 0.0026280505
-109 -47 763 0.13706127 -0.91124392 -0.38839245 0.0034345789
-108 -47 764 0.14317766 -0.78528261 -0.60235488 0.0074916324
-107 -47 764 0.05883722 -0.80871737 -0.58524722 0.0097228754
-106 -47 764 0.087729022 -0.85236841 -0.51553059 0.016565129
-104 -47 765 0.11786672 -0.76560146 -0.63242543 0.0031700553
-103 -47 765 -0.11716922 -0.81406492 -0.56883186 0.035484482
-102 -47 765 -0.17723098 -0.67330784 -0.71780616 0.014214137
-101 -47 765 -0.17945638 -0.66886973 -0.72139364 0.011899656
-99 -47 764 -0.19828498 -0.8483507 -0.49090147 0.010559545
-98 -47 763 -0.044408616 -0.89142305 -0.45099083 0.014144151
-97 -47 763 0 -0.90688229 -0.42138413 0.010283286
-96 -47 764 0.096239239 -0.85439032 -0.51064199 0.0070491484
-94 -47 764 0.1336228 -0.89693308 -0.42149264 0.008491178
-93 -47 764 0.21262322 -0.89587528 -0.39012668 0.0033329229
-92 -47 765 0.1162895 -0.73658144 -0.66627651 0.025049515
-91 -47 765 -0.11134958 -0.73770106 -0.66588169 0.023029586
-89 -47 764 -0.11946024 -0.84721076 -0.51765168 0.006548191
-88 -47 764 -0.19738893 -0.82295519 -0.53271222 0.0098038567
-87 -47 764 -0.19738893 -0.82295519 -0.53271222 0.0098038567
-86 -47 763 -0.2064023 -0.84876508 -0.48682237 0.0065418417
-84 -47 763 -0.111347 -0.90015948 -0.42108774 0.0039990069
-83 -47 762 -0.22018397 -0.90840375 -0.35541737 0.0025297077
-82 -47 762 -0.24028246 -0.90866172 -0.34146455 0.0024182831
-81 -47 761 -0.18510933 -0.9081459 -0.37550727 0.0044441819
-62 -40 655 -0.90453404 0.30151135 -0.30151135 0
-61 -40 652 -0.68934798 0.17621228 -0.70267254 0.023232745
-59 -40 651 -0.68546587 0.18096668 -0.70525712 0.035888229
-58 -40 649 -0.80432791 0.31875011 -0.50145286 0.016140051
-57 -40 648 -0.69908053 0.36759421 -0.61331958 0.010287205
-56 -40 646 -0.72405994 0.24991098 -0.64287001 0.015114072
-55 -40 645 -0.7687403 0.30831236 -0.56034082 0.010013432
-53 -40 643 -0.83572078 0.11712713 -0.53651828 0.011482477
-52 -40 641 -0.83392709 0.21174319 -0.50963753 0.0095774727
-51 -40 640 -0.87086898 0.23145233 -0.43360931 0.020889603
-50 -39 637 -0.78710109 0.34769028 -0.50949323 0.0073245591
-49 -39 636 -0.76284009 0.34178722 -0.54886824 0.012293031
-48 -39 635 -0.73759449 0.25063023 -0.6270079 0.012417031
-46 -39 633 -0.76803648 0.16604225 -0.61850619 0.014893729
-45 -39 631 -0.81299835 0.32819507 -0.48095921 0.0087079899
-44 -39 629 -0.83507174 0.34554309 -0.42808315 0.0071832347
-43 -39 627 -0.88170391 0.26112083 -0.39295551 0.0031563845
-42 -39 625 -0.78374159 0.2300652 -0.57690477 0.0086909272
-41 -39 624 -0.78673124 0.27495694 -0.55267775 0.013833058
-40 -38 622 -0.67668277 0.22838862 -0.69995648 0.01613667
-38 -38 621 -0.69272453 0.22732423 -0.68443882 0.016654953
-37 -38 619 -0.72405994 0.24991098 -0.64287001 0.015114072
-36 -38 618 -0.68654031 0.37861615 -0.62073529 0.011272222
-35 -38 617 -0.81106466 0.3453978 -0.47209576 0.0062853093
-34 -38 615 -0.85532475 0.25452876 -0.45125887 0.014803153
-33 -38 613 -0.79084247 0.27585092 -0.54632813 0.025500432
-32 -38 612 -0.68654031 0.37861615 -0.62073529 0.011272222
-31 -38 611 -0.78254336 0.23211022 -0.57771158 0.011979768
-30 -38 609 -0.83833015 0.31972906 -0.44156072 0.0056933342
-29 -38 607 -0.78245282 0.41041088 -0.46832734 0.019510768
-28 -37 606 -0.77903366 0.27251789 -0.5646596 0.030584496
-27 -37 605 -0.76344573 0.18038303 -0.62017137 0.020227075
-26 -37 604 -0.74209148 0.18058455 -0.64551491 0.015996302
-25 -37 603 -0.66929018 0.32264736 -0.66929018 0.014199421
-24 -37 602 -0.66929018 0.32264736 -0.66929018 0.014199421
-23 -37 601 -0.56484497 0.44279394 -0.69633585 0.02143383
-22 -37 600 -0.19544926 0.49698219 -0.8454634 0.033740375
-21 -37 600 0.21619098 0.41258112 -0.88489449 0.031883918
-20 -37 601 0.39442214 0.39442214 -0.82997733 0.028433036
-19 -37 601 0.47893962 0.36297411 -0.79929137 0.022924777
-18 -37 602 0.56882006 0.29393199 -0.76814562 0.032571241
-17 -37 603 0.64533263 0.26173121 -0.71766466 0.028434481
-16 -37 604 0.7383638 0.30592048 -0.6010254 0.026505647
-15 -37 605 0.70141786 0.27688211 -0.65677184 0.032441292
-14 -37 606 0.70141786 0.27688211 -0.65677184 0.032441292
-13 -38 607 0.74591273 0.44364065 -0.49678683 0.055080626
-12 -38 608 0.66052705 0.38933396 -0.64196819 0.030401843
-11 -38 610 0.48160392 0.58799797 -0.64985842 0.036733113
-10 -38 610 0.29393196 0.56882 -0.76814562 0.032571226
-9 -38 610 0.50462979 0.50462979 -0.7004981 0.033259552
-8 -38 611 0.56484497 0.44279394 -0.69633585 0.02143383
-7 -38 612 0.53316075 0.53316075 -0.65687072 0.014216077
-6 -38 613 0.53316075 0.53316075 -0.65687072 0.014216077
-5 -38 614 0.46258456 0.46258456 -0.75632739 0.021831086
-4 -38 614 0.59496647 0.34170687 -0.72749662 0.019240312
-3 -38 615 0.56484497 0.44279394 -0.69633585 0.02143383
-2 -38 616 0.53316075 0.53316075 -0.65687072 0.014216077
-1 -38 617 0.53316075 0.53316075 -0.65687072 0.014216077
0 -38 618 0.56484497 0.44279394 -0.69633585 0.02143383
1 -38 619 0.59496647 0.34170687 -0.72749662 0.019240312
2 -38 619 0.64752847 0.27779615 -0.70960283 0.019897496
3 -38 621 0.73772031 0.33370528 -0.58686405 0.010996018
4 -38 622 0.80565286 0.35248262 -0.47610861 0.013719325
5 -39 623 0.81770235 0.38497314 -0.42797038 0.0073149339
6 -39 625 0.62919867 0.40593702 -0.66281521 0.017177621
7 -39 625 0.46258456 0.46258456 -0.75632739 0.021831086
8 -39 626 0.53316075 0.53316075 -0.65687072 0.014216077
9 -39 627 0.59076941 0.48944661 -0.64143085 0.01047389
10 -39 628 0.70867097 0.46420491 -0.53131843 0.02319531
11 -39 630 0.643085 0.48736623 -0.59069103 0.032830667
12 -39 630 0.58799803 0.48160395 -0.64985842 0.036733113
13 -39 631 0.48944661 0.59076941 -0.64143085 0.01047389
14 -39 632 0.64143085 0.48944661 -0.59076941 0.01047389
15 -39 633 0.69034028 0.42981446 -0.58197069 0.012898033
16 -39 634 0.67815226 0.39052075 -0.62257767 0.01202446
17 -39 635 0.66929018 0.32264736 -0.66929018 0.014199421
18 -39 636 0.47610861 0.35248262 -0.80565286 0.013719325
20 -39 637 0.57261622 0.305554 -0.76075453 0.01630407
21 -40 639 0.7579447 0.34409276 -0.55418408 0.03555166
22 -40 640 0.51481479 0.43942538 -0.73611891 0.014231799
23 -40 640 0.59496647 0.34170687 -0.72749662 0.019240312
24 -40 641 0.66929018 0.32264736 -0.66929018 0.014199421
25 -40 642 0.56484497 0.44279394 -0.69633585 0.02143383
26 -40 643 0.53316075 0.53316075 -0.65687072 0.014216077
27 -40 644 0.64143085 0.48944661 -0.59076941 0.01047389
28 -40 645 0.70069975 0.45351598 -0.55076599 0.010902056
29 -40 646 0.6195935 0.43428403 -0.65383589 0.017569503
30 -40 647 0.65454215 0.43584082 -0.61775184 0.022268262
31 -40 648 0.50097156 0.32257241 -0.80310303 0.013108109
33 -40 649 0.58950442 0.23031683 -0.77423424 0.012022927
34 -40 650 0.66929018 0.32264736 -0.66929018 0.014199421
35 -40 651 0.66929018 0.32264736 -0.66929018 0.014199421
36 -40 652 0.66929018 0.32264736 -0.66929018 0.014199421
37 -40 653 0.69908053 0.36759421 -0.61331958 0.010287205
38 -40 655 0.67415333 0.22899792 -0.70219463 0.017186338
39 -40 655 0.64261085 0.2412924 -0.72720647 0.01554755
40 -41 656 0.57667404 0.30405712 -0.75828511 0.030531913
42 -41 657 0.56151277 0.28239763 -0.77778852 0.014362909
43 -41 659 0.63637894 0.34124404 -0.69179064 0.019290682
44 -41 660 0.59496647 0.34170687 -0.72749662 0.019240312
45 -41 660 0.59496647 0.34170687 -0.72749662 0.019240312
46 -41 661 0.66929018 0.32264736 -0.66929018 0.014199421
47 -41 662 0.56484497 0.44279394 -0.69633585 0.02143383
48 -41 663 0.26173121 0.64533263 -0.71766466 0.028434481
49 -41 663 0.21793708 0.66490859 -0.71442288 0.0092702545
51 -41 664 0.43136045 0.46685562 -0.77199346 0.018508429
52 -41 664 0.39442214 0.39442214 -0.82997733 0.028433036
53 -41 665 0.59019059 0.32963854 -0.73689455 0.053709161
54 -41 667 0.85700965 0.25417861 -0.44824973 0.0033250295
55 -41 669 0.87952679 0.2191658 -0.42237303 0.0037484202
-137 -46 763 0.12113029 -0.76051497 -0.63792199 0.0074348417
-136 -46 763 0.12113029 -0.76051497 -0.63792199 0.0074348417
-135 -46 764 -0.033401713 -0.9419021 -0.33422264 0.0068208459
-134 -46 764 -0.033401713 -0.9419021 -0.33422264 0.0068208459
-132 -46 763 -0.17209238 -0.80038446 -0.57425517 0.017096186
-131 -46 763 -0.21739566 -0.8171736 -0.53382248 0.021364238
-130 -46 762 -0.13691393 -0.79103631 -0.59625179 0.015029497
-129 -46 762 -0.10106784 -0.8397212 -0.53352928 0.020783946
-127 -46 761 -0.030121379 -0.78804576 -0.61487937 0.020355035
-126 -46 761 -0.030121379 -0.78804576 -0.61487937 0.020355035
-125 -46 762 0.12894648 -0.9222188 -0.36453438 0.0054875934
-124 -46 762 0.073497564 -0.9178589 -0.39004248 0.0088997185
-123 -46 763 0.055456623 -0.91519451 -0.39917871 0.0088681579
-121 -46 762 -0.073018491 -0.77803695 -0.62396049 0.0081730923
-120 -46 762 -0.11145356 -0.7369445 -0.66670138 0.0043734307
-119 -46 762 0.028695438 -0.83070344 -0.5559752 0.018461779
-118 -46 762 -0.10865799 -0.82641757 -0.5524739 0.015098802
-116 -46 761 -0.10993867 -0.76111782 -0.63922852 0.0038973109
-115 -46 761 -0.071615078 -0.79943019 -0.59647518 0.0082261562
-114 -46 761 0.097729243 -0.77406055 -0.62552321 0.0055518704
-113 -46 761 -0.051098742 -0.80259126 -0.59433669 0.022727931
-111 -46 760 -0.007870663 -0.74027961 -0.67225301 0.020109305
-110 -46 761 0.080749094 -0.8319152 -0.54899609 0.017443072
-109 -46 761 0.19586387 -0.81957239 -0.53845942 0.016625943
-108 -46 761 0.19809949 -0.78248698 -0.59031421 0.0094084423
-107 -46 762 0.11217508 -0.91892076 -0.37815511 0.0031394816
-105 -46 762 -0.080299899 -0.78323883 -0.61651343 0.0059381332
-104 -46 762 -0.043453064 -0.76657182 -0.64068669 0.0061283605
-103 -46 762 -0.037864547 -0.83556753 -0.54808128 0.02000043
-102 -46 762 -3.6177716e-10 -0.70710677 -0.70710677 0
-100 -46 762 -0.075922936 -0.81495434 -0.57453036 0.014982441
-99 -46 762 -0.11572994 -0.90597969 -0.40719444 0.0043936218
-98 -46 761 -0.12770833 -0.81066316 -0.5714156 0.0060737263
-97 -46 761 -0.096889801 -0.78992283 -0.60550338 0.0077606323
-95 -46 761 0.056731019 -0.79258454 -0.6071173 0.0090603083
-94 -46 761 0.17750247 -0.73034835 -0.65960908 0.0092952102
-93 -46 762 0.23907556 -0.8223474 -0.51632136 0.0216181
-92 -46 762 0.20520043 -0.8211242 -0.53258586 0.017515665
-91 -46 763 0.045265295 -0.92008704 -0.38908994 0.010456443
-89 -46 763 -0.11946024 -0.84721076 -0.51765168 0.006548191
-88 -46 763 -0.14875349 -0.82723194 -0.54181153 0.010749054
-87 -46 762 -0.2410223 -0.81363535 -0.5290612 0.0082673393
-85 -46 761 -0.22693898 -0.81729752 -0.52964467 0.0067409682
-84 -46 761 -0.1673439 -0.90749168 -0.38529828 0.0061047091
-83 -46 760 -0.25151905 -0.81432295 -0.52308339 0.016598271
-82 -46 759 -0.25801057 -0.76401305 -0.59136671 0.0095545901
-80 -46 759 -0.25383806 -0.80703384 -0.53316277 0.010786382
-79 -46 758 -0.34610063 -0.76155251 -0.54795265 0.0086192507
-62 -39 656 -0.90453404 0.30151135 -0.30151135 0
-61 -39 653 -0.8038643 0.36415136 -0.47031471 0.01851343
-59 -39 651 -0.85951513 0.30555028 -0.40972278 0.018510785
-58 -39 649 -0.74142295 0.36097541 -0.5656755 0.010775234
-57 -39 648 -0.67815226 0.39052075 -0.62257767 0.01202446
-56 -39 647 -0.75850034 0.38933417 -0.52258599 0.010571672
-55 -39 646 -0.71178532 0.40422222 -0.57442671 0.0063533718
-54 -39 644 -0.74107754 0.208028 -0.63837951 0.009727275
-52 -39 641 -0.84989196 0.096063726 -0.5181269 0.0073578823
-51 -39 640 -0.8592906 0.12217358 -0.4966822 0.0089082513
-50 -38 638 -0.7713117 0.33337808 -0.54215986 0.0087506967
-49 -38 637 -0.78212965 0.34003341 -0.52215946 0.0063382606
-48 -38 635 -0.7962395 0.27813819 -0.53725398 0.017110212
-47 -38 634 -0.69160181 0.11786939 -0.71259654 0.011841196
-45 -38 632 -0.78036445 0.17040165 -0.60165983 0.010665405
-44 -38 630 -0.83701533 0.32872865 -0.43742755 0.0032368524
-43 -38 628 -0.88846773 0.2671079 -0.37320015 0.0033675563
-42 -38 625 -0.76331103 0.23173705 -0.60303748 0.012312198
-41 -38 624 -0.81971949 0.27858123 -0.50045222 0.013139556
-40 -37 623 -0.76877505 0.42440489 -0.47839874 0.02483939
-39 -37 622 -0.50553393 0.37394449 -0.77756089 0.012727258
-37 -37 620 -0.72624993 0.43093061 -0.53559309 0.0080311811
-36 -37 619 -0.71657419 0.42685086 -0.55165184 0.013647575
-35 -37 618 -0.67786002 0.36612141 -0.6375429 0.010789894
-34 -37 615 -0.86310279 0.19215523 -0.46704382 0.010778627
-33 -37 614 -0.81492078 0.11580249 -0.56788552 0.026698265
-32 -37 612 -0.73459691 0.11778459 -0.66820216 0.019372618
-31 -37 611 -0.76256889 0.23362277 -0.60324878 0.011867974
-30 -37 609 -0.81846559 0.29979157 -0.49014193 0.004348529
-29 -37 608 -0.71209431 0.37595493 -0.59294152 0.024253096
-28 -37 607 -0.71208423 0.44474059 -0.54326957 0.029948622
-27 -36 605 -0.7004981 0.50462979 -0.50462979 0.033259545
-26 -36 604 -0.66929018 0.32264736 -0.66929018 0.014199421
-25 -36 603 -0.66929018 0.32264736 -0.66929018 0.014199421
-24 -36 602 -0.74209148 0.18058455 -0.64551491 0.015996302
-23 -36 601 -0.59797001 0.17445873 -0.78230172 0.036313627
-22 -36 601 -0.098664045 0.27388307 -0.95668876 0.050827403
-21 -36 601 0.098664045 0.27388307 -0.95668876 0.050827403
-20 -36 601 0.41158834 0.25357944 -0.87538129 0.040882058
-19 -36 602 0.59496647 0.34170687 -0.72749662 0.019240312
-18 -36 602 0.47893962 0.36297411 -0.79929137 0.022924777
-17 -36 603 0.65376133 0.13109623 -0.74525821 0.021188688
-16 -36 605 0.82756734 0.19331311 -0.52703166 0.036497764
-15 -36 605 0.74768895 0.1947677 -0.63484383 0.059838992
-14 -36 606 0.70546156 0.39742196 -0.58683884 0.034600839
-13 -37 607 0.75568926 0.26518008 -0.59884328 0.020376816
-12 -37 609 0.80774087 0.30445549 -0.50483811 0.0059463098
-11 -37 610 0.67691404 0.3102808 -0.66746765 0.036813922
-10 -37 611 0.21806315 0.51132894 -0.83125883 0.028171962
-9 -37 611 0.44279394 0.56484497 -0.69633585 0.02143383
-8 -37 612 0.53316075 0.53316075 -0.65687072 0.014216077
-7 -37 613 0.56484497 0.44279394 -0.69633585 0.02143383
-6 -37 614 0.59496647 0.34170687 -0.72749662 0.019240312
-5 -37 614 0.46258456 0.46258456 -0.75632739 0.021831086
-4 -37 615 0.53316075 0.53316075 -0.65687072 0.014216077
-3 -37 616 0.53316075 0.53316075 -0.65687072 0.014216077
-2 -37 617 0.56484497 0.44279394 -0.69633585 0.02143383
-1 -37 618 0.59496647 0.34170687 -0.72749662 0.019240312
0 -37 618 0.59496647 0.34170687 -0.72749662 0.019240312
1 -37 619 0.56484497 0.44279394 -0.69633585 0.02143383
2 -37 620 0.65454215 0.43584082 -0.61775184 0.022268262
3 -37 621 0.68654031 0.37861615 -0.62073529 0.011272222
4 -37 622 0.84453934 0.37525451 -0.38201755 0.023083907
5 -38 624 0.76899987 0.40639076 -0.49344268 0.018473383
6 -38 625 0.6195935 0.43428403 -0.65383589 0.017569503
7 -38 626 0.53316075 0.53316075 -0.65687072 0.014216077
8 -38 627 0.53316075 0.53316075 -0.65687072 0.014216077
9 -38 628 0.56484497 0.44279394 -0.69633585 0.02143383
10 -38 629 0.74209148 0.18058455 -0.64551491 0.015996302
11 -38 630 0.6712901 0.2808488 -0.6859253 0.024159104
12 -38 631 0.64992279 0.41985145 -0.63350224 0.032327384
13 -38 632 0.59076941 0.48944661 -0.64143085 0.01047389
14 -38 633 0.64143085 0.48944661 -0.59076941 0.01047389
15 -38 634 0.64143085 0.48944661 -0.59076941 0.01047389
16 -38 635 0.59076941 0.48944661 -0.64143085 0.01047389
17 -38 636 0.64540386 0.45336285 -0.61474878 0.013583099
19 -38 637 0.45815203 0.4875412 -0.74323636 0.0096671721
20 -38 638 0.65974492 0.43323132 -0.61404169 0.0089895958
21 -38 639 0.78316379 0.34563637 -0.51690418 0.024012607
22 -39 640 0.6715911 0.31216076 -0.67195314 0.030256923
23 -39 641 0.53316075 0.53316075 -0.65687072 0.014216077
24 -39 642 0.53316075 0.53316075 -0.65687072 0.014216077
25 -39 643 0.56484497 0.44279394 -0.69633585 0.02143383
26 -39 644 0.67815226 0.39052075 -0.62257767 0.01202446
27 -39 645 0.69034028 0.42981446 -0.58197069 0.012898033
28 -39 646 0.64143085 0.48944661 -0.59076941 0.01047389
29 -39 647 0.53316075 0.53316075 -0.65687072 0.014216077
30 -39 648 0.52320755 0.33927512 -0.78175843 0.020944381
32 -39 649 0.47610861 0.35248262 -0.80565286 0.013719325
33 -39 650 0.66929018 0.32264736 -0.66929018 0.014199421
34 -39 651 0.66929018 0.32264736 -0.66929018 0.014199421
35 -39 652 0.66929018 0.32264736 -0.66929018 0.014199421
36 -39 653 0.66929018 0.32264736 -0.66929018 0.014199421
37 -39 654 0.74209148 0.18058455 -0.64551491 0.015996302
38 -39 655 0.67092031 0.16456077 -0.72303927 0.020969678
39 -39 656 0.71824843 0.12113489 -0.68516105 0.02099652
40 -40 657 0.5983606 0.27258295 -0.75343424 0.026246581
42 -40 658 0.60988599 0.3395569 -0.71605879 0.036158074
43 -40 659 0.76139277 0.24961789 -0.59830761 0.011828613
44 -40 660 0.56484497 0.44279394 -0.69633585 0.02143383
45 -40 661 0.53316075 0.53316075 -0.65687072 0.014216077
46 -40 662 0.53316075 0.53316075 -0.65687072 0.014216077
47 -40 663 0.56484497 0.44279394 -0.69633585 0.02143383
48 -40 664 0.34519178 0.43668148 -0.83075386 0.030468259
50 -40 664 0.20085247 0.55019158 -0.81052303 0.019005509
51 -40 664 0.26249984 0.55885059 -0.78662568 0.018179024
52 -40 665 0.42003411 0.54894018 -0.72265905 0.029728996
53 -40 665 0.44279394 0.56484497 -0.69633585 0.02143383
54 -40 667 0.84895462 0.30205867 -0.4336319 0.0037753694
55 -40 669 0.85915595 0.28682181 -0.42377377 0.0045351773
-140 -44 762 -0.13714777 -0.82052505 -0.5549137 0.0096361758
-138 -44 761 -0.099009372 -0.90489906 -0.41395029 0.0039385227
-137 -44 761 -0.013037452 -0.80144268 -0.59792954 0.013279597
-136 -44 761 -0.0099654496 -0.82258302 -0.56855774 0.0094109355
-135 -44 761 1.101871e-09 -0.89442724 -0.44721362 0
-133 -44 761 -9.4517127e-10 -0.89442718 -0.44721359 0
-132 -44 761 -0.08786422 -0.81714779 -0.56969219 0.011049029
-131 -44 761 -0.2540068 -0.76965857 -0.58575273 0.011601008
-130 -44 760 -0.0681559 -0.84992433 -0.52247804 0.0074271681
-128 -44 760 -0.24311538 -0.66088599 -0.71001738 0.011246277
-127 -44 759 -0.30088803 -0.65531892 -0.69283736 0.0093006995
-126 -44 759 -0.12861736 -0.76582313 -0.63005745 0.015415705
-124 -44 759 0.07456214 -0.85306245 -0.51645428 0.0073505687
-123 -44 760 0.07414344 -0.86727279 -0.49228108 0.0052851872
-122 -44 760 0.060605288 -0.87809247 -0.47463748 0.0043559032
-121 -44 760 0.05286248 -0.80178529 -0.59526962 0.008234364
-120 -44 760 -0.0058359364 -0.77400792 -0.63314897 0.0074910116
-119 -44 760 -0.13095397 -0.76281381 -0.63321888 0.0036827473
-117 -44 759 -0.18986852 -0.81271011 -0.55086499 0.013129043
-116 -44 759 -0.10548535 -0.79613602 -0.59585267 0.010106187
-115 -44 759 -0.032759104 -0.79598308 -0.60443175 0.0081455642
-113 -44 759 -0.12968385 -0.77140367 -0.6229915 0.012528276
-112 -44 759 -0.09105999 -0.71029776 -0.69798654 0.018854212
-111 -44 758 -0.030681422 -0.86255026 -0.50504035 0.040323518
-110 -44 758 0.0040913848 -0.93688947 -0.34960175 0.0041895448
-109 -44 759 0.10022483 -0.75187182 -0.65164697 0.019944601
-107 -44 759 0.2035519 -0.81986046 -0.53515923 0.015412744
-106 -44 760 0.13575135 -0.79998094 -0.58446741 0.0073916512
-105 -44 760 0.07786417 -0.88287336 -0.46311098 0.0050431327
-104 -44 760 0 -0.79417109 -0.60769415 0.010085155
-103 -44 760 -0.032759104 -0.79598308 -0.60443175 0.0081455642
-101 -44 760 -0.1186356 -0.79340678 -0.5970186 0.0065995958
-100 -44 759 -0.096017689 -0.8373366 -0.53818959 0.0091641992
-99 -44 759 -0.082597725 -0.83173579 -0.54899293 0.0066906256
-98 -44 759 -0.07952363 -0.76545531 -0.6385563 0.0079666674
-96 -44 759 0.036590446 -0.79167247 -0.60984904 0.0080602868
-95 -44 759 0.064048119 -0.83021605 -0.55375004 0.018574586
-94 -44 759 0.16843762 -0.77957553 -0.60323358 0.019794442
-93 -44 760 0.16822053 -0.73781538 -0.65370518 0.0079049589
-91 -44 760 0.041813061 -0.81920761 -0.57197082 0.0073599271
-90 -44 760 2.6960945e-10 -0.89442718 -0.44721359 0
-89 -44 760 -0.076315559 -0.89891106 -0.43143347 0.0022706129
-88 -44 760 -0.11233857 -0.83627045 -0.53668582 0.0051972666
-86 -44 759 -0.24474968 -0.81892371 -0.51909685 0.0075898622
-85 -44 758 -0.14837165 -0.88059741 -0.45003772 0.0064921277
-84 -44 758 -0.13872375 -0.86643124 -0.47963804 0.0060012164
-83 -44 758 -0.19511835 -0.74307746 -0.64012867 0.013174796
-81 -44 757 -0.39336148 -0.76846147 -0.50471163 0.0015771091
-80 -44 756 -0.43167403 -0.78201729 -0.44956261 0.0017214805
-79 -44 755 -0.34942022 -0.82686996 -0.44067189 0.0022826351
-62 -38 657 -0.88316393 0.28186333 -0.37493271 0.0040181531
-61 -38 654 -0.87495345 0.36068997 -0.32304668 0.0015778716
-59 -38 652 -0.68549752 0.34604505 -0.6405825 0.013413341
-58 -38 650 -0.75241101 0.38980675 -0.53096926 0.0094593316
-57 -38 649 -0.71657419 0.42685086 -0.55165184 0.013647575
-56 -38 648 -0.75071335 0.38498566 -0.53685707 0.005991058
-55 -38 646 -0.76917368 0.33674276 -0.54311705 0.0078931032
-54 -38 645 -0.78710109 0.34769028 -0.50949323 0.0073245591
-52 -38 642 -0.89015418 0.26130953 -0.37328649 0.011225372
-51 -37 640 -0.87636292 0.24553375 -0.41436842 0.010993465
-50 -37 639 -0.76908481 0.32195795 -0.55213374 0.0057029286
-49 -37 637 -0.84445053 0.28961188 -0.45058647 0.0047901925
-48 -37 635 -0.81631678 0.18470941 -0.54727447 0.0088570109
-46 -37 633 -0.69160181 0.11786939 -0.71259654 0.011841196
-45 -37 632 -0.74568081 0.24272147 -0.62052119 0.0106171
-44 -37 631 -0.81484514 0.18464625 -0.54948431 0.011320585
-43 -37 629 -0.87513953 0.29343784 -0.38474005 0.0026740539
-42 -37 626 -0.78710109 0.34769028 -0.50949323 0.0073245591
-41 -37 625 -0.72482359 0.28467819 -0.62736678 0.0092868432
-40 -36 623 -0.83011848 0.28901178 -0.4768391 0.033533119
-39 -36 623 -0.69866836 0.26940671 -0.66278398 0.028941343
-37 -36 621 -0.61481166 0.27434927 -0.73941809 0.011993419
-36 -36 620 -0.75071335 0.38498566 -0.53685707 0.005991058
-35 -36 618 -0.80398452 0.31349185 -0.50530374 0.009248158
-34 -36 615 -0.88891047 0.11350355 -0.44379625 0.01234237
-33 -36 613 -0.77303582 0.20404631 -0.60065025 0.026919475
-32 -36 613 -0.74655098 0.17732632 -0.64126199 0.033003535
-31 -36 611 -0.79131204 0.22035578 -0.57032329 0.011483635
-30 -36 610 -0.77494097 0.34255016 -0.53115529 0.0093046073
-29 -36 608 -0.62919867 0.40593702 -0.66281521 0.017177621
-28 -36 608 -0.62919867 0.40593702 -0.66281521 0.017177621
-27 -36 606 -0.77004784 0.54143679 -0.33745009 0.020912809
-26 -35 605 -0.69633591 0.56484509 -0.44279397 0.021433847
-25 -35 604 -0.70069975 0.45351598 -0.55076599 0.010902056
-24 -35 603 -0.73768044 0.42859307 -0.52166617 0.0072740931
-23 -35 601 -0.34746653 0.39692974 -0.84953737 0.048552811
-22 -35 601 -0.04001892 0.43830782 -0.8979336 0.032736287
-21 -35 601 0.04001892 0.43830782 -0.8979336 0.032736287
-20 -35 601 0.18250036 0.44547883 -0.87649423 0.03549353
-19 -35 602 0.56882006 0.29393199 -0.76814562 0.032571241
-18 -35 603 0.59496647 0.34170687 -0.72749662 0.019240312
-17 -35 603 0.58403456 0.27965811 -0.7620334 0.023411741
-16 -35 604 0.77417433 0.21442574 -0.59554654 0.031703342
-15 -36 606 0.6446445 0.41093418 -0.6446445 0.052851256
-14 -36 607 0.69350684 0.51591295 -0.50287384 0.024948867
-13 -36 608 0.69760615 0.40000623 -0.59442455 0.01746634
-12 -36 609 0.72482359 0.28467819 -0.62736678 0.0092868432
-11 -36 611 0.58421683 0.2480164 -0.77277333 0.014970088
-10 -36 611 0.48969901 0.6058594 -0.62700015 0.039494377
-9 -36 612 0.41985148 0.64992273 -0.6335023 0.032327402
-8 -36 613 0.46258456 0.46258456 -0.75632739 0.021831086
-7 -36 613 0.59496647 0.34170687 -0.72749662 0.019240312
-6 -36 614 0.56484497 0.44279394 -0.69633585 0.02143383
-5 -36 615 0.53316075 0.53316075 -0.65687072 0.014216077
-4 -36 616 0.53316075 0.53316075 -0.65687072 0.014216077
-3 -36 617 0.46258456 0.46258456 -0.75632739 0.021831086
-2 -36 617 0.59496647 0.34170687 -0.72749662 0.019240312
-1 -36 618 0.56484497 0.44279394 -0.69633585 0.02143383
0 -36 619 0.53316075 0.53316075 -0.65687072 0.014216077
1 -36 620 0.59076941 0.48944661 -0.64143085 0.01047389
2 -36 621 0.64143085 0.48944661 -0.59076941 0.01047389
3 -36 622 0.65974498 0.61404169 -0.43323132 0.0089895884
4 -37 624 0.81086874 0.46588925 -0.35417378 0.01752344
5 -37 625 0.71657419 0.42685086 -0.55165184 0.013647575
6 -37 626 0.53316075 0.53316075 -0.65687072 0.014216077
7 -37 627 0.56484497 0.44279394 -0.69633585 0.02143383
8 -37 628 0.59496647 0.34170687 -0.72749662 0.019240312
9 -37 628 0.59496647 0.34170687 -0.72749662 0.019240312
10 -37 629 0.66929018 0.32264736 -0.66929018 0.014199421
11 -37 630 0.72405994 0.24991098 -0.64287001 0.015114072
12 -37 632 0.73772031 0.33370528 -0.58686405 0.010996018
13 -37 633 0.66929018 0.32264736 -0.66929018 0.014199421
14 -37 634 0.68654031 0.37861615 -0.62073529 0.011272222
15 -37 635 0.70069975 0.45351598 -0.55076599 0.010902056
16 -37 636 0.57735026 0.57735026 -0.57735026 0
17 -37 637 0.40201351 0.59524798 -0.69574779 0.0032540576
19 -37 638 0.46640635 0.588471 -0.66042948 0.0059462963
20 -37 639 0.64143085 0.59076941 -0.48944661 0.01047389
21 -37 640 0.71216363 0.49987447 -0.49289826 0.021808084
22 -38 641 0.64121389 0.41016963 -0.64854115 0.027926626
23 -38 642 0.66929018 0.32264736 -0.66929018 0.014199421
24 -38 643 0.59496647 0.34170687 -0.72749662 0.019240312
25 -38 643 0.59496647 0.34170687 -0.72749662 0.019240312
26 -38 644 0.69908053 0.36759421 -0.61331958 0.010287205
27 -38 646 0.73772031 0.33370528 -0.58686405 0.010996018
28 -38 647 0.66929018 0.32264736 -0.66929018 0.014199421
29 -38 648 0.59496647 0.34170687 -0.72749662 0.019240312
30 -38 648 0.55265278 0.42576936 -0.71644634 0.013220529
32 -38 649 0.51142108 0.42507428 -0.7468335 0.013946325
33 -38 650 0.66929018 0.32264736 -0.66929018 0.014199421
34 -38 651 0.64533263 0.26173121 -0.71766466 0.028434481
35 -38 652 0.67092031 0.16456077 -0.72303927 0.020969678
36 -38 653 0.70710677 -0 -0.70710677 0
37 -38 654 0.74209148 0.18058455 -0.64551491 0.015996302
38 -38 655 0.66929018 0.32264736 -0.66929018 0.014199421
39 -38 656 0.59141332 0.32128298 -0.73959953 0.022398677
40 -38 657 0.59011352 0.18571475 -0.78566921 0.022713957
42 -39 658 0.66250849 0.17072801 -0.72933841 0.048528671
43 -39 660 0.76331103 0.23173705 -0.60303748 0.012312198
44 -39 661 0.66929018 0.32264736 -0.66929018 0.014199421
45 -39 662 0.63239706 0.21338192 -0.74467587 0.050444122
46 -39 663 0.64954835 0.24043438 -0.72130316 0.052164584
47 -39 663 0.70426041 0.20360637 -0.6801188 0.038711615
48 -39 664 0.47610861 0.35248262 -0.80565286 0.013719325
50 -39 665 0.2632426 0.6670962 -0.69691187 0.0096351886
51 -39 665 0.32264736 0.66929018 -0.66929018 0.014199415
52 -39 666 0.32264736 0.66929018 -0.66929018 0.014199415
53 -39 666 0.50666898 0.61432362 -0.60489088 0.033883668
54 -39 668 0.8197428 0.35098642 -0.45258191 0.0031728847
55 -39 670 0.72168475 0.32506424 -0.61114997 0.010681468
57 -39 672 0.62229669 0.40814778 -0.66795379 0.0080475658
-142 -43 760 0.0010813244 -0.93670148 -0.35012701 0.00099208707
-141 -43 760 -0.05321401 -0.93755186 -0.34375095 0.0017515233
-139 -43 760 -0.11068767 -0.89873022 -0.42430216 0.0028258662
-138 -43 759 -0.059516676 -0.90431839 -0.42268893 0.0039413474
-137 -43 759 -0.079295836 -0.885795 -0.45725209 0.0035790454
-135 -43 759 0 -0.89442718 -0.44721359 0
-134 -43 759 0 -0.89442718 -0.44721359 0
-133 -43 759 0 -0.89442718 -0.44721359 0
-132 -43 759 -0.076446168 -0.89468318 -0.44011116 0.0051446711
-131 -43 759 -0.034415778 -0.88118899 -0.4715099 0.0056030783
-129 -43 759 -0.17271726 -0.80680776 -0.56500447 0.013319521
-128 -43 759 -0.2207741 -0.70678532 -0.67209613 0.012797177
-127 -43 758 -0.23058727 -0.85872704 -0.45762134 0.017101884
-126 -43 758 -0.12861736 -0.76582313 -0.63005745 0.015415705
-124 -43 758 0.018586745 -0.87585902 -0.48220894 0.0054621561
-123 -43 758 0.1100677 -0.86980289 -0.48096564 0.004125766
-122 -43 758 -0.091930673 -0.90683436 -0.41133934 0.0019220581
-120 -43 757 -0.039612263 -0.93645668 -0.34853956 0.0042885258
-119 -43 757 0.008809723 -0.92104536 -0.38935566 0.0046968567
-118 -43 758 -0.051316794 -0.92649728 -0.37278593 0.0071716481
-117 -43 757 -0.060020309 -0.90502322 -0.42110622 0.0051090764
-116 -43 757 -0.070663996 -0.89803344 -0.43421483 0.0040943841
-114 -43 757 -0.06469398 -0.92433321 -0.37606227 0.002207228
-113 -43 756 -0.075216286 -0.91125762 -0.40491006 0.0029696901
-112 -43 756 -0.05920472 -0.90738541 -0.41610879 0.0029859697
-111 -43 756 0 -0.89442718 -0.44721359 0
-109 -43 756 0.10472291 -0.89893752 -0.42537567 0.0040913885
-108 -43 756 0.14801148 -0.92690223 -0.34488386 0.0051755994
-107 -43 757 0.22806293 -0.88986444 -0.39513099 0.0033348582
-106 -43 758 0.18868844 -0.90829891 -0.37334934 0.0046783667
-105 -43 758 0.1509909 -0.90237623 -0.4036321 0.0033547489
-104 -43 758 0 -0.89442718 -0.44721359 0
-102 -43 758 0 -0.89442724 -0.44721362 0
-101 -43 758 -0.028688718 -0.87898672 -0.47598249 0.0059132199
-100 -43 758 -0.050399013 -0.84704763 -0.52912229 0.0063333767
-99 -43 758 -0.11065155 -0.83897281 -0.53280467 0.0055142157
-97 -43 757 -0.21941166 -0.84172106 -0.49331951 0.0033240695
-96 -43 757 -0.1248916 -0.88180786 -0.45477131 0.0086674327
-95 -43 756 0.067526609 -0.87681717 -0.47605857 0.015208053
-94 -43 757 0.11698677 -0.86793375 -0.48270592 0.012187832
-92 -43 757 0.096239239 -0.85439032 -0.51064199 0.0070491484
-91 -43 758 0.076934479 -0.88987297 -0.4496744 0.0053181788
-90 -43 758 0.10487939 -0.89086372 -0.44199792 0.0037046964
-89 -43 758 -0.094385013 -0.90288001 -0.41940346 0.0023554978
-87 -43 757 -0.15635669 -0.87469327 -0.45876393 0.0039127632
-86 -43 757 -0.16262852 -0.86382908 -0.47681361 0.005794113
-85 -43 757 -0.14500251 -0.85129094 -0.50425988 0.0049240445
-84 -43 756 -0.12303774 -0.85113764 -0.51031995 0.0043842946
-82 -43 756 -0.21745493 -0.85744131 -0.46637726 0.0056220954
-81 -43 755 -0.40824828 -0.81649655 -0.40824828 0
-80 -43 754 -0.33848965 -0.82894981 -0.44527194 0.0025149223
-78 -43 753 -0.24827985 -0.83463371 -0.49167439 0.0065455073
-61 -37 655 -0.88069588 0.26342642 -0.39367664 0.0042083203
-60 -37 653 -0.74085009 0.31225476 -0.59467477 0.012697596
-58 -37 651 -0.78591657 0.39664713 -0.47434828 0.0051310933
-57 -37 650 -0.75071335 0.38498566 -0.53685707 0.005991058
-56 -37 648 -0.80774087 0.30445549 -0.50483811 0.0059463098
-55 -37 647 -0.76139277 0.24961789 -0.59830761 0.011828613
-54 -37 646 -0.76331103 0.23173705 -0.60303748 0.012312198
-52 -37 643 -0.79968578 0.41848102 -0.43055341 0.0069487253
-51 -36 641 -0.86665064 0.39817867 -0.30061677 0.0027387517
-50 -36 639 -0.80774087 0.30445549 -0.50483811 0.0059463098
-49 -36 638 -0.79968935 0.18369989 -0.57162154 0.009205495
-48 -36 636 -0.83719963 0.29557091 -0.46014643 0.0044230158
-47 -36 634 -0.71239728 0.23478206 -0.66133767 0.011132156
-45 -36 632 -0.77661562 0.14735189 -0.61249942 0.012948992
-44 -36 631 -0.81923997 0.22542319 -0.52728575 0.01187372
-43 -36 629 -0.86592203 0.23410587 -0.44201073 0.0033470239
-42 -36 627 -0.82652605 0.35487533 -0.4369418 0.0045083133
-41 -36 625 -0.78557318 0.42087579 -0.45358387 0.013516937
-40 -36 624 -0.76847321 0.4281843 -0.47550717 0.027599942
-39 -35 623 -0.76131678 0.31367978 -0.56745207 0.037704594
-38 -35 622 -0.64802337 0.24062534 -0.72261 0.015076946
-36 -35 620 -0.78172451 0.26627219 -0.56392014 0.0072736442
-35 -35 619 -0.79963654 0.27861241 -0.53193671 0.0068226764
-34 -35 616 -0.89775848 0.22800356 -0.37688726 0.0033913206
-33 -35 614 -0.74047828 0.072758429 -0.66813028 0.02594015
-32 -35 613 -0.67092031 0.16456077 -0.72303927 0.020969678
-31 -35 612 -0.77661562 0.14735189 -0.61249942 0.012948992
-30 -35 610 -0.76917368 0.33674276 -0.54311705 0.0078931032
-29 -35 609 -0.65454215 0.43584082 -0.61775184 0.022268262
-28 -35 608 -0.63958251 0.4033033 -0.65443146 0.022033894
-27 -35 607 -0.76284009 0.34178722 -0.54886824 0.012293031
-26 -35 606 -0.7013644 0.56817895 -0.43041903 0.019951416
-25 -34 605 -0.78245282 0.41041088 -0.46832734 0.019510768
-24 -34 603 -0.64829695 0.27213591 -0.71109283 0.02018497
-23 -34 602 -0.48969901 0.6058594 -0.62700015 0.039494377
-22 -34 602 -0.16456074 0.67092031 -0.72303927 0.020969661
-21 -34 602 -0.055616342 0.51033902 -0.85817301 0.029098129
-20 -34 602 0.25357947 0.41158837 -0.87538135 0.040882058
-19 -34 602 0.59496647 0.34170687 -0.72749662 0.019240312
-18 -34 603 0.56882006 0.29393199 -0.76814562 0.032571241
-17 -34 604 0.49999997 0.49999997 -0.70710677 0.021786995
-16 -34 605 0.73351467 0.13113372 -0.66690338 0.045787167
-15 -35 606 0.73541439 0.35276437 -0.57855242 0.046137627
-14 -35 608 0.72405994 0.24991098 -0.64287001 0.015114072
-13 -35 609 0.66929018 0.32264736 -0.66929018 0.014199421
-12 -35 610 0.74209148 0.18058455 -0.64551491 0.015996302
-11 -35 611 0.80099696 0.15106185 -0.57929629 0.041710857
-10 -35 613 0.41985148 0.64992273 -0.6335023 0.032327402
-9 -35 613 0.29393196 0.56882 -0.76814562 0.032571226
-8 -35 613 0.34170687 0.59496647 -0.72749662 0.019240314
-7 -35 614 0.53316075 0.53316075 -0.65687072 0.014216077
-6 -35 615 0.59076941 0.48944661 -0.64143085 0.01047389
-5 -35 616 0.64143085 0.48944661 -0.59076941 0.01047389
-4 -35 617 0.44279394 0.56484497 -0.69633585 0.02143383
-3 -35 617 0.34170687 0.59496647 -0.72749662 0.019240314
-2 -35 618 0.53316075 0.53316075 -0.65687072 0.014216077
-1 -35 619 0.59076941 0.48944661 -0.64143085 0.01047389
0 -35 620 0.57735026 0.57735026 -0.57735026 0
1 -35 621 0.57735026 0.57735026 -0.57735026 0
2 -35 622 0.64143085 0.59076941 -0.48944661 0.01047389
3 -35 623 0.6765669 0.6313473 -0.37902221 0.011032199
4 -36 624 0.81154776 0.40069243 -0.42524803 0.011928428
5 -36 626 0.6765669 0.37902221 -0.6313473 0.011032199
6 -36 627 0.59496647 0.34170687 -0.72749662 0.019240312
7 -36 627 0.51132894 0.21806315 -0.83125883 0.028171962
8 -36 628 0.56882006 0.29393199 -0.76814562 0.032571241
9 -36 629 0.64992279 0.41985145 -0.63350224 0.032327384
10 -36 630 0.53316075 0.53316075 -0.65687072 0.014216077
11 -36 631 0.70778674 0.35096669 -0.61307436 0.025020767
12 -36 632 0.76334637 0.28889528 -0.57779056 0.012309187
13 -36 633 0.66929018 0.32264736 -0.66929018 0.014199421
14 -36 634 0.73772031 0.33370528 -0.58686405 0.010996018
15 -36 636 0.74991512 0.42811835 -0.5043233 0.008254909
16 -36 637 0.52663982 0.487896 -0.69613785 0.016857842
18 -36 638 0.42069873 0.53919852 -0.72957343 0.0038121615
19 -36 639 0.57735026 0.57735026 -0.57735026 0
20 -36 640 0.683752 0.43838799 -0.58335173 0.020857623
21 -37 641 0.66234541 0.53982681 -0.5195052 0.032930274
22 -37 641 0.59246564 0.53437841 -0.60284668 0.051331148
23 -37 642 0.66929018 0.32264736 -0.66929018 0.014199421
24 -37 643 0.56484497 0.44279394 -0.69633585 0.02143383
25 -37 644 0.53316075 0.53316075 -0.65687072 0.014216077
26 -37 645 0.69034028 0.42981446 -0.58197069 0.012898033
27 -37 646 0.67815226 0.39052075 -0.62257767 0.01202446
28 -37 647 0.66929018 0.32264736 -0.66929018 0.014199421
29 -37 648 0.56484497 0.44279394 -0.69633585 0.02143383
30 -37 649 0.45024338 0.42354283 -0.78606123 0.010066918
32 -37 650 0.62629479 0.31166002 -0.71457881 0.044384003
33 -37 651 0.66929018 0.32264736 -0.66929018 0.014199421
34 -37 652 0.59496647 0.34170687 -0.72749662 0.019240312
35 -37 652 0.59496647 0.34170687 -0.72749662 0.019240312
36 -37 653 0.72405994 0.24991098 -0.64287001 0.015114072
37 -37 655 0.72405994 0.24991098 -0.64287001 0.015114072
38 -37 656 0.66929018 0.32264736 -0.66929018 0.014199421
39 -37 657 0.55885059 0.26249984 -0.78662568 0.018179011
40 -37 657 0.41907188 0.33576962 -0.84358609 0.011451408
42 -37 658 0.6989274 0.15166067 -0.6989274 0.021550732
43 -38 660 0.74082452 0.19785351 -0.64189792 0.017230462
44 -38 661 0.70710677 -0 -0.70710677 0
45 -38 662 0.66777426 0.001543007 -0.74436218 0.030082582
46 -38 662 0.57589972 0.15226169 -0.80321598 0.045023944
47 -38 664 0.70835626 0.23782772 -0.66458219 0.038113382
49 -38 665 0.41421607 0.43280053 -0.80069268 0.029806254
50 -38 666 0.39328289 0.39328289 -0.83105785 0.04938769
51 -38 666 0.45749578 0.45749578 -0.76249278 0.049505018
52 -38 667 0.50462979 0.50462979 -0.7004981 0.033259552
53 -38 667 0.56357646 0.48596254 -0.66799849 0.035433576
54 -38 669 0.8197428 0.35098642 -0.45258191 0.0031728847
56 -38 671 0.65739959 0.43271074 -0.61691755 0.0084143849
57 -38 672 0.64062333 0.39646271 -0.65758574 0.00816702
-146 -42 758 -0.13845502 -0.77955151 -0.61084336 0.007220177
-145 -42 757 -0.064230278 -0.76645851 -0.63907421 0.0063066864
-144 -42 757 -0.082277998 -0.73644912 -0.67147082 0.0061554923
-142 -42 757 -1.1524528e-09 -0.70710677 -0.70710677 0
-141 -42 757 -4.2628995e-10 -0.70710677 -0.70710677 0
-140 -42 757 0.051207598 -0.75781822 -0.65045315 0.0067485534
-139 -42 757 0.045635045 -0.80868584 -0.58646798 0.0072012134
-138 -42 757 -0.0050374796 -0.81423157 -0.58051836 0.0082005803
-136 -42 757 0.015123013 -0.81366116 -0.58114272 0.0077336743
-135 -42 757 0.022539994 -0.81204653 -0.58315724 0.0084386766
-134 -42 757 0.050638642 -0.81949931 -0.57083851 0.009622328
-133 -42 757 -0.13717109 -0.84194529 -0.52183551 0.015850434
-131 -42 756 -0.1740697 -0.65949661 -0.73127556 0.010592666
-130 -42 756 -0.16313709 -0.65935677 -0.73391753 0.013013334
-129 -42 756 0.0085903052 -0.73839945 -0.67430878 0.019651165
-128 -42 756 0.011530205 -0.83423537 -0.55128789 0.016960535
-126 -42 755 -0.019066224 -0.74814278 -0.6632638 0.029273974
-125 -42 755 0.11991882 -0.70830327 -0.69564784 0.02733851
-124 -42 756 0.27894834 -0.76401865 -0.58177608 0.014194771
-123 -42 756 -0.065836579 -0.86286169 -0.50113392 0.029009238
-121 -42 755 -0.15291496 -0.79168659 -0.59148061 0.014770987
-120 -42 755 -0.17449315 -0.78369594 -0.5961315 0.016067076
-119 -42 755 -0.019572711 -0.81246012 -0.58268821 0.01009942
-118 -42 755 0.075803816 -0.81709003 -0.57150477 0.0064809341
-117 -42 755 -0.051098742 -0.80259126 -0.59433669 0.022727931
-115 -42 754 -0.17709675 -0.76954681 -0.61354262 0.014437952
-114 -42 754 -0.056692313 -0.71233171 -0.6995495 0.025362432
-113 -42 754 0.080947563 -0.75315547 -0.6528433 0.025713589
-111 -42 754 -0.23835097 -0.71843982 -0.65347761 0.034437459
-110 -42 754 -0.22292042 -0.77049398 -0.59719801 0.03392069
-109 -42 753 -0.16359204 -0.62457812 -0.76363587 0.027672613
-108 -42 754 0.20259511 -0.82255512 -0.53137398 0.019046141
-107 -42 755 0.36146736 -0.8178401 -0.44774872 0.013790471
-106 -42 755 0.28699526 -0.76494396 -0.57662332 0.015784828
-104 -42 756 0.1611643 -0.7826367 -0.60125351 0.036401354
-103 -42 756 -0.053253926 -0.70139414 -0.71078146 0.036507707
-102 -42 756 -0.030509492 -0.65352398 -0.75629073 0.034571178
-101 -42 756 0 -0.70710683 -0.70710683 0.040000014
-100 -42 756 -0.031866997 -0.77820116 -0.62720603 0.029693505
-98 -42 756 -0.18439445 -0.7897771 -0.58502215 0.017394027
-97 -42 755 -0.26294294 -0.76117593 -0.5928508 0.014354081
-96 -42 755 -0.19265898 -0.77827746 -0.59763432 0.010844352
-95 -42 755 0.067526609 -0.87681717 -0.47605857 0.015208053
-93 -42 756 0.18647902 -0.81674743 -0.5460304 0.0080181491
-92 -42 756 0.084632598 -0.77480423 -0.62651074 0.0090872981
-91 -42 756 0.040818211 -0.87417507 -0.48389241 0.0073510152
-90 -42 756 0.071601324 -0.87895781 -0.47149384 0.006490998
-89 -42 756 -0.16799612 -0.82088685 -0.5458225 0.011841959
-87 -42 755 -0.18728061 -0.7216475 -0.66644645 0.019037381
-86 -42 755 -0.18592183 -0.77143317 -0.60854244 0.026275083
-85 -42 755 -0.16322617 -0.80092478 -0.57608742 0.017787077
-83 -42 754 -0.22526264 -0.79701662 -0.56037599 0.010153222
-82 -42 754 -0.43215495 -0.74472845 -0.5085485 0.019329514
-81 -42 753 -0.39710504 -0.7080397 -0.58394116 0.015702909
-80 -42 752 -0.25620285 -0.64728755 -0.71789902 0.01613177
-78 -42 752 -0.21428679 -0.67869693 -0.70246106 0.012738001
-61 -36 656 -0.88985598 0.24991652 -0.38170418 0.004073706
-60 -36 654 -0.85532475 0.25452876 -0.45125887 0.014803153
-58 -36 652 -0.70260352 0.36142114 -0.61296254 0.011840906
-57 -36 650 -0.77494097 0.34255016 -0.53115529 0.0093046073
-56 -36 649 -0.81218225 0.23862219 -0.53237152 0.0069666449
-55 -36 647 -0.76951975 0.27149582 -0.57803911 0.015021575
-54 -36 646 -0.76256889 0.23362277 -0.60324878 0.011867974
-52 -36 644 -0.63848257 0.39938772 -0.65789771 0.016442973
-51 -36 642 -0.87513953 0.38474005 -0.29343784 0.0026740539
-50 -35 640 -0.84767002 0.3049134 -0.4341467 0.0059341318
-49 -35 638 -0.81655949 0.18624339 -0.54639167 0.010428414
