ply
format ascii 1.0
comment PCL generated
element vertex 960
property float x
property float y
property float z
property float nx
property float ny
property float nz
property float curvature
element camera 0
property float view_px
property float view_py
property float view_pz
property float x_axisx
property float x_axisy
property float x_axisz
property float y_axisx
property float y_axisy
property float y_axisz
property float z_axisx
property float z_axisy
property float z_axisz
property float focal
property float scalex
property float scaley
property float centerx
property float centery
property int viewportx
property int viewporty
property float k1
property float k2
end_header
-41 171 529 0.20280653 -0.77555627 -0.59781432 0.063648619
-40 171 530 0.17264462 -0.7468462 -0.64219517 0.031577267
-39 171 530 -0.11782967 -0.58265781 -0.80413067 0.043206636
-38 171 529 -0.4042339 -0.46046883 -0.79029322 0.16559155
-38 171 529 -0.4042339 -0.46046883 -0.79029322 0.16559155
-37 171 529 -0.40423396 -0.46046889 -0.79029322 0.095352218
-36 171 528 -0.44547883 -0.18250036 -0.87649423 0.03549353
-35 171 528 0 -0.53645414 -0.84392947 0.073789924
-34 171 528 -0.42699632 -0.49847972 -0.75444818 0.071108751
-33 171 528 -0.3286837 -0.66782004 -0.66781998 0.041881662
-32 171 527 0 0 -1 0
-31 171 527 -nan -nan -nan 0
-31 171 527 -nan -nan -nan 0
-30 171 527 -0 -0 -1 0
-29 171 527 0 -0.50484598 -0.86320943 0.042204034
-28 171 527 0 -0.50484598 -0.86320943 0.042204034
-27 171 527 -nan -nan -nan 0
-26 171 527 0 0 -1 0
-26 171 527 0 0 -1 0
-25 171 527 -nan -nan -nan 0
-24 171 527 0 -0.70710677 -0.70710677 0
-23 171 527 0 -0.70710677 -0.70710677 0
-22 171 527 0.11782967 -0.58265781 -0.80413067 0.043206636
-21 171 527 -nan -nan -nan 0
-20 171 527 -nan -nan -nan 0
-20 171 527 -nan -nan -nan 0
-19 171 527 -9.4982378e-10 -0.70710677 -0.70710677 0
-18 171 528 0.16380112 -0.82269222 -0.54437727 0.067659602
-17 171 528 0.40229535 -0.69418031 -0.59688544 0.076217011
-16 171 528 0.038160041 -0.38377479 -0.92263788 0.044917271
-15 171 528 -0.30908164 -0.42372128 -0.85142756 0.075115919
-15 171 528 -0.30908164 -0.42372128 -0.85142756 0.075115919
-14 171 527 -0.31382683 -0.39275551 -0.86443967 0.063505292
-13 171 528 0.3664979 -0.32897171 -0.87031996 0.079455443
-12 171 528 0.31175241 -0.37970576 -0.87099594 0.098343603
-11 171 528 0 -0.53645414 -0.84392947 0.073789924
-10 171 528 0.20782894 -0.46632531 -0.85985339 0.036062792
-9 171 529 0.44872007 -0.419842 -0.78891248 0.030712446
-9 171 529 0.44872007 -0.419842 -0.78891248 0.030712446
-8 171 529 -0.36221167 -0.61729431 -0.69839132 0.035434514
-7 171 528 -0.21619098 -0.41258112 -0.88489449 0.031883918
-6 171 528 -0.098664045 -0.27388307 -0.95668876 0.050827403
-5 171 528 0 -0.25340137 -0.96736127 0.059518497
-4 171 528 0.50598913 -0.38573956 -0.77147907 0.019817108
-3 171 529 1 -0 -0 0
-3 171 529 1 -0 -0 0
-2 172 530 0.62637413 -0.41562656 -0.65947706 0.017148018
-1 172 531 0.71358281 -0.34088558 -0.6120429 0.034817092
0 172 532 0.83125883 -0.21806312 -0.51132894 0.028171955
1 173 534 0.87659597 -0.25838208 -0.40597805 0.0083673317
2 174 536 0.90892267 -0.13825148 -0.39337781 0.0037327572
-116 174 536 1 -0 -0 0
-116 174 538 0.93762606 0.082074225 -0.33781818 0.044637699
-115 175 540 0.78840184 0.413311 -0.45562756 0.061275121
-114 175 540 0.58839065 -0.027648492 -0.80810392 0.10431246
-114 175 541 0.57480657 0.39622414 -0.71596354 0.14968124
-113 175 541 0.22299901 -0.37667435 -0.89910388 0.075631611
-112 176 542 -0 -0 -1 0
-111 176 542 -0 -0 -1 0
-110 175 541 -0 -0 -1 0
-109 175 541 -0.34640005 0.46222967 -0.81630313 0.048484053
-109 175 541 -0.34640005 0.46222967 -0.81630313 0.048484053
-108 175 540 -0.46750268 0.46406057 -0.75238889 0.013567172
-107 175 540 -0.42003411 0.54894018 -0.72265905 0.029728996
-106 175 539 -0.43898857 0.410916 -0.79902256 0.029662833
-105 175 539 -0.37380567 0.37077349 -0.85017431 0.024945391
-104 174 538 -0.11267316 0.47848126 -0.87083888 0.015318622
-103 174 538 -nan -nan -nan 0
-102 174 538 2.4315492e-09 0.70710677 -0.70710677 0
-101 175 539 -0.12483681 0.49813679 -0.85806495 0.025719501
-100 175 538 -0.47401389 0.47693568 -0.74016428 0.017047398
-99 174 537 -0 -0 -1 0
-98 174 537 -0 -0 -1 0
-98 174 537 -0 -0 -1 0
-96 174 536 -0.57693058 0.13155121 -0.80612987 0.022485532
-95 174 535 -0.40497503 0.26244596 -0.87585235 0.053316779
-95 174 535 -0.40497503 0.26244596 -0.87585235 0.053316779
-94 174 535 -0 -0 -1 0
-93 174 535 -0 -0 -1 0
-92 173 534 -0.10393997 0.39159179 -0.91424966 0.026199406
-91 173 534 -0.060375512 0.47614506 -0.87729168 0.032431111
-90 173 534 -0.11845966 0.64772111 -0.75261188 0.023545962
-89 173 534 -0.37588781 0.62223715 -0.68667996 0.014646587
-88 173 533 -0.48041314 0.37551773 -0.79258418 0.025017165
-87 173 533 -0 -0 -1 0
-87 173 533 -0 -0 -1 0
-86 173 533 -0.41957724 0.20676233 -0.88385761 0.04899871
-85 173 532 -0.3402591 0.3402591 -0.87661135 0.047077164
-84 173 532 -0 -0 -1 0
-83 173 532 -0 -0 -1 0
-82 173 532 0 0 -1 0
-81 173 532 -0.20676234 0.41957721 -0.88385761 0.048998706
-80 172 531 -0 -0 -1 0
-79 172 531 0 0 -1 0
-78 172 530 -0.46947119 -0.43729907 -0.76705039 0.072455175
-78 172 530 -0.46947119 -0.43729907 -0.76705039 0.072455175
-77 172 530 -0.40423396 -0.46046889 -0.79029322 0.095352218
-76 172 529 -0.29226467 -0.29226467 -0.91058362 0.030143613
-75 172 529 0.078601487 -0.38380015 -0.92006487 0.039125312
-74 172 529 -0.078601487 -0.38380015 -0.92006487 0.039125312
-73 172 529 -0.087147899 -0.4809725 -0.87239367 0.044462826
-72 172 529 -0 -0 -1 0
-72 172 529 -0 -0 -1 0
-71 172 529 0.10760766 -0.39440501 -0.91261452 0.03997457
-70 172 529 -0.078601487 -0.38380015 -0.92006487 0.039125312
-69 172 529 -0.098664045 -0.27388307 -0.95668876 0.050827403
-68 172 529 -0.27098498 -0.1605918 -0.94909298 0.064120024
-67 172 529 0.058314651 -0.32949793 -0.94235373 0.096543491
-66 172 529 0.043641627 -0.33673993 -0.94058579 0.1327192
-66 172 529 0.043641627 -0.33673993 -0.94058579 0.1327192
-65 172 529 -0.24564987 -0.78148323 -0.57353294 0.11695873
-64 172 529 0.23925959 -0.71741569 -0.65427023 0.10105342
-63 172 529 -0.23146975 -0.77597606 -0.58675635 0.092208058
-62 172 529 0.23146975 -0.77597606 -0.58675635 0.092208058
-61 172 529 0.019812748 -0.86378425 -0.50347215 0.096501127
-60 172 529 0 -0.87464243 -0.48476851 0.052200634
-60 172 529 0 -0.87464243 -0.48476851 0.052200634
-59 172 529 -0.13656208 -0.85406947 -0.50191253 0.034174375
-58 172 529 -0.11487623 -0.86866271 -0.48190102 0.064124696
-57 172 529 0 -0.88167459 -0.47185794 0.077469379
-56 172 529 0.22902678 -0.80493402 -0.54738289 0.055476028
-55 172 529 -0.043641627 -0.33673993 -0.94058579 0.1327192
-55 172 529 -0.043641627 -0.33673993 -0.94058579 0.1327192
-54 172 529 -0.38098451 -0.84058005 -0.38506618 0.068789251
-53 172 528 0.1543368 -0.79730934 -0.58350486 0.026182173
-52 172 529 -0.039179545 -0.76678956 -0.64070165 0.050572556
-51 172 528 -0.17264462 -0.7468462 -0.64219517 0.031577267
-50 172 528 -nan -nan -nan 0
-49 172 528 -0 -0 -1 0
-49 172 528 -0 -0 -1 0
-48 172 528 -nan -nan -nan 0
-47 172 528 0 -0.50484598 -0.86320943 0.042204034
-46 172 528 0.092846386 -0.5341593 -0.8402698 0.032659676
-45 172 528 0.35047361 -0.6622569 -0.6622569 0.022645017
-44 172 529 0.48832649 -0.22638693 -0.84278476 0.062659845
-43 172 529 -0 -0 -1 0
-43 172 529 -0 -0 -1 0
-42 172 529 0 0 -1 0
-41 172 529 0.20921431 -0.47484976 -0.85483742 0.091182463
-40 172 529 0.045207117 -0.45761698 -0.88799942 0.093429491
-39 172 529 -0.20886804 -0.42486221 -0.88083267 0.043560434
-38 172 529 -0.068695247 -0.38350573 -0.9209801 0.050180778
-38 172 529 -0.068695247 -0.38350573 -0.9209801 0.050180778
-37 172 529 -0.35445675 -0.36837518 -0.85945338 0.031576704
-36 172 528 -0.47874439 -0.3735345 -0.79452866 0.08319094
-35 172 528 -0.41252145 -0.47161883 -0.77935982 0.11056937
-34 172 528 -0.15497898 -0.54492503 -0.82403779 0.097910136
-33 171 527 -0.39860106 -0.35789323 -0.84441078 0.056502074
-32 171 527 0 0 -1 0
-31 171 527 -nan -nan -nan 0
-31 171 527 -nan -nan -nan 0
-30 171 527 -0 -0 -1 0
-29 171 527 0 -0.50484598 -0.86320943 0.042204034
-28 171 527 0 -0.50484598 -0.86320943 0.042204034
-27 171 527 -nan -nan -nan 0
-26 171 527 0 0 -1 0
-26 171 527 0 0 -1 0
-25 171 527 -nan -nan -nan 0
-24 171 527 0 -0.70710677 -0.70710677 0
-23 171 527 0 -0.70710677 -0.70710677 0
-22 171 527 0.11782967 -0.58265781 -0.80413067 0.043206636
-21 171 527 -nan -nan -nan 0
-20 171 527 -nan -nan -nan 0
-20 171 527 -nan -nan -nan 0
-19 171 527 -9.4982378e-10 -0.70710677 -0.70710677 0
-18 171 527 0.24782725 -0.68504822 -0.68504786 0.092530251
-17 171 527 0.12550697 -0.70151538 -0.7015155 0.079177879
-16 172 528 0.16242182 -0.3823089 -0.9096477 0.088577971
-15 172 528 -0.4042339 -0.46046883 -0.79029322 0.16559155
-15 172 528 -0.4042339 -0.46046883 -0.79029322 0.16559155
-14 171 527 -0.31382683 -0.39275551 -0.86443967 0.063505292
-13 171 527 0.27775201 -0.53503907 -0.79786396 0.06811019
-12 172 528 0.24179263 -0.49480465 -0.83468837 0.058444448
-11 172 528 0.13564053 -0.042702772 -0.98983741 0.094127178
-10 172 528 -0 -0 -1 0
-9 172 528 -0 -0 -1 0
-9 172 528 -0 -0 -1 0
-8 172 528 0 0 -1 0
-7 172 528 0 0 -1 0
-6 172 528 -0 -0 -1 0
-5 172 528 -0 -0 -1 0
-4 172 528 -0 -0 -1 0
-3 172 529 0.85265148 -0.17640845 -0.49179834 0.029214634
-3 172 529 0.85265148 -0.17640845 -0.49179834 0.029214634
-2 172 530 0.62637413 -0.41562656 -0.65947706 0.017148018
-1 173 531 0.74202734 -0.47347111 -0.47457406 0.012403508
0 173 532 0.79432034 -0.36260098 -0.48741755 0.019098269
1 174 534 0.90477097 -0.24582613 -0.34779137 0.0038517434
2 174 536 0.90892267 -0.13825148 -0.39337781 0.0037327572
3 175 539 0.94338191 -0.15927018 -0.29097003 0.0019534065
-116 174 535 1 -0 -0 0
-116 175 538 0.96546602 0.045436192 -0.25653636 0.027976878
-115 176 540 0.95542723 0.26141655 -0.13718687 0.069263354
-115 176 541 0.79450703 0.34157276 -0.50208223 0.062480707
-114 177 542 0.38186789 0.16516891 -0.9093383 0.035469066
-113 177 542 0 0 -1 0
-112 177 542 -0 -0 -1 0
-111 177 542 -0 -0 -1 0
-111 177 542 -0 -0 -1 0
-110 177 542 -0 -0 -1 0
-109 176 541 -0 -0 -1 0
-108 176 541 -0.1348675 0.47598037 -0.86905318 0.076987267
-107 176 541 -0.34170687 0.59496647 -0.72749662 0.019240314
-106 176 540 -0.53316075 0.53316075 -0.65687072 0.014216077
-105 176 539 -0.23592387 0.55396646 -0.79841161 0.019866215
-104 176 539 -0.085381858 0.57824057 -0.81138635 0.016284924
-103 176 539 -0 0.70710677 -0.70710677 0
-102 176 539 -0.038851086 0.46186122 -0.88610089 0.049389075
-101 176 539 -0 -0 -1 0
-100 176 539 -0.39543727 0.27861959 -0.87521458 0.037069388
-99 175 538 -0.37551773 0.48041314 -0.79258418 0.025017165
-98 175 537 -0.36881977 0.46332312 -0.80579382 0.037362985
-98 175 537 -0.36881977 0.46332312 -0.80579382 0.037362985
-97 175 537 -0.43106624 0.19663426 -0.88063431 0.015677935
-96 175 536 -0.56624812 0.27150601 -0.77823359 0.020963356
-95 174 535 -0.40497503 0.26244596 -0.87585235 0.053316779
-94 174 535 -0 -0 -1 0
-93 174 535 -0 -0 -1 0
-92 174 535 -0.046371605 0.37318984 -0.92659545 0.039492168
-91 174 535 0.04001892 0.43830782 -0.8979336 0.032736287
-90 174 535 0.04001892 0.43830782 -0.8979336 0.032736287
-89 174 535 -0.46166018 0.23652515 -0.8549419 0.035987359
-88 174 534 -0.51766235 0.41534024 -0.7480095 0.031014536
-88 174 534 -0.51766235 0.41534024 -0.7480095 0.031014536
-87 174 533 -0.23859291 0.43236688 -0.86955863 0.037916936
-86 174 533 -0 -0 -1 0
-85 174 533 -0.3402591 0.3402591 -0.87661135 0.047077164
-84 174 532 -0.26291913 0.43336418 -0.86201447 0.036925819
-83 174 532 -0 -0 -1 0
-82 174 532 -0 -0 -1 0
-81 174 532 -0 -0 -1 0
-80 173 531 -0.51621491 0.36529121 -0.77465117 0.019994225
-79 173 531 -0.55188417 -0.086052202 -0.82946908 0.036034539
-78 173 530 -0.43891478 0.11928817 -0.89057523 0.041361425
-78 173 530 -0.43891478 0.11928817 -0.89057523 0.041361425
-77 173 530 -0.25590125 0.10309691 -0.96118963 0.05931592
-76 173 529 -0.33127385 0.30461007 -0.89301193 0.029000573
-75 173 529 -0 -0 -1 0
-74 173 529 -0 -0 -1 0
-73 173 529 0 0 -1 0
-72 173 529 -0 -0 -1 0
-72 173 529 -0 -0 -1 0
-71 173 529 -0 -0 -1 0
-70 173 529 0 0 -1 0
-69 173 529 -0 -0 -1 0
-68 173 529 -0.38377479 -0.038160041 -0.92263788 0.044917271
-67 172 528 -0.07091435 -0.67857486 -0.73109996 0.12509763
-66 172 528 -0.1207079 -0.90986353 -0.39696091 0.10539147
-65 172 528 0 -0.50896031 -0.86078995 0.11935858
-65 172 528 0 -0.50896031 -0.86078995 0.11935858
-64 172 528 -0.07091435 -0.67857486 -0.73109996 0.12509763
-63 172 528 0 -0.70710689 -0.70710665 0.12500004
-62 172 528 0 -0.84392947 -0.53645414 0.073789924
-61 172 528 0.16242182 -0.90964776 -0.38230884 0.088577941
-60 172 528 0 -1 0 0
-60 172 528 0 -1 0 0
-59 172 528 0 -1 0 0
-58 172 528 -0.12736686 -0.8528828 -0.50632858 0.061704956
-57 172 528 0 -0.84392947 -0.53645414 0.073789924
-56 172 528 0.024780538 -0.9302969 -0.3659693 0.035056483
-55 172 528 -0.054782961 -0.77800363 -0.62586665 0.11186702
-54 172 528 -0.14250743 -0.85593462 -0.49705884 0.075859196
-54 172 528 -0.14250743 -0.85593462 -0.49705884 0.075859196
-53 172 528 0.1543368 -0.79730934 -0.58350486 0.026182173
-52 172 528 0 -0.77900475 -0.62701803 0.043967091
-51 172 528 -0.17264462 -0.7468462 -0.64219517 0.031577267
-50 172 528 -nan -nan -nan 0
-49 172 528 -0 -0 -1 0
-49 172 528 -0 -0 -1 0
-48 172 528 -nan -nan -nan 0
-47 172 528 0 -0.50484598 -0.86320943 0.042204034
-46 172 528 0.092846386 -0.5341593 -0.8402698 0.032659676
-45 172 528 0.35047361 -0.6622569 -0.6622569 0.022645017
-44 173 529 0.12737148 -0.5940429 -0.79428554 0.17123589
-43 173 529 0 -0.70710713 -0.70710641 0.20000009
-43 173 529 0 -0.70710713 -0.70710641 0.20000009
-42 173 529 -0.032788333 -0.29240164 -0.95573336 0.11281606
-41 173 529 -0.09857516 -0.57453865 -0.81251973 0.10650671
-40 173 529 -0.11302951 -0.72557646 -0.67879534 0.081350438
-39 173 528 -0.32798535 -0.73697615 -0.59100908 0.039612483
-38 173 528 0 -1 0 0
-37 173 528 -0.13780212 -0.91173804 -0.38696805 0.1119814
-37 173 528 -0.13780212 -0.91173804 -0.38696805 0.1119814
-36 173 528 0 -0.70710677 -0.70710677 0.16666667
-35 172 527 -0.12550697 -0.70151538 -0.7015155 0.079177879
-34 172 527 -0.09857516 -0.57453865 -0.81251973 0.10650671
-33 172 527 -0.19970061 -0.068913512 -0.97743058 0.073362298
-32 172 527 0 0 -1 0
-31 172 526 -0.5891723 -0.39273214 -0.70614266 0.024827149
-31 172 526 -0.5891723 -0.39273214 -0.70614266 0.024827149
-30 172 527 -0 -0 -1 0
-29 172 527 -0 -0 -1 0
-28 172 527 -0.20676234 -0.41957721 -0.88385761 0.048998706
-27 172 526 -0.16380112 -0.54437727 -0.82269222 0.067659602
-26 172 526 0 -0.56959492 -0.82192552 0.081866592
-26 172 527 -0.20697381 -0.60642594 -0.76773012 0.077504799
-25 172 526 -0.22638693 -0.48832649 -0.84278476 0.062659845
-24 172 526 -0.39700067 -0.56697804 -0.72175235 0.069318011
-23 172 526 -0.32727522 -0.69385433 -0.64144915 0.069416605
-22 172 526 0.50801557 -0.65115398 -0.56384271 0.052943338
-21 172 527 -0.13722003 -0.47408205 -0.86972225 0.036768988
-20 172 526 -0.51733327 -0.68171299 -0.51733327 0.12149638
-20 172 526 -0.51733327 -0.68171299 -0.51733327 0.12149638
-19 172 526 0.33959812 -0.5042305 -0.79399288 0.01794203
-18 172 527 0.20782894 -0.46632531 -0.85985339 0.036062792
-17 172 527 0.40229535 -0.59688544 -0.69418031 0.076217011
-16 172 527 0.098575205 -0.81251991 -0.57453835 0.0650874
-15 172 527 0 -0.78820544 -0.61541224 0.13076796
-15 172 527 0 -0.78820544 -0.61541224 0.13076796
-14 172 527 -0 -0 -1 0
-13 172 527 -0 -0 -1 0
-12 172 527 0.19029786 -0.31591785 -0.92950666 0.11752869
-11 172 527 0.15497898 -0.54492503 -0.82403779 0.097910136
-10 173 528 -0 -0 -1 0
-9 173 528 0 0 -1 0
-9 173 528 0 0 -1 0
-8 173 528 0 0 -1 0
-7 173 528 -0 -0 -1 0
-6 173 528 -0 -0 -1 0
-5 173 528 -0 -0 -1 0
-4 173 528 -0 -0 -1 0
-3 173 528 0.45440134 -0.45440134 -0.76618457 0.14928125
-3 173 529 0.42185903 -0.61886644 -0.66260046 0.078060381
-2 173 529 0.63497341 -0.42222518 -0.64694256 0.037475072
-1 173 530 0.73190254 -0.51363307 -0.44777206 0.014609728
0 174 531 0.83190763 -0.37308818 -0.41077363 0.014954018
1 174 533 0.89687496 -0.24836613 -0.36596388 0.0094210748
2 175 536 0.9305371 -0.048171796 -0.36301541 0.0032036735
-116 175 535 1 0 0 0
-116 176 538 0.89442718 0 -0.44721359 0
-115 177 540 1 0 0 0
-115 177 541 0.9302969 -0.024780538 -0.3659693 0.035056483
-114 177 542 0.38186789 0.16516891 -0.9093383 0.035469066
-113 177 542 0 0 -1 0
-112 177 542 -0 -0 -1 0
-111 177 542 -0 -0 -1 0
-111 177 542 -0 -0 -1 0
-110 177 542 -0 -0 -1 0
-109 177 541 -0.12512697 0.50361079 -0.85482126 0.056300528
-108 177 542 0.032095704 0.50638652 -0.86170912 0.046765037
-107 177 541 -0.39442214 0.39442214 -0.82997733 0.028433036
-106 177 541 -0.59496647 0.34170687 -0.72749662 0.019240312
-105 177 540 -0.45749578 0.45749578 -0.76249278 0.049505018
-104 177 540 0.04001892 0.43830782 -0.8979336 0.032736287
-103 177 540 0.04001892 0.43830782 -0.8979336 0.032736287
-102 177 540 -0.19544926 0.49698219 -0.8454634 0.033740375
-101 177 539 -0.36628085 0.33141711 -0.86948323 0.034707054
-100 177 539 -0.40734637 0.29090804 -0.86570287 0.057608604
-99 176 538 -0.43035722 0.24623075 -0.86842567 0.052569181
-99 176 538 -0.43035722 0.24623075 -0.86842567 0.052569181
-98 176 538 -0.10629295 0.56620389 -0.81738299 0.083944418
-97 176 537 -0.57746547 0.51397884 -0.63431799 0.020315317
-96 176 536 -0.39391005 0.3367838 -0.85522598 0.037608106
-95 176 536 -0.12925075 0.57453555 -0.80820978 0.018793302
-94 175 535 -0.20237488 0.44643766 -0.87162936 0.019673303
-93 175 535 -0 0.36252299 -0.93197477 0.038873989
-92 175 535 -0.024780538 0.3659693 -0.9302969 0.035056483
-91 175 535 0.04001892 0.43830782 -0.8979336 0.032736287
-90 175 535 -0.098664045 0.27388307 -0.95668876 0.050827403
-89 175 535 -0.50191253 0.13656208 -0.85406947 0.034174375
-88 175 534 -0.43891478 0.11928817 -0.89057523 0.041361425
-88 175 534 -0.43891478 0.11928817 -0.89057523 0.041361425
-87 175 534 -0.49651775 0.3137919 -0.80932367 0.026199382
-86 175 533 -0.3402591 0.3402591 -0.87661135 0.047077164
-85 175 533 -0.24603061 0.24603061 -0.93751687 0.039129525
-84 175 533 -0.25587437 0.32670644 -0.90983027 0.034770772
-83 174 532 -0 -0 -1 0
-82 174 532 -0 -0 -1 0
-81 174 532 -0 -0 -1 0
-80 174 532 -0.41382968 0.33922759 -0.84478974 0.042925838
-80 174 532 -0.41382968 0.33922759 -0.84478974 0.042925838
-79 174 531 -0.6120429 0.34088561 -0.71358287 0.034817096
-78 174 530 -0.43336409 0.2629191 -0.86201453 0.036925785
-77 174 530 -0 -0 -1 0
-76 174 530 -0 -0 -1 0
-75 173 529 -0 -0 -1 0
-74 173 529 -0 -0 -1 0
-73 173 529 0 0 -1 0
-72 173 529 -0 -0 -1 0
-72 173 529 -0 -0 -1 0
-71 173 529 -0 -0 -1 0
-70 173 529 0 0 -1 0
-69 174 529 0 0 -1 0
-68 174 529 -0.3835057 0.06869524 -0.9209801 0.05018077
-67 173 528 -0.44995117 -0.12950236 -0.88361365 0.063418202
-66 173 528 0 0 -1 0
-65 173 528 -0 -0 -1 0
-65 173 528 -0 -0 -1 0
-64 173 528 0 0 -1 0
-63 173 528 -0.49489364 -0.54572618 -0.67621249 0.036441941
-62 173 527 -0.31797159 -0.5080114 -0.80051136 0.045052245
-61 173 527 0 -0.53645414 -0.84392947 0.073789924
-60 173 527 -0.015145767 -0.36014575 -0.93277311 0.088255331
-59 173 527 0.13780212 -0.38696802 -0.91173804 0.1119814
-59 173 527 0.13780212 -0.38696802 -0.91173804 0.1119814
-58 173 527 -0.16242182 -0.3823089 -0.9096477 0.088577971
-57 173 527 0 -0.53645414 -0.84392947 0.073789924
-56 173 527 0.12736686 -0.50632858 -0.8528828 0.061704956
-55 173 527 0 -0.53645414 -0.84392947 0.073789924
-54 173 527 -0.16857243 -0.58721584 -0.79168224 0.054372292
-53 173 527 0 -0.48476854 -0.87464249 0.052200634
-53 173 527 0 -0.48476854 -0.87464249 0.052200634
-52 173 527 0.16857243 -0.58721584 -0.79168224 0.054372292
-51 173 527 -0.32727522 -0.64144915 -0.69385433 0.069416605
-50 173 527 -0.18012434 -0.78182453 -0.59691334 0.048743557
-49 173 527 -0.016676094 -0.87260002 -0.48815075 0.043412577
-48 173 527 0.11463674 -0.85696548 -0.50246251 0.043079123
-48 173 527 0.11463674 -0.85696548 -0.50246251 0.043079123
-47 173 527 -0.10760766 -0.91261452 -0.39440501 0.03997457
-46 173 527 0.12766325 -0.86835819 -0.47922447 0.033599176
-45 173 527 0.50801557 -0.65115398 -0.56384271 0.052943338
-44 173 528 0.42297059 -0.79275393 -0.43890432 0.068774991
-43 173 528 0 -0.78820544 -0.61541224 0.13076796
-43 173 528 0 -0.78820544 -0.61541224 0.13076796
-42 173 528 -0.16242182 -0.90964776 -0.38230884 0.088577941
-41 173 528 0 -0.84392947 -0.53645414 0.073789924
-40 173 528 -0.16857243 -0.79168224 -0.58721584 0.054372292
-39 173 528 -0.32798535 -0.73697615 -0.59100908 0.039612483
-38 173 527 -0.12737148 -0.7942856 -0.5940429 0.17123589
-37 173 527 0.22730374 -0.78545487 -0.57566804 0.15600024
-37 173 527 0.22730374 -0.78545487 -0.57566804 0.15600024
-36 173 527 0.032788333 -0.95573336 -0.29240164 0.11281606
-35 173 527 -0.1605918 -0.27098498 -0.94909298 0.064120024
-34 173 527 0.068913512 -0.19970061 -0.97743058 0.073362306
-33 173 527 0 -0.19611613 -0.98058063 0.085714288
-32 173 527 -0.44721365 0 -0.89442712 0.036144629
-31 173 526 -nan -nan -nan 0
-31 173 526 -nan -nan -nan 0
-30 173 527 0.26095653 -0.26095653 -0.92941022 0.14384478
-29 173 526 -0.20271388 -0.33741549 -0.91927028 0.052133143
-28 173 526 0 0 -1 0
-27 173 526 -0.19689849 -0.25964174 -0.94541901 0.078944109
-26 173 526 -0 -0 -1 0
-25 173 526 0 0 -1 0
-25 173 526 0 0 -1 0
-24 173 526 -0.52381176 -0.35495353 -0.77435732 0.049057811
-23 172 525 -0.12550697 -0.70151538 -0.7015155 0.079177879
-22 172 525 0.34344709 -0.75885564 -0.55333728 0.10931838
-21 173 526 -0.049171038 -0.8837651 -0.46534005 0.061042283
-20 172 525 -nan -nan -nan 0.16666667
-20 173 526 0 -0.70714086 -0.70707273 0.30434993
-19 173 526 0.41208482 -0.2355969 -0.8801592 0.10276839
-18 173 526 0.045207117 -0.45761698 -0.88799942 0.093429491
-17 173 526 0 -0.53645414 -0.84392947 0.073789924
-16 173 526 -0.40229535 -0.59688544 -0.69418031 0.076217011
-15 173 526 -0.016676094 -0.87260002 -0.48815075 0.043412577
-14 173 526 0.21023428 -0.92124337 -0.32728025 0.058418468
-14 173 526 0.21023428 -0.92124337 -0.32728025 0.058418468
-13 173 527 0.28134578 -0.45385578 -0.84549367 0.038524672
-12 173 527 0.20921431 -0.47484976 -0.85483742 0.091182463
-11 173 527 0.47882444 -0.37845361 -0.79214901 0.068444401
-10 173 528 -0 -0 -1 0
-9 173 528 0 0 -1 0
-9 173 528 0 0 -1 0
-8 173 528 0 0 -1 0
-7 173 528 -0 -0 -1 0
-6 173 528 -0 -0 -1 0
-5 173 528 -0 -0 -1 0
-4 173 528 -0 -0 -1 0
-3 173 528 0.45440134 -0.45440134 -0.76618457 0.14928125
-3 173 528 0.45440134 -0.45440134 -0.76618457 0.14928125
-2 174 529 0.58016998 -0.33927223 -0.74047095 0.043865211
-1 174 529 0.69330949 -0.3586449 -0.62505668 0.027341308
0 174 531 0.83190763 -0.37308818 -0.41077363 0.014954018
1 175 533 0.91451275 -0.20144756 -0.35083529 0.0072393529
2 176 536 -1 0 0 0
-116 176 535 1 0 0 0
-116 177 538 0.89442718 1.7569529e-09 -0.44721359 0
-115 178 540 1 -0 -0 0
-115 178 541 0.93197477 0 -0.36252299 0.038873989
-114 178 542 0.48158723 0.43998379 -0.75794989 0.083640248
-113 178 542 0.071334943 0.3708663 -0.92594248 0.030441487
-112 179 543 -0 -0 -1 0
-112 179 543 -0 -0 -1 0
-111 179 543 -0 -0 -1 0
-110 178 542 -0.20237488 0.44643766 -0.87162936 0.019673303
-109 178 542 -0.02771043 0.21165815 -0.97695088 0.064844698
-108 178 542 0.13867891 0.21311143 -0.96713573 0.047212746
-107 178 542 -0.3402591 0.3402591 -0.87661135 0.047077164
-106 178 541 -0.54888463 0.38198397 -0.74351454 0.027957341
-105 178 540 -0.34701547 0.42670214 -0.835168 0.045952152
-104 178 540 0.04001892 0.43830782 -0.8979336 0.032736287
-103 178 540 -0 0.44721365 -0.89442712 0.036144629
-102 178 540 -0.2641497 0.29191154 -0.91924566 0.026364602
-101 178 540 -0.31828967 0.39173192 -0.86327153 0.029665476
-100 177 539 -0.40734637 0.29090804 -0.86570287 0.057608604
-100 177 539 -0.40734637 0.29090804 -0.86570287 0.057608604
-99 177 538 -0.36451298 0.36451298 -0.85689008 0.033159789
-98 177 539 -0.058953118 0.48742861 -0.8711704 0.052199777
-97 177 538 -0.56484497 0.44279394 -0.69633585 0.02143383
-96 177 537 -0.50944626 0.53427565 -0.67454726 0.014284729
-95 176 536 -0.12925075 0.57453555 -0.80820978 0.018793302
-94 176 536 -0.11238085 0.54008377 -0.83407438 0.014974395
-93 176 536 -0.055616342 0.51033902 -0.85817301 0.029098129
-92 176 536 -0.04001892 0.43830782 -0.8979336 0.032736287
-91 176 536 0.04001892 0.43830782 -0.8979336 0.032736287
-90 176 536 -0.28079081 0.46513793 -0.83952564 0.035881177
-89 176 535 -0.63617116 0.14998619 -0.7568292 0.038071807
-89 176 535 -0.63617116 0.14998619 -0.7568292 0.038071807
-88 176 534 -0.36837518 0.35445675 -0.85945338 0.031576704
-87 176 534 -0.21371603 0.36855179 -0.90470707 0.041998614
-86 176 534 -0.46258456 0.46258456 -0.75632739 0.021831086
-85 176 533 -0.19544926 0.49698219 -0.8454634 0.033740375
-84 176 533 -0.055616342 0.51033902 -0.85817301 0.029098129
-83 176 533 -0.055009071 0.56435889 -0.82369477 0.023206782
-82 176 533 -0 -0 -1 0
-81 176 533 -0.40497503 0.26244596 -0.87585235 0.053316779
-80 175 532 -0.46465412 0.12020916 -0.8772949 0.043348704
-80 175 532 -0.46465412 0.12020916 -0.8772949 0.043348704
-79 175 531 -0.55899334 0.22247081 -0.79876977 0.034855545
-78 175 531 -0.3402591 0.3402591 -0.87661135 0.047077164
-77 175 530 -0.26291913 0.43336418 -0.86201447 0.036925819
-76 175 530 -0.16173752 0.38188729 -0.90994674 0.028676283
-75 175 530 -0.22267275 0.383809 -0.89616263 0.025823697
-74 174 529 -0.31828967 0.39173192 -0.86327153 0.029665476
-73 174 529 0 0 -1 0
-72 174 529 0 0 -1 0
-72 174 529 0 0 -1 0
-71 174 529 -0 -0 -1 0
-70 174 529 0 0 -1 0
-69 174 529 0 0 -1 0
-68 174 529 -0.3835057 0.06869524 -0.9209801 0.05018077
-67 174 528 -0.44721365 0 -0.89442712 0.036144629
-66 174 528 -0 -0 -1 0
-65 174 528 0 0 -1 0
-65 174 528 0 0 -1 0
-64 174 528 -0.1978043 -0.3816725 -0.90288401 0.039377559
-63 174 527 -0.43336409 -0.2629191 -0.86201453 0.036925785
-62 174 527 -0.19689849 -0.25964174 -0.94541901 0.078944109
-61 174 527 -0.23146977 -0.58675635 -0.77597594 0.092208073
-60 174 527 0.23360376 -0.61036772 -0.75688869 0.096501134
-59 174 527 -0.043641627 -0.33673993 -0.94058579 0.1327192
-59 174 527 -0.043641627 -0.33673993 -0.94058579 0.1327192
-58 174 527 -0.13909139 -0.66519147 -0.73360342 0.1329118
-57 174 527 0.19029786 -0.31591785 -0.92950666 0.11752869
-56 174 527 0.31175241 -0.37970576 -0.87099594 0.098343603
-55 174 527 -0.23146977 -0.58675635 -0.77597594 0.092208073
-54 174 527 0.24782725 -0.68504822 -0.68504786 0.092530251
-53 174 527 0 -0.70710713 -0.70710641 0.20000009
-53 174 527 0 -0.70710713 -0.70710641 0.20000009
-52 174 527 -0.058314651 -0.94235373 -0.32949793 0.096543491
-51 174 527 -0.12550697 -0.70151538 -0.7015155 0.079177879
-50 173 526 -0.12550697 -0.70151538 -0.7015155 0.079177879
-49 173 526 0.015145779 -0.93277305 -0.36014584 0.088255361
-48 173 526 -0.1207079 -0.90986353 -0.39696091 0.10539147
-47 173 526 0.22730374 -0.57566804 -0.78545487 0.15600024
-47 173 526 0.22730374 -0.57566804 -0.78545487 0.15600024
-46 173 526 -0.12028976 -0.70197272 -0.70197207 0.13922334
-45 173 526 0.34344709 -0.75885564 -0.55333728 0.10931838
-44 174 527 0.19544926 -0.8454634 -0.49698219 0.033740375
-43 174 527 0.2794553 -0.72983974 -0.62389004 0.085790992
-42 174 527 0.31073678 -0.73808575 -0.59889233 0.15336597
-42 174 527 0.31073678 -0.73808575 -0.59889233 0.15336597
-41 174 527 -0.34098345 -0.75851375 -0.55532616 0.083931781
-40 174 527 -0.04001892 -0.8979336 -0.43830785 0.032736279
-39 174 527 -0.24390283 -0.81114614 -0.5315575 0.052180737
-38 174 527 -0.23925962 -0.65427035 -0.71741569 0.10105345
-37 174 527 0 -0.80000001 -0.60000002 0.12727274
-36 174 526 -0.1705987 -0.86427951 -0.47319871 0.090335086
-36 174 527 0.20820965 -0.82688749 -0.52240384 0.13397151
-35 174 527 0.09857516 -0.57453865 -0.81251973 0.10650671
-34 174 527 -0.23146977 -0.58675635 -0.77597594 0.092208073
-33 174 527 0 -0.70710689 -0.70710665 0.12500004
-32 174 527 -0.14110255 -0.8394922 -0.52473122 0.066275269
-31 174 526 -0 -0 -1 0
-31 174 526 -0 -0 -1 0
-30 174 527 0 -0.61541218 -0.78820544 0.095896468
-29 174 526 0 0 -1 0
-28 174 526 0 0 -1 0
-27 174 526 0.03831714 -0.36418355 -0.93053859 0.10790422
-26 174 526 -0.20401904 -0.32997978 -0.92167759 0.10354356
-25 174 526 -0.57735032 -0.57735032 -0.57735008 0.11111113
-25 174 526 -0.57735032 -0.57735032 -0.57735008 0.11111113
-24 173 525 -0.24017198 -0.58229333 -0.77669293 0.061343644
-23 173 525 -0.31175241 -0.37970576 -0.87099594 0.098343603
-22 173 525 0.31175241 -0.37970576 -0.87099594 0.098343603
-21 173 525 -0.033068657 0.064014904 -0.99740094 0.10003859
-20 173 525 0.86732072 -0.14588191 -0.47589204 0.11573756
-20 173 525 0.86732072 -0.14588191 -0.47589204 0.11573756
-19 174 526 0.23360376 -0.61036772 -0.75688869 0.096501134
-18 174 526 0 -0.70710689 -0.70710665 0.12500004
-17 174 526 0 -0.70710689 -0.70710665 0.12500004
-16 174 526 -0.19305536 -0.62611586 -0.75545257 0.085274011
-15 173 525 -0.16242182 -0.90964776 -0.38230884 0.088577941
-14 173 525 0.40423408 -0.7902931 -0.46046889 0.16559169
-14 173 525 0.40423408 -0.7902931 -0.46046889 0.16559169
-13 174 526 0.56110281 -0.56799275 -0.60211957 0.048202641
-12 174 527 0.48883766 -0.48883766 -0.72254789 0.05285126
-11 174 527 0.27098498 -0.1605918 -0.94909298 0.064120024
-10 174 527 0.36451295 -0.36451295 -0.85689008 0.029843817
-9 174 528 -0 -0 -1 0
-9 174 528 -0 -0 -1 0
-8 174 528 -0 -0 -1 0
-7 174 528 -0 -0 -1 0
-6 174 528 0 0 -1 0
-5 174 528 -0 -0 -1 0
-4 174 528 0 0 -1 0
-3 174 528 -0 -0 -1 0
-3 174 528 -0 -0 -1 0
-2 174 528 0.40148997 -0.23015973 -0.88647193 0.070715092
-1 175 529 0.63489306 -0.1999429 -0.7462799 0.025786506
0 175 530 0.82760185 -0.16783461 -0.53563678 0.012909235
1 176 533 0.96223944 -0.093665108 -0.25558192 0.0070795063
2 177 536 -1 0 0 0
-116 178 538 0.89442718 0 -0.44721359 0
-115 178 540 1 -0 -0 0
-115 179 541 0.95380944 0.16538164 -0.25079158 0.035055663
-114 179 543 0.34746653 0.39692974 -0.84953737 0.048552811
-113 179 543 0.089589931 0.49650201 -0.86339986 0.038671754
-112 179 543 -0 -0 -1 0
-112 179 543 -0 -0 -1 0
-111 179 543 -0 -0 -1 0
-110 179 543 -0.26291913 0.43336418 -0.86201447 0.036925819
-109 179 542 -0.3402591 0.3402591 -0.87661135 0.047077164
-108 179 542 -0 -0 -1 0
-107 179 542 -0 -0 -1 0
-106 179 542 -0.098664045 0.27388307 -0.95668876 0.050827403
-105 179 542 -0.18726309 0.52493733 -0.83028513 0.03460082
-104 179 541 -0.41847146 0.60413271 -0.67816323 0.033077043
-103 179 541 -0.36951122 0.52603269 -0.76599669 0.022258312
-103 179 541 -0.36951122 0.52603269 -0.76599669 0.022258312
-101 179 540 -0.2262852 0.45257041 -0.86253983 0.019817108
-101 179 540 -0.2262852 0.45257041 -0.86253983 0.019817108
-100 179 540 -0.22478046 0.40712258 -0.8852824 0.030505393
-99 178 539 -0.19701731 0.56081432 -0.80415887 0.055652004
-98 178 539 -0.31156671 0.60177076 -0.73538971 0.070333079
-97 178 538 -0.59496647 0.34170687 -0.72749662 0.019240312
-96 178 538 -0.5235672 0.39625204 -0.75422925 0.015610859
-95 178 537 -0.22047772 0.49782056 -0.83878738 0.02546108
-94 178 537 -0.083879754 0.79910141 -0.59531599 0.015797412
-93 177 536 -0.071994476 0.46281719 -0.88352531 0.021408061
-92 177 536 -0.04001892 0.43830782 -0.8979336 0.032736287
-91 177 536 -0.098664045 0.27388307 -0.95668876 0.050827403
-90 177 536 -0.46423304 0.26815653 -0.8441444 0.051816545
-89 177 535 -0.50833511 0.34627253 -0.78847373 0.030441487
-89 177 535 -0.50833511 0.34627253 -0.78847373 0.030441487
-88 177 535 -0.22367233 0.32492942 -0.91890782 0.062850654
-87 177 535 -0.19544926 0.49698219 -0.8454634 0.033740375
-86 177 534 -0.39442214 0.39442214 -0.82997733 0.028433036
-85 177 534 -0.25357947 0.41158837 -0.87538135 0.040882058
-84 177 534 0.04001892 0.43830782 -0.8979336 0.032736287
-83 177 534 -0.079597518 0.45789322 -0.88543659 0.023122245
-82 176 533 -0 -0 -1 0
-81 176 533 -0.40497503 0.26244596 -0.87585235 0.053316779
-81 176 533 -0.40497503 0.26244596 -0.87585235 0.053316779
-80 176 532 -0.6590147 0.2939761 -0.69229889 0.019256275
-79 176 531 -0.49698216 0.19544925 -0.84546334 0.033740375
-78 176 531 -0.24603061 0.24603061 -0.93751687 0.039129525
-77 176 531 -0.18407573 0.31166759 -0.93219066 0.038434986
-76 175 530 -0.16173752 0.38188729 -0.90994674 0.028676283
-75 175 530 -0.22267275 0.383809 -0.89616263 0.025823697
-74 175 530 -0.29573232 0.44870391 -0.84333092 0.022421936
-73 175 529 -0.19105646 0.41526476 -0.88941145 0.040430538
-72 175 529 -0 -0 -1 0
-71 175 529 0 0 -1 0
-71 175 529 0 0 -1 0
-70 175 529 -0 -0 -1 0
-69 175 529 0 0 -1 0
-68 175 529 -0.38377479 0.038160041 -0.92263788 0.044917271
-67 175 528 -0.43830782 -0.04001892 -0.8979336 0.032736287
-66 175 528 0 0 -1 0
-65 175 528 -0.4706037 -0.22380127 -0.85349 0.063742258
-64 175 527 0 0 -1 0
-64 175 527 0 0 -1 0
-63 175 527 0 0 -1 0
-62 175 527 -0.39860106 -0.35789323 -0.84441078 0.056502074
-61 174 526 -0.15497898 -0.54492503 -0.82403779 0.097910136
-60 174 526 -0.23146977 -0.58675635 -0.77597594 0.092208073
-59 174 526 -9.3513279e-08 -0.70710653 -0.70710701 0.15384611
-58 174 526 0 -0.50896031 -0.86078995 0.11935858
-58 174 526 0 -0.50896031 -0.86078995 0.11935858
-57 174 526 0.35997832 -0.55592358 -0.74924266 0.042779446
-56 175 527 0.17407767 -0.69631082 -0.69631052 0.098591588
-55 174 526 -0.021872792 -0.54052454 -0.84104389 0.085273996
-54 174 526 -0.24782725 -0.68504822 -0.68504786 0.092530251
-53 174 526 0.043641627 -0.94058579 -0.33673993 0.1327192
-53 174 526 0.043641627 -0.94058579 -0.33673993 0.1327192
-52 174 526 -0.12104967 -0.79737514 -0.59121889 0.076628007
-51 174 526 -0.40229535 -0.69418031 -0.59688544 0.076217011
-50 174 526 -0.40229535 -0.59688544 -0.69418031 0.076217011
-49 174 526 0 -0.53645414 -0.84392947 0.073789924
-48 174 526 0.19318657 -0.65727013 -0.72847438 0.079699211
-47 174 526 -0.13780212 -0.38696802 -0.91173804 0.1119814
-47 174 526 -0.13780212 -0.38696802 -0.91173804 0.1119814
-46 174 526 0.038160041 -0.38377479 -0.92263788 0.044917271
-45 174 526 0.40229535 -0.59688544 -0.69418031 0.076217011
-44 174 526 0.36232042 -0.79200476 -0.49137801 0.066076018
-43 174 526 0.12950237 -0.88361365 -0.4499512 0.063418217
-42 174 526 -0.065971389 -0.87295341 -0.48332199 0.087415725
-42 175 527 0.32674855 -0.74802929 -0.57765698 0.19163807
-41 174 526 -0.12950237 -0.88361365 -0.4499512 0.063418217
-40 174 526 0.04001892 -0.8979336 -0.43830785 0.032736279
-39 174 526 0.04001892 -0.8979336 -0.43830785 0.032736279
-38 174 526 0 -0.84392947 -0.53645414 0.073789924
-37 174 526 0.086246982 -0.90417212 -0.41837093 0.083024204
-36 174 526 -0.1705987 -0.86427951 -0.47319871 0.090335086
-36 174 526 -0.1705987 -0.86427951 -0.47319871 0.090335086
-35 174 526 -0.086246982 -0.90417212 -0.41837093 0.083024204
-34 174 526 0.09857516 -0.81251973 -0.57453865 0.10650671
-33 174 526 0.09857516 -0.81251973 -0.57453865 0.10650671
-32 174 526 -0.16287646 -0.69766468 -0.69766408 0.11776938
-31 174 526 -0 -0 -1 0
-31 174 526 -0 -0 -1 0
-30 174 526 0.042737454 -0.70646101 -0.70646042 0.11206611
-29 174 526 0 0 -1 0
-28 174 526 0 0 -1 0
-27 174 525 0 -0.61541218 -0.78820544 0.095896468
-26 174 526 -0.20401904 -0.32997978 -0.92167759 0.10354356
-25 174 525 -0.47814164 -0.5514887 -0.68355012 0.10612138
-25 174 525 -0.47814164 -0.5514887 -0.68355012 0.10612138
-24 174 525 -0.084126212 -0.28147367 -0.95587415 0.078107461
-23 174 525 -0.068913512 -0.19970061 -0.97743058 0.073362306
-22 174 525 0.068913512 -0.19970061 -0.97743058 0.073362306
-21 174 525 0 0 -1 0
-20 174 525 -0 -0 -1 0
-20 174 525 -0 -0 -1 0
-19 174 525 0.24782725 -0.68504822 -0.68504786 0.092530251
-18 174 525 -0.09857516 -0.81251973 -0.57453865 0.10650671
-17 174 525 -0.09857516 -0.81251973 -0.57453865 0.10650671
-16 174 525 -0.09857516 -0.57453865 -0.81251973 0.10650671
-15 174 525 -0.22910105 -0.1440538 -0.96268439 0.075137563
-14 174 525 -0 -0 -1 0
-14 174 525 -0 -0 -1 0
-13 174 525 0.40148997 -0.23015973 -0.88647193 0.070715092
-12 174 526 0.62728465 -0.40314388 -0.66632497 0.047088008
-11 175 527 -0 -0 -1 0
-10 175 527 0.50191253 -0.13656208 -0.85406947 0.034174375
-9 175 528 0.50484598 -0 -0.86320943 0.042204034
-9 175 528 0.50484598 -0 -0.86320943 0.042204034
-8 175 528 -0 -0 -1 0
-7 175 528 -0 -0 -1 0
-6 175 528 0 0 -1 0
-5 175 528 0 0 -1 0
-4 175 528 -0 -0 -1 0
-3 175 528 -0 -0 -1 0
-3 175 528 -0 -0 -1 0
-2 175 528 0.48832649 -0.22638693 -0.84278476 0.062659845
-1 175 529 0.63489306 -0.1999429 -0.7462799 0.025786506
0 176 530 0.79142624 -0.11433093 -0.60047728 0.012757198
1 176 532 0.93732131 -0.073709689 -0.34058145 0.0084245112
2 178 536 0.95325947 -0.0053785527 -0.3021051 0.0031708481
-116 179 538 0.88203752 0.12840365 -0.45334575 0.0033087879
-115 179 540 1 0 0 0
-115 180 542 0.92369395 0.089357734 -0.37256503 0.030556262
-114 180 543 0.59797001 0.17445873 -0.78230172 0.036313627
-113 180 543 0 0 -1 0
-113 181 544 0.34727004 0.59525639 -0.72461957 0.026570776
-112 181 544 -0.22019741 0.42987582 -0.87562543 0.0073049101
-111 180 543 -0 -0 -1 0
-110 180 543 -0 -0 -1 0
-109 180 543 -0.3402591 0.3402591 -0.87661135 0.047077164
-108 180 542 -0.19544926 0.49698219 -0.8454634 0.033740375
-107 180 542 -0.04001892 0.43830782 -0.8979336 0.032736287
-106 180 542 -0.04001892 0.43830782 -0.8979336 0.032736287
-105 180 542 -0.22380127 0.4706037 -0.85349 0.063742235
-104 180 542 -0.45440134 0.45440134 -0.76618457 0.033037852
-104 180 542 -0.45440134 0.45440134 -0.76618457 0.033037852
-103 180 541 -0.5042305 0.33959812 -0.79399288 0.01794203
-102 180 541 -0.26870993 0.31036037 -0.91185051 0.031659342
-101 180 541 -0.11881883 0.44276661 -0.88872933 0.020774733
-100 179 540 -0.22478046 0.40712258 -0.8852824 0.030505393
-99 179 540 -0.14267023 0.47035187 -0.87086987 0.028621033
-98 179 540 -0.19544926 0.49698219 -0.8454634 0.033740375
-97 179 539 -0.53316075 0.53316075 -0.65687072 0.014216077
-96 179 538 -0.50006074 0.44382867 -0.74360961 0.013356282
-95 178 537 -0.22047772 0.49782056 -0.83878738 0.02546108
-94 178 537 -0.083879754 0.79910141 -0.59531599 0.015797412
-93 178 537 -0 0.70710677 -0.70710677 0
-92 178 537 -0.11054188 0.53480387 -0.83771437 0.024338381
-91 178 537 -0.28732559 0.53511161 -0.79441774 0.025602277
-91 179 537 -0.33583462 0.33583462 -0.88001722 0.014606234
-90 178 536 -0.36297411 0.47893962 -0.79929137 0.022924785
-89 178 536 -0.48461041 0.59071374 -0.64514339 0.018654265
-88 178 535 -0.20782894 0.46632531 -0.85985339 0.036062792
-87 178 535 -0.17445874 0.59797007 -0.78230166 0.036313627
-86 178 535 -0.44279394 0.56484497 -0.69633585 0.02143383
-85 178 534 -0.19544926 0.49698219 -0.8454634 0.033740375
-84 178 534 -0.04001892 0.43830782 -0.8979336 0.032736287
-83 178 534 -0.13656206 0.50191253 -0.85406941 0.034174375
-82 178 534 -0.24410765 0.31395572 -0.91752023 0.030771956
-81 177 533 -0.49455994 0.3299388 -0.80408382 0.035809048
-81 177 533 -0.49455994 0.3299388 -0.80408382 0.035809048
-80 177 533 -0.36790323 0.3758969 -0.85049915 0.0338763
-79 177 532 -0.53316075 0.53316075 -0.65687072 0.014216077
-78 177 531 -0.19544926 0.49698219 -0.8454634 0.033740375
-77 177 531 -0.14267023 0.47035187 -0.87086987 0.028621033
-76 177 531 -0.11267316 0.47848126 -0.87083888 0.015318622
-75 177 531 -0.11267316 0.47848126 -0.87083888 0.015318622
-74 176 530 -0.31677642 0.40901774 -0.85577869 0.02153396
-73 176 530 -0.25357947 0.41158837 -0.87538135 0.040882058
-72 176 530 -0.46166018 0.23652515 -0.8549419 0.035987359
-71 176 529 -0.50484598 0 -0.86320943 0.042204034
-71 176 529 -0.50484598 0 -0.86320943 0.042204034
-70 176 529 0 0 -1 0
-69 176 529 0 0 -1 0
-68 176 529 -0.27388307 0.098664045 -0.95668876 0.050827403
-67 176 528 -0.41258112 0.21619098 -0.88489449 0.031883918
-66 176 528 -0 -0 -1 0
-65 176 528 -0.55188417 0.086052202 -0.82946908 0.036034539
-64 175 527 0 0 -1 0
-64 175 527 0 0 -1 0
-63 175 527 0 0 -1 0
-62 175 526 -0.3713907 -0.55708605 -0.74278128 0.044776171
-61 175 526 -0.068913512 -0.19970061 -0.97743058 0.073362306
-60 175 526 0 -0.19611613 -0.98058063 0.085714288
-59 175 526 -0.047577828 -0.46738732 -0.88277149 0.087916724
-58 175 526 0.13780212 -0.38696802 -0.91173804 0.1119814
-58 175 526 0.13780212 -0.38696802 -0.91173804 0.1119814
-57 175 526 0.22658132 -0.65916795 -0.71704841 0.085677877
-56 175 526 0 -0.64195389 -0.76674324 0.13588604
-55 175 526 -0.40229535 -0.59688544 -0.69418031 0.076217011
-54 175 526 0.18012434 -0.59691334 -0.78182453 0.048743557
-53 175 526 -0.38110361 -0.64003092 -0.66717356 0.052105997
-52 175 525 -0.62243992 -0.3517147 -0.69918901 0.048388097
-52 175 525 -0.62243992 -0.3517147 -0.69918901 0.048388097
-51 175 525 -0.16857243 -0.79168224 -0.58721584 0.054372292
-50 175 525 0.04001892 -0.8979336 -0.43830785 0.032736279
-49 175 525 -0.31893435 -0.88663715 -0.33489612 0.054757405
-48 174 524 -0.36123595 -0.86954331 -0.33675373 0.035921957
-47 174 524 0.21107362 -0.92853028 -0.30541697 0.082587563
-46 174 524 0.34404624 -0.92534697 -0.1592644 0.088197246
-46 175 525 0.48945659 -0.87180501 0.01970423 0.044251613
-45 175 525 -0.055616342 -0.85817301 -0.51033902 0.029098129
-44 175 525 -0.04001892 -0.8979336 -0.43830785 0.032736279
-43 175 525 0.098664045 -0.95668876 -0.27388307 0.050827406
-42 175 525 0.40824831 -0.81649655 -0.40824831 0.10000002
-42 175 526 0 -0.93134397 -0.36414048 0.1687213
-41 175 525 -0.40180829 -0.72851759 -0.5548082 0.12384434
-40 175 525 -0.26668826 -0.87141806 -0.41171336 0.11773466
-39 175 525 -0.04001892 -0.8979336 -0.43830785 0.032736279
-38 175 525 -0.04001892 -0.8979336 -0.43830785 0.032736279
-37 175 525 0.046371598 -0.92659533 -0.37318984 0.039492168
-36 175 525 0 -1 0 0
-36 175 525 0 -1 0 0
-35 175 525 -0.1581419 -0.91159075 -0.3794646 0.03142596
-34 175 526 0.23392262 -0.71353132 -0.66041905 0.075354628
-33 175 526 0.09857516 -0.57453865 -0.81251973 0.10650671
-32 175 526 -0.16242182 -0.3823089 -0.9096477 0.088577971
-31 175 526 -0 -0 -1 0
-31 175 526 -0 -0 -1 0
-30 175 526 -0.13656206 -0.50191253 -0.85406941 0.034174375
-29 175 526 0 -0.36252299 -0.93197477 0.038873989
-28 175 526 -0.23859291 -0.43236688 -0.86955863 0.037916936
-27 175 525 -0.50788552 -0.48276752 -0.7134338 0.076625824
-26 175 525 0.37199798 -0.66247994 -0.6501829 0.1121242
-25 175 525 -0 -0 -1 0
-25 175 525 -0 -0 -1 0
-24 175 525 -0.15432535 -0.062180873 -0.98606151 0.10809082
-23 175 525 0.23146977 -0.58675635 -0.77597594 0.092208073
-22 175 525 -0.23146977 -0.58675635 -0.77597594 0.092208073
-21 175 525 0.058314651 -0.32949793 -0.94235373 0.096543491
-20 175 525 0.043641627 -0.33673993 -0.94058579 0.1327192
-20 175 525 0.043641627 -0.33673993 -0.94058579 0.1327192
-19 175 525 -0.044758655 -0.54859132 -0.8348918 0.17327981
-18 175 525 -0.11410248 -0.46227175 -0.87936652 0.16381258
-17 175 525 0 -0.70710689 -0.70710665 0.12500004
-16 175 525 0 -0.70710689 -0.70710665 0.12500004
-15 175 525 0.058314651 -0.32949793 -0.94235373 0.096543491
-14 175 525 0 -0.062137447 -0.99806762 0.15082051
-14 175 525 0 -0.062137447 -0.99806762 0.15082051
-13 175 525 0.42034361 -0.14157742 -0.89625174 0.070947923
-12 175 526 0.65677184 -0.27688211 -0.70141786 0.032441292
-11 176 527 0.3835057 0.06869524 -0.9209801 0.05018077
-10 176 527 0.428518 0.11157314 -0.89661795 0.046024911
-9 176 528 0.63718063 0.32596403 -0.69838977 0.087644801
-9 176 528 0.63718063 0.32596403 -0.69838977 0.087644801
-8 176 528 -0.027917502 0.28046519 -0.95945817 0.059389431
-7 176 528 -0 -0 -1 0
-6 176 528 0 0 -1 0
-5 176 528 -0 -0 -1 0
-4 176 528 -0 -0 -1 0
-3 176 528 -0 -0 -1 0
-3 176 528 -0 -0 -1 0
-2 176 528 0.38380012 -0.07860148 -0.92006475 0.039125312
-1 176 529 0.70710677 -0 -0.70710677 0
0 177 530 0.81484514 0.18464625 -0.54948431 0.011320585
1 177 532 0.93658972 0.050163217 -0.34681901 0.010858851
2 178 535 0.94915277 0.0039799372 -0.31479073 0.0034583909
-116 179 538 0.88203752 0.12840365 -0.45334575 0.0033087879
-115 180 540 0.90570211 0.14484321 -0.39840186 0.010385347
-115 181 542 0.92447442 0.22446737 -0.30815813 0.04384771
-114 181 543 0.61593288 0.41131079 -0.67190045 0.014567892
-113 181 544 0.34727004 0.59525639 -0.72461957 0.026570776
-113 181 544 0.34727004 0.59525639 -0.72461957 0.026570776
-112 181 544 -0.22019741 0.42987582 -0.87562543 0.0073049101
-111 182 544 -0.20661744 0.52269912 -0.82710028 0.016448677
-110 181 543 -0.13289841 0.4204933 -0.89750957 0.017948655
-109 181 543 -0.17445874 0.59797007 -0.78230166 0.036313627
-108 181 543 -0.18038303 0.62017137 -0.76344573 0.020227073
-107 181 543 -0 0.70710677 -0.70710677 0
-106 181 543 -0.11026198 0.66535914 -0.73833567 0.028895644
-105 181 543 -0.32526803 0.45002642 -0.83167112 0.032416079
-105 181 543 -0.32526803 0.45002642 -0.83167112 0.032416079
-104 181 542 -0.37551773 0.48041314 -0.79258418 0.025017165
-103 181 542 -0.51397884 0.57746547 -0.63431799 0.020315317
-102 181 541 -0.19544926 0.49698219 -0.8454634 0.033740375
-101 181 541 -0.055616342 0.51033902 -0.85817301 0.029098129
-100 181 541 -0.10315473 0.62751859 -0.77173799 0.016446613
-99 180 540 -0.076999828 0.44159538 -0.89390409 0.020383183
-98 180 540 -0.30987141 0.4614791 -0.83127421 0.043994885
-97 180 540 -0.46258456 0.46258456 -0.75632739 0.021831086
-96 180 539 -0.41985148 0.64992273 -0.6335023 0.032327402
-95 180 538 -0.28662661 0.72780663 -0.62301093 0.017040549
-94 180 538 -0.10695168 0.58597898 -0.80323714 0.0087698968
-93 180 538 -0.26261938 0.43311003 -0.86223358 0.030109193
-92 180 538 -0.26859465 0.35567111 -0.89518434 0.01579478
-92 180 538 -0.26859465 0.35567111 -0.89518434 0.01579478
-91 179 537 -0.33583462 0.33583462 -0.88001722 0.014606234
-90 179 537 -0.19025913 0.36399186 -0.91176271 0.046122879
-89 179 537 -0.19544926 0.49698219 -0.8454634 0.033740375
-88 179 536 -0.42003411 0.54894018 -0.72265905 0.029728996
-87 179 536 -0.17445874 0.59797007 -0.78230166 0.036313627
-86 179 536 -0.39328289 0.39328289 -0.83105785 0.04938769
-85 179 535 -0.45749578 0.45749578 -0.76249278 0.049505018
-84 179 535 -0 -0 -1 0
-83 179 535 -0.36182594 0.35909221 -0.86031085 0.051877715
-83 179 535 -0.36182594 0.35909221 -0.86031085 0.051877715
-82 178 534 -0.24410765 0.31395572 -0.91752023 0.030771956
-81 178 534 -0.35445675 0.36837518 -0.85945338 0.031576704
-80 178 533 -0.34792385 0.25455192 -0.90230387 0.047279038
-79 178 533 -0.3402591 0.3402591 -0.87661135 0.047077164
-78 178 532 -0.32128298 0.59141332 -0.73959953 0.022398677
-77 178 532 -0.13803731 0.62866342 -0.76532865 0.019031491
-76 177 531 -0.11267316 0.47848126 -0.87083888 0.015318622
-75 177 531 -0.11267316 0.47848126 -0.87083888 0.015318622
-74 177 531 -0.32250202 0.52664393 -0.78653586 0.01904995
-73 177 530 -0.27260864 0.37256366 -0.88706303 0.046031702
-72 177 530 -0.46423304 0.26815653 -0.8441444 0.051816545
-71 177 529 -0.34111729 0.34350505 -0.87501049 0.053820539
-71 177 529 -0.34111729 0.34350505 -0.87501049 0.053820539
-70 177 529 -0.038160041 0.38377479 -0.92263788 0.044917271
-69 177 529 -0 -0 -1 0
-68 177 529 -0 -0 -1 0
-67 177 529 -0.3402591 0.3402591 -0.87661135 0.047077164
-66 177 528 -0.33304903 0.50734144 -0.79478484 0.019272814
-65 177 528 -0.40734637 0.29090804 -0.86570287 0.057608604
-64 176 527 -0.70710677 -9.4982378e-10 -0.70710677 0
-64 176 527 -0.70710677 -9.4982378e-10 -0.70710677 0
-63 176 526 -0.4518795 -0.23591803 -0.8603183 0.032866687
-62 176 526 0 -0.25340137 -0.96736127 0.059518497
-61 176 526 0 0 -1 0
-60 176 526 -0 -0 -1 0
-59 176 526 -0.21165815 -0.02771043 -0.97695088 0.064844698
-58 176 525 -0.53581858 0 -0.84433317 0.067930758
-57 176 525 -9.38426e-10 -0.70710683 -0.70710683 0
-57 176 525 -9.38426e-10 -0.70710683 -0.70710683 0
-56 176 525 -nan -nan -nan 0
-55 176 525 -0 -0 -1 0
-54 176 525 0 0 -1 0
-53 176 525 0 0 -1 0
-52 176 525 -0.44328687 -0.47319666 -0.76130259 0.078532226
-52 176 525 -0.44328687 -0.47319666 -0.76130259 0.078532226
-51 175 524 -0.21542716 -0.73381412 -0.64428872 0.076603703
-50 175 524 -0.30877542 -0.77850622 -0.54643017 0.065257505
-49 175 524 -0.45749572 -0.76249284 -0.45749572 0.049504969
-48 175 523 -0.51372766 -0.67024541 -0.53558844 0.051933866
-47 175 523 0 -0.84392947 -0.53645414 0.073789924
-46 175 523 0 -0.84392947 -0.53645414 0.073789924
-45 175 523 0.42726538 -0.79053956 -0.43873838 0.1112169
-45 175 524 0.34027389 -0.90480107 -0.25602478 0.12330689
