ply
format ascii 1.0
comment PCL generated
element vertex 814
property float x
property float y
property float z
property float nx
property float ny
property float nz
property float curvature
element camera 0
property float view_px
property float view_py
property float view_pz
property float x_axisx
property float x_axisy
property float x_axisz
property float y_axisx
property float y_axisy
property float y_axisz
property float z_axisx
property float z_axisy
property float z_axisz
property float focal
property float scalex
property float scaley
property float centerx
property float centery
property int viewportx
property int viewporty
property float k1
property float k2
end_header
102 290 694 -0.6856811 0.31101039 -0.6581139 0.010476369
103 289 693 -0.59287065 0.25367805 -0.76429826 0.019868957
104 289 692 -0.72798562 0.29587895 -0.61845976 0.016835488
105 288 690 -0.68920887 0.30927512 -0.65524048 0.010688178
106 288 689 -0.58686405 0.33370528 -0.73772031 0.010996018
107 287 688 -0.58893621 0.41243643 -0.69501817 0.012719863
108 287 687 -0.56281817 0.3722094 -0.7380352 0.014759158
109 286 686 -0.51888353 0.60316795 -0.6057626 0.06145402
109 286 685 -0.8514986 0.46374497 -0.24472566 0.032291111
110 286 684 -0.74101537 0.39497963 -0.54303527 0.042368226
111 285 683 -0.6138283 0.2488409 -0.74919486 0.0173016
112 285 682 -0.59287065 0.25367805 -0.76429826 0.019868957
113 284 681 -0.66379458 0.34460643 -0.66379458 0.014049576
114 284 680 -0.5023132 0.35827631 -0.78696859 0.014878277
115 283 679 -0.23934448 0.51022631 -0.826065 0.017758181
116 283 679 -0.2475774 0.48845914 -0.83672762 0.017677827
117 283 679 0.023533212 0.63016725 -0.77610278 0.04167841
118 284 680 0.35086653 0.44474038 -0.82407439 0.003494344
120 284 681 0.54723936 0.36075222 -0.75523961 0.015729271
121 285 683 0.71684843 0.38936812 -0.57837784 0.0058136331
123 286 685 0.67461795 0.38328838 -0.63085699 0.0095203575
124 287 688 0.71550566 0.31098539 -0.62557161 0.0056447131
126 288 691 0.78432143 0.29317832 -0.54670501 0.0074956543
127 289 693 0.69454914 0.28504983 -0.66056657 0.011386836
129 290 696 0.84129399 0.30001226 -0.44968548 0.0035037624
130 291 698 0.6177029 0.29899228 -0.72735602 0.0092575913
132 292 700 0.75117844 0.38691577 -0.53481495 0.0045479783
133 293 702 0.6886571 0.39380717 -0.60882455 0.0069701681
135 294 705 0.81245691 0.3469238 -0.46856979 0.0033694482
47 317 756 -0.68458956 0.3068608 -0.66119099 0.0071844407
48 316 754 -0.68388402 0.34896451 -0.64072341 0.0033067248
49 316 753 -0.43307552 0.41482902 -0.80022657 0.010673771
51 316 752 -0.37659848 0.54715961 -0.74752247 0.0034125377
52 315 751 -0.49014664 0.46010101 -0.74031305 0.014707302
53 315 750 -0.71682519 0.3719928 -0.5897314 0.0039925673
54 314 748 -0.57276195 0.35002416 -0.74123329 0.028160172
55 314 748 -0.56475651 0.25506362 -0.78485203 0.019380515
56 313 747 -0.60251987 0.44277999 -0.66401482 0.031436302
57 313 745 -0.65542513 0.4908554 -0.57400244 0.016666861
58 312 743 -0.61622345 0.44101688 -0.65251267 0.011605124
59 312 743 -0.45816079 0.43885708 -0.77297682 0.020540586
61 311 742 -0.44970351 0.59901297 -0.66253322 0.035306647
62 311 741 -0.58976829 0.47835547 -0.65065306 0.020465197
63 310 739 -0.52103746 0.49875027 -0.692653 0.02102194
64 310 738 -0.55213964 0.36857337 -0.74786061 0.011863206
65 309 737 -0.53559309 0.43093061 -0.72624993 0.0080311839
66 309 736 -0.56281817 0.3722094 -0.7380352 0.014759158
67 308 735 -0.57257187 0.41080558 -0.70950705 0.010857048
68 308 734 -0.62718439 0.28547379 -0.7246685 0.016297538
69 307 733 -0.55111063 0.31963658 -0.77078509 0.014532149
70 307 732 -0.59918773 0.37945625 -0.7049731 0.0065737204
71 307 731 -0.57051647 0.37956724 -0.72831285 0.0048934901
72 306 730 -0.62991226 0.38904002 -0.67220426 0.0070199305
73 306 729 -0.38670155 0.40578836 -0.82812911 0.024143793
75 305 728 -0.4690057 0.60172462 -0.64649916 0.021110166
75 304 726 -0.37626898 0.72972983 -0.57089055 0.012482304
77 304 725 -0.44178408 0.58885318 -0.67681509 0.0082520638
78 304 724 -0.46796051 0.5682171 -0.67686212 0.017501183
79 303 723 -0.43335626 0.56890166 -0.69896579 0.030120112
80 302 721 -0.53667438 0.61109328 -0.58184671 0.019871891
81 302 720 -0.47138038 0.60168743 -0.64480442 0.037476636
82 302 719 -0.40712839 0.44442233 -0.797957 0.04019998
83 301 719 -0.4671599 0.58574754 -0.66231519 0.028560411
84 301 717 -0.70686609 0.37253407 -0.6012975 0.030919032
85 300 716 -0.5997346 0.38353562 -0.70229542 0.015908627
86 300 715 -0.53544384 0.33549094 -0.77507788 0.014235888
87 299 714 -0.64287919 0.44858798 -0.62086648 0.011910908
88 299 712 -0.73270082 0.30466637 -0.60854572 0.018236898
89 298 711 -0.74071133 0.3235496 -0.5887804 0.011740845
90 297 709 -0.6145795 0.42805851 -0.66261452 0.02182954
91 297 708 -0.5904879 0.44954497 -0.67024875 0.027024975
92 296 707 -0.50963938 0.51757669 -0.68730062 0.017224651
93 296 706 -0.58767265 0.48323929 -0.64893818 0.022864288
94 296 705 -0.560004 0.28678346 -0.77727133 0.014869583
95 295 704 -0.57873809 0.57456452 -0.57873815 0.010845236
95 294 702 -0.39436188 0.62392235 -0.67468476 0.024970805
97 294 702 -0.52925354 0.56538785 -0.63263518 0.044510555
97 293 700 -0.76445115 0.3719072 -0.52659237 0.028932218
98 293 699 -0.6742214 0.34822625 -0.65127879 0.0069251591
99 293 698 -0.6341033 0.29782349 -0.71359241 0.017674953
100 292 697 -0.71824843 0.12113489 -0.68516105 0.02099652
101 292 696 -0.62017137 0.18038303 -0.76344573 0.020227073
102 291 695 -0.65541482 0.26340491 -0.70784837 0.017812783
103 290 693 -0.61340886 0.2177431 -0.75915581 0.016529238
104 290 693 -0.65568823 0.26831606 -0.70574743 0.019273173
105 290 691 -0.64507633 0.42454708 -0.63532382 0.014964985
106 289 690 -0.56281817 0.3722094 -0.7380352 0.014759158
107 289 689 -0.58893621 0.41243643 -0.69501817 0.012719863
108 288 688 -0.58686405 0.33370528 -0.73772031 0.010996018
109 288 687 -0.6393708 0.2822842 -0.71520674 0.021266472
110 287 686 -0.82936615 0.34431186 -0.4400014 0.049978256
110 287 684 -0.54894966 0.69549155 -0.46362242 0.043499883
112 287 684 -0.48159984 0.65137219 -0.58632398 0.028011492
112 286 682 -0.6229319 0.26955765 -0.73436677 0.013516036
113 285 681 -0.64551491 0.18058455 -0.74209148 0.015996302
114 285 680 -0.36433405 0.44868806 -0.8160513 0.041278023
115 285 680 -0.085381858 0.57824057 -0.81138635 0.016284924
116 285 680 -0.067695305 0.53042978 -0.84502167 0.014504913
117 285 680 0.1847094 0.54727441 -0.81631684 0.0088569494
119 285 681 0.47230163 0.3055627 -0.82677841 0.0092221079
120 286 682 0.64355409 0.33494937 -0.6882202 0.01882497
121 286 684 0.68799317 0.37765536 -0.6197111 0.016308641
123 288 687 0.71470207 0.40937102 -0.56711227 0.0094402693
124 289 689 0.72616863 0.264323 -0.63467509 0.0061514662
126 290 692 0.8440339 0.28720552 -0.45290151 0.0049311402
128 291 694 0.72172928 0.23084845 -0.65254569 0.01355087
129 292 697 0.76882976 0.18151464 -0.61315024 0.0081588896
131 293 699 0.69863766 0.28878406 -0.6546061 0.01108171
132 294 701 0.71134031 0.35947722 -0.6039629 0.0063774749
134 294 703 0.70730144 0.40300697 -0.58078396 0.0060827737
135 296 706 0.70976728 0.32021365 -0.62745011 0.0092336666
47 318 756 -0.66381931 0.40448427 -0.62907577 0.0044858549
48 318 755 -0.66871691 0.3934691 -0.63087213 0.0057742964
49 318 754 -0.45543835 0.47090712 -0.75552785 0.010191323
51 317 753 -0.38950765 0.49492577 -0.77674472 0.008120073
52 317 752 -0.47974193 0.48875061 -0.72867727 0.0050532995
53 316 751 -0.59907353 0.42057195 -0.68134433 0.008561465
54 315 749 -0.6422987 0.33919996 -0.68731058 0.0090194577
55 315 748 -0.58057803 0.37957966 -0.72031134 0.013104976
56 315 747 -0.60227007 0.25573409 -0.75622147 0.013639089
57 314 746 -0.70762926 0.35377744 -0.61163914 0.018648537
58 313 744 -0.63281798 0.4400503 -0.63710058 0.012594416
59 313 743 -0.42571008 0.49540222 -0.7571972 0.01558024
61 312 742 -0.47495216 0.3972773 -0.78523326 0.019749198
62 312 741 -0.64554632 0.2849499 -0.70857137 0.0096859308
63 312 740 -0.6652633 0.3388944 -0.6652633 0.010195801
64 311 739 -0.62199986 0.39785537 -0.67440885 0.0080333287
65 311 738 -0.59203374 0.32904911 -0.73567843 0.013010449
66 310 737 -0.58686405 0.33370528 -0.73772031 0.010996018
67 310 736 -0.6592086 0.27967083 -0.69801742 0.0088327033
68 309 734 -0.59772199 0.31132761 -0.73878515 0.015300713
69 309 733 -0.56291831 0.22121948 -0.79635727 0.013966687
70 309 733 -0.44984505 0.41300127 -0.79187709 0.015673362
71 308 732 -0.47858772 0.49561045 -0.72479248 0.03233362
72 308 731 -0.43332422 0.38223994 -0.81616348 0.061785586
73 307 729 -0.44300213 0.50118583 -0.74334514 0.021602124
75 307 729 -0.40577185 0.3563568 -0.84164071 0.032053538
76 306 727 -0.68852472 0.30471432 -0.65809041 0.0090195574
77 306 726 -0.50409752 0.40780097 -0.76130426 0.0060411305
78 305 725 -0.55087477 0.46244141 -0.69475538 0.0063886796
79 305 724 -0.61293411 0.4075036 -0.67694348 0.0086189192
80 304 722 -0.74091601 0.32587436 -0.58723873 0.011568159
81 303 721 -0.52265525 0.24586754 -0.81632143 0.033209387
82 303 720 -0.40728983 0.35924828 -0.83967584 0.051734764
83 303 720 -0.38372076 0.2908217 -0.87645942 0.040542752
84 302 718 -0.65764606 0.31303492 -0.68520856 0.026100334
85 302 717 -0.63669634 0.3186807 -0.70218265 0.0072449693
86 301 715 -0.54085732 0.33753574 -0.77041739 0.016218713
87 301 715 -0.57580727 0.31834421 -0.75306243 0.015534057
88 300 713 -0.76823193 0.33348316 -0.54645103 0.0060760919
89 300 712 -0.63200486 0.34935778 -0.69175076 0.0070977183
90 299 710 -0.62682146 0.3209849 -0.70997435 0.016765771
91 298 709 -0.57124144 0.35484275 -0.74011475 0.020205092
92 298 708 -0.67254138 0.35686257 -0.64833421 0.017834004
93 297 706 -0.62487894 0.27109855 -0.73214203 0.015561044
94 297 705 -0.5606004 0.29780662 -0.77268255 0.015675858
95 297 705 -0.50728267 0.37694216 -0.77497029 0.014087413
96 296 703 -0.50009835 0.45640337 -0.73593318 0.034686945
97 295 702 -0.56646156 0.53388393 -0.62776536 0.060762558
97 295 701 -0.71408826 0.57883739 -0.39373252 0.034100879
98 295 700 -0.53557515 0.56499028 -0.62765056 0.01718008
99 294 699 -0.48073739 0.59140611 -0.64740276 0.015407363
100 293 697 -0.61042809 0.36921263 -0.70075649 0.0096436674
101 293 696 -0.64286995 0.24991095 -0.72405982 0.015114072
102 292 695 -0.6410194 0.23748846 -0.72985852 0.017507829
103 292 694 -0.67950708 0.40239212 -0.61347431 0.0067630392
104 292 693 -0.55111063 0.31963658 -0.77078509 0.014532149
105 291 692 -0.66379458 0.3446064 -0.66379458 0.02034767
106 291 691 -0.47974193 0.48875061 -0.72867727 0.0050532995
107 290 690 -0.58333915 0.43893045 -0.68341458 0.0094999103
108 289 688 -0.61331958 0.36759421 -0.69908053 0.010287205
109 289 687 -0.67815226 0.39052075 -0.62257767 0.01202446
110 289 686 -0.60227007 0.25573409 -0.75622147 0.013639089
111 288 685 -0.54191601 0.44421366 -0.71344328 0.058957163
112 288 684 -0.40716651 0.59655857 -0.69161648 0.026952876
112 287 683 -0.41133076 0.5950737 -0.69043052 0.03518017
113 287 682 -0.52374882 0.57681859 -0.62687117 0.027805794
114 286 681 -0.28185675 0.48011196 -0.83069205 0.04472623
115 286 681 -0.13812605 0.63096166 -0.76341903 0.01560288
116 286 681 -0.012321234 0.57644033 -0.81704634 0.0068246
118 286 681 0.23450607 0.46517289 -0.85359305 0.018503517
119 286 681 0.3924799 0.36633176 -0.8436591 0.0081039174
120 287 683 0.79070109 0.35251787 -0.50052273 0.0055717407
121 288 685 0.71742916 0.31154308 -0.62308615 0.015438691
123 289 688 0.81032324 0.2089491 -0.54746366 0.014289732
125 290 690 0.74497271 0.20772155 -0.63393021 0.004567266
126 291 693 0.77328587 0.12374885 -0.62186426 0.018061861
128 292 695 0.75960833 0.29863885 -0.5777629 0.011303404
129 293 697 0.75825745 0.22711188 -0.61111844 0.010214771
131 294 700 0.7561475 0.36703452 -0.54178089 0.0024568776
132 295 702 0.69798607 0.3482928 -0.62570572 0.0036934572
134 296 705 0.71588516 0.34464607 -0.60722929 0.0083466098
136 297 707 0.69247544 0.33814406 -0.63728833 0.0070465025
49 319 755 -0.51792282 0.39729309 -0.75757122 0.016844353
51 319 754 -0.38425043 0.51449853 -0.76657861 0.0074052573
52 318 753 -0.45981592 0.49417838 -0.7378056 0.0050712465
53 318 752 -0.66879189 0.41458985 -0.61711645 0.013943226
54 317 750 -0.65159357 0.36238021 -0.66641307 0.0069287857
55 317 749 -0.52959216 0.42183876 -0.73592412 0.0044273343
56 316 748 -0.56845564 0.3918103 -0.72342438 0.012551426
57 316 747 -0.43952328 0.52333444 -0.73002762 0.0051880423
58 315 746 -0.40298715 0.59173298 -0.69817865 0.010209602
59 314 744 -0.47336355 0.58934689 -0.65467334 0.0099984808
61 314 743 -0.4443281 0.43951049 -0.78064275 0.0090649007
62 314 742 -0.55245048 0.44633651 -0.70397598 0.0044166823
63 313 741 -0.6652633 0.3388944 -0.6652633 0.010195801
64 313 740 -0.66830152 0.35502791 -0.65370345 0.0092625497
65 312 738 -0.64608169 0.38467693 -0.65924352 0.0066272803
66 311 737 -0.61461461 0.27480745 -0.73941177 0.010886321
67 311 736 -0.73740143 0.27461877 -0.61710906 0.0091648325
68 311 735 -0.65438735 0.29536036 -0.69608861 0.017124251
69 310 734 -0.45873415 0.44634268 -0.76833671 0.0097324885
70 310 733 -0.506082 0.44674554 -0.73776656 0.011564548
71 309 732 -0.4763397 0.15015858 -0.86634445 0.067195885
73 309 732 -0.44624951 0.23143554 -0.86446452 0.056619246
74 308 730 -0.43379092 0.47139218 -0.76786381 0.019224599
75 308 729 -0.49192208 0.40623876 -0.77005368 0.035667825
76 308 728 -0.59735066 0.40853497 -0.69012409 0.016989864
77 307 727 -0.53016603 0.41155609 -0.74131334 0.013793381
78 307 726 -0.45873415 0.44634268 -0.76833671 0.0097324885
79 306 725 -0.58333915 0.43893045 -0.68341458 0.0094999103
80 305 723 -0.72086489 0.39728519 -0.56790692 0.0086168759
81 305 721 -0.6008215 0.35040328 -0.71849233 0.031069029
82 304 720 -0.37127256 0.20591766 -0.90540296 0.020698579
83 304 720 -0.39656088 0.34569633 -0.85043132 0.029908156
84 304 719 -0.49102333 0.45386517 -0.74357402 0.024265839
85 303 717 -0.64767158 0.38188708 -0.65930545 0.0053088297
86 302 716 -0.59631658 0.3518233 -0.72154486 0.012348725
87 302 715 -0.59450173 0.3607783 -0.7186144 0.013797827
88 302 714 -0.6779021 0.43586752 -0.59200352 0.008825196
89 301 712 -0.64608169 0.38467693 -0.65924352 0.0066272803
90 300 711 -0.68275774 0.34137887 -0.64598942 0.0091664093
91 299 709 -0.56899917 0.33240271 -0.75216246 0.017811133
92 299 709 -0.65568823 0.26831606 -0.70574743 0.019273173
93 299 707 -0.64507633 0.42454708 -0.63532382 0.014964985
94 298 706 -0.45873415 0.44634268 -0.76833671 0.0097324885
95 298 705 -0.48694569 0.45002547 -0.74857259 0.011948002
96 297 704 -0.60936427 0.37696108 -0.6975497 0.013061062
97 297 703 -0.55453455 0.43925554 -0.70678568 0.0068722824
98 296 702 -0.54709184 0.38901702 -0.74118578 0.032170195
99 296 701 -0.51237744 0.56258315 -0.64882165 0.02677116
100 296 700 -0.45036504 0.44105473 -0.77630019 0.029547181
101 295 699 -0.59145039 0.56781238 -0.57251686 0.010328666
101 294 697 -0.7122035 0.51927072 -0.4723601 0.020136284
102 294 696 -0.53559309 0.43093061 -0.72624993 0.0080311839
103 293 695 -0.55213964 0.36857337 -0.74786061 0.011863206
104 293 694 -0.61404169 0.43323132 -0.65974492 0.0089896051
105 293 693 -0.56281817 0.3722094 -0.7380352 0.014759158
106 292 692 -0.47289681 0.47289681 -0.74346292 0.00525541
107 292 691 -0.52326924 0.39981169 -0.75255555 0.014311291
108 291 689 -0.52541429 0.53082883 -0.66495156 0.012098851
109 290 688 -0.54743892 0.44534364 -0.70850521 0.019896442
110 290 687 -0.60833722 0.47117805 -0.63868386 0.010632555
111 290 686 -0.47289681 0.47289681 -0.74346292 0.00525541
112 289 685 -0.47289681 0.47289681 -0.74346292 0.00525541
113 289 684 -0.51850313 0.3762944 -0.7678262 0.01644882
114 288 683 -0.31236765 0.6434043 -0.69889724 0.015788339
115 288 683 -0.26774716 0.47489357 -0.83832425 0.042885035
116 288 682 -0.32673603 -0.084080115 -0.94136822 0.030189792
117 288 682 -0.085422114 0.39622718 -0.91417009 0.084435984
118 288 682 0.13223344 0.50462818 -0.85314989 0.022564661
119 288 682 0.36322492 0.43276113 -0.82509726 0.031150626
120 288 683 0.61452454 0.52888638 -0.58535355 0.027183689
121 289 685 0.64948553 0.27319571 -0.70960039 0.020783698
123 290 688 0.81319618 0.19508865 -0.54831779 0.014554038
125 292 691 0.81740159 0.20405599 -0.53871679 0.014718154
126 292 693 0.79547048 0.25632456 -0.54911232 0.025738159
128 294 696 0.77696592 0.24602896 -0.57947719 0.0068491427
130 295 699 0.71030831 0.37640724 -0.59479392 0.001565199
131 296 701 0.76356876 0.38698363 -0.51692021 0.0029404135
133 297 704 0.69984418 0.32457712 -0.63629228 0.0035193239
134 298 706 0.69387245 0.37556928 -0.61440122 0.010486155
136 299 709 0.64821059 0.4238137 -0.63261753 0.003834699
53 319 753 -0.64226878 0.42804205 -0.63582289 0.011496938
54 319 751 -0.64156353 0.45210522 -0.61967486 0.011390285
55 318 750 -0.5086261 0.4624345 -0.72626019 0.0049266247
56 318 749 -0.5086261 0.4624345 -0.72626019 0.0049266247
57 317 748 -0.35805783 0.50262028 -0.78687191 0.0077521298
59 317 747 -0.44652477 0.57752919 -0.68342936 0.015358952
60 316 746 -0.59070295 0.54967266 -0.59070295 0.0084514134
61 316 744 -0.64967734 0.41918346 -0.63419604 0.014605099
62 315 743 -0.53559309 0.43093061 -0.72624993 0.0080311839
63 315 742 -0.60176086 0.39302397 -0.69528121 0.010858296
64 314 740 -0.64767158 0.38188708 -0.65930545 0.0053088297
65 313 739 -0.64706188 0.32698151 -0.68876272 0.0068361117
66 313 738 -0.61766434 0.36908051 -0.69445693 0.0074231159
67 313 737 -0.56530464 0.38462934 -0.72971976 0.010322032
68 312 735 -0.61497176 0.36254364 -0.70026547 0.035828415
69 312 735 -0.27574 0.50523132 -0.81774616 0.011326496
70 311 734 -0.38739428 0.50202417 -0.7732383 0.016072351
71 311 733 -0.55272478 0.51334506 -0.65648472 0.020654399
72 310 731 -0.44389689 0.28522342 -0.84947228 0.053121623
74 310 731 -0.52596003 0.24577221 -0.81422484 0.066442303
75 310 730 -0.61461461 0.27480745 -0.73941177 0.010886321
76 309 729 -0.72058254 0.25248548 -0.64576453 0.0078445263
77 308 727 -0.53016603 0.41155609 -0.74131334 0.013793381
78 308 727 -0.5606004 0.29780662 -0.77268255 0.015675858
79 308 726 -0.48137492 0.37096599 -0.79414254 0.016008401
80 307 724 -0.69173986 0.39945909 -0.60160488 0.0026046913
81 307 723 -0.59150773 0.51029241 -0.62427586 0.015166055
82 306 721 -0.26641896 0.50867993 -0.81869763 0.012652601
83 306 721 -0.27858129 0.50045228 -0.81971949 0.013139577
84 305 720 -0.42811835 0.5043233 -0.74991512 0.0082549192
85 305 719 -0.63049978 0.50168192 -0.59227115 0.0077270758
86 304 717 -0.64858782 0.3986167 -0.64841229 0.0087822694
87 304 716 -0.52959216 0.42183876 -0.73592412 0.0044273343
88 303 715 -0.56788588 0.37604865 -0.73218381 0.011627903
89 302 713 -0.66617572 0.42638671 -0.61188585 0.0070723584
90 302 712 -0.7292791 0.36509037 -0.57867181 0.011224369
91 301 710 -0.7042681 0.35642833 -0.61397493 0.0055321921
92 301 709 -0.55111063 0.31963658 -0.77078509 0.014532149
93 300 708 -0.66379458 0.3446064 -0.66379458 0.02034767
94 300 707 -0.49675065 0.48187724 -0.72182626 0.012372226
95 299 706 -0.51144129 0.39156181 -0.76492298 0.01484891
96 299 705 -0.44634265 0.45873412 -0.76833665 0.0097325118
97 298 704 -0.47289681 0.47289681 -0.74346292 0.00525541
98 298 703 -0.64810336 0.40654835 -0.64395696 0.016022697
99 298 702 -0.62257987 0.28798962 -0.72763747 0.0072037484
100 297 701 -0.61331958 0.36759421 -0.69908053 0.010287205
101 297 700 -0.61331958 0.36759421 -0.69908053 0.010287205
102 296 698 -0.57740438 0.60820878 -0.54468912 0.045026712
102 295 697 -0.57277185 0.64828438 -0.50165707 0.047461204
103 295 696 -0.59698617 0.46197757 -0.65588421 0.057816196
104 295 695 -0.70281082 0.40526968 -0.58464807 0.042411197
105 294 694 -0.61331958 0.36759421 -0.69908053 0.010287205
106 294 693 -0.52340901 0.30746484 -0.79467505 0.016139813
107 293 692 -0.57171023 0.37899584 -0.72767401 0.0092899539
108 293 691 -0.59203374 0.32904911 -0.73567843 0.013010449
109 292 690 -0.61276615 0.40819082 -0.67668158 0.036607843
110 292 689 -0.62055629 0.43374041 -0.65328324 0.042557854
111 291 687 -0.60380685 0.49508339 -0.62474781 0.0075031957
112 291 686 -0.56845564 0.3918103 -0.72342438 0.012551426
113 290 685 -0.57257187 0.41080558 -0.70950705 0.010857048
114 290 684 -0.48266235 0.29435474 -0.82485896 0.016864667
115 289 683 -0.5023132 0.35827631 -0.78696859 0.014878277
116 289 682 -0.39328289 0.39328289 -0.83105785 0.04938769
117 289 682 0.19544926 0.49698219 -0.8454634 0.033740375
118 289 683 0.21806315 0.51132894 -0.83125883 0.028171962
119 289 683 0.34185395 0.46889675 -0.81441492 0.015873715
120 290 684 0.61966902 0.34167057 -0.70659155 0.01551554
122 291 686 0.77800685 0.11657566 -0.61734545 0.012908319
123 292 689 0.74887377 0.24882503 -0.61422646 0.0096380282
125 293 691 0.78796953 0.15863588 -0.59492743 0.013831469
126 294 694 0.74982142 0.18098076 -0.6364069 0.005251382
128 295 697 0.78900814 0.26085043 -0.55625814 0.0060124313
130 296 700 0.73631221 0.35979956 -0.57305199 0.0017053449
131 298 703 0.69016361 0.37960079 -0.61609852 0.0052509368
133 299 705 0.72406065 0.31810874 -0.61199921 0.0081492076
134 299 707 0.70730144 0.40300697 -0.58078396 0.0060827737
136 301 710 0.68480718 0.36886454 -0.62847281 0.0017846348
55 320 751 -0.61998469 0.42486602 -0.65962696 0.011411663
56 319 750 -0.49098682 0.47455978 -0.73056483 0.0037739801
57 319 749 -0.39259294 0.47870022 -0.78531331 0.0071097608
59 318 748 -0.41725454 0.45258245 -0.78807861 0.0075397287
60 318 747 -0.63175297 0.41845912 -0.65251833 0.0076670432
61 317 745 -0.63940799 0.50800723 -0.5771361 0.008023737
62 317 744 -0.61664498 0.42195806 -0.66460538 0.01179704
63 316 743 -0.58686405 0.33370528 -0.73772031 0.010996018
64 316 742 -0.67531836 0.37220752 -0.63671547 0.0088431388
65 315 740 -0.59201396 0.36060956 -0.72074974 0.0060189129
66 315 739 -0.64706188 0.32698151 -0.68876272 0.0068361117
67 314 738 -0.64352447 0.37785682 -0.66565788 0.0063333968
68 313 736 -0.53490686 0.40110737 -0.74363136 0.022501629
69 313 736 -0.31495792 0.62749279 -0.7120775 0.011818313
71 313 735 -0.40354094 0.48093084 -0.77837032 0.017877683
72 312 734 -0.6412437 0.52242476 -0.56203103 0.020918224
73 312 732 -0.7078836 0.20181394 -0.67688411 0.018961385
74 311 731 -0.38250431 0.43365175 -0.81586558 0.022390857
75 311 730 -0.63493299 0.2886816 -0.71660519 0.0095189176
76 310 729 -0.68707889 0.25725788 -0.6795153 0.011976293
77 310 728 -0.65523094 0.28873929 -0.69807023 0.017094854
78 309 727 -0.49602249 0.27693132 -0.82296455 0.013698273
79 309 726 -0.5305739 0.29693878 -0.793926 0.015589206
80 309 726 -0.60456705 0.30873349 -0.7342903 0.011675037
81 308 724 -0.59389025 0.51260763 -0.62010306 0.0072289179
82 307 722 -0.388946 0.66508543 -0.63748133 0.0075462568
83 307 722 -0.40016291 0.57851952 -0.71076357 0.013025181
84 307 721 -0.42627606 0.47543326 -0.76957905 0.0086674085
85 306 720 -0.62178421 0.44915226 -0.64159691 0.013958127
86 306 718 -0.64287919 0.44858798 -0.62086648 0.011910908
87 305 717 -0.53559309 0.43093061 -0.72624993 0.0080311839
88 305 716 -0.60792559 0.36846906 -0.7033186 0.01399808
89 304 715 -0.66337776 0.27632266 -0.69539613 0.011785354
90 303 713 -0.82547951 0.32763144 -0.45960987 0.0067510321
91 303 711 -0.747127 0.22839636 -0.62420863 0.021953341
92 302 710 -0.44762588 0.42308241 -0.78780222 0.014567573
93 302 709 -0.47289681 0.47289681 -0.74346292 0.00525541
94 301 708 -0.43987694 0.49001083 -0.75259393 0.0040089046
95 300 706 -0.4530344 0.51641196 -0.72669017 0.010820883
96 300 706 -0.45599297 0.48790953 -0.74432158 0.010644185
97 300 705 -0.42627606 0.47543326 -0.76957905 0.0086674085
98 299 704 -0.62178421 0.44915226 -0.64159691 0.013958127
99 299 702 -0.66105086 0.30292934 -0.68647337 0.01721915
100 298 701 -0.57526267 0.32829475 -0.74919653 0.014863051
101 298 700 -0.58686405 0.33370528 -0.73772031 0.010996018
102 297 699 -0.71878815 0.42332664 -0.55148721 0.033515703
102 296 697 -0.44368684 0.6260407 -0.6412605 0.025611466
104 296 697 -0.54884464 0.62411773 -0.55609941 0.038465422
104 296 695 -0.59746969 0.64133143 -0.48137718 0.027638674
105 295 694 -0.57526267 0.32829475 -0.74919653 0.014863051
106 295 693 -0.56147057 0.36815956 -0.74108654 0.019035855
107 295 693 -0.51887918 0.31724849 -0.79379964 0.01104385
108 294 691 -0.64608169 0.38467693 -0.65924352 0.0066272803
109 293 690 -0.7013309 0.1654592 -0.69336718 0.012336224
110 293 689 -0.62645167 0.18448304 -0.75731391 0.021446941
111 293 688 -0.59223413 0.35296389 -0.72434473 0.018856097
112 292 687 -0.62199986 0.39785537 -0.67440885 0.0080333287
113 292 686 -0.63200486 0.34935778 -0.69175076 0.0070977183
114 291 684 -0.50837368 0.39620271 -0.76457804 0.020872114
115 291 684 -0.37397432 0.3768177 -0.84743822 0.013237374
116 290 683 -0.20642225 0.55014449 -0.80915439 0.032367036
117 290 683 -0.0056004142 0.39649504 -0.91801977 0.074809492
118 290 683 0.25623146 0.41661575 -0.87222517 0.030994633
119 291 684 0.51313913 0.37294996 -0.77304369 0.013010047
120 291 685 0.55278707 0.30928364 -0.7738024 0.01426011
122 292 687 0.83012116 0.28314528 -0.48034108 0.0069640512
123 293 689 0.73312235 0.33597636 -0.59131336 0.0094429161
125 294 692 0.78201938 0.29577428 -0.54860115 0.011306835
127 295 695 0.76798165 0.26322645 -0.58388025 0.0047228774
128 297 698 0.75342363 0.40967023 -0.51431805 0.0048178583
130 298 701 0.78039545 0.29603732 -0.55076742 0.013835542
131 299 703 0.68744916 0.33605787 -0.64380026 0.0051319958
133 300 706 0.79202771 0.35295355 -0.49811235 0.0020414914
135 301 709 0.7132715 0.33499202 -0.61564928 0.0024581526
136 302 711 0.65217745 0.36835381 -0.66255563 0.0037741272
56 321 751 -0.4633747 0.48299772 -0.74296504 0.003966256
58 321 750 -0.4195573 0.51461798 -0.74775666 0.0032495291
59 320 749 -0.4279395 0.45117113 -0.78314263 0.0098291617
60 320 748 -0.55245048 0.44633651 -0.70397598 0.0044166823
61 319 747 -0.63244754 0.4261128 -0.64686781 0.005103102
62 318 745 -0.67419493 0.45707715 -0.58012205 0.0047925711
63 317 743 -0.6379295 0.30744222 -0.70606315 0.0070923143
64 317 742 -0.66386825 0.32029635 -0.67578775 0.010704138
65 317 741 -0.69526398 0.31921241 -0.64398098 0.0089381253
66 316 740 -0.64608169 0.38467693 -0.65924352 0.0066272803
67 315 738 -0.63200486 0.34935778 -0.69175076 0.0070977183
68 315 737 -0.41773885 0.47278184 -0.7758683 0.025271457
70 315 737 -0.35858685 0.35858685 -0.86187643 0.022174504
71 314 736 -0.52259523 0.34248337 -0.78076845 0.022125477
72 314 735 -0.77159959 0.1706159 -0.61280042 0.011000554
73 313 733 -0.77172679 0.33578756 -0.54007822 0.01126158
74 313 732 -0.5777905 0.28889525 -0.76334631 0.012309187
75 312 731 -0.48694569 0.45002547 -0.74857259 0.011948002
76 312 730 -0.67254138 0.35686257 -0.64833421 0.017834004
77 311 728 -0.50054848 0.28049481 -0.81900787 0.022064043
78 311 728 -0.52320755 0.33927512 -0.78175843 0.020944381
79 311 727 -0.52685344 0.38646826 -0.75701243 0.0091239633
80 310 726 -0.56303126 0.31918785 -0.7623089 0.011307629
81 310 725 -0.54209876 0.41110298 -0.73288685 0.010888875
82 309 724 -0.49641278 0.47744334 -0.72499812 0.0042633051
83 309 723 -0.54190058 0.49082068 -0.68223077 0.011296955
84 308 722 -0.48754126 0.45815209 -0.7432363 0.0096671758
85 308 721 -0.6742214 0.34822625 -0.65127879 0.0069251591
86 308 720 -0.62799561 0.33191872 -0.70388317 0.0057783164
87 307 718 -0.65587127 0.38902104 -0.6469124 0.013527742
88 306 717 -0.5864175 0.37938818 -0.71566695 0.0099242246
89 305 715 -0.74330211 0.30169055 -0.59706342 0.0084745474
90 305 714 -0.75601524 0.2952579 -0.58417773 0.011978571
91 304 711 -0.63145906 0.25158307 -0.73346126 0.050586581
92 304 711 -0.41085353 0.33078301 -0.84957755 0.016006626
93 303 710 -0.62199986 0.39785537 -0.67440885 0.0080333287
94 303 709 -0.46681958 0.37485757 -0.80097526 0.01568367
95 302 708 -0.49001083 0.43987694 -0.75259393 0.0040089046
96 302 707 -0.54190058 0.49082068 -0.68223077 0.011296955
97 301 706 -0.48754126 0.45815209 -0.7432363 0.0096671758
98 301 705 -0.56920183 0.40601221 -0.71495694 0.0049402784
99 301 704 -0.61445004 0.514979 -0.59770215 0.0069966679
100 300 702 -0.53393298 0.46325821 -0.70732415 0.0096229613
101 299 701 -0.56281817 0.3722094 -0.7380352 0.014759158
102 299 700 -0.53559309 0.43093061 -0.72624993 0.0080311839
103 298 699 -0.54934037 0.37660035 -0.74592042 0.005017309
104 298 698 -0.5756163 0.46305689 -0.67397642 0.0087241875
105 297 696 -0.57791799 0.69176352 -0.4329828 0.028709676
106 297 695 -0.37215683 0.65584409 -0.65678602 0.012488498
106 296 694 -0.51234066 0.43057537 -0.74304235 0.026985623
107 296 693 -0.47076228 0.54314011 -0.69525665 0.02152404
108 295 692 -0.60792559 0.36846906 -0.7033186 0.01399808
109 295 691 -0.62568933 0.39456847 -0.67292541 0.010125292
110 294 689 -0.62343436 0.31531388 -0.71547651 0.016062198
111 294 689 -0.59445864 0.42130995 -0.68492109 0.01586573
112 294 688 -0.56534922 0.38612241 -0.7288962 0.013451668
113 293 686 -0.66604978 0.32893881 -0.66946024 0.010087751
114 292 685 -0.45490229 0.48680636 -0.74571007 0.019507268
115 292 684 -0.46046877 0.40423384 -0.79029328 0.02131604
116 292 684 -0.2085845 0.40995881 -0.88793361 0.038525756
117 291 683 -0.12257395 0.52108836 -0.84465528 0.018645519
118 292 684 0.2085845 0.40995881 -0.88793361 0.038525756
119 292 684 0.50837368 0.39620271 -0.76457804 0.020872114
121 293 686 0.56683338 0.37800258 -0.73199314 0.0080263177
122 294 688 0.80274361 0.31293502 -0.50761634 0.0037589823
123 294 690 0.7206673 0.33031461 -0.60953337 0.0077507924
125 296 693 0.76314336 0.35740799 -0.53839731 0.0059189778
127 297 696 0.75492334 0.38565472 -0.53043485 0.0055911448
128 298 699 0.73748535 0.34786925 -0.57888031 0.015369651
130 299 702 0.84487623 0.33065307 -0.4205386 0.0036169298
132 301 705 0.70661134 0.36204737 -0.60796553 0.0017737098
133 302 707 0.73177254 0.3753204 -0.56889683 0.0017475934
135 303 710 0.76290244 0.29099593 -0.57732236 0.012052014
136 304 712 0.73342139 0.27592805 -0.62125427 0.0085565969
60 321 749 -0.49042627 0.46524006 -0.73690826 0.0045146761
61 321 748 -0.58821768 0.50220525 -0.63386899 0.0081693837
62 320 746 -0.67376924 0.43650049 -0.59624016 0.0042071948
63 320 745 -0.64099604 0.50108045 -0.58141422 0.0052153086
64 319 743 -0.64729834 0.43971089 -0.62262279 0.0051088403
65 318 742 -0.70201051 0.33813038 -0.62677675 0.0070239799
66 317 740 -0.63200486 0.34935778 -0.69175076 0.0070977183
67 317 739 -0.52346694 0.47282618 -0.70881426 0.014196092
68 316 738 -0.48193923 0.45939559 -0.74611682 0.016204085
70 316 737 -0.36451298 0.36451298 -0.85689014 0.023179667
71 316 736 -0.63256603 0.23255146 -0.73876929 0.012215648
72 315 735 -0.76096201 0.25621882 -0.59606099 0.012706166
73 314 733 -0.75593507 0.29454684 -0.58464026 0.013809593
74 314 732 -0.61331958 0.36759421 -0.69908053 0.010287205
75 313 731 -0.47618306 0.32127848 -0.81855357 0.012058002
76 313 731 -0.65568823 0.26831606 -0.70574743 0.019273173
77 313 729 -0.62018651 0.48035148 -0.62018639 0.020221448
78 312 728 -0.34938994 0.38127622 -0.85589427 0.015606629
79 312 728 -0.37170708 0.60607791 -0.70320928 0.017687548
80 312 727 -0.40016291 0.57851952 -0.71076357 0.013025181
81 312 727 -0.47418287 0.54988247 -0.68758994 0.022268597
82 311 725 -0.52619177 0.49299866 -0.69287419 0.0069041564
83 310 724 -0.52959216 0.42183876 -0.73592412 0.0044273343
84 310 723 -0.48857209 0.45199814 -0.7463209 0.016738392
85 310 722 -0.590904 0.54924029 -0.59090394 0.023920633
86 309 720 -0.66422105 0.34295875 -0.66422111 0.0044077048
87 308 719 -0.66670674 0.43481332 -0.60534245 0.0083148126
88 307 717 -0.63200486 0.34935778 -0.69175076 0.0070977183
89 307 716 -0.76268291 0.34603566 -0.54641944 0.0060786153
90 306 714 -0.7879197 0.26604974 -0.55533785 0.010038003
91 305 712 -0.70652783 0.43845752 -0.55549395 0.0372467
92 305 711 -0.46591803 0.36350176 -0.80671358 0.015961045
93 305 711 -0.48842269 0.31416196 -0.81409186 0.0075249532
94 304 709 -0.63809454 0.39581519 -0.66042846 0.013471286
95 304 709 -0.52933031 0.28799671 -0.79803962 0.023219403
96 303 708 -0.55111063 0.31963658 -0.77078509 0.014532149
97 303 707 -0.56920183 0.40601221 -0.71495694 0.0049402784
98 303 706 -0.52959216 0.42183876 -0.73592412 0.0044273343
99 302 705 -0.5086261 0.4624345 -0.72626019 0.0049266247
100 302 704 -0.52827394 0.58348358 -0.6168254 0.010412559
101 301 702 -0.45636341 0.55399954 -0.69628799 0.01035718
102 300 701 -0.46243444 0.5086261 -0.72626019 0.0049266052
103 300 700 -0.56743026 0.47461417 -0.67287761 0.0063209925
104 300 699 -0.52959216 0.42183876 -0.73592412 0.0044273343
105 299 698 -0.59823412 0.43381861 -0.67373383 0.0076798205
106 298 696 -0.56724668 0.56825787 -0.59608233 0.012015008
107 298 696 -0.50875664 0.50875664 -0.69450223 0.015506066
108 297 694 -0.44178408 0.58885318 -0.67681509 0.0082520638
109 297 693 -0.56124002 0.66514766 -0.49253246 0.013580635
109 296 692 -0.5704875 0.50959784 -0.64409167 0.020585153
110 296 691 -0.59953731 0.39679334 -0.69506127 0.01278673
111 296 690 -0.63696998 0.34620151 -0.68877697 0.0098831058
112 295 688 -0.64352447 0.37785682 -0.66565788 0.0063333968
113 294 687 -0.66350669 0.37213275 -0.64905787 0.010182736
114 294 686 -0.48266235 0.29435474 -0.82485896 0.016864667
115 293 685 -0.41623822 0.47113043 -0.77767724 0.012673887
116 293 684 -0.23592387 0.55396646 -0.79841161 0.019866215
117 293 684 -0 0.5019269 -0.86491007 0.027580695
118 293 684 0.23592387 0.55396646 -0.79841161 0.019866215
119 293 685 0.4493292 0.42809442 -0.78411639 0.009111763
121 294 687 0.66409296 0.39501968 -0.63477558 0.0083949976
122 295 689 0.80598718 0.28649017 -0.51798463 0.0043612593
124 296 692 0.74835593 0.32634467 -0.57746214 0.0066854381
125 298 695 0.71648216 0.37935463 -0.5854429 0.0033112522
127 299 698 0.74270844 0.3589392 -0.56528467 0.01604975
129 300 700 0.70786345 0.33318153 -0.6228317 0.011884883
130 301 703 0.71007591 0.29199353 -0.6407277 0.0032550329
132 302 706 0.73468304 0.37355855 -0.5662992 0.0018942431
133 303 708 0.69870073 0.29475224 -0.65187293 0.009832385
135 304 711 0.78242064 0.26101673 -0.56540966 0.014018361
137 305 713 0.66102362 0.31063688 -0.68304646 0.003688477
61 322 749 -0.57635361 0.43826976 -0.68973631 0.012245073
62 322 748 -0.64516979 0.4905284 -0.58577979 0.0054489272
63 321 746 -0.65258616 0.44841686 -0.61078113 0.010682592
64 321 745 -0.66617572 0.42638671 -0.61188585 0.0070723584
65 320 743 -0.68478334 0.42873567 -0.58928561 0.0093301209
66 319 741 -0.53144687 0.49706832 -0.68592077 0.0086707594
67 318 740 -0.48193923 0.45939559 -0.74611682 0.016204085
69 318 739 -0.45187527 0.51215488 -0.73041493 0.0043052486
70 318 738 -0.49098682 0.47455978 -0.73056483 0.0037739801
71 317 737 -0.56845564 0.3918103 -0.72342438 0.012551426
72 317 736 -0.5191735 0.4956314 -0.69628179 0.0040921113
73 316 734 -0.69694668 0.33817255 -0.63238019 0.0096956948
74 315 733 -0.60139418 0.33120662 -0.72706753 0.0071198302
75 315 732 -0.59918773 0.37945625 -0.7049731 0.0065737204
76 315 731 -0.58228886 0.26047581 -0.77012467 0.011859118
77 314 730 -0.56711316 0.365724 -0.7379896 0.03195291
78 314 729 -0.40763596 0.50352567 -0.76177084 0.01214282
79 314 729 -0.39337203 0.42508551 -0.81520593 0.014515458
80 313 728 -0.30307141 0.5211097 -0.79786742 0.015751524
81 313 728 -0.47091618 0.43487144 -0.76754469 0.023486331
82 312 726 -0.5524413 0.52685797 -0.64593291 0.014485341
83 312 725 -0.51653016 0.5417617 -0.66309184 0.011425268
84 312 724 -0.40715158 0.50669229 -0.75992793 0.01113446
86 311 723 -0.42642379 0.58495587 -0.68991977 0.021660494
86 310 721 -0.59023851 0.58315724 -0.55816323 0.026714064
87 310 720 -0.61778527 0.54632896 -0.56556696 0.028096855
88 309 718 -0.64773428 0.40523568 -0.64515454 0.0050846832
89 308 717 -0.7453115 0.33685511 -0.5753603 0.0097731613
90 308 715 -0.64507633 0.42454708 -0.63532382 0.014964985
91 307 714 -0.54468906 0.36173034 -0.75661421 0.0067365682
92 307 713 -0.57735026 0.57735026 -0.57735026 0
93 306 711 -0.60290879 0.42447659 -0.67551506 0.011514421
94 305 710 -0.56751716 0.30171332 -0.76608968 0.018922031
95 305 709 -0.53434992 0.37039015 -0.75979024 0.018869502
96 305 708 -0.46516305 0.24391612 -0.85095727 0.021395897
97 305 708 -0.40617204 0.38797364 -0.82734555 0.020178145
98 304 707 -0.53559309 0.43093061 -0.72624993 0.0080311839
99 304 706 -0.56281817 0.3722094 -0.7380352 0.014759158
100 303 705 -0.5043233 0.42811835 -0.74991512 0.0082548987
101 303 704 -0.60792559 0.36846906 -0.7033186 0.01399808
102 302 703 -0.54695338 0.49686614 -0.67377007 0.012737295
103 301 701 -0.52533555 0.4496665 -0.72237283 0.0047883051
104 301 700 -0.588471 0.46640635 -0.66042948 0.0059462963
105 301 699 -0.60936427 0.37696108 -0.6975497 0.013061062
106 300 698 -0.59942758 0.40031278 -0.69313496 0.0087367399
107 299 696 -0.53824818 0.46078351 -0.70566809 0.017258756
108 299 695 -0.57257187 0.41080558 -0.70950705 0.010857048
109 298 694 -0.59737456 0.44505745 -0.66713381 0.010675351
110 298 693 -0.67783654 0.59927177 -0.42592353 0.0042019729
110 297 691 -0.67777628 0.47946638 -0.55743277 0.021305187
111 297 691 -0.71964252 0.4308829 -0.54447651 0.020359728
112 296 689 -0.64599717 0.38135314 -0.66125453 0.0081236279
113 296 688 -0.66125453 0.38135314 -0.64599717 0.0081236279
114 295 686 -0.63809454 0.39581519 -0.66042846 0.013471286
115 295 686 -0.56007874 0.24664193 -0.79087269 0.019756857
116 294 685 -0.19420132 0.37471363 -0.90657347 0.068578802
117 294 685 0.06196161 0.3255038 -0.94350839 0.04171779
118 294 685 0.16090652 0.52936864 -0.83299339 0.02236711
119 295 686 0.47868207 0.3141523 -0.81986088 0.010704393
121 296 688 0.74673444 0.32093889 -0.58256841 0.0070033288
122 297 690 0.73041248 0.36374167 -0.57809132 0.013005907
124 298 693 0.82500392 0.28639492 -0.48718211 0.0050368528
127 300 699 0.68192887 0.31581536 -0.65972245 0.011583243
129 302 702 0.7622 0.35938811 -0.53841561 0.011942452
130 303 704 0.72071117 0.37446195 -0.5833984 0.0017485484
132 304 707 0.64973485 0.32336876 -0.68795151 0.010304264
134 305 709 0.70224845 0.3062343 -0.64270347 0.015815794
135 306 712 0.72232908 0.21848476 -0.65612888 0.0073751775
137 307 714 0.69073832 0.3240439 -0.64643341 0.0041025826
63 323 747 -0.68749416 0.36542821 -0.62754607 0.0052213715
64 322 746 -0.63766694 0.40127879 -0.65753794 0.0080820648
65 321 744 -0.69118011 0.45450106 -0.56187087 0.0087766014
66 321 743 -0.5849148 0.55415386 -0.59227377 0.0080305021
68 320 741 -0.43748766 0.5154866 -0.73680258 0.0042942166
69 320 740 -0.49098682 0.47455978 -0.73056483 0.0037739801
70 319 739 -0.5086261 0.4624345 -0.72626019 0.0049266247
71 319 738 -0.47289681 0.47289681 -0.74346292 0.00525541
72 318 737 -0.47289681 0.47289681 -0.74346292 0.00525541
73 318 736 -0.63849944 0.52965367 -0.5583775 0.0073622824
74 317 734 -0.64095318 0.41593847 -0.64511573 0.0075029028
75 317 733 -0.55829793 0.4198907 -0.71553844 0.01087747
76 316 732 -0.506082 0.44674554 -0.73776656 0.011564548
77 316 731 -0.45873415 0.44634268 -0.76833671 0.0097324885
78 315 730 -0.44634265 0.45873412 -0.76833665 0.0097325118
79 315 729 -0.4684999 0.44431019 -0.76360744 0.019392921
80 315 729 -0.27196881 0.44433218 -0.85358179 0.0164953
81 314 728 -0.52017236 0.2693826 -0.81046516 0.013028174
82 314 727 -0.52294189 0.47237757 -0.70950067 0.010569228
84 314 726 -0.48854306 0.34286007 -0.80235445 0.015488854
85 313 725 -0.43560106 0.54508859 -0.71633106 0.015218326
86 313 724 -0.49098063 0.4535982 -0.74376523 0.030059163
87 312 723 -0.62229526 0.44991529 -0.64056611 0.03041096
88 311 721 -0.63625497 0.6035884 -0.48047966 0.011923664
88 310 719 -0.63170928 0.56907457 -0.52640051 0.016960224
89 310 718 -0.5885852 0.52183032 -0.61746305 0.0062835342
90 309 716 -0.61128819 0.52712739 -0.59030795 0.019827694
91 309 715 -0.38547605 0.58237338 -0.715716 0.0067618797
92 308 714 -0.38134801 0.58171886 -0.71845454 0.010105836
93 308 713 -0.50325358 0.65195632 -0.56717622 0.010452827
94 307 711 -0.62692362 0.44573218 -0.63897538 0.0063714501
95 307 710 -0.52959216 0.42183876 -0.73592412 0.0044273343
96 306 709 -0.49817774 0.39210945 -0.77334929 0.013522015
97 306 708 -0.42817178 0.37676391 -0.82141203 0.024053097
98 306 708 -0.56260008 0.21935691 -0.79709703 0.023148654
99 305 707 -0.64286995 0.24991095 -0.72405982 0.015114072
100 305 706 -0.64551491 0.18058455 -0.74209148 0.015996302
101 304 705 -0.63878113 0.31924212 -0.7000308 0.018443393
102 303 703 -0.61632919 0.4200426 -0.66610998 0.016634865
103 303 702 -0.68876272 0.32698154 -0.64706177 0.0068360902
104 303 701 -0.61234367 0.34758124 -0.71008635 0.0081493398
105 302 700 -0.64773428 0.40523568 -0.64515454 0.0050846832
106 301 698 -0.63669634 0.3186807 -0.70218265 0.0072449693
107 301 697 -0.65276581 0.27390757 -0.70630825 0.0092875939
108 300 696 -0.56845564 0.3918103 -0.72342438 0.012551426
109 300 695 -0.5086261 0.4624345 -0.72626019 0.0049266247
110 299 694 -0.62178421 0.44915226 -0.64159691 0.013958127
111 299 692 -0.65088159 0.4956708 -0.57503355 0.018668806
111 298 691 -0.61091459 0.56672627 -0.55281532 0.030807765
112 298 690 -0.56514484 0.44647199 -0.69373924 0.040788669
113 297 689 -0.61887944 0.48656017 -0.61664212 0.018247411
114 296 687 -0.61384869 0.40096402 -0.68001294 0.015183173
115 296 686 -0.52582628 0.47822815 -0.70342344 0.021293223
116 296 685 -0.34719428 0.25976059 -0.90109962 0.041872997
117 296 685 -0 0.33100694 -0.94362825 0.054151859
118 296 686 0.44379407 0.47264355 -0.76135075 0.010985919
120 296 687 0.44046164 0.37172601 -0.81719846 0.010372475
121 297 688 0.71619278 0.34045282 -0.60922879 0.012392637
122 298 690 0.61046648 0.46955276 -0.63784873 0.013960021
124 299 694 0.86472112 0.32026163 -0.38689783 0.001456462
127 302 700 0.71792048 0.32807389 -0.61396885 0.012769196
129 303 703 0.81079918 0.31404757 -0.49394223 0.0022496395
131 304 706 0.72796154 0.3654218 -0.58011967 0.0011354677
132 305 708 0.68922704 0.30100226 -0.65906274 0.01677062
134 306 710 0.75542235 0.30645671 -0.57915568 0.018979425
135 307 712 0.72880006 0.31132865 -0.60985643 0.0068883281
137 308 715 0.69173253 0.32785216 -0.64344317 0.0037144199
64 323 746 -0.70563251 0.32205936 -0.63115817 0.0049529667
65 323 745 -0.66106373 0.40458766 -0.63190478 0.0082238456
66 322 743 -0.54244435 0.45761347 -0.70451683 0.009160961
68 322 742 -0.45528847 0.44083902 -0.77354604 0.0061929347
69 321 741 -0.5086261 0.4624345 -0.72626019 0.0049266247
70 321 740 -0.51850313 0.3762944 -0.7678262 0.01644882
71 320 739 -0.47289681 0.47289681 -0.74346292 0.00525541
72 320 738 -0.66379458 0.3446064 -0.66379458 0.02034767
73 319 737 -0.64768887 0.36105976 -0.67092103 0.021801
74 319 735 -0.69445848 0.43037564 -0.57663184 0.006289612
75 318 734 -0.58429205 0.4439086 -0.67937326 0.010294165
76 317 732 -0.506082 0.44674554 -0.73776656 0.011564548
77 317 732 -0.45599297 0.48790953 -0.74432158 0.010644185
78 317 731 -0.42627606 0.47543326 -0.76957905 0.0086674085
79 316 730 -0.49012324 0.37316677 -0.78773463 0.0096342145
80 316 729 -0.26475042 0.32276455 -0.90869713 0.014478412
82 316 729 -0.29049522 0.38681954 -0.87520468 0.014223869
83 316 728 -0.57043606 0.3078582 -0.76146311 0.014452999
84 315 727 -0.51978254 0.49122912 -0.69894207 0.01190918
85 315 726 -0.58445287 0.31007493 -0.74984556 0.01139686
86 314 725 -0.5864175 0.37938818 -0.71566695 0.0099242246
87 313 723 -0.74330211 0.30169055 -0.59706342 0.0084745474
88 313 722 -0.76489693 0.29100308 -0.57467383 0.0067668124
89 312 720 -0.74206871 0.41571519 -0.52584678 0.012676709
90 312 719 -0.63493955 0.44163546 -0.63388479 0.0083784703
91 311 717 -0.48419526 0.56375372 -0.66913128 0.0072402423
92 310 716 -0.43799174 0.59734076 -0.67182386 0.0088585671
93 310 715 -0.39685872 0.59435934 -0.69945711 0.013600022
94 309 714 -0.40400383 0.61275202 -0.67920238 0.010560104
95 309 713 -0.62455648 0.60519856 -0.4936232 0.022509141
95 308 711 -0.52181518 0.66407263 -0.53545916 0.012058742
96 308 710 -0.48395699 0.57486171 -0.6597876 0.021659153
97 307 709 -0.53287816 0.32549956 -0.78108311 0.013554813
98 307 708 -0.41530424 0.55124623 -0.72363663 0.049061831
99 306 707 -0.70710677 -0 -0.70710677 0
100 306 706 -0.70710677 -0 -0.70710677 0
101 305 705 -0.60810739 0.28996608 -0.73900276 0.022140553
102 305 704 -0.71559459 0.26668766 -0.64560205 0.02120069
103 305 703 -0.63612044 0.30102244 -0.71044797 0.0078770518
104 304 702 -0.61331958 0.36759421 -0.69908053 0.010287205
105 304 701 -0.66709614 0.2632426 -0.69691181 0.0096351886
106 303 699 -0.70254928 0.34394282 -0.62299913 0.0077754566
107 302 698 -0.61331958 0.36759421 -0.69908053 0.010287205
108 302 697 -0.61623967 0.26176465 -0.74278384 0.018408349
109 301 696 -0.55111063 0.31963658 -0.77078509 0.014532149
110 301 695 -0.6742214 0.34822625 -0.65127879 0.0069251591
111 301 694 -0.70525432 0.34237266 -0.62080377 0.0051088138
112 300 692 -0.66714358 0.47743315 -0.57181901 0.033265267
113 299 691 -0.53950435 0.54004622 -0.64597613 0.051459037
114 299 690 -0.65806514 0.50921887 -0.55465877 0.043505199
114 298 688 -0.68722999 0.4597486 -0.56244671 0.015237906
115 297 687 -0.4736014 0.41480508 -0.77694172 0.011385144
116 297 686 -0.059494529 0.61735857 -0.78442895 0.08361531
117 297 686 0.059494529 0.61735857 -0.78442895 0.08361531
118 297 687 0.36226571 0.39551896 -0.84399551 0.0066073164
120 298 688 0.4256213 0.33721405 -0.83972216 0.018631052
121 299 690 0.71071976 0.44648758 -0.54362333 0.0080117285
123 300 692 0.75182915 0.26276219 -0.60473877 0.01756162
124 301 695 0.86022186 0.30362624 -0.40966988 0.0034835951
126 302 698 0.8032558 0.25360897 -0.53894585 0.0082199872
128 303 701 0.74413252 0.37150514 -0.55520332 0.010779584
129 305 704 0.7860536 0.29212028 -0.54478019 0.0038398542
131 306 707 0.76547694 0.26261944 -0.58743179 0.0047606071
132 307 709 0.68570989 0.29424646 -0.66574842 0.014393176
134 308 711 0.77869081 0.2937471 -0.55439448 0.0043592523
135 309 713 0.7132715 0.33499202 -0.61564928 0.0024581526
137 310 716 0.68799818 0.36238161 -0.62875915 0.0022576908
67 324 744 -0.48073682 0.50057477 -0.71994245 0.0059094839
68 323 743 -0.43952328 0.52333444 -0.73002762 0.0051880423
69 323 742 -0.50696295 0.45836422 -0.72999376 0.0042315884
70 322 741 -0.57257187 0.41080558 -0.70950705 0.010857048
71 322 740 -0.53544384 0.33549094 -0.77507788 0.014235888
72 321 739 -0.64507633 0.42454708 -0.63532382 0.014964985
73 321 737 -0.65568823 0.26831606 -0.70574743 0.019273173
74 321 737 -0.56899917 0.33240271 -0.75216246 0.017811133
75 320 735 -0.57333881 0.42977175 -0.69755203 0.017594412
76 319 733 -0.47582936 0.52137727 -0.7083447 0.018681461
77 319 733 -0.45134637 0.49478036 -0.74261624 0.022761978
78 318 732 -0.53380328 0.46383771 -0.70704216 0.017469795
79 318 731 -0.50031817 0.45537719 -0.7364192 0.029678708
80 318 730 -0.36082602 0.46363753 -0.80922484 0.017556638
82 317 729 -0.32325187 0.41943622 -0.84828144 0.018859684
83 317 729 -0.56147057 0.36815956 -0.74108654 0.019035855
84 317 728 -0.56147057 0.36815956 -0.74108654 0.019035855
85 316 726 -0.58773386 0.42207414 -0.69023347 0.009519184
86 315 725 -0.59203374 0.32904911 -0.73567843 0.013010449
87 315 724 -0.70762467 0.41337273 -0.57305348 0.0076620188
88 314 722 -0.74283248 0.26631677 -0.61422735 0.0060410853
89 314 721 -0.67507035 0.36053729 -0.64365578 0.0080339611
90 313 719 -0.61958802 0.35967645 -0.69767016 0.0086119901
91 312 718 -0.54385972 0.45695525 -0.70385253 0.0096866675
92 312 717 -0.47289681 0.47289681 -0.74346292 0.00525541
93 311 716 -0.49993035 0.50198358 -0.70574933 0.0078152064
94 310 714 -0.64632255 0.28590634 -0.70747763 0.015453883
95 310 714 -0.65568823 0.26831606 -0.70574743 0.019273173
96 310 712 -0.64622152 0.40595034 -0.64622146 0.014476154
97 309 711 -0.45008981 0.63462424 -0.6282286 0.011910708
97 308 709 -0.39089295 0.61587584 -0.68403202 0.027566658
99 308 709 -0.38167793 0.58684909 -0.71409386 0.031901065
99 307 707 -0.58888429 0.33904666 -0.73366386 0.045105811
100 307 706 -0.59579331 0.37121272 -0.71220183 0.043423239
101 306 705 -0.60719448 0.11616141 -0.78601617 0.021396155
102 306 705 -0.71471494 0.23255154 -0.65962291 0.019440725
103 306 703 -0.65930343 0.36143905 -0.65930325 0.015835648
104 305 702 -0.5907926 0.28687468 -0.75410014 0.012564223
105 305 701 -0.69691187 0.2632426 -0.6670962 0.0096351886
106 304 700 -0.70059645 0.32001573 -0.6377731 0.0099492846
107 303 698 -0.61331958 0.36759421 -0.69908053 0.010287205
