ply
format ascii 1.0
comment VCGLIB generated
element vertex 980
property float x
property float y
property float z
property float nx
property float ny
property float nz
element face 0
property list uchar int vertex_indices
end_header
-158 101 574 -0.7550656 -0.264029 -0.6001372 
58.4 101.4 582.6 0.07670449 -0.8736503 -0.4804703 
-157 99.66666 572.6667 -0.6033147 -0.4540339 -0.6556407 
74.5 103.5 600.5 0.6515414 -0.7463896 -0.1356337 
45 100 583 0.02639215 -0.8776727 -0.4785333 
46.66667 100 584.6667 0.02409701 -0.8820094 -0.4706154 
-153.6667 97 574.3333 -0.1444125 -0.7912481 -0.5941983 
72.5 101.5 600.5 0.6497341 -0.7458055 -0.1470364 
48.5 99 586.5 0.04201165 -0.8849282 -0.4638287 
50.5 98 587 0.04825437 -0.8886456 -0.4560485 
54.5 98 590 0.04256738 -0.9056003 -0.4219906 
48.6 97.6 588.4 0.05256431 -0.8866514 -0.4594412 
-155.5 95 578.5 -0.1004837 -0.8755417 -0.4725777 
53 97 592 0.0649129 -0.8983337 -0.4344915 
70 98 606 0.6420287 -0.7541058 -0.138288 
58.5 96 593 0.08082006 -0.9072767 -0.412695 
-155.3333 94 580.3333 -0.09799927 -0.9213092 -0.3762786 
67 97 603 0.6066143 -0.7784392 -0.1614055 
66 96 600 0.5400028 -0.8149925 -0.2102008 
64.5 95.5 598.5 0.4344796 -0.8587611 -0.2715822 
54.5 95 596 0.0674115 -0.8465004 -0.5281031 
52.33333 95 594.3333 0.07037304 -0.8574143 -0.5097923 
63 94 603 0.5206602 -0.8169177 -0.24811 
52.5 93.5 596.5 0.06748369 -0.8396254 -0.5389575 
34.5 92 597 0.001504776 -0.8811132 -0.4729031 
22.5 89.5 598.5 0.1854349 -0.8479339 -0.4966105 
26.5 89 602 0.1201701 -0.8764821 -0.4661956 
21 89 600 0.2703173 -0.8163718 -0.5103584 
-63.33333 76 514 -0.2786098 0.4906336 -0.8256242 
23 87 604 0.2225273 -0.8455393 -0.4853298 
20.66667 87.33334 602.3333 0.3086194 -0.8297506 -0.4650463 
64 90 628 0.7338516 -0.648918 -0.2009162 
-55 73 509 -0.3210833 0.4672302 -0.8237727 
20.5 85.5 604.5 0.3031703 -0.8181899 -0.4885214 
-68 72 514 -0.4898073 0.43256 -0.7569549 
19 85 606 0.3257152 -0.8026195 -0.4997114 
18 84 605 0.3597985 -0.7927808 -0.4919795 
-57.5 71 509 -0.259786 0.5091586 -0.8205296 
-63.5 71.5 510.75 -0.3060527 0.4909754 -0.8156439 
22.5 84 609 0.2482971 -0.8316936 -0.496623 
20 84 607 0.3130525 -0.8142799 -0.4888215 
16 83.5 602 0.354473 -0.7982124 -0.4870378 
61 86 628 0.8200088 -0.5270838 -0.2230881 
24.66667 83.33334 610.6667 0.2022723 -0.8430195 -0.4984014 
-57 69 507 -0.2313515 0.4849084 -0.8434099 
-59.5 69.5 508.5 -0.2697459 0.4996057 -0.8231837 
27 83 613 0.1808767 -0.8494 -0.4957856 
24.33333 82 612.3333 0.2148342 -0.8380082 -0.5015861 
-61.4 67.8 508.4 -0.3135116 0.4778676 -0.8205808 
-63.66667 66 508 -0.3600406 0.4725107 -0.804428 
-61.5 65.5 506.5 -0.2950837 0.4470954 -0.8444118 
-61.33333 63.33333 505 -0.269587 0.460799 -0.8455691 
-66 63.5 508 -0.4377855 0.4346735 -0.7870215 
46.5 76 625 -0.1505451 -0.731597 -0.6649075 
-68 62 508 -0.4889745 0.4253319 -0.7615752 
48.5 75 626 -0.06971961 -0.7156754 -0.6949446 
-63.5 61 505 -0.3476036 0.4193154 -0.8386575 
-65.5 61.66667 506.1667 -0.409669 0.4322915 -0.8033028 
-31.66667 59.5 498 -0.03366474 0.4373825 -0.8986452 
-34 59 497 -0.03540597 0.4184816 -0.9075349 
-25.5 4 480.5 -0.3170482 0.6448151 -0.6954811 
-27 3 479 -0.3356344 0.6956663 -0.6351362 
-25.6 1.8 478.2 -0.2435896 0.6864599 -0.6851547 
-35 -3 477 -0.2838114 0.7824388 -0.554293 
-5.833333 5.5 486.6667 0.542226 0.5436134 -0.6406835 
4.333333 7.333333 506.6667 0.7924131 0.527297 -0.3066587 
6 7 509 0.7945682 0.5217599 -0.3105287 
-7.666667 7.333333 486.6667 0.5530887 0.4701599 -0.687781 
-5.8 7.4 488.4 0.6065011 0.4774985 -0.6357291 
-31.66667 9.333333 484.3333 -0.1964819 -0.1781439 -0.9641886 
-9.714286 9.285714 486.5714 0.5294132 0.4224111 -0.7357245 
-5.571429 9.714286 490.4286 0.6668203 0.4246119 -0.6124176 
-29.5 11.5 484 -0.1127515 -0.08608183 -0.9898874 
-11.5 11.5 486 0.4351953 0.4141745 -0.7994152 
-9.5 11.5 488.25 0.5662514 0.3909694 -0.7256048 
-5.333333 11.66667 492 0.7146283 0.3932339 -0.5785096 
-7 12 490 0.6604565 0.3812409 -0.6468792 
-41.66667 13.33333 482.7778 0.04969787 -0.1399114 -0.9889161 
-43.5 15.66667 483 -0.1722597 0.1110871 -0.9787678 
-37.5 17.5 483 0.1434606 0.1397347 -0.9797415 
-39.33333 19.66667 482.7778 0.04883398 0.2968009 -0.9536899 
-3.5 21.5 501 0.8403867 0.3151656 -0.4409316 
-51.33333 21 484.6667 -0.0572918 -0.5122479 -0.8569245 
-51.5 23 482.5 -0.04250919 -0.4806211 -0.8758975 
-45.8 25.6 482.6 0.347775 -0.1389082 -0.9272309 
-47.5 27.33333 482.3333 0.1107623 0.1557877 -0.981561 
-47.5 32 486 -0.07731293 0.4931475 -0.8665035 
-49.5 33.5 486 -0.1297838 0.5084838 -0.8512347 
-51.6 35.4 487 -0.1351329 0.4863594 -0.863246 
-49.5 36 488 -0.1036378 0.5010855 -0.8591697 
-39.5 37.5 488 0.03854916 0.3246052 -0.9450637 
-37.33333 39.5 488 -0.007536471 0.2792434 -0.9601908 
-43.5 41 489 -0.1174364 0.4333626 -0.8935355 
-37 41.5 490 -0.066672 0.4237617 -0.9033166 
-39.5 43.5 490.5 -0.0665838 0.4546522 -0.8881768 
-51 44 494 -0.1375562 0.5111002 -0.8484427 
-35.6 45.8 492 -0.07325223 0.4687959 -0.8802639 
-33.71429 45.14286 491 -0.0753763 0.4838384 -0.8719053 
-21 45 494 0.7380603 -0.295306 -0.6066806 
-33.5 47.5 492.5 -0.07538384 0.4606521 -0.8843737 
-31.33333 49.33333 493 -0.05379348 0.4640193 -0.8841902 
-27.375 51.375 494 -0.007299854 0.4441403 -0.8959275 
-29.33333 53.33333 495 -0.05258306 0.4412199 -0.8958572 
-31.66667 54 496 -0.05321258 0.4290101 -0.901731 
-29.5 55.5 496 -0.0241268 0.4099517 -0.9117881 
46.66667 72 628.6667 -0.2321877 -0.7378334 -0.6337907 
-35.66667 57.5 497 -0.02829648 0.4034074 -0.9145829 
-30 57 498 -0.02331921 0.4245051 -0.9051252 
50.66667 73.33334 626.3333 -0.04512331 -0.710753 -0.701993 
-150 111.5 560 -0.8455771 -0.1708757 -0.5057678 
-137.5 111.5 548.5 -0.02258452 -0.8679388 -0.4961576 
-135.5 113 548 0.02224138 -0.8668386 -0.4980927 
-133.5 114 546.5 0.06233853 -0.8609007 -0.5049396 
-137.6667 115 544 -0.1045986 -0.8252602 -0.5549818 
-139.5 116 542.5 -0.3596457 -0.7233876 -0.5893772 
-141 117 543 -0.5223964 -0.6060323 -0.5998557 
-139.25 117.75 540.75 -0.5059196 -0.6128631 -0.6069961 
-167 124 571 -0.4319706 -0.8256748 -0.3628533 
-142 119.5 544 -0.8101959 -0.284818 -0.5123098 
-137.5 118 539 -0.3435383 -0.7255083 -0.596338 
-144 121.5 549 -0.8814968 -0.03734642 -0.470711 
-139 119.3333 538.3333 -0.5062673 -0.6062562 -0.6133081 
-133.5 119 536 -0.1429995 -0.8427226 -0.5190085 
-135 120 535 -0.330641 -0.7644231 -0.5534744 
-127.6 121.6 532.6 -0.0212396 -0.8710901 -0.4906636 
-138 123.5 537 -0.7722408 -0.3473072 -0.531998 
-137 122 535 -0.6522968 -0.5191396 -0.5522708 
-125.5 122 531 0.01010564 -0.8592666 -0.5114281 
-127.5 123 530 -0.04834014 -0.8342904 -0.5492019 
-129.4 123.4 528.6 -0.1185187 -0.800979 -0.5868442 
-105.5 125 530 0.06482563 -0.8640141 -0.4992768 
-103.6667 125.6667 528.6667 0.06696264 -0.8548636 -0.5145135 
-103.5 127 526.25 0.0573003 -0.8414178 -0.5373386 
-102 127 528 0.04441569 -0.8515806 -0.5223387 
-113.4 127 524.6 0.03370542 -0.8506644 -0.5246275 
-115.5 128 523 0.02360959 -0.8297891 -0.5575775 
-109.3333 129 522 0.07698811 -0.8390411 -0.5385934 
-115.5 129.5 521 0.03044187 -0.8314339 -0.5547891 
-113.5 131 520 0.01027345 -0.8456509 -0.5336376 
-115.5 131.5 518.75 0.02338672 -0.8631008 -0.50449 
-117.5 131.75 516.75 0.09693778 -0.8817497 -0.4616499 
-101 133 518 0.07725067 -0.9060839 -0.4159859 
-129 135.5 516 -0.7661022 -0.3251633 -0.5543972 
-121.5 136 508.5 -0.2571954 -0.8079572 -0.5301469 
-117.5 137 506.5 -0.06749508 -0.8645906 -0.4979231 
-122 139 504.3333 -0.430692 -0.6866625 -0.5856613 
-122 143.5 501 -0.7649322 -0.3082746 -0.565549 
-117.4286 143.2857 496.4286 -0.3985632 -0.6910059 -0.6030408 
-143.6667 153.3333 516 0.001645952 -0.8685466 -0.4956049 
-141.5 154 515 0.006932891 -0.8689641 -0.4948266 
-143.5 155 514 -0.01344132 -0.8473387 -0.5308827 
-145.4 155.4 512.6 0.00476005 -0.8042552 -0.594265 
-147.3333 156 511 0.01866607 -0.7116054 -0.7023314 
-149.3333 157.5 510 -0.01362197 -0.5015094 -0.865045 
-117 154 491 -0.8898686 -0.09582263 -0.4460403 
-153.1429 161.5714 510 -0.1218088 0.1477845 -0.9814898 
-155.2 163 511 -0.124311 0.2700634 -0.954784 
-159.5714 165.2857 512.2857 -0.08480766 0.3607965 -0.9287807 
-163.4 168 514 -0.1001297 0.3732276 -0.9223207 
-157.6667 167.3333 513 -0.09766373 0.3798886 -0.9198622 
-157.5 169.5 514 -0.1159975 0.3667272 -0.9230686 
-159.5 171.5 515 -0.08435862 0.3404343 -0.9364764 
-171.3333 173.5 516 0.02525521 0.1975475 -0.979968 
-169.5 175.5 517 0.07896326 0.1842505 -0.9797023 
-167.6667 177.3333 517 0.04937837 0.08934935 -0.9947756 
-165.5 179 517 -0.01676384 -0.1177388 -0.9929031 
74.5 105.5 587 0.6047794 -0.7796826 -0.1622868 
73 105 588 0.5935901 -0.7865222 -0.1703928 
71 103 589 0.5740014 -0.7907459 -0.2127049 
69 103 586 0.4274579 -0.8398608 -0.334535 
69 101.5 588.5 0.4947451 -0.8063938 -0.3239699 
62.33333 100 585 0.1641463 -0.8508562 -0.4990989 
68.5 100 590.5 0.5231143 -0.8124026 -0.2575919 
66.5 99 589 0.3968449 -0.8439171 -0.360996 
64 99.66666 586.3333 0.2349398 -0.8498376 -0.4717831 
64 98 589 0.2714392 -0.8761683 -0.3983088 
-54 82 514 -0.3543445 0.4561075 -0.816337 
-55.33333 83.33334 515 -0.3724653 0.428274 -0.823317 
50 93 598 0.06605595 -0.8383937 -0.5410477 
15 91.5 592.5 0.3163888 -0.7833116 -0.5350899 
-53.6 79.8 512 -0.3479097 0.4520637 -0.8213387 
-59.25 79.5 515 -0.3196363 0.4667684 -0.8245968 
36.5 91 599 -0.01018465 -0.8918304 -0.4522553 
19 91 596 0.290026 -0.8056265 -0.5165762 
16.5 91.5 594.5 0.2925324 -0.7850955 -0.5459395 
14 90 591 0.3085637 -0.7812894 -0.5425636 
38.5 90 599 -0.01396581 -0.8943374 -0.4471751 
-53.5 77.5 510.5 -0.3536043 0.4404932 -0.8251847 
-55.66667 77.66666 512 -0.3857221 0.426982 -0.817866 
-58 77.5 514 -0.3348185 0.4566554 -0.8242344 
36.5 90 601 -0.006108613 -0.9035773 -0.4283817 
16.5 89.5 596.5 0.3224265 -0.7829341 -0.5320294 
42.5 89 603 0.04102936 -0.9025483 -0.4286296 
38.5 88 604 -0.01738465 -0.9006221 -0.4342552 
15 87.5 596.5 0.3649668 -0.7683368 -0.5257925 
32.66667 87.33334 606.6667 0.09735258 -0.8722919 -0.4791965 
59 87 616 0.6664973 -0.6867121 -0.290186 
32.5 86 608 0.1038904 -0.8735324 -0.4755502 
41 84 611 -0.01503342 -0.8539495 -0.5201387 
66.5 87.5 641 0.6161774 -0.7239111 -0.3102872 
65 87 638 0.6934338 -0.6569641 -0.2958848 
42.5 83.5 612.5 0.006344806 -0.8589765 -0.5119758 
44.5 83 614 0.04095588 -0.8722747 -0.4872982 
65 85.5 640.5 0.6866875 -0.6662573 -0.2907947 
46 82 615 0.05639968 -0.864077 -0.5001901 
44.5 82 616 0.01833013 -0.8876126 -0.4602259 
51 81 618 0.1129272 -0.8357199 -0.5374194 
-72 67.5 514 -0.6725277 0.3633208 -0.6447515 
44.5 80 618.5 -0.009697195 -0.8781992 -0.4781969 
46.5 80 620 -0.02540633 -0.855544 -0.5171066 
56 79 622 0.5260661 -0.7170088 -0.4573323 
56 77 625 0.5127947 -0.7396789 -0.4357944 
-71 63.66667 511 -0.641547 0.3626284 -0.6759572 
-74 64 516 -0.8645624 0.2167821 -0.4533623 
-72 62 512 -0.7815411 0.2825896 -0.5561804 
-46 60 500 -0.1992494 0.4515455 -0.8697162 
-47 59 499 -0.2221701 0.4259708 -0.8770345 
-51.25 5.625 485 0.1341121 -0.1700801 -0.9762616 
2 3 493 0.6028227 0.7130451 -0.3580106 
0.3333333 3.333333 490.6667 0.5715476 0.7062798 -0.4177347 
-1.75 3.25 488.75 0.5451359 0.7000858 -0.4612015 
-3.5 3.5 486.75 0.4963261 0.6648732 -0.558215 
5 2 497 0.6330207 0.7148404 -0.2971331 
2 2 490.5 0.5607958 0.736392 -0.3784637 
-1.75 2 486.5 0.4562234 0.7352564 -0.5012566 
9 1 501 0.7712799 0.6008091 -0.2101328 
6 1 495 0.6406934 0.7038816 -0.3066962 
3 0 488 0.5777937 0.7106031 -0.4014945 
1 0 486 0.49556 0.7493575 -0.4391853 
8 -1 495 0.7831452 0.5384052 -0.3111323 
-37 -1 481 -0.3091475 0.807349 -0.5026087 
-41 -1 485 -0.257723 0.6878507 -0.6785575 
-41.5 -2 482 -0.2804212 0.7996781 -0.5309228 
-43.5 -2 484.75 -0.2702529 0.6641493 -0.6970431 
10 -3 495 0.9207657 0.2694594 -0.2821032 
-37.25 -2.75 478.5 -0.2866315 0.8030297 -0.5224804 
-39.66667 -2.333333 480.6667 -0.2869922 0.8223737 -0.4912606 
1 6 496.5 0.7084745 0.5918728 -0.3843834 
-49.5 7.5 485 -0.05568165 -0.1615416 -0.9852939 
-47.33333 9 484 -0.1255962 -0.1592048 -0.9792238 
1 9.5 500.5 0.8012899 0.4646418 -0.3768854 
-45.66667 9.5 483 -0.05174998 -0.189735 -0.9804706 
-2 11 497 0.8052404 0.4085125 -0.4297737 
-47.33333 11.33333 483 -0.1868053 -0.07410087 -0.9795983 
-3 11.5 494 0.7759969 0.4079105 -0.48108 
-27.75 13.375 484 -0.09232171 0.03856236 -0.9949822 
-25.5 13 483 -0.07487534 0.1058108 -0.9915633 
-13.57143 13.42857 486.1429 0.3714997 0.3928584 -0.8412195 
0.5 13.5 504.5 0.8675967 0.353285 -0.3499509 
4 14 517 0.9040606 0.3261563 -0.2762184 
-5.5 14 494 0.7565865 0.3606009 -0.5454757 
-25.33333 15.5 484.1667 -0.01081783 0.2066455 -0.9783561 
-15.5 15.5 486.5 0.3553515 0.3424334 -0.8697498 
-13 16 488 0.446741 0.3647205 -0.8169464 
1 17.33333 509 0.9137965 0.2603614 -0.3117496 
-23.5 17.33333 484 0.09585667 0.3406318 -0.9352975 
-17.55556 17.33333 486.5555 0.3222763 0.3434489 -0.8821456 
-2 17.5 502 0.87635 0.2878842 -0.3861778 
-1 19.5 505 0.8853953 0.2745611 -0.3750885 
0 19 507 0.9002759 0.2579089 -0.3506938 
-21.5 19 485 0.1959296 0.3832548 -0.9026225 
-19.5 19.5 486 0.2524809 0.3803472 -0.8897132 
-10 21 491 0.5941256 0.3768435 -0.7106361 
-35.66667 21.5 484.6667 0.148556 0.4100829 -0.8998685 
-11 22 492 0.5671839 0.4270141 -0.7042453 
0 23 511 0.9021075 0.2804984 -0.3279065 
-1 25.5 511 0.8971183 0.2779087 -0.3434322 
1 25.5 516.5 0.9253605 0.2213287 -0.3077686 
-1 27.33333 512.3333 0.9090489 0.222271 -0.3524566 
0 27.5 515 0.9161551 0.2059957 -0.3438397 
-33.66667 29 491 0.3030115 0.4327143 -0.8490833 
-35 30 492 0.4644606 0.133959 -0.8754035 
-35.66667 31.66667 490.6667 0.5296618 -0.1324164 -0.8378093 
-33.66667 31.5 492.6667 0.4464263 -2.408773e-05 -0.8948204 
-23.25 31.75 494 0.162547 0.5908905 -0.7902069 
-35.6 33.4 488.4 0.5368866 -0.2169805 -0.8152743 
-31.4 33.8 492.6 0.551243 -0.2222702 -0.8041934 
-25.5 33.5 494 0.3003981 0.3309686 -0.8945506 
-27.66667 35.33333 495 0.4782828 -0.02284699 -0.8779086 
-33.33333 35.66667 488.1111 0.3946829 -0.3250416 -0.8594029 
-31.33333 35.33333 490.3333 0.5043952 -0.3889003 -0.7709359 
-30 35.33333 492.3333 0.6045747 -0.3246474 -0.7273881 
-25.5 35.5 496.5 0.4214573 0.162367 -0.8921943 
-27.66667 38 492.6667 0.6518925 -0.4108779 -0.6373503 
-27.5 39.5 490 0.5779297 -0.3515199 -0.7364992 
-26 40 493 0.6576324 -0.452709 -0.6021414 
-27.5 41.33333 489 0.4709249 -0.1419757 -0.8706737 
-23.66667 42 492.6667 0.6519974 -0.43582 -0.6204517 
-24 43.5 491 0.5750162 -0.2444209 -0.7807783 
-22 44 492.5 0.6845418 -0.3344219 -0.647738 
-41.5 50 494 -0.1102043 0.4446746 -0.8888867 
-43.66667 51 495 -0.1670199 0.4460427 -0.8792896 
-42 52 496 -0.1380171 0.4406664 -0.8869974 
-49.5 53.75 498 -0.2260746 0.4214841 -0.8782036 
-47.5 53 497 -0.2136039 0.4158593 -0.8839878 
-51.5 55.5 499 -0.2234534 0.4154501 -0.8817425 
-45 55 497 -0.1933058 0.4103409 -0.8912089 
-45.33333 57.44444 498.2222 -0.2001068 0.3972884 -0.8956111 
-48 58 500 -0.2336069 0.421523 -0.8762113 
-73.5 61.5 514.5 -0.8640079 0.203355 -0.4605836 
-163 117 580 -0.4375048 -0.7043397 -0.5590127 
-161.5 117.5 578 -0.3809194 -0.7106029 -0.5915605 
-159 118 577 -0.4141965 -0.6681931 -0.6180286 
-155 117.5 572 -0.7374718 -0.3598965 -0.5714979 
-158 119 576 -0.4381205 -0.6410463 -0.6301667 
-119.6667 113 548.6667 0.0631293 -0.8825119 -0.4660336 
-154 118 571 -0.7678426 -0.3130026 -0.5589697 
-159.5 120 575 -0.3114679 -0.7458133 -0.588855 
-152 119.3333 566.6667 -0.8135383 -0.2500283 -0.5250157 
-161.5 121 574 -0.1715833 -0.819683 -0.5465153 
-121.5 115.5 544.5 0.05554871 -0.8931977 -0.4462201 
-119 115 546 0.07962541 -0.8866681 -0.4554992 
-123.5 116 542 0.02889137 -0.8847446 -0.4651798 
-123.5 117.1667 540.3333 0.03832249 -0.8873003 -0.4595974 
-154 123 568 -0.4629644 -0.6391273 -0.61415 
-121.5 118 539 0.04802056 -0.889388 -0.454624 
-123.3333 119 538.3333 0.03680382 -0.8871884 -0.4599372 
-117.6667 120 536 0.08838443 -0.8831508 -0.4606875 
-121.5 121 535 0.05835942 -0.8860928 -0.4598191 
-89.5 125.5 530.5 0.06505083 -0.8745073 -0.4806302 
-87 126 529 0.08400444 -0.86915 -0.4873617 
-85.5 127 528 0.07400073 -0.8718947 -0.4840697 
-87.5 127.6667 526.5 0.06002861 -0.863907 -0.5000613 
-97.4 128 524.2 0.008346695 -0.844695 -0.535183 
-95.66666 129 524 0.0198224 -0.8304428 -0.5567511 
-93.5 130 522.5 0.01358136 -0.8260043 -0.5635002 
-97.42857 131.5714 520.4286 0.04963785 -0.8482993 -0.5271853 
-100 132 519 0.05497823 -0.8858922 -0.4606219 
-85.5 133.5 518 0.04551449 -0.8250128 -0.5632783 
-129.5 151.75 516.5 -0.5015025 -0.5858814 -0.6365834 
-125 149.5 510 -0.8717515 -0.1193328 -0.4751936 
-123 151.5 506 -0.8791735 -0.0784492 -0.4699996 
-129.6 155.2 512.4 -0.2874534 -0.6797015 -0.6748159 
-122 153.5 502 -0.8818294 -0.02980045 -0.4706261 
-132 156 511 -0.1078706 -0.7252532 -0.6799792 
-165.5 157.6667 511 0.0242325 -0.2461778 -0.9689217 
-167.3333 159 511 -0.0529753 -0.1204775 -0.9913016 
-166 160 512 -0.05024679 0.04155264 -0.9978721 
-169.5 161 511 -0.1005563 0.2011723 -0.9743809 
-171.5 162 512 -0.1974317 0.2570957 -0.9460035 
-169.6667 163.5 513 -0.1121794 0.3365661 -0.934954 
-173.625 169.25 515 -0.06255577 0.2165694 -0.974261 
-175 170 516 -0.03180904 0.2152548 -0.9760397 
-173.5 171.5 516 0.01786606 0.2113717 -0.9772425 
-153.5 173 515 -0.09607983 0.3533624 -0.9305394 
-153.3333 175.6667 516 -0.100926 0.2847553 -0.9532725 
-151.5 177.5 516.5 -0.1548045 0.1270984 -0.9797355 
-149.4 179.4 516.2 -0.1484988 -0.02268803 -0.9886523 
-163.3333 182 517 0.0655427 -0.3824948 -0.92163 
-161.2857 183.7143 516.2857 0.02081696 -0.5849737 -0.8107851 
-163.5 183.25 515 0.03803328 -0.5694492 -0.8211462 
-159 185 516 -0.03491371 -0.7143856 -0.6988808 
-157.5 184 512 -0.05620819 -0.6814508 -0.7297022 
-75.5 187 518.5 -0.03875082 0.8690069 -0.4932803 
-156 109.5 574.5 -0.8799797 0.0281635 -0.4741756 
74.5 107 582.5 0.5762312 -0.7992285 -0.1708551 
74 106 584 0.5589968 -0.808417 -0.1843485 
72 105.5 582 0.4685154 -0.8510521 -0.2370733 
70.5 104 582.5 0.4010674 -0.8673143 -0.2948065 
72 104 589 0.5810293 -0.791108 -0.1911891 
69 103 584 0.3808345 -0.8539611 -0.354564 
62.5 99.5 586.5 0.1942198 -0.8624578 -0.4673813 
62.5 98 588.5 0.1780222 -0.8800638 -0.4402224 
-57 83 515 -0.3780718 0.4308144 -0.8194271 
-59.5 83.25 517 -0.3286904 0.4269566 -0.8424196 
-53.33333 81.33334 513 -0.3261745 0.4592216 -0.8262722 
-58 82 516 -0.359446 0.4356336 -0.8252406 
16.5 92 593 0.2939333 -0.7840856 -0.5466378 
42.5 91 598 0.1237477 -0.8621734 -0.4912673 
15 91 594 0.33419 -0.7704436 -0.542894 
40.5 90 599 0.03397563 -0.8861641 -0.4621242 
42.5 90 601 0.0755707 -0.8899134 -0.4498257 
-57 77.4 513 -0.3555647 0.4431878 -0.8228962 
36 89 603 0.01375218 -0.9079604 -0.4188305 
40.5 88 604 0.004461285 -0.9009638 -0.4338713 
68.5 91.5 636.5 0.4984365 -0.7944276 -0.3470529 
30.5 87 606.5 0.1070464 -0.8654052 -0.4895047 
28 86 607 0.1170579 -0.8604075 -0.4959802 
32.5 85 610 0.1087175 -0.8754562 -0.4709108 
30.4 85.6 608.4 0.1278006 -0.8679467 -0.4799328 
38 84 611 -0.01083365 -0.8563113 -0.5163466 
36.66667 84 612.3333 -0.00536438 -0.8636665 -0.5040352 
50.5 83.5 614.75 0.1009905 -0.8371751 -0.5375302 
63 84 635 0.796067 -0.5552312 -0.2408233 
59 83 623 0.787903 -0.5470014 -0.2828399 
66.5 85.5 644.5 0.5940678 -0.7427419 -0.3088979 
50.33333 81.66666 616.3333 0.07527304 -0.8340883 -0.5464712 
44.5 81 618 0.01041367 -0.8777641 -0.47898 
59 81.5 624.5 0.7739308 -0.5686098 -0.2787725 
57 81 622 0.6606594 -0.633076 -0.4034153 
50.5 80 619 0.06927139 -0.8345559 -0.5465508 
-70 66 512 -0.6419542 0.3738092 -0.6694488 
-71.33334 67.33334 513 -0.6617274 0.3737129 -0.6499658 
-73 67 515 -0.8218633 0.270333 -0.5014586 
59 80 626 0.7653912 -0.5818864 -0.2749268 
55 79 622 0.4474576 -0.7364987 -0.5072982 
48.5 79.5 620.5 -0.02735684 -0.8313597 -0.555061 
-71 65 511 -0.6227874 0.3648599 -0.6921077 
-74 65 517 -0.8686123 0.2284763 -0.4396715 
54.5 77 624 0.3536036 -0.7555831 -0.5514153 
52.33333 77.66666 622.3333 0.1293053 -0.7955757 -0.5918949 
-51.2 59.4 501 -0.2506419 0.4362217 -0.8642276 
-45.5 5.666667 485 0.04169153 -0.38368 -0.9225245 
4.5 4 500.5 0.6830119 0.6700601 -0.2907134 
-1.5 4 490 0.600177 0.6637571 -0.4463339 
-43.5 4 485 0.02336345 -0.22024 -0.9751659 
6.5 2 500 0.6631978 0.6979479 -0.2702546 
2.5 1 488.5 0.5575219 0.7337173 -0.3883663 
0.6666667 1.333333 486.6667 0.4812478 0.7611609 -0.4347812 
7 0 495 0.7169494 0.6236518 -0.3115158 
10 -1 499 0.8645558 0.4695995 -0.1789399 
-37.5 -0.5 482.5 -0.3018995 0.78006 -0.5480539 
-39.33333 -0.6666667 484.6667 -0.2692871 0.6872614 -0.6746528 
-39.5 -2 482.5 -0.2918113 0.7915409 -0.5369442 
-41.33333 -3 480.3333 -0.2753926 0.8312683 -0.482858 
2 6 500 0.7452987 0.568873 -0.3477259 
-47.33333 7.5 484.6667 -0.08245341 -0.2359581 -0.9682589 
-1.666667 7.333333 494.3333 0.7345188 0.5093501 -0.44838 
-49.5 9.333333 484.5 -0.1355378 -0.1090096 -0.9847571 
-1.5 11.25 498.25 0.8213201 0.3925037 -0.4139737 
-51.33333 11.5 485 -0.1948037 0.08760752 -0.9769219 
-23.5 13 483 0.01214442 0.1608578 -0.986903 
-21.16667 13.5 484 0.1561092 0.2395485 -0.9582518 
2 13.5 508.5 0.8804434 0.3670734 -0.3001276 
1 14 506 0.878665 0.340919 -0.3342485 
-1.5 15.5 502.5 0.8724556 0.3077731 -0.3796011 
1 15.5 508.5 0.9030477 0.2939868 -0.313172 
-23.5 15.5 484 0.0716782 0.2305875 -0.970408 
-17 15.5 486.25 0.3250244 0.3236071 -0.8886155 
-25.33333 17.33333 484.1111 0.03931535 0.3062352 -0.9511437 
-15.5 17.33333 487 0.363962 0.3511197 -0.8626973 
-13.625 17.375 488.25 0.4464259 0.3624379 -0.8181337 
-5 17.5 496 0.780113 0.3327522 -0.5298109 
-7 18 494 0.713498 0.35265 -0.6054409 
-6 19 495 0.7434706 0.3396638 -0.5760903 
-27.66667 19.5 485 0.04724754 0.3383234 -0.9398431 
-15.33333 19.66667 488 0.3823262 0.3701313 -0.8466579 
2 21.5 516.5 0.9324594 0.2353173 -0.2741266 
2 23 515 0.9270244 0.2300693 -0.2961316 
-13.5 27.25 494.5 0.4499055 0.5515926 -0.7023751 
-31.5 29 491 0.1337367 0.5473979 -0.8261175 
-29.6 30 492.2 0.1045752 0.5012048 -0.8589865 
-32 31 493 0.3047887 0.2393806 -0.9218464 
-25.5 32 494 0.2019702 0.4846578 -0.8510669 
-35 33 490 0.5208738 -0.2385905 -0.8196127 
-33.33333 33.33333 492 0.5259821 -0.3107832 -0.7916797 
-23.4 33.4 495 0.242736 0.4347409 -0.8672253 
-21.5 33.5 496 0.2078572 0.5000631 -0.8406737 
-23.55556 35.55556 496.5555 0.3834392 0.2525121 -0.8883761 
-32 36 488.5 0.4557362 -0.3416306 -0.8219447 
-28 40 489 0.4860647 -0.2116328 -0.8479108 
-25.33333 41.33333 492.3333 0.6459987 -0.4003672 -0.6499168 
-25.66667 43.5 490 0.4679778 -0.03818614 -0.8829148 
-45.625 45.625 492.25 -0.1896887 0.4627063 -0.8659798 
-39.33333 50 494 -0.07548243 0.4441256 -0.8927793 
-37.5 51.33333 494.3333 -0.0533345 0.4460866 -0.8933993 
44.66667 67.66666 636.3333 -0.1897948 -0.8426076 -0.5039746 
-49 53 497 -0.212325 0.4271027 -0.8789206 
46.5 68 634.5 -0.223877 -0.8276636 -0.5146379 
-47.5 54 498 -0.2263575 0.4119253 -0.882655 
-45.66667 55.66667 498 -0.2007245 0.3956929 -0.896179 
-49.75 57.75 500 -0.2422456 0.4111191 -0.878805 
-159.6667 117.3333 578 -0.414168 -0.6684727 -0.6177452 
-163.3333 119 576.3333 -0.3441059 -0.7782051 -0.5253457 
-121.6667 113.3333 548.3333 0.04973483 -0.8858379 -0.4613218 
-161.5 120 575 -0.2076343 -0.8024183 -0.5594755 
-123.5 114 546 0.01767244 -0.8933936 -0.448927 
-159.5 121 574 -0.2559673 -0.7775466 -0.574371 
-119.6 115.6 544.6 0.07703214 -0.8976446 -0.4339358 
-155.3333 121.6667 570.6667 -0.4658057 -0.6571834 -0.5925665 
-152 121.5 566 -0.7093371 -0.4041061 -0.5775285 
-118 116 543 0.09615493 -0.8740146 -0.4762906 
-131 117 542 0.06084204 -0.8796359 -0.4717404 
-117.5 118 541 0.08828653 -0.8893721 -0.4485787 
-119.5 118 539 0.08241085 -0.8917192 -0.4450229 
-117.5 119.5 538.5 0.083435 -0.8929662 -0.4423235 
-123.6 119.6 536.4 0.04741121 -0.8876463 -0.4580788 
-122 120 534 0.05771868 -0.8890881 -0.4540826 
-119.3333 121 534.6667 0.06836861 -0.8823117 -0.4656734 
-87.4 125.4 530.6 0.08167144 -0.8621662 -0.4999991 
-90 126 529 0.04843834 -0.8684033 -0.493487 
-91.5 127 528 0.05855189 -0.8662755 -0.4961234 
-89.5 127.5 526.5 0.06610739 -0.8626691 -0.5014297 
-95.6 128 524.4 0.008006809 -0.8452568 -0.5343004 
-99.5 129.8333 522.6667 0.0144794 -0.836886 -0.5471857 
-95.6 131.6 520.2 0.05381901 -0.8338796 -0.5493162 
-93.5 132 519 0.04137725 -0.8263534 -0.5616298 
-91.5 133.5 518.5 0.04427907 -0.8431529 -0.5358476 
-125 141.3333 508.3333 -0.8258879 -0.232009 -0.5138883 
-127 149.5 514 -0.8018495 -0.2631925 -0.5364394 
-128 151 516 -0.6438337 -0.4523765 -0.6171173 
-131.3333 154 515 -0.2697573 -0.7313902 -0.6263381 
-122 151.3333 502 -0.9051306 0.006212584 -0.4250882 
-128 155 512.5 -0.3915732 -0.613184 -0.6860583 
-123 153.3333 506 -0.8473578 -0.09825615 -0.521853 
-126 155 510 -0.6214437 -0.4343628 -0.652025 
-171.7143 157.5714 511 -0.2875158 -0.2163517 -0.9330202 
-169.5 159.5 511 -0.09443555 0.03074829 -0.995056 
-165.4 161.6 512 -0.08694844 0.2160237 -0.972509 
-167.5 163.5 513 -0.08835191 0.3389954 -0.9366302 
-175 165.5 514.5 -0.3082435 0.2444852 -0.9193546 
-173.6 167.6 514.6 -0.12534 0.2533589 -0.959218 
-151.6 173.6 514.8 -0.1268584 0.340035 -0.9318171 
-151.5 175.6667 516 -0.1362286 0.2814919 -0.9498442 
-149 175 515 -0.1837845 0.2731509 -0.944252 
-153.4 177.4 516.4 -0.1211791 0.1401872 -0.9826816 
-155.4 179.4 517 -0.1366677 0.02252809 -0.9903608 
-157 181.5 517 -0.1337495 -0.3562346 -0.9247746 
-159.4 183.6 516.4 -0.0495481 -0.6170388 -0.7853714 
-163.5 183 513 0.03259639 -0.6029692 -0.7970983 
-157.5 184 514.5 -0.06589261 -0.6571981 -0.7508321 
-69.5 187 518 -0.07292417 0.8423416 -0.5339877 
73 105 585 0.5543561 -0.8068736 -0.20407 
72 104 586 0.5139619 -0.8233417 -0.2407317 
70 103 585 0.4199478 -0.8497338 -0.3187418 
68 103 583 0.3600891 -0.8649644 -0.349532 
68 102 585 0.3741088 -0.8443975 -0.3834521 
60.5 99 586.5 0.09062222 -0.8725963 -0.4799619 
70 100 596.5 0.617743 -0.7722688 -0.1483053 
68 99 594 0.5484767 -0.807384 -0.2174958 
60.5 97.5 588.5 0.1024337 -0.8934453 -0.4373363 
-57.5 83.75 516.25 -0.3691619 0.4019787 -0.8379336 
-55 81 513 -0.3700123 0.4545353 -0.8102399 
-57.33333 81.33334 515 -0.3749434 0.4436441 -0.8140008 
-59.5 81.5 516.3333 -0.3186463 0.4449138 -0.8369685 
47 93 598 0.1223212 -0.8520482 -0.5089709 
18.5 92 593 0.2604097 -0.7939788 -0.5493491 
-57 79 513 -0.3727465 0.4347726 -0.8197762 
42.5 90 599 0.1005191 -0.8709686 -0.4809466 
40.5 90 601 0.01555659 -0.8992286 -0.4372024 
15 89.5 594.5 0.3337534 -0.7781194 -0.5321079 
38.5 89 603 -0.01008934 -0.908549 -0.4176565 
37 89 604 0.003358898 -0.9049243 -0.4255594 
68 92 634 0.5768003 -0.7666938 -0.2819256 
42.5 87.5 604.5 0.02623246 -0.8944262 -0.4464455 
29 87 606 0.1133186 -0.8558439 -0.5046683 
67 89 639 0.6176802 -0.7085684 -0.3411776 
34.5 85 610 0.06337826 -0.8693452 -0.4901247 
28.5 85 608.5 0.1341687 -0.8662819 -0.4812012 
58.5 85.5 618.5 0.6936698 -0.6422359 -0.3261217 
38.66667 84 612.6667 -0.02938021 -0.8605092 -0.508587 
67 86 642 0.6099936 -0.7291339 -0.3102767 
48.5 83 614.5 0.08517595 -0.8413427 -0.5337485 
63 84 637 0.7643247 -0.5844232 -0.2725017 
48.5 81.5 616.5 0.02644465 -0.8578821 -0.5131657 
-69.5 67.5 512.25 -0.589923 0.3917152 -0.7060809 
-73 68 516 -0.8212147 0.2735742 -0.5007629 
48.5 80 618 0.003802011 -0.851774 -0.5238954 
62 81.5 634.5 0.8269734 -0.5085614 -0.2397505 
50.5 79.5 620.5 0.06399167 -0.8191473 -0.5700024 
-69.5 65.25 511 -0.5795538 0.3898821 -0.7156183 
-71 65.75 512 -0.6468923 0.3680199 -0.667901 
-73 65.5 514.5 -0.8246796 0.2679302 -0.4981136 
55 78 623 0.4564043 -0.7473123 -0.4829282 
-49.5 59.5 500.5 -0.2377514 0.4282384 -0.8718292 
-47.33333 5.666667 485 -0.05684882 -0.335096 -0.9404674 
4.5 3 498.5 0.6443623 0.7036705 -0.299408 
6 2 498.5 0.6370578 0.7181295 -0.2800847 
0.6666667 2 488.6667 0.5218293 0.7455014 -0.4146346 
9 0 499 0.8137866 0.5411901 -0.2118129 
-38 0 484 -0.2530409 0.7125021 -0.6544548 
-39 -1 483 -0.2662309 0.7568184 -0.5969482 
10 -2.5 498.5 0.9363536 0.3077697 -0.168878 
-43 -3 481 -0.2724009 0.8404426 -0.4684592 
2.333333 5.666667 498.6667 0.7204456 0.5976194 -0.3518653 
-1 6 494 0.7016864 0.5750821 -0.4206148 
2 7.333333 500.6667 0.7678787 0.525694 -0.3660713 
-45.5 7.5 484.75 -0.004223641 -0.2770627 -0.9608425 
1 7.5 498.5 0.7658654 0.5238129 -0.3729213 
-1 8 496 0.7629686 0.4949201 -0.4158521 
-51.25 9.375 485 -0.1043802 -0.01113985 -0.9944751 
-1 10 498 0.8011354 0.4431613 -0.4022315 
-49.5 11.5 484.5 -0.2219458 0.02451765 -0.9747508 
-1 12 500 0.8363054 0.3898055 -0.3855453 
4 13 513 0.8819556 0.3750803 -0.285428 
-21.66667 13 483 0.1030353 0.2340959 -0.9667383 
-23.66667 13.66667 484 0.02611442 0.1939067 -0.9806724 
-1 14 502 0.8708502 0.325611 -0.3682357 
-17 14 486 0.300724 0.3621537 -0.8822754 
0 15.66667 506.3333 0.89065 0.2945294 -0.346403 
-21.33333 15.5 484.1667 0.1780672 0.2717758 -0.9457431 
-1 16 504 0.8840222 0.2978669 -0.3602501 
-27.66667 17.33333 485 0.01725615 0.287926 -0.9574971 
-14 17 487 0.4110983 0.3594145 -0.8377466 
-6 17.5 495 0.7576059 0.3413493 -0.5563399 
-7 19.4 494.6 0.7270615 0.3510871 -0.5900165 
-5.4 19.4 496.8 0.7835674 0.3218977 -0.5314171 
-25.33333 19.5 484.5 0.08192515 0.3731718 -0.924138 
-16 19 487 0.3613999 0.371083 -0.8553873 
-13.8 19.4 488.8 0.4331725 0.369303 -0.8221781 
2 22 514 0.9300162 0.2335516 -0.2837667 
2 23.5 516.5 0.9273008 0.2280337 -0.29684 
1 24 515 0.9187423 0.2475667 -0.3076092 
0 25 513 0.9089048 0.2679224 -0.3195461 
-11.5 25.25 493 0.524143 0.5183006 -0.6757505 
-15 28 494 0.3840697 0.5865458 -0.71306 
-13 28 496 0.4594321 0.5490043 -0.6982238 
-29.66667 29 491 0.07443935 0.6162149 -0.7840523 
-31.4 30 492.4 0.1921494 0.429171 -0.882548 
-29.5 31 493 0.1816977 0.4398324 -0.8795075 
-27.33333 32 494 0.2365599 0.4362301 -0.8681836 
-33.75 33.5 490.75 0.5230564 -0.3079571 -0.7947166 
-23 34 496 0.2721705 0.420554 -0.8654811 
-21.66667 35.33333 497 0.260605 0.3699362 -0.891758 
-25.83333 41.5 490.5 0.5662022 -0.2594035 -0.7823842 
-27.5 44 490 0.3037786 0.1613666 -0.9389779 
-47.42857 45.71429 493 -0.2054311 0.4602158 -0.8637125 
-45 47 493 -0.1825988 0.4611244 -0.8683444 
-39.33333 51.33333 494.8889 -0.07384869 0.4322465 -0.8987265 
46 67 636 -0.202801 -0.8387063 -0.5054142 
-47.5 55.5 498 -0.2236127 0.4047567 -0.8866619 
-51.5 57.66667 500 -0.2321825 0.4101919 -0.8819489 
-49 57 499 -0.2394869 0.401864 -0.8838277 
-161.6 119 576.6 -0.3086718 -0.7475334 -0.5881458 
-123.5 113.5 548.5 0.03501566 -0.8852278 -0.4638381 
-121.3333 114 546.3333 0.05689941 -0.8849317 -0.462232 
-163.5 120 575 -0.3133177 -0.8059652 -0.5022473 
-123.5 115 546.5 0.02989485 -0.894268 -0.4465323 
-156 121 572 -0.3930268 -0.6929436 -0.6044495 
-117.5 116 545 0.0889051 -0.8920446 -0.4431166 
-119.5 116 543 0.07831191 -0.8831142 -0.4625759 
-156 123 570 -0.3131443 -0.7178959 -0.6217444 
-129.5 117 542 0.03653038 -0.8907987 -0.4529274 
-119.6667 118 541 0.09385858 -0.8779957 -0.4693763 
-117.5 118 539 0.08052893 -0.8936555 -0.4414691 
-119.5 119.5 538.5 0.08284523 -0.8902211 -0.447932 
-121.6667 119.6667 536.3333 0.05688438 -0.8868349 -0.4585717 
-123.5 120 534 0.04518229 -0.8914645 -0.4508322 
-117.5 121 534.5 0.08787373 -0.8771552 -0.4720986 
-85.6 125.6 530.4 0.07952822 -0.8669889 -0.4919407 
-91.2 125.6 529 0.05931725 -0.8683771 -0.4923442 
-88 127 530 0.08787403 -0.8672364 -0.490081 
-89.66666 127 528 0.05942661 -0.8636494 -0.500578 
-91.33334 127.3333 526.6667 0.0630171 -0.8627767 -0.5016426 
-93.5 128 524.5 0.03164971 -0.8512905 -0.5237393 
-100 129 524 0.00635663 -0.836703 -0.5476201 
-97.57143 129.7143 522.2857 0.02839498 -0.8329663 -0.5525947 
-93.5 131.5 520.5 0.02154957 -0.8078387 -0.5890095 
-95.33334 132 519 0.07774165 -0.8346246 -0.5453054 
-89.33334 133.5 518.1667 0.02237339 -0.8329704 -0.5528651 
-125 143.6667 508 -0.8918723 -0.1235352 -0.4350895 
-128 149.5 516 -0.7095576 -0.3683713 -0.6006917 
-127.6667 151.3333 514.3333 -0.6668752 -0.4353835 -0.6047467 
-131.7143 153.2857 516.2857 -0.3241271 -0.7218569 -0.6114444 
-129.5714 153.5714 514.4286 -0.4323221 -0.6305239 -0.6446218 
-127.3333 153.6667 512.3333 -0.5537449 -0.5279222 -0.6439447 
-122 150 502 -0.9050651 -0.01322941 -0.4250673 
-126 153.5 511 -0.7133164 -0.3941842 -0.5794812 
-131.5 155 514 -0.2024812 -0.7807071 -0.5911833 
-127.4 155.6 510.4 -0.4662039 -0.5400601 -0.7007061 
-169.625 157.625 510.75 -0.0826625 -0.2023611 -0.9758161 
-123 156 506 -0.7879415 -0.1410631 -0.5993743 
-171 159.5 511 -0.1767787 0.006451667 -0.9842295 
-169 160 512 -0.06571592 0.09917627 -0.9928975 
-167.5 161.5 512 -0.0788807 0.183424 -0.979864 
-165.5 163.5 512.5 -0.09808951 0.3404425 -0.9351349 
-173.6667 165.6667 514 -0.1879549 0.2859132 -0.9396417 
-175 167 515 -0.1564693 0.2480011 -0.9560402 
-149.6 173.4 514.4 -0.1582859 0.3349404 -0.928849 
-149.6667 175.6667 516 -0.1713646 0.2669176 -0.9483613 
-155.4 177.6 516.4 -0.09048994 0.1403589 -0.9859568 
-153.6 179.6 517 -0.1298383 0.005432666 -0.9915203 
-157.4 183.6 516.4 -0.06882082 -0.6159859 -0.7847453 
-161 184 513 -0.02615296 -0.7001826 -0.7134848 
-71.66666 187 518 -0.04351252 0.8479639 -0.5282652 
70.5 103 586.5 0.5210269 -0.8138683 -0.2571949 
68 102 586 0.4206168 -0.8332903 -0.3587601 
66 100 587 0.3602482 -0.8445468 -0.3961844 
60.5 100 585 0.1059093 -0.8657981 -0.4890573 
69 100 593 0.572545 -0.7880729 -0.2261271 
65 99 588 0.3145942 -0.8580731 -0.4058832 
-53.5 83.5 514.3333 -0.3270228 0.4519121 -0.8299588 
-56 84 516 -0.3700639 0.4121446 -0.83258 
-55.5 81.75 514 -0.3801391 0.4492785 -0.808482 
48.5 93 598 0.09619686 -0.8451655 -0.525777 
-60 80 516 -0.2983997 0.4651592 -0.8334174 
14 91.5 590.5 0.3101273 -0.7795182 -0.5442173 
-53 79 511 -0.3196355 0.4565884 -0.8302772 
-55.5 79.5 512.25 -0.3877311 0.4269702 -0.8169217 
-57.75 79.5 514.25 -0.3663997 0.4415988 -0.8189883 
38.5 91 598 0.004474268 -0.8917858 -0.4524357 
18.33333 91.66666 594.6667 0.263525 -0.7975156 -0.5427002 
36.5 91 600 -0.009382026 -0.9021087 -0.4314067 
18.5 90 596.5 0.3010597 -0.803123 -0.5141562 
14 89 592 0.3355715 -0.7711102 -0.5410922 
-55 77 511 -0.3798884 0.4343371 -0.8167228 
38.5 90 601 -0.007759969 -0.9014899 -0.4327306 
-59.6 77.6 514.6 -0.2965943 0.4798168 -0.8257165 
40.5 89 603 0.002854118 -0.9045749 -0.4263053 
69 92 633 0.515585 -0.8050778 -0.293295 
36.5 88 604.5 0.01085396 -0.8983349 -0.4391771 
34.5 87.5 606.5 0.07659042 -0.875873 -0.4764247 
34.5 86 608.5 0.07484246 -0.874329 -0.4795285 
58 86 616 0.6284241 -0.7094609 -0.3189805 
66 88 639 0.6716061 -0.6741961 -0.3072539 
57 85 615 0.5565572 -0.7350521 -0.3872241 
42.5 84 611 0.006082476 -0.8557341 -0.5173802 
46.5 83 614 0.07624795 -0.8539249 -0.5147803 
40.5 83.5 612.5 -0.02279428 -0.8619288 -0.5065167 
64 85 638 0.7356424 -0.6178085 -0.277746 
61 83.5 632 0.8363206 -0.4997903 -0.2253387 
46.66667 81.33334 616.6667 0.02658981 -0.8741695 -0.4848925 
46.5 80 618 -0.006992674 -0.8620659 -0.506748 
60 81.5 630 0.8208119 -0.5230469 -0.2295431 
44.5 80 620.5 -0.0250311 -0.8634324 -0.5038431 
58 79.5 623 0.6939319 -0.6264049 -0.3550711 
56 78 623 0.5377522 -0.7266032 -0.4276335 
-69.66666 63.66667 510 -0.5687806 0.3954167 -0.7212034 
-72 63 513 -0.7702565 0.2683738 -0.5785158 
-73.5 63.5 514.5 -0.8530955 0.2262061 -0.470169 
-71.5 61.5 510.5 -0.6714275 0.3500535 -0.6531827 
-45.25 59.25 498.75 -0.1929257 0.4381837 -0.8779377 
-47.66667 59.66667 500 -0.2247134 0.4360843 -0.871398 
-49.5 5.666667 485 0.002732302 -0.2753255 -0.9613472 
1 4 493 0.6242563 0.6868668 -0.3721804 
1 2 490 0.5549471 0.7302721 -0.3984175 
-1 2 488 0.5023882 0.7345974 -0.4560402 
-3 2 486 0.4536925 0.7122638 -0.5355778 
4.5 2 495 0.6175759 0.7207652 -0.3147977 
2.5 2 492.5 0.589726 0.7248399 -0.3561329 
8 1 499 0.7271345 0.6311049 -0.2701521 
6.5 1.5 496.5 0.6443502 0.7052895 -0.2956004 
-37.5 1 485 -0.2328654 0.5996179 -0.7656579 
8.5 -0.5 497 0.7962625 0.5438385 -0.2649638 
2.5 -0.5 486 0.5611282 0.7028317 -0.4372217 
9 -2 495 0.860194 0.406554 -0.3078639 
-41.5 -2 484 -0.277625 0.7363617 -0.6170055 
10 -2 496.5 0.9079402 0.3453354 -0.2374615 
-37.8 -2 480.6 -0.2935271 0.8149758 -0.4996563 
-39 -3 479 -0.2668436 0.8157697 -0.5131416 
-43.33333 -2.333333 482.6667 -0.273342 0.7803253 -0.5624737 
0.3333333 5.666667 494.3333 0.6869711 0.6027853 -0.4058578 
2 5 496.5 0.6802401 0.6380516 -0.360782 
-51.25 7.5 485 -0.02490191 -0.1153411 -0.9930138 
0 7.5 496.5 0.7544532 0.5208068 -0.3994504 
-45.5 9 484 -0.04040995 -0.2077442 -0.9773482 
-3 9.75 494.5 0.7629671 0.4472353 -0.4667568 
-1.666667 9.333333 496.3333 0.7725199 0.4573794 -0.4404737 
0 9.5 499 0.8067183 0.4405149 -0.3938937 
-47.5 9.5 483 -0.13593 -0.1417127 -0.9805308 
0 11 500.5 0.8319268 0.4092951 -0.374667 
-45.66667 11.5 483 -0.1205591 -0.1130386 -0.9862494 
-3 11.5 496 0.7960582 0.3886081 -0.4639776 
-48 12 484 -0.2096221 -0.01240821 -0.9777038 
4.5 13 514.5 0.8914637 0.3564101 -0.2797576 
-27 13 483 -0.09574998 0.03681913 -0.9947243 
0 13 503 0.8641554 0.3589983 -0.3526412 
-25.33333 13.5 484 -0.03017111 0.1372953 -0.9900706 
-15.5 14 486 0.3418466 0.3724605 -0.8627943 
-27.66667 15.5 484.5 -0.03722659 0.1922198 -0.9806456 
-13.8 15.4 486.8 0.3943176 0.3702918 -0.8410693 
-5.5 15.5 494.5 0.7598721 0.3442337 -0.5514505 
-21.33333 17.33333 484.3333 0.1882865 0.3488279 -0.9180781 
-1 17.5 505 0.8898812 0.271968 -0.366258 
0 17.5 507 0.9034755 0.2586088 -0.3418385 
-19 17.5 486 0.28113 0.3522089 -0.8927009 
-2 19.66667 503 0.8747453 0.2797794 -0.3956566 
-23.66667 19.33333 485 0.1134566 0.3900582 -0.9137736 
-17.66667 19.5 486.8333 0.3213484 0.3708436 -0.8713267 
0 20 508 0.9015034 0.2584655 -0.3471126 
-13 20 490 0.4987213 0.3972286 -0.7703808 
0.6666667 21.66667 510.3333 0.9075739 0.2631017 -0.3272419 
2 21 513 0.9278075 0.242082 -0.2838479 
-11.5 21.66667 491 0.5470585 0.4150454 -0.7269557 
-9.6 21.6 492.6 0.6238173 0.3987122 -0.6722206 
-33.33333 21.33333 485 0.1524876 0.3917737 -0.9073373 
0.6666667 23.33333 512.6667 0.910657 0.2728462 -0.3102559 
-36 23 485 0.1329427 0.5165623 -0.8458662 
-11.33333 23.5 492.5 0.5612284 0.4536734 -0.6922451 
0 26 514 0.907554 0.246904 -0.3396825 
1 27 517 0.9270349 0.1984815 -0.3181374 
-2 27.5 510 0.8936488 0.2488085 -0.3734785 
-35.75 29.5 491 0.4102296 0.227364 -0.8831859 
-33.66667 30 492 0.3280083 0.3179849 -0.8895483 
-21.5 31.33333 494.6667 0.1911621 0.5885338 -0.7855476 
-35 31 492 0.5164776 -0.02588401 -0.8559094 
-27.33333 33.5 494.5 0.356862 0.234549 -0.9042325 
-33.5 34 488.5 0.4763609 -0.3505237 -0.8063582 
-32 34 491 0.5124455 -0.285008 -0.8100433 
-27.66667 35.33333 496 0.4764346 0.09731831 -0.8738073 
-25.5 35 495 0.4093977 0.1750246 -0.8954105 
-35.5 35.66667 488 0.3651754 -0.1260189 -0.9223699 
-21.33333 36 498 0.307756 0.3610039 -0.8803195 
-30 36 491 0.5875027 -0.4184899 -0.6926087 
-27 39 492.5 0.6583762 -0.4069612 -0.6331851 
-26 40 491 0.6171744 -0.4189532 -0.6660135 
-27.5 43 489 0.3606627 0.07302158 -0.9298335 
-23 43.33333 492.3333 0.6726483 -0.308371 -0.6726453 
-49.33333 45.33333 493 -0.1673577 0.4789385 -0.8617478 
-43.5 49.75 494.25 -0.1535937 0.4495904 -0.8799304 
-41.4 51.2 495 -0.1153535 0.4402474 -0.8904358 
-51.5 53.33333 498.3333 -0.2087439 0.4343667 -0.8762144 
-43.66667 52 496 -0.1626496 0.4458919 -0.8801851 
-45.5 53.5 496.5 -0.1931771 0.4193474 -0.8870346 
-49.5 55.5 498.5 -0.2377101 0.4108184 -0.880183 
-47.4 57.6 499 -0.2310711 0.4080115 -0.8832513 
-162 117 580 -0.4611214 -0.6753064 -0.5756113 
-163.5 117.5 578.5 -0.4105736 -0.7246152 -0.5535 
-158 117.5 576.5 -0.4699767 -0.626229 -0.6220604 
-159.5 119 576.5 -0.3468115 -0.7203619 -0.6006668 
-152 117.5 567 -0.840858 -0.1710989 -0.5135008 
-117.6 113.6 548.4 0.07984257 -0.8842648 -0.4601098 
-157.5 119.5 574.5 -0.3816475 -0.6929062 -0.6117403 
-119.5 114 546.5 0.0696251 -0.8819417 -0.466188 
-156 120 573 -0.4481187 -0.6571617 -0.6060761 
-154 119.5 570.5 -0.66615 -0.4662097 -0.582145 
-117.4 115 546.6 0.08127733 -0.8793768 -0.4691379 
-163.5 121 574 -0.2339968 -0.8350406 -0.4979484 
-123.3333 115.6667 544.3333 0.02498686 -0.8987776 -0.4376921 
-154 121.6667 568.6667 -0.5008379 -0.6036845 -0.6202632 
-121.6667 116 542.6667 0.06314029 -0.8816147 -0.4677273 
-155.5 123.75 568.5 -0.2893586 -0.7343669 -0.6139845 
-127.6667 117 542 0.01310937 -0.89314 -0.4495877 
-121.6667 117.3333 540.6667 0.05411466 -0.879302 -0.4731802 
-153.3333 123.6667 566.6667 -0.5346792 -0.5784138 -0.6160808 
-123.5 118 539 0.02821552 -0.8878464 -0.4592742 
-121.25 119.5 538.5 0.05015532 -0.8827494 -0.4671596 
-119.5 120 536.5 0.06254821 -0.8856516 -0.4601184 
-91.75 125.25 530 0.05540254 -0.8671045 -0.4950358 
-89 127 530 0.05389116 -0.8703592 -0.4894595 
-85.33334 126 529 0.07820365 -0.8742069 -0.4792144 
-87.5 127 528 0.07606679 -0.8664298 -0.4934707 
-85.5 128 526.5 0.07142135 -0.8652593 -0.4962108 
-99.5 128 524.5 0.02026552 -0.8468746 -0.5314064 
-93.5 129 524 0.01970112 -0.8308893 -0.556089 
-95.5 130 522.5 0.01896234 -0.8279873 -0.5604262 
-99.4 131.6 520.4 0.03410149 -0.8604786 -0.508344 
-87.5 133.5 518 0.01893106 -0.826878 -0.5620628 
-125 145.5 508.5 -0.900412 -0.0155955 -0.4347588 
-129 150 517 -0.623632 -0.5095286 -0.5928438 
-129 152 515 -0.5631763 -0.5248907 -0.638218 
-127 151.5 513 -0.7097521 -0.3822286 -0.5917374 
-125 151.3333 510 -0.8142459 -0.226591 -0.534472 
-123 149.5 506 -0.9005856 -0.0101713 -0.4345598 
-128 153 514 -0.5999526 -0.5057602 -0.6198899 
-131.5 155.5 512.5 -0.140905 -0.7509605 -0.6451388 
-129 156 511 -0.2425777 -0.6377289 -0.7310663 
-123 155 505 -0.8181015 -0.1106967 -0.5643193 
-167.3333 157.6667 511 -0.01300859 -0.2057245 -0.9785236 
-122 155.6667 503 -0.8486344 -0.04391675 -0.5271538 
-165.3333 159.3333 511 -0.02177012 -0.1353051 -0.9905648 
-167.5 160 512 -0.0532747 0.1087684 -0.9926385 
-171 161 511 -0.2031161 0.1712069 -0.9640706 
-169.25 161.75 512 -0.1023964 0.25322 -0.9619744 
-171.5 163.5 513 -0.1843111 0.3020064 -0.9353189 
-173 165 513 -0.1890489 0.3050505 -0.9333835 
-175.5 171.75 516.5 0.04766294 0.2101262 -0.9765118 
-155.5 173.5 515 -0.09866515 0.3311729 -0.9383975 
-153.5 174 516 -0.09630296 0.3314736 -0.9385366 
-155.6 175.8 516 -0.08143058 0.2627647 -0.9614177 
-149.5 177.375 516.25 -0.1758082 0.1663978 -0.9702594 
-151.5 179.5 516.75 -0.1593706 0.01675813 -0.9870766 
-163.3333 183 516.3333 0.04725398 -0.5081095 -0.8599953 
-162 184 515 0.005693081 -0.6709381 -0.7414915 
-159 184 512 -0.04202128 -0.6961574 -0.7166584 
-73.5 187 518 -0.04311618 0.860928 -0.5068963 
-150 107.3333 561 -0.5966473 -0.4916101 -0.6342961 
-158 109.5 578.5 -0.858382 -0.0465725 -0.5108928 
-151 104 563 -0.4728252 -0.6508858 -0.5939562 
-149.5 103 564 -0.2723467 -0.7868422 -0.553811 
75 106 591 0.6277929 -0.7667355 -0.1341373 
74 104 596 0.6470305 -0.7518801 -0.1266011 
62.5 102 583 0.162634 -0.8793847 -0.4474739 
60.5 101 584 0.113052 -0.8668336 -0.4856116 
70.5 101.5 590.5 0.5879512 -0.7782381 -0.2205875 
66.5 101 586.5 0.3631111 -0.8377405 -0.4078493 
-53.6 87.4 516.2 -0.3166651 0.4210615 -0.8499591 
66 98 590 0.3862227 -0.8575919 -0.3396591 
-53.5 85.25 515 -0.3183238 0.440259 -0.8395487 
-55.5 85.5 516.25 -0.3461713 0.4054556 -0.8460326 
64.5 97.5 592.5 0.3540561 -0.8900719 -0.2870824 
64 96 595 0.3160298 -0.9032816 -0.2901854 
54.5 93 598 0.09428988 -0.8401709 -0.534062 
-61.5 80 516 -0.2754827 0.461235 -0.8434285 
20.5 92 595 0.1961403 -0.8172014 -0.5419509 
-63 79 515 -0.2553728 0.4835005 -0.8372647 
32.5 91 598 0.04644186 -0.8831876 -0.466715 
22.5 91 597 0.164484 -0.8547845 -0.4922282 
34.5 91 600 0.0216524 -0.8970632 -0.4413716 
20.5 90 597 0.2304332 -0.8262414 -0.5140289 
32.5 90 601 0.06886808 -0.8874746 -0.4556819 
-61.5 77.66666 514.6667 -0.2690904 0.4884841 -0.8300443 
30.5 89 602 0.08380553 -0.8870842 -0.4539362 
34.5 88 604 0.07272451 -0.8937569 -0.442617 
72.5 92 639 0.2755191 -0.8659723 -0.4173502 
36.5 88 606 0.01442373 -0.8821458 -0.4707556 
74.5 91 641 0.1751 -0.8791901 -0.4431306 
38.5 87 608 -0.02107958 -0.8764791 -0.4809782 
36.5 86 609 0.006623205 -0.8749694 -0.4841329 
43 85 610 0.02727907 -0.8606122 -0.5085297 
70.33334 89.66666 642.3333 0.3871768 -0.8355484 -0.3898116 
28.5 84 610 0.1353641 -0.8691694 -0.4756271 
-71 71.5 515 -0.6678482 0.362311 -0.6501611 
64.33334 87.33334 634.3333 0.7514257 -0.609161 -0.2535394 
56 84 615 0.4576677 -0.7773842 -0.4315255 
64 86 637 0.7463655 -0.6031817 -0.2812656 
30.33333 83.33334 612.6667 0.1314639 -0.8678015 -0.4792053 
56 82 617 0.4584681 -0.7375288 -0.4958411 
44.5 79 622 -0.05392402 -0.8369576 -0.5446047 
46.5 78 623 -0.1007661 -0.7830842 -0.613698 
44.5 77.25 624.5 -0.1202485 -0.7805257 -0.6134492 
-69 63.5 509 -0.5424504 0.4017357 -0.7378049 
-71 61 509 -0.6473776 0.3564046 -0.6737047 
-43.5 59.5 498.5 -0.1625511 0.447842 -0.8792126 
-49.5 4 485 0.07414047 -0.2833533 -0.9561455 
2.5 3.5 496 0.6422763 0.6869293 -0.3400136 
3 2 494 0.6026875 0.7195769 -0.3449302 
4.5 1.5 492.5 0.5968819 0.7263831 -0.3407342 
4 -1 487 0.6137184 0.6695975 -0.4183168 
5 -2 489 0.7442575 0.534633 -0.4003104 
8.666667 -2.333333 492.6667 0.847752 0.4068015 -0.3403369 
6 -3 487 0.7930541 0.3932189 -0.4652356 
-45.5 -3 483 -0.2417193 0.7968928 -0.5536548 
-47.33333 -3 484.6667 -0.1823199 0.7371208 -0.6507015 
-3.6 5.6 488.8 0.6000209 0.5897882 -0.5404856 
0 5 493 0.6553912 0.6379467 -0.4043347 
-40 6 485 0.1182737 -0.1923268 -0.9741775 
-43.28571 9.142858 484.4286 0.0804569 -0.2626041 -0.9615434 
-3.5 9.75 492.75 0.730122 0.441139 -0.5218412 
-43.33333 11.5 483 0.01436947 -0.1672533 -0.9858092 
-41.5 11.5 484 0.09392201 -0.217592 -0.9715104 
-31.66667 13.33333 484 -0.03700897 -0.03556651 -0.9986819 
-6 13.5 491 0.6928784 0.3755651 -0.6155245 
3 14 515 0.9002852 0.3317666 -0.281811 
-11 14 488 0.4965209 0.3990473 -0.770862 
-7 14 492 0.6862792 0.3694623 -0.6265131 
3 15.5 516 0.9184915 0.28391 -0.2752605 
-29.5 15.5 484.25 -0.03740554 0.1768203 -0.9835321 
-12 15 487 0.4576748 0.3858412 -0.8010371 
-10 15.33333 489 0.5610163 0.3652459 -0.7428702 
-8 15.5 491 0.6409992 0.3694642 -0.6727676 
2 17 511 0.920301 0.2596794 -0.2925965 
-35.66667 17.33333 484 0.1769528 0.1492234 -0.9728412 
-9.833333 17.66667 490.6667 0.607797 0.3625623 -0.7064924 
1 19.5 510 0.9177406 0.2386175 -0.317512 
2 19.5 512.5 0.9254627 0.2468376 -0.287385 
-33.5 19.66667 485 0.1604343 0.3041534 -0.9390163 
-11.5 19.5 490.25 0.5531325 0.3769331 -0.7429442 
-9.333333 19.66667 492.3333 0.6398659 0.360363 -0.6787563 
0 21.5 508.5 0.9035693 0.2635242 -0.3378128 
-18 21.2 487 0.2589839 0.4374689 -0.861132 
-13.25 21.75 490.25 0.4815816 0.4318813 -0.7625993 
-5 21.5 498.5 0.7934617 0.3534974 -0.4954374 
-3 22 504 0.8582379 0.308042 -0.4105338 
-20 22 488 0.2115855 0.4834589 -0.8494111 
-9 22 494 0.6496708 0.40908 -0.6407663 
-3.333333 23.66667 502.3333 0.8330421 0.3495509 -0.428783 
-17.66667 23.5 488.6667 0.2721632 0.4933362 -0.8261638 
-7 23.5 498 0.7268888 0.4098397 -0.5510573 
-5.333333 24 500.3333 0.7828395 0.3988121 -0.4776101 
-15.5 24 490 0.3572316 0.5109099 -0.781893 
-13 24 492 0.4829061 0.5012344 -0.7180291 
-17.5 25.5 490.3333 0.292835 0.5519227 -0.7807875 
-7.666667 25.33333 497 0.6781096 0.4604827 -0.5728202 
-3 27.5 506.5 0.8600575 0.2698522 -0.4329906 
-19.66667 27.33333 491 0.2270688 0.6027942 -0.7649046 
-17.33333 27.66667 492.3333 0.2980529 0.6164635 -0.7287916 
-23.28572 29.85714 492.1429 0.1521244 0.6257404 -0.7650537 
-29.5 33.5 494.75 0.2949193 0.1649512 -0.9411768 
-29.66667 37.5 490.3333 0.5661775 -0.4173276 -0.710831 
-27 37 496 0.5765147 -0.1831787 -0.7962892 
-21.5 37.5 498.25 0.3688881 0.2327984 -0.899848 
-35.5 37.5 488 0.1586298 0.05295243 -0.9859172 
-27 39 494 0.6741891 -0.3938861 -0.6247582 
-25 39 496 0.6204487 -0.3274019 -0.7126369 
-23 39.66667 498 0.5987513 -0.1974946 -0.776204 
-33.28571 39.57143 488 0.1197268 0.0798798 -0.9895881 
-23 41 496 0.685316 -0.4241378 -0.5919874 
-31.5 41.5 489 0.1244815 0.22297 -0.9668447 
-23 43 494 0.673773 -0.4018125 -0.6201426 
-21.33333 43.33333 496.3333 0.735136 -0.3899076 -0.5545693 
-35.5 43.5 490.5 -0.07002944 0.4605774 -0.8848528 
-29.66667 43 489 0.2166923 0.230128 -0.9487284 
-39.42857 45.71429 492.1429 -0.0654786 0.4652176 -0.8827713 
-50 46 494 -0.1637849 0.4783886 -0.8627392 
-51.66667 47.33333 495 -0.1707784 0.48201 -0.8593609 
-37.5 47.5 493 -0.05405429 0.4482707 -0.892262 
-45.5 49.5 494.5 -0.1798354 0.457839 -0.8706564 
-43 49 493 -0.1412372 0.4579529 -0.8776851 
-48 50 496 -0.2157503 0.4533963 -0.8648026 
