ply
format ascii 1.0
comment VCGLIB generated
element vertex 975
property float x
property float y
property float z
property float nx
property float ny
property float nz
element face 0
property list uchar int vertex_indices
end_header
-73 131 511 0.1127068 -0.8469422 -0.5196018 
51 169 545 0.6228619 0.5727282 -0.5329406 
-57 149 481 0.01014883 -0.8641566 -0.5031207 
42 169 534 0.7336475 0.4263543 -0.5291346 
-74.5 156 470 0.03026845 -0.8528628 -0.521257 
-32.5 178.5 454 -0.3077099 0.347921 -0.8855878 
-42.5 173 454 -0.3277062 0.3879915 -0.8614355 
-15 191 456 -0.123586 0.7732653 -0.6219222 
-33 181 456 -0.2505258 0.1126796 -0.9615301 
-115 115 568 -0.699416 -0.6911192 -0.1821304 
44 168 536 0.7225335 0.4422063 -0.5314122 
-119 116.5 578 -0.3573398 -0.8543082 -0.3774462 
-116.5 114.5 578 -0.5249481 -0.7958419 -0.30177 
-108 106 578 -0.7675943 -0.6235739 -0.1481703 
-92.5 98 570 0.03380993 -0.8693295 -0.4930753 
33 157 514 0.9177217 0.1679185 -0.3599862 
-64 150 482 0.08741069 -0.8530333 -0.5144837 
44 170 538 0.7049442 0.4968735 -0.5061328 
42 172 538 0.7190982 0.5071369 -0.4750894 
-68 154 474 0.100309 -0.9047844 -0.413888 
-22 101 498 0.6613487 0.3399422 -0.6686234 
30 161 506 0.957919 0.1662172 -0.234015 
32 175 522 0.8709176 0.283829 -0.401178 
66 138.5 550 0.698593 -0.1063677 -0.7075689 
70 164 557 0.6131822 -0.09574529 -0.7841176 
91 147 585 0.7619227 0.1303497 -0.6344154 
93 135 583 0.7615671 0.3158787 -0.5658941 
75 97 619 0.03820263 -0.8174062 -0.5747937 
104 142 600 0.5539484 0.2164408 -0.8039245 
68 149 558 0.7544697 0.2076379 -0.6226251 
103 152 590 0.4516844 -0.6933184 -0.5615077 
82 146 574 0.7311186 0.2504867 -0.634604 
73.5 98.5 614.25 0.007861159 -0.832406 -0.5541104 
69.33334 152.3333 560.3333 0.7286216 0.1621776 -0.665439 
105 152 596 0.5476121 -0.4734141 -0.6899277 
84 147 576 0.7290519 0.220558 -0.6479487 
89 148.5 584 0.7544815 0.08347272 -0.6509916 
68 138.5 552 0.743129 -0.02321029 -0.6687456 
63.5 134 552 0.2714139 -0.7542204 -0.5979015 
93 136.5 584.5 0.7723264 0.2724123 -0.5738497 
75.5 98 616 0.04284442 -0.8469996 -0.5298643 
-100 207 460 -0.6610083 0.4875664 -0.570392 
89 146.5 582.5 0.7688674 0.196251 -0.6085463 
102 143 598 0.6359798 0.2322142 -0.735939 
79.33334 136.3333 566.3333 0.7340742 0.2288462 -0.6393469 
103.5 144.5 598.75 0.5897029 0.07891802 -0.8037552 
75.5 148.5 566.5 0.7820404 0.1429787 -0.6066052 
69.5 97 617 0.1030857 -0.7520345 -0.6510127 
97 134 587 0.7407086 0.3203146 -0.59055 
97 136.5 589 0.7450955 0.2831261 -0.6038811 
96 138.5 588.5 0.7633899 0.243553 -0.5982624 
83 136.5 571 0.7517802 0.3182605 -0.5775266 
95 140 587 0.7815655 0.2163418 -0.5851081 
61.5 134.5 550.5 0.2252693 -0.7849394 -0.5771689 
107.3333 146.6667 601 0.5428733 -0.0428961 -0.8387184 
96 144.5 591 0.7780399 0.1774492 -0.6026325 
105.6667 148.3333 601 0.5577719 -0.1280632 -0.8200551 
108 149 599 0.5945976 -0.1951803 -0.7799734 
67 140 551 0.7525691 0.1170998 -0.6480181 
102 153 593 0.4362603 -0.6653153 -0.6058321 
69 150.5 559 0.741292 0.1843295 -0.645375 
71 150.5 561 0.733516 0.1631302 -0.6598052 
73.66666 152.6667 564.6667 0.7504586 0.1285661 -0.6482921 
71 156.5 563 0.6986201 0.001323319 -0.7154916 
99.5 144.5 594.5 0.7386048 0.1531798 -0.6565052 
105 151 594 0.5896814 -0.463343 -0.6615052 
-86.5 214.5 450 -0.6764621 0.4647945 -0.5712838 
-86.5 216.5 452 -0.6792936 0.4729497 -0.5611406 
88 140.5 578 0.7639704 0.2448433 -0.5969933 
90 134 578 0.7509751 0.3420046 -0.5648623 
-77 217 442 -0.6538592 0.4460045 -0.6111858 
-108 206 469 -0.6651 0.510148 -0.5453357 
-92 208 451 -0.6750454 0.4306613 -0.5990363 
-78 208 437 -0.6806738 0.3365479 -0.6507063 
-76 208.5 435 -0.6896442 0.2982694 -0.6598685 
-85 217 451 -0.6768689 0.4746905 -0.5625989 
-76 218 441 -0.6604776 0.455684 -0.5967591 
91.5 134.5 580.5 0.7645288 0.3263548 -0.5558671 
88 134.5 576.5 0.7432935 0.3319065 -0.5808208 
-93 207 452 -0.6685984 0.4294125 -0.6071088 
-77 207 436 -0.6793532 0.2963744 -0.6712984 
86 135 574 0.7395813 0.3274156 -0.5880634 
67 166 556 0.6315829 0.2677967 -0.7275906 
92 155 576 0.4804587 -0.6936317 -0.5366885 
-115 200 472 -0.6443062 0.5108492 -0.5691245 
-91 199 446 -0.6665479 -0.067734 -0.7423786 
-111 205 472 -0.663187 0.4962825 -0.5602561 
90 156 577 0.4142387 -0.73915 -0.5310966 
-86 208 445 -0.658637 0.4030152 -0.6354337 
-84 208 443 -0.6525702 0.3959739 -0.6460316 
87.25 154.75 580.75 0.5940514 -0.5555859 -0.5817451 
87.33334 156.6667 578.6667 0.4739071 -0.6942965 -0.5416312 
85.5 154.5 578.5 0.6104234 -0.483554 -0.6273426 
-115 203 474 -0.649074 0.5148864 -0.5599954 
-113 201 470 -0.6561015 0.5051845 -0.5606419 
-109 205 470 -0.6660128 0.5014569 -0.552239 
-114.5 199 470.5 -0.6464949 0.4998349 -0.5763761 
-82.5 198.5 438.5 -0.4456629 -0.5412996 -0.7130073 
86 146 578 0.7506573 0.2305979 -0.6191432 
-111 199 466 -0.6757196 0.4473517 -0.5859008 
-109 201 466 -0.6764747 0.4822227 -0.5566357 
-95 199 450 -0.6342533 0.1517731 -0.7580816 
-79 200 436 -0.4365101 -0.399281 -0.8062466 
-83 216 448 -0.674855 0.4624398 -0.5750828 
85.5 144 576.5 0.738848 0.2449398 -0.6277804 
-108 202 465 -0.6741044 0.4813148 -0.5602852 
89 144 581 0.7646669 0.2344653 -0.6002589 
87 142 577 0.7489923 0.2395709 -0.6177511 
-124.5 200 482.5 -0.6685149 0.5194628 -0.5322089 
-78 199 435 -0.2490008 -0.6490634 -0.7188292 
-76.5 202.5 433 -0.5013363 -0.1329268 -0.8549809 
-82.5 214.5 446 -0.6764434 0.4356923 -0.5937984 
87.33334 146.3333 580.3333 0.7698551 0.208302 -0.603269 
-111 201 468 -0.6653639 0.4922066 -0.5612697 
-96.5 202.5 452.5 -0.6720698 0.3749793 -0.6385238 
-92.33334 202.3333 448.6667 -0.6814473 0.3111197 -0.6624455 
-76.4 198.8 436.6 -0.1045762 -0.773667 -0.6249025 
-80.5 202.5 436.25 -0.6196011 0.03810501 -0.7839915 
-76 222 444 -0.6566989 0.4785118 -0.5829006 
-81 217 446 -0.6691534 0.4633302 -0.5809982 
-76.5 200 434.5 -0.2981296 -0.5673804 -0.7675924 
-124 198 480 -0.6640497 0.5082165 -0.5484105 
-109 199 464 -0.6764566 0.4324499 -0.596149 
-108 204 466 -0.6683435 0.4991793 -0.5514863 
-76.66666 204.6667 434 -0.6344351 0.05026927 -0.7713398 
85 136 573 0.74428 0.315687 -0.5885482 
87 144.5 579 0.7610921 0.2401498 -0.6025503 
-98 200 453 -0.6591818 0.3447188 -0.6683175 
-96 200.5 451 -0.6698443 0.3264107 -0.6669068 
-94.5 200 449 -0.648035 0.2025941 -0.7341706 
-92.5 200 447 -0.6679371 0.08306125 -0.7395681 
-94.5 202.5 450.5 -0.6776836 0.3492311 -0.6471341 
-93 204.5 450.5 -0.674925 0.3802037 -0.6323934 
-82 200.5 437 -0.5713698 -0.1406907 -0.8085436 
-80 200.5 435 -0.5417965 -0.2248415 -0.8098783 
-78.5 202.5 434.5 -0.5548936 -0.04363107 -0.8307763 
-82 218 447 -0.6717343 0.4728314 -0.5702661 
-113 198.5 468 -0.6621056 0.4713659 -0.5826065 
-94.66666 204.6667 452.3333 -0.6770089 0.3963729 -0.620119 
-80.5 198.6667 436.6667 -0.4306434 -0.4971443 -0.7532555 
-79 204.5 436.5 -0.6312841 0.198364 -0.7497547 
-112.5 198.5 467 -0.6730852 0.4568778 -0.581566 
-110.5 198.5 465 -0.6770447 0.4309332 -0.5965794 
-82 199 437 -0.5137717 -0.4146083 -0.7510916 
-83 218 449 -0.6760787 0.469207 -0.5681219 
86 145 578 0.7440166 0.243146 -0.6223498 
-93 203 450 -0.677806 0.3458743 -0.6488066 
-77 203 434 -0.5561205 -0.0567052 -0.829165 
88 144.5 580.5 0.7707573 0.2318586 -0.5934432 
-112 200 468 -0.6697194 0.4852345 -0.5621597 
-108.5 200.5 464.5 -0.6736109 0.4743052 -0.5668184 
-97 200 452 -0.6642408 0.3110281 -0.6797395 
-94.33334 198.3333 448.3333 -0.6084394 0.05945325 -0.7913703 
-92.5 201 448 -0.6924869 0.1997027 -0.6932392 
-80.66666 200.3333 436 -0.5520818 -0.2072473 -0.8076227 
-80.66666 220.3333 448.3333 -0.6653258 0.4829547 -0.5692947 
-108 199 462 -0.6765355 0.4227629 -0.6029687 
-80.5 218.5 446.5 -0.6665757 0.4764823 -0.5732726 
85 146.5 577 0.72766 0.2396089 -0.6427275 
87.66666 142.6667 578.6667 0.7654133 0.2337392 -0.5995903 
85.33334 134.3333 572.3333 0.7432196 0.3305206 -0.5817051 
-111 203 469 -0.6693894 0.4928771 -0.5558686 
-109 203 467 -0.6738428 0.4930581 -0.5502996 
-98.5 198.5 452.5 -0.6462537 0.2901759 -0.7058004 
-96.5 198.5 450.75 -0.6362259 0.1896059 -0.7478411 
-92.66666 198.3333 446.6667 -0.622831 -0.0094438 -0.7822993 
-76.5 200.5 433 -0.379734 -0.4065119 -0.8309934 
-78 204.5 435 -0.62747 0.121217 -0.7691476 
-70 136 506 0.04748076 -0.8503028 -0.5241478 
-160.5 130 554 0.01119577 -0.8871103 -0.4614217 
11.5 118 538 -0.04075701 -0.8676894 -0.4954331 
-152.5 122 570 -0.1693056 -0.948058 -0.2692984 
-4 78.5 514.5 0.9363637 0.2036868 -0.285893 
2 112.5 538.5 0.8972292 0.009592757 -0.441461 
-0.5 195 458.5 -0.1349258 0.861014 -0.490357 
-46.5 146.5 488.5 -0.0804673 -0.8543344 -0.5134568 
-46.5 144.5 490.5 -0.06715694 -0.8707187 -0.4871745 
-46.5 143 493 -0.05343359 -0.8830573 -0.4662132 
-50.4 140.6 498.6 -0.0359863 -0.8782785 -0.4767933 
-50.5 139 501 -0.02347495 -0.8666587 -0.498349 
-74.5 137 503 0.07692631 -0.8543915 -0.5139042 
-72.5 136 504.5 0.07312238 -0.8560799 -0.5116447 
-68.5 135 506.5 0.03437293 -0.8489369 -0.5273753 
-70.5 134 508.5 0.08275828 -0.8364238 -0.5417992 
-2.5 128.5 519 -0.03586476 -0.8865499 -0.4612408 
3.5 126.5 522.5 0.00320943 -0.8751911 -0.4837666 
1.5 126 524.5 -0.05309008 -0.8925197 -0.4478728 
-158.5 131 553 0.03406973 -0.8902851 -0.4541276 
1.333333 124.3333 526.6667 -0.07581171 -0.8998467 -0.4295677 
-158.6667 128.6667 555 0.03239108 -0.8853824 -0.4637336 
-0.5 123 530.5 0.03919863 -0.8711405 -0.4894668 
-156.3333 128.6667 556.3333 0.05340213 -0.8866987 -0.4592535 
-2.333333 122.6667 532.6667 0.1922959 -0.808832 -0.5557095 
3.5 121 532.5 -0.06728266 -0.8837774 -0.4630449 
-7 118.5 524.5 0.8136285 0.3427074 -0.4696386 
5.5 120 535 -0.1039144 -0.879723 -0.4639929 
5.5 119 536.5 -0.04971357 -0.8750518 -0.4814695 
-148.5 123 567 -0.02476149 -0.9049172 -0.4248669 
-150.5 123 569 -0.08211235 -0.9258226 -0.3689311 
-148.3333 121 572.6667 -0.1492937 -0.9333923 -0.3263285 
-4.5 70.5 506.5 0.8939845 0.3016464 -0.3313626 
-3 70.5 512.5 0.9023779 0.3120326 -0.2972371 
-4.5 72.5 508.5 0.9103564 0.2786261 -0.305972 
-3 74.5 516.5 0.9264956 0.2678606 -0.2643041 
-38 70 477 -0.6050828 0.4639449 -0.6470162 
-36.66667 70.66666 474.6667 -0.5770112 0.3856095 -0.7199746 
-7 74.5 504.5 0.8891186 0.266222 -0.3722824 
-37 72.5 477 -0.6225874 0.4173835 -0.6619487 
-39 78.5 485 -0.5640625 0.3323406 -0.755899 
-36 82 479 -0.391463 0.4326763 -0.8121256 
3 106.5 543 0.9603605 0.002327394 -0.2787516 
-146.5 119 577 -0.1882227 -0.9288675 -0.3190256 
-144.5 119 575 -0.13931 -0.9149528 -0.3787535 
12 166 458.5 0.3031696 -0.8736823 -0.3804833 
20 172.5 465 0.9486625 -0.05224724 -0.3119452 
18 178.5 457 0.9769753 0.01766758 -0.2126199 
-44.5 147 486.5 -0.05671531 -0.8411807 -0.5377716 
-7 84.5 510.5 0.9130975 0.2384361 -0.3307586 
-30 77 478 0.4199046 0.4675955 -0.7778397 
-28 75 478 0.5498134 0.4507352 -0.7032375 
-146.5 120 574 -0.1410031 -0.9234298 -0.3569253 
-8.5 126.5 526.5 0.223961 -0.7013181 -0.6767529 
-56.5 142.6667 494.6667 0.06267337 -0.8921555 -0.4473596 
0 111 534 0.8862425 0.1839797 -0.4251186 
-150.5 124 566 -0.01631863 -0.8986993 -0.4382617 
-68.5 138 502 0.0425758 -0.8725621 -0.4866443 
-158.5 132 550 0.02998274 -0.899253 -0.4364003 
21 162.5 468.5 0.7371404 -0.5011061 -0.4533397 
-36 84.5 480.5 -0.4647912 0.4276506 -0.7752961 
-6 82.5 512 0.9101499 0.2462699 -0.333134 
-4 80.5 516.5 0.9392877 0.195717 -0.2818393 
-169 129 560 -0.3388463 -0.9172066 -0.2095595 
3.5 124 528 -0.06075922 -0.8856625 -0.4603371 
-0.5 128 520 -0.03336611 -0.8718694 -0.4886006 
-48.5 140 500 -0.02685905 -0.8777965 -0.4782802 
-44.5 144 492 -0.05585574 -0.8870572 -0.4582679 
-7 196 463 -0.1558947 0.8772233 -0.4540663 
3 112 541 0.8835684 -0.1244243 -0.4514704 
-7 76 503 0.8770215 0.2565219 -0.4062386 
-3 76 515 0.9318423 0.2365065 -0.2751993 
-150 121 571 -0.1382759 -0.9318699 -0.3354078 
-160 125 565 -0.2261712 -0.9506182 -0.2125364 
-156 125 561 -0.006066403 -0.8979019 -0.4401539 
-164 127 563 -0.2620613 -0.9421939 -0.2087929 
-167 128 563 -0.3192459 -0.9266058 -0.1987056 
-3 124 531 0.03857305 -0.8302947 -0.5559883 
2 123 529 -0.08637889 -0.8955019 -0.4365951 
-74 135 505 0.1024753 -0.8384606 -0.5352408 
18 175 460 0.9718148 -0.02793788 -0.2340847 
-155 122 572 -0.2828002 -0.9366392 -0.2067152 
-10 119 520 0.7844257 0.3867823 -0.4848462 
-2 193 454 -0.1375806 0.812565 -0.5664008 
7.5 166 454 0.2494079 -0.8243837 -0.5081212 
4 130 518 -0.002448213 -0.8659198 -0.500177 
-65 94.5 518 -0.9165639 0.07601674 -0.3925964 
-32.5 190.5 454 0.3736855 -0.01989833 -0.9273421 
-56.5 154.25 474.5 0.06639928 -0.8690315 -0.490281 
27 150 490 0.6759233 -0.518393 -0.5238286 
-18.5 84.5 490.75 0.6809769 0.289222 -0.6727712 
-12 95 506 0.8104407 0.3212069 -0.4899102 
-112 115 554 -0.7293392 -0.6656014 -0.1582375 
-68.5 158.5 466 0.06220635 -0.8336914 -0.5487159 
-66.5 157 466.5 0.1064487 -0.8399302 -0.5321523 
29 156.5 498 0.9674417 0.103645 -0.230899 
-44.5 150.5 482.5 -0.00546893 -0.8458543 -0.5333859 
-74.5 148.3333 482.3333 0.06743991 -0.8778922 -0.4740855 
24 138 506 0.2481702 -0.7658008 -0.5932627 
-58.5 132 514 -0.2605038 -0.5869645 -0.7665576 
-47 128.5 506 -0.2411487 0.3807409 -0.8926834 
-52.66667 118.6667 506 -0.5848086 0.2649335 -0.7666871 
-126.3333 128 554.3333 -0.2219102 -0.901211 -0.3722562 
-132.5 126 562 -0.0158644 -0.8969469 -0.4418536 
-48.66667 106.3333 498 -0.4301841 0.3556281 -0.8297412 
-82.33334 92.33334 578.3333 -0.1602555 -0.8038102 -0.5728939 
-84.5 94 578 -0.07360619 -0.8211539 -0.5659403 
-80.5 98 570 -0.1639414 -0.8346162 -0.5258699 
-138.3333 117 578.3333 -0.04389319 -0.9269409 -0.3726312 
-64.5 163 458.5 -0.0326348 -0.6421391 -0.7658932 
-66.4 164.4 458.2 0.0410696 -0.4196959 -0.9067352 
-54.57143 192.5714 450.5714 -0.01361039 -0.8717053 -0.4898415 
-50.5 197 442.5 0.1236756 -0.8420398 -0.5250459 
-54.6 156.4 470.2 0.03685948 -0.8795285 -0.4744164 
30 144.3333 502.3333 0.7789243 -0.4613729 -0.4247495 
25.5 140.5 502.5 0.326227 -0.7775381 -0.5375971 
-48.5 196 444.5 0.1301543 -0.8075815 -0.5752146 
-56.5 192.5 448.5 -0.007834801 -0.888535 -0.4587421 
-31 194.5 456.5 0.6963335 0.1894585 -0.6922609 
-53 192 452 -0.02261212 -0.8636327 -0.5036142 
-54.25 190.75 452.75 -0.01390381 -0.8600085 -0.5100902 
-39 186 456 -0.1947476 -0.3556416 -0.9141075 
-40.5 184.5 456 -0.2062831 -0.2664028 -0.941529 
-42.5 182.6667 456.6667 -0.1860009 -0.1705815 -0.9676289 
-26.5 166 456 0.01503566 -0.8529312 -0.5218068 
-60.6 164.6 456.6 -0.05798212 -0.5321835 -0.8446412 
-66.5 162 460 0.06235441 -0.7414684 -0.6680843 
-74.5 158.5 464.5 0.06514025 -0.8544052 -0.5155079 
-136.3333 116.3333 580.6667 -0.05707201 -0.9094726 -0.4118282 
-30.66667 98.33334 488.6667 0.3956417 0.4748352 -0.7861292 
-40.5 92.5 492.5 -0.2941984 0.3260443 -0.8984111 
-42 90.5 492 -0.1358508 0.3809011 -0.9145813 
-42.66667 86.33334 488.6667 -0.1495761 0.42143 -0.8944405 
-78.5 99 568.5 -0.2646182 -0.8125299 -0.5193961 
-18 82.5 492 0.7154469 0.2758061 -0.6419243 
-90.5 94 576 0.0468682 -0.8764447 -0.4792161 
-18.66667 78.33334 488.6667 0.6766439 0.3161913 -0.6649633 
-61 108.5 512 -0.8264223 0.1129465 -0.5516061 
-51 106.5 500 -0.6556523 0.303527 -0.6913693 
-46.5 106.5 496 -0.1469943 0.3829623 -0.9119937 
-44.4 108.4 496.6 -0.08255509 0.3427238 -0.9358018 
-128.5 124 564.5 -0.08871686 -0.8882217 -0.4507677 
-138.5 126.5 560.5 -0.008091415 -0.8957177 -0.4445496 
-56.5 128.5 512.75 -0.5779074 0.01596629 -0.8159462 
-54.66667 130.6667 512 -0.4351904 -0.107072 -0.8939491 
-53 132.5 512 -0.3984205 -0.1796959 -0.8994279 
33 134 516.5 0.7427554 -0.4717035 -0.4751952 
29.5 134 512 0.4160323 -0.7180301 -0.5579873 
32 136.6667 512.6667 0.7500162 -0.482027 -0.4529081 
27.5 136.5 508.5 0.3877622 -0.7207561 -0.5745879 
27.5 140.5 504.25 0.456648 -0.7090555 -0.5373202 
32 148.5 508 0.9571504 -0.04266027 -0.2864321 
29 150.5 496 0.9099151 -0.2299792 -0.3452015 
-73 148 484 0.05782781 -0.8785198 -0.4741931 
28 152.5 492 0.8977548 -0.203347 -0.390751 
-50.5 150.6667 480.6667 -0.001750593 -0.8736748 -0.4865073 
-52.5 156 472.5 0.01930648 -0.8822325 -0.470418 
-64.5 156.5 468.5 0.1118003 -0.8642758 -0.4904368 
-52.4 194.2 446.4 0.0367322 -0.8683726 -0.4945501 
-38.66667 188.5 454.3333 -0.1274772 -0.52879 -0.839125 
-36.6 186.6 454.4 -0.1486371 -0.3576647 -0.9219452 
-24.5 166 454.5 -0.003538665 -0.8739929 -0.4859259 
-60.5 161 461 0.05441681 -0.8342818 -0.5486462 
-74.5 160 462.5 0.07682179 -0.834748 -0.545247 
-72.5 159 463 0.06148179 -0.8449357 -0.5313227 
-62 106 513 -0.853929 0.06829578 -0.5158885 
-48.33333 102.3333 495 -0.397413 0.3650455 -0.8419055 
-63 105 515 -0.8767372 0.05536393 -0.4777727 
-108 110.5 555 -0.6047296 -0.7512788 -0.2643525 
-38 92 487 -0.7198584 0.2934369 -0.6290459 
-40 90 491 -0.3459981 0.3826905 -0.8566408 
-78.5 100 567 -0.2299038 -0.8283078 -0.5109309 
-76.5 99 567 -0.4825446 -0.7310849 -0.4823541 
-17 84.5 493 0.7333283 0.2607073 -0.6279024 
-78.5 97 571 -0.3866743 -0.7470034 -0.5408039 
-89 95 575 0.08148365 -0.8558636 -0.5107424 
-14.66667 78.33334 493 0.7318572 0.3219463 -0.6006127 
-77 92.5 577 -0.4799448 -0.706478 -0.5201364 
-80.5 91 579 -0.2974855 -0.7742836 -0.5585583 
-82.66666 90.33334 580.6667 -0.1687348 -0.8134882 -0.5565657 
-76.5 88.5 581 -0.4271033 -0.7476281 -0.5085617 
-48.5 104.5 496.75 -0.3922026 0.3774547 -0.8388712 
-120.5 120.5 568.5 -0.4228896 -0.8422464 -0.3343434 
-50 108 499 -0.5785537 0.3249278 -0.7481294 
-130.5 125 563 -0.02189332 -0.9000604 -0.4352148 
-126.5 127 557 -0.1783578 -0.9072247 -0.3809618 
-128.5 129 553 -0.1528213 -0.8987663 -0.4109316 
-54 120 507 -0.6128217 0.2602648 -0.7461312 
-58 126 513 -0.6550345 0.12006 -0.7459996 
-52.5 130.5 510.25 -0.4250443 -0.006280273 -0.9051508 
-50.5 130.5 508.75 -0.4969291 0.186851 -0.8474362 
-48 130.5 507 -0.3104879 0.2890771 -0.905556 
-48.5 132.5 508.75 -0.3152663 0.0332103 -0.948422 
25 135 508.5 0.2665789 -0.7757336 -0.5719904 
31 135 511 0.5535519 -0.6496772 -0.5210565 
33 136.5 515 0.8240168 -0.3763881 -0.4234718 
25 137 507 0.2973018 -0.7469882 -0.5946599 
23 137 505 0.2156681 -0.7664021 -0.6050744 
25.33333 139 504.6667 0.326943 -0.7637102 -0.5566463 
31 145 505 0.8885003 -0.2954468 -0.3511104 
-74.66666 147 484.6667 0.05096342 -0.8817449 -0.4689656 
30 154.5 501 0.9703743 0.06540369 -0.2325855 
-68.5 149 481 0.08070118 -0.8492952 -0.5217136 
-48.5 151 479 0.02888507 -0.8622023 -0.5057399 
-52.33333 152.6667 477 -0.01797011 -0.8341969 -0.5511739 
-67 155 469 0.08637493 -0.8718899 -0.4820241 
-52 191 451 -0.01660011 -0.8636039 -0.5038975 
-50.33333 102.3333 496.6667 -0.5602718 0.3197423 -0.7641076 
-60.33333 106.3333 510.3333 -0.8290268 0.1019296 -0.5498408 
-111 114 553 -0.6873336 -0.7005664 -0.1917794 
-34.33333 96.66666 486.3333 -0.09643389 0.4721896 -0.8762063 
-14.33333 98.66666 504.3333 0.7370746 0.3987552 -0.545633 
-108 109 561 -0.6780874 -0.7077082 -0.1983598 
-39 90 489 -0.6593359 0.3068307 -0.6863898 
-77 96 573 -0.4677706 -0.7086894 -0.5281572 
-109 100 601 -0.6530271 -0.7108037 -0.261369 
-112 101 605 -0.4771453 -0.8379598 -0.2648697 
-78 93 575 -0.4505427 -0.694983 -0.560366 
-76 91 575 -0.5465406 -0.6915371 -0.4723028 
-12.33333 74.66666 494.3333 0.7682356 0.3318717 -0.547426 
-136.5 127 558.5 0.005547067 -0.8996413 -0.4365946 
-126.5 130 552.5 -0.246258 -0.8923734 -0.378189 
-125 130 551 -0.3516656 -0.8614444 -0.3663945 
23.33333 150 486.3333 0.3946061 -0.7116393 -0.5812535 
-118 118 572 -0.504377 -0.8169713 -0.2795741 
30 142 504 0.6835612 -0.5461668 -0.4841961 
-39 101 494 -0.6286874 0.3349815 -0.7018117 
-90 96 574 0.06882926 -0.8602042 -0.5052835 
30 136 510 0.519638 -0.6596508 -0.5429891 
-50.5 152 478 -0.01747625 -0.830259 -0.5571037 
27 163 494 0.970714 0.1132046 -0.2118944 
-32.33333 94.66666 486 0.1615659 0.4516712 -0.8774335 
-20 74.5 486 0.66855 0.3525979 -0.6547639 
26 156.5 486 0.9084143 -0.1695933 -0.3821278 
-37 91 486 -0.6712966 0.3262925 -0.6655028 
-14.5 192 458 -0.08815535 0.8210759 -0.5639709 
-52.5 158.5 466.5 0.0188755 -0.8404222 -0.5416035 
-54.5 158 468.5 0.03678543 -0.87307 -0.4862054 
-48.5 157 469 0.06738943 -0.8609106 -0.5042734 
-70.5 154 472.5 0.07243498 -0.9016082 -0.4264456 
-72 153 473 0.07941705 -0.8930359 -0.442922 
-70.6 152.6 474.4 0.09242478 -0.8944919 -0.4374264 
-68.5 152.25 476.5 0.09415687 -0.8680797 -0.4874137 
48 173 549 0.5951042 0.6398945 -0.4861957 
-56.5 148.5 484.5 0.01399077 -0.8784374 -0.4776526 
33 154.5 513 0.9266989 0.1249142 -0.3544372 
34 152.5 515 0.8871158 0.08559453 -0.4535407 
35 152.5 517 0.8410817 0.07639749 -0.5354857 
23.66667 144 496.6667 0.3179439 -0.8047914 -0.501221 
21.66667 142.6667 496.3333 0.2083827 -0.8388464 -0.5029048 
-69 132 512.5 0.1006639 -0.8607723 -0.4989366 
-70.66666 131 512.6667 0.1231148 -0.8517801 -0.5092283 
-72.5 130 514.5 0.1215892 -0.8516544 -0.5098048 
-12.5 130.5 518.5 0.06554479 -0.8514317 -0.5203537 
-14.33333 130 520.6667 0.2088655 -0.7598903 -0.6155826 
-68.5 128.75 516.5 0.02123555 -0.8082887 -0.5884033 
-14 128.5 522.5 0.4936616 -0.4193409 -0.7618737 
-16.33333 126.6667 518.3333 0.723364 0.2236311 -0.6532485 
-13 126.5 523 0.6400085 -0.04428456 -0.7670906 
-62.66667 118.6667 516.6667 -0.8302374 0.1113707 -0.5461708 
-132.5 123 567 0.01572622 -0.8702244 -0.4924045 
-54 109 503 -0.6838245 0.2524404 -0.684586 
-134.5 122.5 568.5 0.02398267 -0.8797535 -0.4748249 
-134.5 120.5 570.5 0.02016793 -0.8951043 -0.4454006 
-115 118 561 -0.7273588 -0.6619707 -0.1809537 
-96.5 92 581 -0.2754882 -0.815465 -0.5090414 
-98 93 578.5 -0.3224202 -0.8384801 -0.4393135 
-92.5 93 577 -0.02398494 -0.8764003 -0.4809856 
-101 98 575 -0.5854817 -0.7519431 -0.3029734 
-94.33334 96.66666 571 -0.02829885 -0.8649369 -0.5010821 
-94.66666 98 568.3333 -0.06852216 -0.8491238 -0.5237304 
-13 86.5 499 0.8124146 0.2304304 -0.535616 
-92 99 567 0.02126597 -0.8602984 -0.5093472 
-25 86.5 487 0.5749298 0.3601544 -0.7346731 
-20.5 86.5 490.25 0.6310214 0.3364009 -0.6990324 
-12.5 88.5 500.5 0.8240726 0.2334441 -0.5161475 
-88.33334 101 564.6667 0.06535867 -0.8729652 -0.4833841 
-14.33333 88.66666 498.6667 0.7815087 0.2546563 -0.5695564 
-90.5 101 563 0.04791053 -0.8672569 -0.4955503 
-24.5 88.5 488.25 0.5733281 0.3541652 -0.7388247 
-22 88.5 490.5 0.6121016 0.357649 -0.7052794 
-26.5 88.5 486.5 0.558449 0.3545575 -0.7499492 
-112 109 581 -0.6874229 -0.6994026 -0.1956675 
-122 115 581 -0.1866111 -0.8804413 -0.4358893 
-22.33333 98.66666 496.6667 0.6347766 0.386416 -0.6691349 
-116 115 575 -0.5821347 -0.7718264 -0.2557404 
-122.6667 117 578.6667 -0.1511764 -0.8905362 -0.4290582 
-118 117 575 -0.4550381 -0.8340406 -0.3119561 
-130.5 118 577 -0.02122292 -0.9085989 -0.4171302 
-56.4 104.4 504.6 -0.7616507 0.1771312 -0.623308 
-134.5 119 573 0.006710878 -0.9021426 -0.4313858 
-56.5 160 464.5 0.08628419 -0.8576352 -0.5069684 
-50.66667 163 460.6667 0.07804967 -0.8073125 -0.58494 
-50.66667 164.6667 458.6667 0.08181865 -0.7827113 -0.6169836 
-42.66667 166.3333 456.5 -0.1810644 -0.8078766 -0.5608485 
-40.5 166.75 454.75 -0.2090823 -0.780119 -0.58966 
-44.5 168.3333 452.3333 -0.2501128 -0.3235703 -0.9125491 
-22.5 188.5 454.5 -0.1231239 0.6318855 -0.7652198 
-18.33333 191 456.6667 -0.08695864 0.7658122 -0.6371577 
-70.5 190.5 452.5 0.01254563 -0.8877754 -0.460106 
-20.5 195 463 0.1816007 0.7497972 -0.636259 
-70.4 192.4 450.4 0.04147002 -0.8865718 -0.4607285 
-72.5 193 448.5 0.05116018 -0.8826454 -0.467247 
-74.5 193 447 0.0607729 -0.8865421 -0.4586392 
-66.5 195 444.5 0.02054368 -0.9220054 -0.3866315 
-66.5 196 442.5 0.007145446 -0.9324914 -0.3611214 
-60.5 197 440.5 0.0300001 -0.9176474 -0.3962616 
-62.5 197 438.5 0.01274466 -0.9180207 -0.3963278 
27.75 146.5 494.5 0.6095434 -0.624194 -0.4887111 
-52.33333 162.3333 462.3333 0.09310874 -0.8248379 -0.5576498 
-68.5 194.25 446.5 0.03576641 -0.8924253 -0.4497752 
35.66667 170.6667 526.6667 0.7931503 0.3472677 -0.5003177 
-66.5 152 478 0.1068948 -0.8534626 -0.5100737 
-65 151 478.5 0.102688 -0.8527136 -0.5121862 
21.5 144.3333 494.3333 0.2325537 -0.8219048 -0.5199917 
-70.6 132.8 510.6 0.1057406 -0.8457161 -0.5230519 
-59 112.5 510 -0.7741406 0.1535159 -0.6141167 
-16.5 86.5 494.25 0.7235375 0.2679559 -0.636155 
-18.33333 88.66666 494.3333 0.6661417 0.332668 -0.6675233 
-109 107 574 -0.7621486 -0.6301304 -0.1485436 
-128.5 119 574.5 -0.04575737 -0.9122539 -0.4070615 
-58.5 160.75 462.25 0.0925831 -0.8573146 -0.5063992 
-54.5 160 466 0.05194668 -0.8515941 -0.5216215 
-57 106.6667 506.3333 -0.7608133 0.1882609 -0.6210644 
-24 90.5 490 0.5876665 0.3796234 -0.7145168 
-102 97 578 -0.6626719 -0.7044229 -0.2542724 
-61 118.5 514 -0.797831 0.1441556 -0.5853929 
27.5 143 498 0.5175658 -0.7077087 -0.4809096 
25 144 498 0.4297248 -0.755934 -0.4938627 
-58.5 149 482.5 0.03898984 -0.8708692 -0.4899659 
-60.5 150 482 0.05135933 -0.8661765 -0.4970919 
-94.5 100 566 -0.07028556 -0.8697301 -0.4884971 
-53 106.5 502 -0.6901967 0.2536174 -0.6777217 
-50.66667 112.6667 502 -0.5609619 0.3122693 -0.7666875 
-68.5 155 470 0.06992514 -0.8763329 -0.4766037 
-30.66667 180.6667 454 -0.299153 0.2216057 -0.9281155 
-34.5 177 454 -0.281713 0.4407663 -0.8522692 
-21 197 465 0.337418 0.6858835 -0.6447582 
-56 102 503 -0.7772626 0.1795369 -0.603017 
-116.5 113 580.5 -0.4882267 -0.8146055 -0.3131335 
-59 106.5 508.5 -0.7951218 0.1360177 -0.5909996 
-117 123 551 -0.7259896 -0.6700814 -0.1546935 
33 174.5 524.5 0.8429117 0.3394048 -0.4174975 
-18 129 518 0.6425197 0.0001396425 -0.7662692 
-64.5 196 444 0.01134843 -0.9285455 -0.371045 
-48.5 164 460 0.05771386 -0.8060297 -0.5890544 
-115 115 572 -0.6411583 -0.7339047 -0.224277 
-20.33333 88.66666 492 0.6238953 0.366789 -0.6900874 
-103 99 576 -0.6978984 -0.6792132 -0.2271724 
-92.5 96 572 0.03992013 -0.8696966 -0.4919697 
-132.6667 120.3333 572 0.009650519 -0.9029213 -0.4296975 
-55 107 504 -0.7098798 0.2249744 -0.6674258 
-12 128 524 0.3911646 -0.647882 -0.6536353 
25.5 142.5 500 0.3599661 -0.7780963 -0.5147725 
-66.5 150.5 480 0.1111498 -0.8420214 -0.527869 
35.5 173 528 0.7836856 0.4071849 -0.4690815 
-16 89 496 0.7254422 0.284095 -0.626916 
-94 95 572 -0.01659482 -0.8732564 -0.4869785 
-120 125 556 -0.5907987 -0.7747244 -0.2252978 
-16 129 520 0.5662497 -0.3428416 -0.7495472 
30 159 504 0.9610869 0.1520815 -0.2306149 
42 171 536 0.7226125 0.4863815 -0.4911866 
-4.5 138.5 502 0.05427352 -0.8859356 -0.4606219 
-26 120.5 502 0.5708526 0.31193 -0.7594913 
46 160.3333 534.3333 0.7584487 0.2570777 -0.598888 
49.33333 160.3333 538.6667 0.7287781 0.2889177 -0.6208133 
13.66667 140.6667 498.6667 0.05077923 -0.8672523 -0.4952725 
15.66667 140 500.3333 0.0551765 -0.871104 -0.4879891 
-10.33333 136.6667 502.6667 -0.02294621 -0.8940008 -0.4474773 
-34 124 499 -0.1548046 0.5112171 -0.8453949 
-25 117 501 0.5936103 0.2926141 -0.7496692 
-92.5 76.5 608.5 -0.564689 -0.7587095 -0.3247865 
-107 99 597 -0.7510884 -0.6245789 -0.213933 
-61 84.5 504.5 -0.8866574 0.1807634 -0.4256328 
-58 84 499 -0.8487556 0.2316335 -0.4753525 
-125 105 613 -0.4054397 -0.9102339 -0.08422008 
-88.33334 106.6667 554.6667 0.003424199 -0.8866163 -0.462493 
-28.66667 172.6667 448.3333 -0.2770533 0.06874438 -0.9583923 
-36.5 159 467 -0.05682199 -0.8454478 -0.5310268 
-38.5 158.5 468.5 -0.02150553 -0.8485003 -0.5287578 
-16.66667 158 470.6667 0.09976967 -0.8807535 -0.4629465 
-22.5 157 470.5 0.0738002 -0.8584964 -0.5074816 
-20.6 156.4 472.6 0.09240169 -0.8718395 -0.4809968 
-22.5 155 473 0.09334502 -0.8737285 -0.4773732 
-24.5 154.5 474.5 0.07929474 -0.8865044 -0.4558753 
-26.5 154 476.5 0.03652678 -0.8922526 -0.4500568 
-18.5 152.3333 478.3333 -0.04024354 -0.8500884 -0.5251004 
-16.5 151 479 -0.05437398 -0.8583395 -0.5101929 
-18.5 151 481 -0.04813471 -0.8607546 -0.5067393 
-12.66667 150 482.6667 0.04923321 -0.8861665 -0.4607442 
-42.5 149 483 -0.01263965 -0.837381 -0.5464736 
-40.5 148.3333 484.3333 0.01443434 -0.8197845 -0.5724903 
17.5 148 486.5 0.1577865 -0.8001732 -0.5786418 
47.66667 160.3333 536.6667 0.7450156 0.2814802 -0.6047484 
17.5 146.3333 488.3333 0.1298138 -0.8208948 -0.5561296 
51.33333 160.3333 541 0.7271139 0.2760514 -0.6285706 
47 158 535 0.7441254 0.2731754 -0.6096332 
17.5 145 490.5 0.1145894 -0.82868 -0.5478675 
51 158 539 0.727124 0.2847711 -0.6246569 
19.5 144 492.5 0.1812938 -0.825124 -0.5350729 
7.5 143 494.5 0.02488176 -0.8153083 -0.5784922 
14 139 501 0.05542726 -0.8655244 -0.4977905 
-8.5 136.5 504.5 -0.01844967 -0.8880739 -0.4593302 
43.33333 142.6667 531 0.3813505 -0.7405887 -0.5532633 
-6.666667 136 506.6667 0.01099316 -0.8799874 -0.4748698 
-4.5 135 507 0.02468526 -0.8783605 -0.4773611 
-6.5 134.5 508.5 -0.004477303 -0.8846723 -0.4661921 
-23 130 513 0.6266648 0.367421 -0.6872358 
-32.66667 122.3333 499 0.095084 0.4183857 -0.9032787 
-66.5 126.5 520.75 -0.3078973 -0.6486019 -0.696071 
-28.4 120.4 500.6 0.4958196 0.3213132 -0.8067966 
-16.5 123 514.5 0.6985424 0.4910187 -0.5205183 
-24.33333 120.6667 504.3333 0.6451828 0.31974 -0.6939059 
-74.5 125 523 0.01492047 -0.8787543 -0.4770412 
-34.5 118.5 497 -0.1517598 0.4356412 -0.8872349 
-16.33333 120.6667 512.3333 0.723342 0.388518 -0.5708153 
-24.4 118.4 502.4 0.6238372 0.2828669 -0.7285694 
-28.5 118 499 0.4898318 0.3236326 -0.8095226 
-72.5 124 524.5 -0.06622355 -0.8638498 -0.4993776 
-14.33333 120.6667 514.3333 0.7448656 0.4061914 -0.5293239 
-13 120.3333 516.3333 0.7410257 0.4276958 -0.5176459 
-16.6 118.6 510.6 0.7104377 0.3248114 -0.6243205 
-21 118.5 506.5 0.6719633 0.3016712 -0.6763577 
-13 118.3333 514.6667 0.748394 0.3578042 -0.5584645 
-23 110.5 501 0.6347592 0.3145324 -0.7057976 
-95 80 603 -0.466809 -0.8120756 -0.3501751 
-56 70.5 487 -0.7568911 0.314387 -0.5729544 
-58 74.5 492.5 -0.8507115 0.2514502 -0.4615873 
-63 80 507 -0.9085129 0.2066118 -0.3632023 
-54.33333 76.33334 487 -0.6480919 0.3860047 -0.6564887 
-100 93 585 -0.6424795 -0.6872321 -0.3390165 
-50.33333 80 486.6667 -0.4329032 0.4198217 -0.7977121 
-60 83 503 -0.8805252 0.1964163 -0.4313886 
-44.33333 82.5 486.3333 -0.1219239 0.4583058 -0.8803922 
-109 102 595 -0.6803543 -0.6911296 -0.24384 
-127 106 609 -0.394403 -0.9110779 -0.1199303 
-111 104 595 -0.5734838 -0.7600777 -0.3056111 
-46.33333 84.33334 487 -0.1338074 0.3988276 -0.9072112 
-104 103 567 -0.5991994 -0.7410109 -0.3030891 
-107 106 573 -0.7519392 -0.6389406 -0.1623032 
-82.5 103 560.5 0.01471652 -0.867242 -0.4976693 
-106 105 567 -0.6819148 -0.6964756 -0.2234143 
-114.5 111 584.5 -0.5042647 -0.8097153 -0.3001306 
-84.5 105 557 0.03096971 -0.8828278 -0.4686748 
-86.5 107 553 -0.004503937 -0.8974531 -0.4410872 
-86.33334 108.3333 550.3333 0.006878899 -0.9040224 -0.4274297 
-74.5 113 543 -0.3211201 -0.7707552 -0.5502895 
-40 161 465 -0.00435101 -0.8481359 -0.5297608 
-36.4 162.4 462.4 -0.1026253 -0.8963628 -0.4312794 
-34.5 162.75 460.5 -0.03862382 -0.9111598 -0.4102391 
-28.5 164.5 456.5 0.03092265 -0.8543559 -0.5187675 
-56.5 166.5 455 0.05692273 -0.1931284 -0.979521 
-58.5 168 455 -0.05504508 0.09514995 -0.9939399 
-30.5 167 453 -0.001408274 -0.8384554 -0.5449683 
-54.5 170.5 456.5 -0.133176 0.3322309 -0.9337488 
-30.5 169 450.5 -0.06231771 -0.6769848 -0.7333539 
-52.5 172 457 -0.2379365 0.4614059 -0.8546876 
-58.33333 172.3333 458.3333 -0.1157073 0.5192391 -0.84676 
-30.42857 170.5714 448.5714 -0.206023 -0.2005783 -0.9577698 
-38.5 174 453 -0.302879 0.4816813 -0.8223427 
-28 171 447 -0.2193204 -0.1125358 -0.969141 
-48.5 178.5 459 -0.256017 0.04984529 -0.9653863 
-50.5 181 459 -0.2703768 -0.1996676 -0.9418224 
-70.5 183 461 -0.07499792 -0.4751779 -0.8766877 
-68.4 184.6 460.6 -0.04464131 -0.5308205 -0.8463078 
-72.6 186.6 458.8 -0.02780343 -0.7138441 -0.6997526 
-14.5 184.5 451 -0.2353674 0.4131857 -0.8797043 
-16.5 186 451 -0.2028366 0.4659555 -0.8612449 
-68.66666 189 456.6667 -0.005457184 -0.8071795 -0.5902808 
-16.66667 188 452.3333 -0.1703911 0.564328 -0.8077753 
-70.5 189 455 0.006185231 -0.8493983 -0.5277162 
33 164.5 518.5 0.8963256 0.1967465 -0.3973552 
-64.33334 127 518.6667 -0.390176 -0.4994393 -0.7735135 
-113 110 582 -0.6072487 -0.7611493 -0.2278174 
-115 112 582 -0.5354127 -0.7976785 -0.2775648 
-66.5 128.5 518.5 -0.1509539 -0.6898641 -0.7080258 
-64.66666 190 454.3333 -0.03988149 -0.8747603 -0.4829119 
-82.5 105 558 0.02167826 -0.8809611 -0.472692 
-120.5 110 590 -0.1615887 -0.8993715 -0.4062267 
-99 89 590 -0.5942982 -0.7516751 -0.2859969 
-96.5 86 590 -0.2817518 -0.8776569 -0.3877296 
25.5 68 622 0.1617941 -0.9134879 -0.373313 
-67 120.5 526 -0.7484053 -0.3963293 -0.5318013 
-18 120.5 510 0.691892 0.3626654 -0.6243072 
38 144 526 0.639172 -0.5485753 -0.5390031 
43.5 146.5 526 0.5829307 -0.3869408 -0.7144709 
-74.5 188 458 0.0006699156 -0.7997412 -0.6003446 
-12.66667 182.6667 450 -0.2568026 0.3731051 -0.8915408 
-46.5 176.5 458 -0.3066741 0.2931759 -0.905538 
-34.66667 172.6667 450 -0.2573231 0.2167954 -0.9416924 
-32.5 170 450 -0.1248061 -0.4087555 -0.90407 
-34.5 164 458 -0.03425643 -0.8974924 -0.4396974 
-32.5 163 458 0.0227759 -0.8869648 -0.4612752 
-38.5 160.5 466 -0.03178344 -0.8414351 -0.5394228 
-76.5 102.5 562 -0.4339958 -0.7686228 -0.4699647 
-112 106 594 -0.544028 -0.7720569 -0.3285753 
-50.5 85 490 -0.5039044 0.3535011 -0.78811 
-57 74.5 490 -0.7951752 0.2948828 -0.5298495 
-90.66666 84.33334 594 -0.1017684 -0.91598 -0.3881029 
25 65 626 0.1684688 -0.9291214 -0.3291684 
-22 120.5 506 0.6680783 0.3351239 -0.6643519 
48 162.5 538 0.7335328 0.3083212 -0.605696 
31 170.5 514 0.9364075 0.1724188 -0.3056351 
-66.5 190 456 -0.02529784 -0.8543226 -0.5191272 
-18.66667 186.6667 452 -0.1700933 0.5007877 -0.8486931 
-50.66667 178.3333 460 -0.2891427 0.05083418 -0.9559354 
-28.5 168 452 -0.05678903 -0.8272303 -0.5589858 
-56.5 169 456 -0.01512365 0.1872001 -0.9822055 
-38.5 162 464 -0.06178354 -0.8731694 -0.4834853 
-84.5 108 552 0.02758078 -0.8907995 -0.4535588 
-90 106 556 0.03049957 -0.863565 -0.5033143 
-80.5 104 560 -0.05763118 -0.8565522 -0.5128322 
-122.5 110 592 -0.08990225 -0.901472 -0.423398 
-49 81 488 -0.3727442 0.4114993 -0.8317031 
-59 83 500 -0.8605772 0.2282498 -0.455312 
-59 79 496 -0.8448169 0.2932256 -0.4475525 
-57 77 492 -0.8022512 0.2982192 -0.5171638 
-56 72.5 488 -0.7568112 0.3228779 -0.5683191 
28 68 624 0.1838491 -0.9351674 -0.3027562 
-26.33333 114.6667 500 0.5700867 0.298916 -0.7652779 
-20 120.5 508 0.6680908 0.3409594 -0.6613633 
-16.5 124.5 516 0.7308781 0.4208073 -0.537344 
-32.33333 124.6667 500 0.1255885 0.5161921 -0.8472151 
-20.5 133 512 0.1732766 -0.8196 -0.5461054 
41.5 142 532 0.47418 -0.7124334 -0.517293 
38 142 528 0.6799415 -0.5388317 -0.4973331 
40 144 528 0.5308332 -0.6550862 -0.5376599 
5.5 142 496 0.04197709 -0.8201157 -0.5706559 
20 148.5 488 0.2320908 -0.7756472 -0.5869457 
-41 162 466 0.01519278 -0.8452473 -0.5341594 
-131 108 610 -0.4166093 -0.9034377 -0.1011778 
-18 125 514 0.6784863 0.4537201 -0.5777494 
-22 129 514 0.6388641 0.3765913 -0.6708441 
36 159 522 0.7661493 0.2692485 -0.5835413 
-75 186 460 -0.08904164 -0.6779836 -0.7296641 
-73 112 544 -0.5215638 -0.6814056 -0.513476 
-115 106 596 -0.3612154 -0.8279665 -0.4289463 
-110 103 596 -0.6265095 -0.7233462 -0.2902691 
-95 82 600 -0.410578 -0.8347986 -0.3667928 
26 67 624 0.1784577 -0.9266356 -0.3309068 
-30 119 500 0.3963966 0.3485737 -0.8493328 
-20 129 516 0.5886667 0.1473241 -0.7948378 
34 163 520 0.8583592 0.2091652 -0.4684757 
-49 79 486 -0.3540086 0.4386734 -0.8259804 
-122.5 128 550 -0.5305691 -0.8137507 -0.2372895 
-39 84.5 486 -0.6957844 0.2984765 -0.6532962 
-44.5 162.5 462.5 0.06739747 -0.8419328 -0.5353566 
-60.5 194.5 446.5 -0.0465571 -0.8836758 -0.4657785 
37.5 176 534.5 0.7256992 0.5144228 -0.4568698 
-62.5 156 470 0.1100989 -0.8795061 -0.4629766 
-124.5 122.5 566.5 -0.2185259 -0.8685282 -0.4448653 
45.5 166.5 536.5 0.725934 0.4088119 -0.5530757 
-52.5 116.5 504.75 -0.5987025 0.2657611 -0.7555966 
-115 119 552 -0.7582799 -0.6365721 -0.1406688 
-98.5 94.5 576 -0.3738171 -0.8367697 -0.4000967 
-18.33333 98.66666 500.3333 0.6600744 0.4301404 -0.615858 
-26 98.5 492.5 0.5970093 0.4126353 -0.6879768 
-46.6 158.4 468.2 0.09363154 -0.8498799 -0.5185918 
-62.5 154.5 472.5 0.09643584 -0.9008198 -0.4233484 
-60.5 153 476.5 0.05910124 -0.8783988 -0.47426 
35 168.5 524 0.834955 0.2736576 -0.4774531 
32 165 516 0.9227305 0.1832276 -0.3391108 
-74.5 150 480 0.08302718 -0.8713367 -0.4836103 
-48.5 148.5 484.5 -0.02274034 -0.8753133 -0.4830213 
21.5 146 492.5 0.2630093 -0.8006595 -0.5383035 
23.33333 140.6667 500.5 0.2643616 -0.8136619 -0.517752 
-60.33333 132 512.3333 -0.1470582 -0.747696 -0.6475528 
-66.33334 130.3333 516.3333 0.02125111 -0.8128273 -0.5821169 
-60.5 128.5 516.5 -0.5426915 -0.2655323 -0.7968554 
-13 124 520 0.6891975 0.2919133 -0.6631693 
-56.5 116.5 508 -0.6835932 0.2009383 -0.7016582 
-122.5 123 564.5 -0.3519118 -0.8449692 -0.4027222 
-126.5 122 568 -0.1249277 -0.8835107 -0.4514443 
-124.5 120 572 -0.1522159 -0.8994541 -0.4096494 
-100 97 572 -0.4011465 -0.8139421 -0.4202139 
-101 100 568 -0.422079 -0.8096553 -0.4078082 
-14.66667 94.33334 500.3333 0.728535 0.3771708 -0.5718208 
-18.5 94.5 496.5 0.6224104 0.4162915 -0.6628022 
-138.5 118 576 -0.0345211 -0.9259628 -0.3760336 
-48.6 160.4 464.2 0.06547613 -0.8154684 -0.5750864 
-58.4 162.2 460.4 0.09876797 -0.8340994 -0.5426999 
-42.5 175 456 -0.2975409 0.48799 -0.82057 
-40.66667 176.6667 456 -0.3055231 0.3732603 -0.8759751 
-38.5 178.5 456 -0.2957911 0.2777957 -0.9139679 
-36.5 180.5 456 -0.2733626 0.1000575 -0.956693 
-26.5 190.5 456.5 0.267101 0.5386955 -0.7990396 
-20.5 193 460 0.07042725 0.7715471 -0.632262 
-26.66667 194.3333 460 0.4579176 0.4887106 -0.7426126 
-62.5 191 452.5 -0.03775557 -0.8704653 -0.4907798 
-64.5 192.6667 448.6667 -0.01589622 -0.8661209 -0.4995818 
-62.5 194 448.5 -0.04475328 -0.8737957 -0.4842295 
-72.5 196 444 0.03833785 -0.8945832 -0.445254 
-68.5 196.5 440.5 -0.04430944 -0.9235414 -0.3809305 
34 177 530 0.7629608 0.4651541 -0.4489127 
21.66667 148.3333 490.3333 0.3271284 -0.7531908 -0.5706931 
34 168.5 522.5 0.8474677 0.2523451 -0.4670336 
32 162.5 514.5 0.9272923 0.1903498 -0.3223289 
21.5 140.6667 498.6667 0.200437 -0.8359174 -0.5109472 
-55 112.5 506 -0.6866257 0.215358 -0.6943818 
-122.5 124 562.5 -0.3844082 -0.8536091 -0.3515422 
-120.6667 122.6667 562.3333 -0.5166476 -0.794394 -0.3193956 
-118.5 121 562 -0.6336725 -0.7275136 -0.2630273 
-126.5 120.5 570 -0.1000086 -0.8973592 -0.4298196 
-46.5 160 466 0.1200887 -0.8300771 -0.5445648 
-57 163 458 0.1328351 -0.747672 -0.650647 
-42.5 180.5 458 -0.2430664 0.02168586 -0.9697672 
-21 191 458 -0.01582678 0.756815 -0.6534376 
-18.5 197 466 0.2235902 0.749603 -0.622979 
-62.5 192.3333 450.3333 -0.02916249 -0.8592819 -0.5106705 
-74.5 196.6667 442.6667 0.038194 -0.8891715 -0.4559772 
-112 111 574 -0.7238124 -0.6682369 -0.1719159 
-98.5 96 574 -0.361477 -0.8376031 -0.4095797 
-62.5 132.75 510.25 0.05150314 -0.8689331 -0.4922425 
-72.5 150.5 478.5 0.0865864 -0.8681217 -0.4887407 
-70 197 439 -0.04317636 -0.9209116 -0.3873729 
-74.5 194.5 445 0.0611341 -0.8858762 -0.4598761 
-60.5 191 451 -0.004347544 -0.8542205 -0.5198928 
-36.33333 178.3333 455 -0.3042839 0.3060199 -0.9020882 
-40.5 174.5 454.5 -0.3237127 0.5012161 -0.8024915 
-32.5 166 454.5 0.05617086 -0.8191673 -0.5707974 
-52.5 165 457 0.1007407 -0.6976075 -0.7093625 
-50.5 161 463 0.04170797 -0.8167836 -0.5754346 
-126 119 573 -0.08574539 -0.9047779 -0.4171625 
-136.5 119 575 -0.003075516 -0.912447 -0.4091833 
-116.5 117 569 -0.6213574 -0.7539334 -0.2133057 
-132.5 118 579 -0.02807665 -0.9127229 -0.4076134 
-114 113 575 -0.6679662 -0.7151749 -0.2057815 
-22.5 94.5 493 0.619023 0.4086833 -0.6706628 
-27 94.5 489 0.5621953 0.3968317 -0.7255764 
-19 90 493 0.6261392 0.3772633 -0.6823651 
-80.5 101 565 -0.1285019 -0.8543364 -0.5035839 
-42.5 80.5 486.25 -0.09787692 0.4339296 -0.8956144 
-96.5 95 575 -0.1765151 -0.8840113 -0.4328585 
-118 119 565 -0.611383 -0.7478916 -0.2585908 
-62 127 517 -0.5295941 -0.218192 -0.8197088 
-64.5 131 515 -0.02503774 -0.7976108 -0.6026527 
-72.5 133 509 0.1038058 -0.831621 -0.5455557 
30 146.5 501 0.8628845 -0.3200516 -0.3911489 
23.5 147 491 0.3628355 -0.7302782 -0.57883 
31 152.5 505 0.9687017 0.05044817 -0.2430474 
49.5 166 541 0.6842323 0.4153886 -0.5993984 
-50.5 149 483 0.01123511 -0.8892873 -0.457211 
32 160.5 513 0.9350841 0.1934644 -0.2969669 
-64.5 154 475 0.08428419 -0.9047495 -0.4175221 
33 170.5 521 0.8806643 0.2384378 -0.4093626 
-60.5 155 471 0.1087726 -0.8843016 -0.4540696 
36 175 531 0.7534839 0.4687648 -0.4610006 
36 177 533 0.7295164 0.5003019 -0.4663731 
-44.5 159 467 0.1060842 -0.8256329 -0.5541447 
-13 195 462.5 -0.0252948 0.8551453 -0.5177709 
-58 114 509 -0.73898 0.1694221 -0.6520773 
-54 114 505 -0.6496887 0.2435531 -0.7201295 
-123 127 553 -0.4514863 -0.8455855 -0.2848604 
-13 122.6667 518.3333 0.7274626 0.3838114 -0.5687591 
-60 126 515 -0.6846731 -0.01032227 -0.7287772 
32 158 511 0.9466538 0.1507646 -0.2848097 
45.5 170.5 541 0.6709695 0.5455493 -0.5021712 
46 174 545 0.6455378 0.6106774 -0.4586438 
39.5 174.5 535 0.7235216 0.5084909 -0.466855 
-15 189 454 -0.1446594 0.6749323 -0.7235608 
-14.5 124.5 518 0.743522 0.2872368 -0.6038792 
32 167 518 0.8988345 0.2048741 -0.3874575 
-40 79 486 -0.2306067 0.3840185 -0.894064 
6 166 454 0.1813888 -0.8438888 -0.5049257 
-0.5 193 454 -0.1220677 0.8224694 -0.5555572 
-44.5 146 488.5 -0.07113197 -0.8541248 -0.5151806 
-46.5 144 492 -0.05761122 -0.8814305 -0.468787 
-56.5 142 496.5 0.05653962 -0.8980281 -0.4362898 
-50.5 140 500 -0.03412832 -0.8699527 -0.4919528 
-74.5 136 504.5 0.09393379 -0.8434452 -0.5289393 
-68.5 134 508.5 0.06244982 -0.8484252 -0.5256185 
-156.5 131 552.5 0.03058549 -0.8946407 -0.4457381 
1.5 124 528 -0.08829191 -0.8961256 -0.4349294 
-158.3333 128.3333 556.6667 0.02245994 -0.8909011 -0.4536417 
-11 120.5 520.5 0.7702374 0.4043771 -0.4931669 
2 121 532.5 0.02884989 -0.8607721 -0.5081723 
-9 118.5 520.5 0.7858998 0.3878573 -0.4815893 
5 120 536 -0.07879301 -0.8752177 -0.4772688 
7.5 119 536 -0.1088848 -0.8867271 -0.4492875 
-148.5 122 568.5 -0.04858335 -0.9121677 -0.4069273 
-4 71 508 0.899419 0.3031247 -0.3148983 
-39 80.5 484 -0.6585325 0.2657329 -0.7040746 
-36.66667 82.66666 480.3333 -0.6408967 0.3459885 -0.6852325 
3 110.5 540 0.9168111 -0.01901087 -0.3988685 
-144.3333 118.6667 576.3333 -0.1570817 -0.9135313 -0.3752145 
-50.5 146 490 -0.008485377 -0.8468168 -0.531817 
-44.5 144.5 490.5 -0.06601403 -0.8778697 -0.4743279 
-48.5 140.6667 498.6667 -0.02657176 -0.8759211 -0.4817222 
-68.5 136 506 0.03226643 -0.850564 -0.5248806 
-70.5 135 506.5 0.06298592 -0.8448096 -0.5313469 
1.5 127 522 -0.02446675 -0.8731528 -0.4868323 
-10.33333 122.6667 522.6667 0.7957423 0.1809822 -0.5779617 
-154.5 123 570 -0.2122654 -0.9483594 -0.2357073 
-5 81 514 0.9196621 0.2303342 -0.318069 
2 110.5 538 0.9195084 0.06634426 -0.3874311 
-3 195 458 -0.1689724 0.8617198 -0.4784217 
-46.33333 147 486.3333 -0.07308929 -0.8468602 -0.5267692 
-148.5 124 566 -0.01905708 -0.8915107 -0.4525985 
7.5 120 534.5 -0.09999289 -0.883043 -0.4585156 
-70.5 138 502 0.03586875 -0.8724293 -0.4874226 
-156.5 132 550 0.03759555 -0.9008455 -0.4325092 
-10.66667 118.3333 518.6667 0.7815089 0.3717203 -0.5010667 
-0.5 128.5 518.75 -0.02697068 -0.8715673 -0.4895335 
4 105 546 0.9532745 -0.03013841 -0.3005986 
-3 74.5 514.5 0.9237945 0.2646791 -0.2766745 
0 117 538 0.7709942 -0.2000626 -0.6046015 
-2 123 530 0.0877552 -0.8338858 -0.5449161 
-3 70.5 510.5 0.9021875 0.3091664 -0.3007889 
-144.5 120 574 -0.1110562 -0.9136987 -0.3909236 
-58.5 142.25 494.75 0.0687321 -0.8902779 -0.4502015 
4 195 457 -0.09068326 0.8561858 -0.5086477 
20 170.5 464.5 0.9210899 -0.1047855 -0.3749847 
21 164.5 468.5 0.8484396 -0.3184242 -0.422796 
-146.5 119 575 -0.1623984 -0.9262756 -0.3400594 
3 108.5 543 0.9300387 -0.08010932 -0.3586232 
-6 84.5 513 0.9122435 0.2377832 -0.333573 
-38 78.5 483 -0.7328071 0.3014637 -0.6100109 
-28.33333 76.66666 478.3333 0.5195918 0.455564 -0.7228318 
-36 72.5 475 -0.5496313 0.4234765 -0.7201202 
-7 74.5 503 0.8738843 0.2717491 -0.4030867 
-5 72 507 0.9043396 0.2813792 -0.3209296 
-3 72.5 513 0.9169431 0.2880691 -0.2761008 
0 112.5 534.5 0.8768739 0.2005372 -0.4368947 
-150.5 121 572.5 -0.190427 -0.936494 -0.2944767 
-153 122 573 -0.2504177 -0.9408726 -0.2281443 
-148.5 121 571 -0.09505565 -0.9272037 -0.3622951 
-150.5 123 567 -0.04037822 -0.9189112 -0.3923926 
9.5 118 539 -0.104884 -0.8719315 -0.4782624 
-167 128 565 -0.3236155 -0.9313315 -0.1670172 
-166 127 563 -0.2978529 -0.9362601 -0.1862814 
-0.3333333 122 532.6667 0.06041067 -0.8216531 -0.5667775 
-168 129 559 -0.3059829 -0.919742 -0.2458638 
-9 122.5 525 0.7877417 0.1692239 -0.592306 
3.5 123 529 -0.07821023 -0.886288 -0.4564831 
3.5 124 527 -0.02688337 -0.8901621 -0.4548502 
-10.33333 124.6667 524.3333 0.6837679 -0.09777548 -0.7231192 
-158.5 131 551 0.03198261 -0.896885 -0.441106 
-0.5 127 521 -0.05447245 -0.8728639 -0.4849138 
-2.5 128 521 -0.0649022 -0.8872319 -0.4567355 
-72.5 135 505 0.07964192 -0.8451268 -0.5285999 
-72.5 137 503 0.05459244 -0.865051 -0.4987048 
-48.5 139 501 -0.02921346 -0.8707092 -0.4909299 
-44.5 143 493 -0.04965041 -0.8881514 -0.456861 
14 166 462 0.3306141 -0.8309985 -0.4473654 
-7 83 510 0.9124861 0.2419343 -0.3299045 
-10 126 526 0.6645005 -0.2267672 -0.7120503 
18 176 460 0.973934 0.01015853 -0.2266041 
-7 77 504 0.886946 0.2488618 -0.3890945 
-3 77 516 0.9394413 0.2144277 -0.2673404 
-165 127 564 -0.2869841 -0.9406046 -0.1813921 
-8 126 528 0.3088445 -0.6799712 -0.665022 
19 197 471 -0.7582563 -0.649211 0.05977009 
18 174 459 0.9592266 -0.08747374 -0.2687615 
5 165 453 0.07420368 -0.8598909 -0.505056 
-61 165 454 -0.09871317 -0.352035 -0.9307669 
-36.66667 188.3333 454 -0.03057906 -0.4146437 -0.90947 
-70.5 158 466 0.02585499 -0.8351158 -0.5494663 
-64.66666 157 466.3333 0.1225557 -0.8425132 -0.5245489 
-58.4 154.2 474.4 0.0839689 -0.8739984 -0.4786189 
-46.5 150 482 0.01108174 -0.863256 -0.5046446 
-72.4 148.4 482.4 0.07243165 -0.8660748 -0.4946395 
-58.5 130.5 514.5 -0.4602154 -0.3650308 -0.8092925 
-52.5 120.5 506.5 -0.5559476 0.2938775 -0.7775335 
-54.5 118.5 506.75 -0.6411753 0.2421995 -0.7281715 
-124.6667 128 554.3333 -0.32894 -0.8778722 -0.3480502 
-134.5 126 562 0.009771082 -0.895148 -0.445662 
-80.66666 92.33334 578 -0.2577509 -0.775999 -0.5756649 
-86.5 94 578 -0.02460724 -0.8279341 -0.5602853 
-18.5 82.5 490.5 0.6950192 0.2820586 -0.6613557 
-76.66666 96.33334 570.3333 -0.4905046 -0.7125676 -0.5016498 
-82.33334 98.33334 570 -0.05412094 -0.8580764 -0.5106622 
-12 96.5 506.5 0.7928777 0.3548409 -0.4954119 
-136.5 117 578.5 -0.02678761 -0.9241413 -0.3811105 
-32.5 101 490 0.1635337 0.5010692 -0.8498155 
-66.66666 163 458.6667 0.04489852 -0.6033769 -0.7961913 
-64.66666 164.3333 458 -0.0617175 -0.5128691 -0.8562454 
-28.33333 192.6667 458 0.4896063 0.4290809 -0.7590622 
-52.6 192.4 450.6 -0.001479588 -0.8742415 -0.485489 
-48.5 196.6667 442.6667 0.1809318 -0.8122983 -0.5544684 
29.5 142.5 502.5 0.6656595 -0.5726233 -0.4785394 
-108 101 598 -0.7035573 -0.6716434 -0.2321689 
-77 100 566 -0.3975763 -0.7645033 -0.5074129 
-52.66667 156.3333 470 0.03008664 -0.882917 -0.4685641 
27.5 141 502 0.4854223 -0.7078594 -0.5131279 
-120.5 121 566.5 -0.4162069 -0.8393734 -0.349606 
-42.5 90.5 490.75 -0.1606554 0.3964597 -0.9038858 
-48.66667 108.6667 498.3333 -0.4093575 0.3662746 -0.8356252 
-44 129 506 -0.02140658 0.3656224 -0.9305171 
-47 197 441 0.304738 -0.7245344 -0.6182109 
-50.5 196.3333 444.3333 0.09024578 -0.8445953 -0.5277448 
-54.4 194.2 446.4 0.01977976 -0.8767897 -0.480467 
-31 196.5 456.5 0.7299942 0.1804633 -0.6591976 
-58.5 192.5 448.5 -0.01081966 -0.8831877 -0.468895 
-52.5 190.6667 452.6667 -0.03023189 -0.8462982 -0.5318509 
-38.5 186.5 455 -0.1827105 -0.3906552 -0.9022226 
-42.33333 184.6667 456.3333 -0.175578 -0.2939824 -0.939546 
-40.5 182.5 456.5 -0.2202034 -0.1203088 -0.9680064 
-26.6 166.4 454.6 0.008713564 -0.8529441 -0.5219296 
-62.5 164.6667 456.6667 -0.1272711 -0.4097577 -0.9032722 
-64.25 162.25 460.25 0.03641974 -0.7323437 -0.6799605 
-62.5 161 461 0.03834712 -0.8219872 -0.5682135 
-72.5 160 462.5 0.06530715 -0.8330914 -0.5492666 
-74.5 159 463 0.08347914 -0.8474272 -0.5243076 
-119 119 571 -0.4220666 -0.8510989 -0.3122348 
-112 114 557 -0.7318732 -0.6630052 -0.1574349 
-63 103 515 -0.8839626 0.05768087 -0.463986 
-138.6667 116.3333 580.6667 -0.08250061 -0.9361411 -0.3418091 
