ply
format ascii 1.0
comment VCGLIB generated
element vertex 962
property float x
property float y
property float z
property float nx
property float ny
property float nz
element face 0
property list uchar int vertex_indices
end_header
-74.4 202.4 433.4 0.04360929 -0.03321106 -0.9984965 
-76.5 200.3333 433.3333 0.143777 -0.1299539 -0.9810404 
-70.5 194.5 437 0.3223752 -0.1327475 -0.9372579 
-72 192.5 437 0.3340474 0.05642368 -0.9408659 
-68.5 191 439 0.3803661 0.09666839 -0.91977 
-66.33334 188.6667 439 0.3961648 0.2553684 -0.8819526 
-64.5 187 439 0.3909142 0.3661159 -0.8444793 
-62.5 185 439 0.3970134 0.4576379 -0.7955801 
-60 183 439 0.4061272 0.5039649 -0.762286 
-80.5 178.3333 431.3333 -0.0217762 -0.7670895 -0.6411704 
-60 181 437 0.4091624 0.3300713 -0.8506699 
-54.6 182.6 441.4 0.378664 0.4956903 -0.781604 
-96.5 188 457 -0.5418311 -0.5874706 -0.6010803 
-100.4 186.8 459.6 -0.2316439 -0.7589207 -0.608589 
-54.75 178.25 437.75 0.3843801 0.02856152 -0.9227331 
-102.3333 122.3333 525.6667 0.04607045 -0.8631411 -0.5028569 
-102.5 121 527 0.04711268 -0.8563606 -0.5142246 
-92.33334 121 529.3333 0.02593485 -0.8600234 -0.5095951 
-90.33334 120.3333 531 0.04150255 -0.8657585 -0.4987382 
-64 115 511 -0.9548748 0.05189866 -0.2924393 
-96.66666 118.6667 531.6667 0.03851491 -0.8469888 -0.5302138 
-86.5 118 537 0.0712274 -0.8684379 -0.4906549 
-88.5 116.5 537.25 0.08281196 -0.8679665 -0.4896696 
-86.33334 116.3333 539.6667 0.04526992 -0.8526404 -0.5205334 
-94.4 114.6 541.4 0.007889522 -0.8551102 -0.5183864 
-94.33334 112.6667 543.6667 0.005986284 -0.8268591 -0.5623775 
-4.666667 112 545.3333 0.03808504 -0.8909965 -0.45241 
-2.5 110 549.5 0.01908122 -0.8515233 -0.5239695 
-2.5 108.5 551.5 0.01547175 -0.8300434 -0.5574841 
9.5 96.5 583 0.6319159 -0.7541373 -0.1787715 
41.5 98 613 0.1115729 -0.8668351 -0.4859509 
-12 90.5 579.5 0.3998066 -0.8063799 -0.4357821 
35.5 96 617 0.06844559 -0.902351 -0.4255326 
5.5 90.5 593 0.6142985 -0.7724514 -0.1611093 
-2.5 90 585 0.1847873 -0.8769947 -0.4435471 
37.33333 94.66666 621.3333 0.1154611 -0.9027552 -0.4143693 
-23 10 461 0.9644136 0.2298274 -0.1307126 
-32 -29.5 431.5 0.7008089 0.3233646 -0.6358477 
-32.33333 -31.5 429.3333 0.6772956 0.2081005 -0.7056663 
-28 -37.5 435 0.8137908 -0.2135105 -0.5405162 
-42.5 -41.5 421.5 0.1019565 0.08876974 -0.9908203 
-44.5 -43.5 421.5 -0.06067901 -0.2339308 -0.970358 
-36 -43.33333 429.6667 0.7832348 -0.371274 -0.4986971 
-38.5 -41 425 0.6334812 -0.07988941 -0.7696229 
-44.5 -41 423 -0.0734855 0.1030678 -0.9919561 
43.5 87 639 0.1111132 -0.8995107 -0.4225332 
45.33333 88.66666 635.3333 0.0868144 -0.8937503 -0.4400839 
33.5 89 631 0.148328 -0.9036081 -0.4018598 
45.33333 90 633.3333 0.06598696 -0.9029035 -0.4247482 
-84.5 127 519.5 0.1087451 -0.8577585 -0.5024191 
-82.5 130.5 513.5 0.0590247 -0.8792883 -0.4726185 
-66.5 134.25 509.5 -0.05934282 -0.8700855 -0.4893155 
-72.5 134.5 507.5 -0.03759573 -0.8476085 -0.5292886 
-70.33334 135 505.3333 -0.02617915 -0.8779097 -0.4781101 
-68.5 136 505 0.02853109 -0.891129 -0.452852 
-78.5 138.25 501.25 0.06618648 -0.898499 -0.4339573 
-142.3333 147 525.3333 -0.01992374 -0.8682851 -0.4956653 
-134.5 148.5 523.25 -0.05386522 -0.8830752 -0.4661295 
-140.5 150.5 519.5 -0.02154323 -0.9022867 -0.4305981 
-138.5 152.5 515 -0.04517741 -0.848702 -0.5269383 
-138.5 154 513 -0.07263765 -0.7953463 -0.6017874 
-152 155 511 -0.1082257 -0.8718055 -0.4777473 
-54.5 152.5 479.5 -0.004237439 -0.8647503 -0.5021844 
-54.33333 154 477.3333 -0.01212007 -0.8696336 -0.493549 
-164.3333 162.3333 499.6667 0.0613484 -0.8675425 -0.493565 
-68.5 156.5 469 0.04646671 -0.8515969 -0.5221337 
-146.6 164.8 495.6 -0.006905118 -0.8600795 -0.5101134 
-146.6 166.2 493.6 0.002166442 -0.8583985 -0.512979 
-70.5 159 465.5 0.0145956 -0.852206 -0.5230029 
-148.5 168.5 489.5 -0.01844527 -0.8295068 -0.5581921 
-62.5 160.6667 463.6667 0.05046226 -0.8694782 -0.4913872 
-62.5 162 461.5 0.02776208 -0.8704059 -0.4915514 
-160.5 170.6667 487.6667 0.06400847 -0.8272111 -0.5582334 
-60.5 162.5 459.5 0.03805117 -0.8875246 -0.4591865 
-56.5 164.3333 457.3333 0.1424566 -0.8588589 -0.4920034 
-134.5 172.5 483.3333 0.03283836 -0.8435823 -0.535995 
-134.5 174 481 0.04962835 -0.8497905 -0.5247793 
-58.6 164.8 455.6 0.1213884 -0.8793139 -0.4605128 
-58.33333 166.3333 453 0.1614558 -0.8569204 -0.4895095 
-64.5 167 451.5 -0.004048307 -0.8747002 -0.4846474 
-58.33333 168.3333 451 0.1635502 -0.8474392 -0.5050724 
-60.5 168 449.5 0.09204528 -0.8525958 -0.5144008 
-52.6 174.6 439.4 0.2140973 -0.4291961 -0.8774697 
-102.5 184.6667 463.6667 -0.1682526 -0.771899 -0.6130767 
-102.5 186 461 -0.1096589 -0.8089377 -0.5775765 
-56.5 176.3333 437.3333 0.3258004 -0.339117 -0.882527 
-64.25 182.25 435.5 0.3756119 0.388893 -0.841236 
-90.66666 119 533.6667 0.06502076 -0.8703884 -0.4880536 
-92.33334 118 535.6667 0.06881816 -0.8725792 -0.4836007 
-96.5 114 543 0.0117444 -0.8305805 -0.5567747 
-30.5 -31.5 431.5 0.7765232 0.206203 -0.5953924 
-34.66667 -43.33333 431.6667 0.8102874 -0.3776107 -0.4481569 
-44 -46 427 0.03257717 -0.7781169 -0.627274 
-42.5 -46 425.5 0.1084091 -0.739845 -0.6639856 
-32.5 -42 435 0.660633 -0.5448045 -0.5164807 
-28 -42 439 0.6598445 -0.5435609 -0.5187936 
-18 42.5 489.5 0.9508382 0.2331673 -0.2038132 
-96.5 126 523 0.01855318 -0.8619418 -0.5066676 
-59 120.5 499 -0.7879978 0.2385928 -0.5675676 
-84.5 130 515 0.07293122 -0.8718879 -0.4842443 
-78.66666 136.6667 503.6667 0.04676709 -0.88363 -0.4658442 
-144.5 146 527.5 -0.04109081 -0.8719502 -0.4878673 
-138.6667 151 517.6667 -0.03147369 -0.8948565 -0.4452429 
-52.5 154 475.5 -0.03397542 -0.883936 -0.4663721 
-54 166 457 0.1287255 -0.8491193 -0.5122755 
-48.33333 -48 429.3333 -0.3677535 -0.8609805 -0.351383 
-72.5 190.5 436 0.3672533 0.2272961 -0.901921 
-27 -43.5 440 0.661961 -0.5449545 -0.5146187 
-8.5 111 548 0.1280618 -0.8549063 -0.502728 
7 95 580 0.4480962 -0.8341994 -0.3214362 
7 91 608 0.709626 -0.6980925 -0.09538243 
-40.66667 -45 423.6667 0.3574908 -0.5834478 -0.7292387 
-68.5 132.5 510 0.04052693 -0.8735164 -0.4851049 
-136.5 149 522 -0.06175602 -0.8851405 -0.4612077 
-56.66667 153 477.6667 0.03069759 -0.8748806 -0.4833649 
-152.5 167 492 -0.06540426 -0.8589416 -0.5078797 
-136.5 173 482 0.06063052 -0.8472733 -0.5276853 
-104.5 185 462 -0.01928907 -0.8383573 -0.5447798 
-78.5 198.5 434 0.08126856 -0.256541 -0.9631107 
-52.66667 186.3333 444 0.3871092 0.2312638 -0.8925601 
-51 184.5 444 0.380921 0.3780639 -0.8437814 
-58.5 182 438 0.4099076 0.4396107 -0.7991985 
-7 111 546 0.03515513 -0.8823983 -0.469188 
41.5 97 616 0.0853588 -0.8901336 -0.447634 
33 95 618 0.06397585 -0.8965191 -0.4383612 
-2.5 89 588 0.2016046 -0.8840959 -0.4215805 
37 93 624 0.1337349 -0.9075758 -0.3980215 
-22 6.5 458 0.9225546 0.356536 -0.147564 
-19 0.5 451.5 0.8872783 0.4130854 -0.2051774 
-32.6 -33.4 427.6 0.6519105 0.1171567 -0.7491909 
-35 -37 426 0.5751365 -0.05861963 -0.8159545 
-42.5 -47.5 428 0.1391671 -0.8395728 -0.5251191 
-31 -43 436 0.6323174 -0.5809389 -0.5125277 
-34.66667 -41.33333 430 0.7606546 -0.382126 -0.5247708 
-46.5 -39.5 424 -0.315598 0.2779992 -0.9072565 
-26.5 -41 438 0.7252526 -0.4615762 -0.5108386 
-35 -39 428 0.6977518 -0.2601452 -0.6674331 
-27 -39 436 0.762426 -0.3503633 -0.5440149 
45 87 638 0.1078953 -0.8986643 -0.4251602 
33.5 90 630 0.147321 -0.9043771 -0.400498 
-4.5 86 592 0.1820703 -0.8742809 -0.4499815 
1 87 594 0.4078335 -0.8580192 -0.3122097 
-94.5 125 524 -0.01134348 -0.8670252 -0.4981352 
-94.5 126 522 -0.02475817 -0.8671057 -0.4975084 
-66.5 133 512 -0.1384868 -0.8350273 -0.532495 
-50.5 155 474 -0.03023378 -0.8882497 -0.4583651 
-163 163 498 0.08003109 -0.8614655 -0.5014702 
-70.5 157 468 0.009466919 -0.861842 -0.5070884 
-158.5 171 486 -0.01168887 -0.8205946 -0.5713913 
-58.5 163 458 0.08592308 -0.871253 -0.4832551 
-62.5 167 450 0.02724973 -0.8642365 -0.5023474 
-98 182.5 462 -0.7096481 -0.3888857 -0.5875095 
-74.5 200 435 0.1178051 -0.2343184 -0.9649958 
-64.25 184.25 437.5 0.3769311 0.4984883 -0.7806615 
-2.5 112 547 0.02522212 -0.8808198 -0.4727795 
11 99 579 0.6465572 -0.7486679 -0.1464935 
-4.5 89 585.5 0.1392958 -0.8839103 -0.4464294 
3 89 593 0.5036488 -0.8304331 -0.238157 
-13 86.5 583 0.3707163 -0.8342961 -0.408068 
-22 8.5 463.5 0.956174 0.2617449 -0.1312288 
-21 2.5 451 0.866057 0.4612005 -0.192975 
-20.5 0.5 449.5 0.8787472 0.4175635 -0.2311796 
39.5 88 637 0.113913 -0.8827664 -0.4557931 
-146.5 168 491 -0.000365001 -0.8389324 -0.5442355 
-54.5 176 439 0.2673483 -0.4441968 -0.8551106 
-88.66666 128 517.6667 0.0310558 -0.8615572 -0.5067098 
-68.4 188.4 437.6 0.3931297 0.2769234 -0.8767911 
-61 118.5 504 -0.9237629 0.1224246 -0.3628698 
-100.5 123 524 0.08196791 -0.858399 -0.5063915 
-92.5 115 540 0.01755325 -0.874946 -0.4839023 
-21 7 464 0.9513569 0.2848684 -0.1173455 
-37 -39.5 426 0.6639214 -0.08048741 -0.7434583 
-29 -39 434 0.7271837 -0.3803727 -0.5714197 
35 91 628 0.1345912 -0.9115684 -0.388495 
-76.5 139 500 0.03844946 -0.88295 -0.4678899 
-140.5 153 514 -0.06697513 -0.8103272 -0.5821376 
-60.5 165 454 0.06430983 -0.884847 -0.4614219 
-5 110 551 0.01138317 -0.8421569 -0.5391125 
43 90 635 0.107797 -0.8868322 -0.4493422 
-49 -49 428 -0.36213 -0.8791875 -0.3096628 
-80.66666 197 433.6667 -0.1399245 -0.3617751 -0.9217049 
-78 179 430 0.1117787 -0.600161 -0.7920305 
-98 187 458 -0.4558278 -0.6314307 -0.6273088 
31.5 95 620 0.04406109 -0.8884418 -0.4568696 
-82 129 516 0.06202493 -0.8749593 -0.4802074 
-80.5 131 512 0.02285844 -0.8720531 -0.4888771 
-80.5 137 502 0.1122355 -0.8973681 -0.4267713 
-144 151 516 -0.07009921 -0.846789 -0.5272897 
-52 151 480 -0.04009509 -0.8673006 -0.4961673 
-98 185 460 -0.617206 -0.4930305 -0.6131701 
-20 4 461 0.9065211 0.3991477 -0.1374796 
-65 101 514 -0.981015 0.03124409 -0.1913988 
-33 -43 434 0.7548054 -0.4644331 -0.4632178 
-65 155 471.5 0.1227887 -0.860222 -0.4949152 
-65 161 462 0.05760425 -0.8618432 -0.5038928 
-92.5 124 525 -0.03108018 -0.8789943 -0.4758181 
-65 103 515 -0.978506 0.02698889 -0.2044448 
-132 172 485 -0.00981502 -0.8215522 -0.5700488 
-62.5 172 443 0.0572054 -0.8735348 -0.4833885 
-63 108 507 -0.9633058 0.08531226 -0.2544872 
-145 152 517 -0.07528392 -0.8488095 -0.5233114 
-94.5 156 469 0.01847738 -0.830548 -0.5566403 
-128.5 162.5 497.5 -0.01632965 -0.850405 -0.5258753 
-129 161 499.5 -0.009646825 -0.8777595 -0.4790043 
-160.6667 148.3333 527.3333 -0.2150589 -0.8658267 -0.4517675 
-36 -4 427 0.4858246 -0.2085673 -0.8488075 
-26.33333 -3.5 433.3333 0.7526384 -0.140605 -0.6432463 
-70.5 124 525 -0.4097506 -0.7714075 -0.4868625 
-96.5 132 511.5 0.07233158 -0.874452 -0.4796893 
-63 92.5 501.5 -0.9629213 0.09629439 -0.2520119 
-119 156 509 -0.448575 -0.6851825 -0.5738515 
-65 112.5 515.5 -0.9633844 0.002283754 -0.2681141 
-20.66667 -3.666667 443.3333 0.9081612 0.1063241 -0.4048932 
-33 -7 428 0.5539976 -0.2638435 -0.7896033 
-33 -9.5 430 0.5587314 -0.3159204 -0.7668205 
31 83 642 0.1830632 -0.9088799 -0.3747337 
-69 124 523.5 -0.4797047 -0.7151594 -0.5083607 
-144.6 164.8 495.6 0.000782227 -0.8538904 -0.5204524 
-158.6 172.4 485.4 -0.03527896 -0.8184612 -0.5734777 
-80.5 130.5 513.5 0.02623074 -0.8755602 -0.4823964 
-144.5 166 493.5 0.04101122 -0.8509507 -0.5236421 
-42.5 -19.5 433 0.02591549 0.2244412 -0.974143 
-144.5 168 491 0.02663648 -0.8510582 -0.5243953 
-18 44.5 489.5 0.9524219 0.2297708 -0.2002447 
-92.5 198 441 -0.2110557 -0.7904616 -0.5750008 
13.5 104 565.5 0.4873681 -0.8248237 -0.2865978 
-61 90.5 493.5 -0.9242427 0.1634139 -0.3450671 
-45 2.5 421.5 -0.3597219 -0.04953145 -0.931744 
-42.5 0 421 0.03069564 -0.266986 -0.9632115 
-36.5 -1.5 425.25 0.5151337 -0.2050878 -0.8322117 
-44.5 -18 433 -0.07412519 -0.1115867 -0.9909863 
-116.5 70 657 0.00410577 -0.9141628 -0.4053266 
-69 126 521 -0.3744269 -0.6940111 -0.6149417 
-74.5 128.3333 517.3333 -0.05305096 -0.8515522 -0.5215787 
-84.5 138 501 0.06963218 -0.9055797 -0.418422 
-156.6667 150 521.6667 -0.1296275 -0.836521 -0.5323808 
-146.5 152 517 -0.08323976 -0.8464627 -0.5259013 
-92.6 158.4 465.4 -0.00706287 -0.8367792 -0.5474949 
-60.4 170.4 445.6 0.08314481 -0.8625596 -0.4990772 
-87 202.5 435 -0.3129147 -0.03088231 -0.949279 
-87 193 441 -0.6091136 -0.08560813 -0.788449 
-82.4 178.6 431.4 -0.1433159 -0.7084898 -0.6910157 
-72.33334 122 529.3333 -0.3307954 -0.8028372 -0.496011 
-63 105 505 -0.9610502 0.08124411 -0.2641629 
-71 110.5 543.5 -0.4406224 -0.7834383 -0.4382652 
-12 106 557 0.3676827 -0.8168888 -0.4444123 
-54.66667 90.66666 483 -0.6574412 0.3647336 -0.6593485 
9.5 105 561 0.1994247 -0.8936315 -0.4020604 
-60 86.5 489.5 -0.894169 0.2199749 -0.3899654 
9.5 99 571.5 0.410986 -0.8545395 -0.3175733 
-60 82.5 485.5 -0.8437917 0.2953998 -0.4480565 
-59 77 481 -0.8325838 0.3147356 -0.4557913 
-23 3 443 0.8759368 0.3960766 -0.2754235 
-22.33333 0.6666667 441.3333 0.8937276 0.3048572 -0.3291096 
-46.6 -1.4 423.4 -0.4274613 -0.2552504 -0.8672509 
-34 -1.5 427 0.5273633 -0.159895 -0.8344588 
-30.5 -9.5 431.75 0.6064846 -0.297101 -0.7375008 
-20.33333 -25.66667 465.3333 0.8546017 -0.4034178 -0.3269711 
17 79 663 0.1842893 -0.9828451 0.007283262 
-22 58.5 483.5 0.9737935 0.1516561 -0.1694893 
44 86 641 0.1537248 -0.9146405 -0.3739003 
-79 127 519.5 -0.01625382 -0.8647422 -0.5019529 
-78.66666 130 515.3333 0.01244129 -0.8768772 -0.4805535 
-94.6 132.6 509.6 0.04755485 -0.8792231 -0.4740309 
-90.5 134.5 507.5 0.02524308 -0.8629467 -0.5046641 
-86.5 138 499.5 0.04204253 -0.8993185 -0.4352687 
-150.6667 151 519.3333 -0.1231903 -0.8433856 -0.5229962 
-150.5 154 515 -0.1313048 -0.8491646 -0.5115454 
-122.5 160.5 501.5 -0.02787489 -0.8917445 -0.4516799 
-126.6667 162 499.3333 0.01322545 -0.8745555 -0.484745 
-98.5 154 471.5 -0.08943611 -0.8202748 -0.564934 
-142.5 168.5 489.5 0.008486273 -0.8577006 -0.5140795 
-130.5 170 487 -0.02992096 -0.8290775 -0.5583325 
-156.4 174.4 481.4 -0.07894769 -0.859242 -0.5054411 
-58.4 170.4 447.2 0.1284698 -0.859141 -0.4953506 
-69 118.5 530 -0.6458243 -0.6340482 -0.4253162 
-54.5 88.5 481.5 -0.6421575 0.384454 -0.663196 
-46.5 8 426 -0.2579052 0.8383722 -0.480226 
-19 48 494 0.958642 0.2173633 -0.1837356 
-92.5 134.5 505.5 0.0489572 -0.8784283 -0.4753597 
-132.5 170.5 485.5 -0.01823886 -0.8269092 -0.5620397 
-86 200.5 434 -0.3841089 -0.2273764 -0.8948522 
-84.33334 198.6667 434 -0.3575961 -0.3911713 -0.8480035 
-82 197 433.5 -0.2467851 -0.4368395 -0.8650251 
-84.5 197 436 -0.4379786 -0.530144 -0.7260317 
-86.5 197 438 -0.4536282 -0.5746986 -0.6811336 
-88.4 196.8 439.6 -0.4260116 -0.6039823 -0.6735871 
-90.25 196.75 441.75 -0.4119465 -0.6583531 -0.6299773 
-88.25 194.75 441.75 -0.5427513 -0.4228342 -0.7256945 
-84 179 430 -0.293884 -0.5920969 -0.7503689 
-70.33334 121 529.6667 -0.4569768 -0.7491455 -0.4795344 
-72.5 117 536 -0.4436343 -0.6902375 -0.5716301 
-72 113 540 -0.374319 -0.7994449 -0.4698651 
-10.5 105 558 0.2798538 -0.8456828 -0.4544255 
-56.5 88.5 483.75 -0.7249163 0.3290612 -0.6051571 
-14 100.5 558 0.5276622 -0.7318705 -0.4312057 
7.5 100.5 567.5 0.2683177 -0.8598988 -0.4342576 
-42.5 10 432 -0.003340516 0.9247673 -0.3805186 
-42.5 9 430 -0.003054425 0.9396039 -0.3422503 
-38.66667 6 423.6667 0.4543303 0.6105392 -0.648711 
-20.33333 0.6666667 447.3333 0.8777339 0.404742 -0.2564512 
-27 -5.5 432 0.6582088 -0.2533244 -0.7089345 
-32 -11.5 431.5 0.556086 -0.3469388 -0.7552495 
-19 50 496 0.9635319 0.2133255 -0.1615508 
-118.5 69 662 0.01577336 -0.9632651 -0.2680886 
-22 56.5 481.5 0.9728891 0.1295636 -0.1915731 
16 79 662 0.1800941 -0.9836481 -0.00165909 
37.5 83 648 0.2046825 -0.9617125 -0.1822474 
-76.66666 128 519.6667 -0.06451914 -0.8629779 -0.5011051 
-82.5 131 512 0.05247328 -0.874458 -0.482255 
-66.4 132.2 513.6 -0.1800436 -0.771778 -0.6098713 
-92.5 133 508 0.02551405 -0.8735073 -0.4861421 
-84.25 136.25 503.5 0.08282539 -0.8790016 -0.4695703 
-82.5 137 502 0.1149933 -0.8934567 -0.4341793 
-146.6667 146 527.6667 -0.06051557 -0.8750321 -0.4802673 
-88.5 139 497.5 0.01719579 -0.8958018 -0.444121 
-148.3333 147 525.6667 -0.06885064 -0.8673846 -0.4928526 
-156.5 149 523.5 -0.1352152 -0.8512877 -0.5069774 
-152.5 153 515.5 -0.1236051 -0.8525386 -0.5078383 
-152.5 155 513.5 -0.1231446 -0.8657737 -0.4850478 
-138.5 154.5 512 -0.08919995 -0.7767936 -0.6234061 
-126.5 159 504 0.04614041 -0.8819004 -0.4691725 
-124.5 160 503.5 0.01061618 -0.8901711 -0.4555027 
-100.5 155 470 -0.3487436 -0.7159217 -0.6048421 
-92.5 157 467.5 0.01067141 -0.8365541 -0.5477804 
-132.4 168.8 487.6 -0.03423749 -0.8345173 -0.5499171 
-100 161 464 -0.6311461 -0.5166155 -0.5785872 
-98.33334 161 461.6667 -0.4472703 -0.6584939 -0.6052563 
-156.3333 173 483.6667 -0.06754984 -0.8429297 -0.5337666 
-60.5 169 447.5 0.09416679 -0.8521562 -0.5147451 
-62.5 171 444 0.06730749 -0.8709019 -0.486826 
-88.4 200.4 435.6 -0.3499354 -0.3515985 -0.8682879 
-83 198 435 -0.3472101 -0.4153676 -0.8407823 
-88.5 198.5 437.5 -0.3558992 -0.6287946 -0.6913415 
-92.5 196.3333 443.3333 -0.2974884 -0.7764919 -0.5554826 
-72.33334 120.3333 531.6667 -0.3760234 -0.7794726 -0.5010277 
-72.5 118.5 533.75 -0.4041623 -0.7227106 -0.5606623 
-14 104.5 553.5 0.5086114 -0.7397779 -0.4405034 
7.5 102.5 565.25 0.2229517 -0.858753 -0.4613415 
-62 87 495 -0.93765 0.1670927 -0.3047829 
-62 85 493 -0.9360547 0.1833082 -0.3003329 
-60 77 483 -0.8588767 0.2935506 -0.4197129 
-26 11 447 0.9243492 0.2562868 -0.2826583 
-24.66667 4.333333 439.6667 0.8556277 0.4107871 -0.3148894 
-24 3 441 0.869242 0.389627 -0.3043175 
-116 69 659 0.01101866 -0.9426277 -0.3336641 
42 85 645 0.1869141 -0.9410267 -0.282014 
45 86 643 0.1667464 -0.9213607 -0.3511268 
-106 139 495 -0.0596762 -0.8516603 -0.5206857 
-107 154 479 -0.7841331 -0.3187168 -0.5324987 
-106 152.3333 477.3333 -0.6495721 -0.5084419 -0.5652813 
-99 162 463 -0.6142794 -0.5217788 -0.5919525 
-12 104 559 0.3975498 -0.7934858 -0.4607977 
11 99 573 0.4959074 -0.8348103 -0.2390974 
-61 81 487 -0.8844234 0.2637888 -0.3849815 
-48.5 8 427.5 -0.3038478 0.8139673 -0.4951097 
-21 52.5 483 0.9717234 0.1434687 -0.1875374 
-138 168 493 -0.04228106 -0.8517484 -0.5222424 
-70.33334 116.3333 533.6667 -0.5578434 -0.6379595 -0.5308658 
-71 113 538 -0.5049179 -0.7348141 -0.4528865 
5 99 568 0.1822169 -0.877453 -0.443704 
-62 78 488 -0.9214635 0.2273315 -0.3150008 
-39 4.5 422 0.5008737 0.3084096 -0.8087083 
-35 -3 426 0.4968783 -0.1998471 -0.8444958 
-18 46 492 0.9545631 0.2230118 -0.1976739 
-139 75 656 -0.4238425 -0.8447416 -0.3267555 
-29 -7 432 0.6183203 -0.28074 -0.7340744 
-74.5 116 537.5 -0.2529063 -0.7928795 -0.5544192 
-122.5 68 666 -0.02197072 -0.9925571 -0.1197817 
-158.5 148 526 -0.1876584 -0.8647428 -0.4658372 
-94.66666 196 445.3333 -0.1830892 -0.8231668 -0.5374708 
-89 193 443 -0.6741437 -0.2729518 -0.6863145 
-57 87 485 -0.7519743 0.3192226 -0.5767422 
5.5 100 569 0.2202774 -0.8779814 -0.4250019 
39 83 649 0.2031302 -0.9640948 -0.171054 
-41 6 422 0.2175465 0.6268697 -0.7481363 
-61 84 491 -0.9170356 0.2098884 -0.3391054 
-88.5 156.75 467.5 -0.005375124 -0.8450244 -0.5347006 
-128.5 157 508 0.02635354 -0.8466807 -0.5314483 
-68 124.5 520 -0.6289215 -0.511579 -0.5854441 
-24.5 -3.5 435.5 0.8311589 -0.03271767 -0.5550715 
-1 101 564 0.01207488 -0.87 -0.492904 
-80.5 124.5 523.75 0.01962438 -0.8701873 -0.4923301 
-96.5 195 446 -0.07492842 -0.8383008 -0.5400348 
-82.33334 156.3333 469 0.05746855 -0.8464451 -0.5293657 
-128.5 158.5 505.25 0.02832234 -0.8611528 -0.5075567 
-122.6667 156.3333 509 -0.1683117 -0.7912691 -0.5878473 
-160.6667 154.3333 517 -0.1197929 -0.8782688 -0.4629185 
-74.33334 124.3333 525.3333 -0.1284256 -0.8629537 -0.4886899 
-96.5 202.5 437 -0.1878671 -0.08489989 -0.9785182 
-116.3333 160.6667 500 -0.5117115 -0.6699907 -0.5378326 
-116.3333 159 501.6667 -0.5805849 -0.6275484 -0.5187527 
-117 157 504 -0.6394017 -0.5588901 -0.5280222 
-156.5 155 514 -0.09893431 -0.8757076 -0.4725974 
-92.33334 139 497.6667 -0.06411503 -0.8916367 -0.4481888 
-68.5 131 514 -0.02910761 -0.7896705 -0.6128404 
-69 129 516 -0.1264904 -0.753754 -0.6448684 
-21 50.5 482 0.9691831 0.1555057 -0.1910552 
-36.5 8 428 0.3345591 0.7984 -0.5006272 
-61 83 490 -0.9084374 0.222062 -0.3541609 
-8.5 104 560 0.1139577 -0.8700039 -0.4796945 
-14 104.5 549.5 0.5400485 -0.7289445 -0.4206988 
-4.5 105 556 -0.03690095 -0.878127 -0.4770024 
-4.5 107 554 -0.01902687 -0.8423069 -0.5386623 
-69 111 534 -0.8777153 -0.3389634 -0.3387028 
-76.5 119 534 -0.1516166 -0.828706 -0.5387566 
-78.5 120.25 533.5 -0.02180049 -0.8625827 -0.505446 
-76.5 120 532 -0.07488667 -0.8559656 -0.5115808 
-84.66666 182.6667 429.6667 -0.4851755 0.1722345 -0.8572865 
-84.33334 190.6667 437.6667 -0.4980087 0.3208905 -0.8056157 
-92.5 199 438 -0.2247548 -0.6617518 -0.7152411 
-94.6 200.4 437.4 -0.1968509 -0.4142727 -0.8886101 
-92.5 201 436 -0.2335498 -0.2729436 -0.9332504 
-130.5 168 489.5 -0.02139518 -0.8357453 -0.5487003 
-132.5 164.3333 495.3333 -0.0721873 -0.8082417 -0.5844094 
-116.5 162.75 497.5 -0.3979603 -0.7149539 -0.574864 
-114.25 160.5 497.5 -0.5824323 -0.5795149 -0.5700309 
-100.5 152 475 -0.1564765 -0.8177132 -0.5539497 
-118.5 160.5 501.25 -0.3621412 -0.7760013 -0.5164066 
-120.5 160 503.5 -0.1509769 -0.8540031 -0.4978803 
-100.5 150.5 477.5 -0.113018 -0.8167448 -0.5658222 
-122 160 505 -0.09997028 -0.8632655 -0.4947512 
-160.3333 152.3333 519.3333 -0.1508959 -0.8415429 -0.5186868 
-82.5 136 505 0.116326 -0.8639477 -0.4899619 
-70.33334 128 517.3333 -0.1300471 -0.7600152 -0.6367611 
24 80 663 0.1957522 -0.9805659 0.01310152 
-34 -16 433 0.4724359 -0.4029133 -0.7838783 
-40 0 423 0.4201565 -0.2741862 -0.8650378 
-38.5 8 429 0.2448209 0.8516803 -0.4633609 
3.5 97 571.5 0.1872194 -0.8854004 -0.4254587 
3.5 98.5 569.75 0.1617774 -0.8822826 -0.4420471 
5.5 104 561 0.1433737 -0.8803138 -0.4522077 
-69 112.3333 531.3333 -0.8885435 -0.2846015 -0.3598504 
-0.5 103 561 0.01744268 -0.8777692 -0.4787663 
-46.5 -3.5 425.25 -0.3693636 -0.3087289 -0.8765027 
-128.6667 70.33334 657.6667 -0.1671172 -0.8970668 -0.4090759 
-91 188.5 446 -0.8626763 -0.06123925 -0.5020353 
-115 156.5 502 -0.7279152 -0.4518267 -0.5157442 
-38.4 -19.6 433.4 0.3010724 0.0312297 -0.9530898 
-144.5 169 488 -0.01371033 -0.8396642 -0.5429329 
-146.3333 172 485.3333 -0.04793466 -0.8421502 -0.5371083 
-152.6 172.6 483.6 -0.04523448 -0.8378032 -0.5440952 
-80.5 114.5 541.5 -0.06227372 -0.8366667 -0.5441607 
-80.5 113 543.5 -0.01910985 -0.8488281 -0.5283234 
-80.5 126 521.5 0.02547664 -0.8647127 -0.5016204 
-85 180 431 -0.4697318 -0.4566129 -0.7555506 
-84.5 132 511 0.06028275 -0.8587484 -0.508839 
-82.5 180.3333 429.3333 -0.184852 -0.5137479 -0.8377905 
4 100 567 0.1578167 -0.87169 -0.4639509 
-60 84.5 487.5 -0.8726304 0.2563353 -0.4157024 
-25 9 447.5 0.9255388 0.3009083 -0.2298526 
-24.5 4.5 443 0.8646992 0.418264 -0.2781195 
-26 4.5 437 0.7994048 0.4689437 -0.3755579 
-24.66667 2.333333 437.3333 0.8706653 0.3240917 -0.3700088 
40 84 651 0.2426072 -0.9660121 -0.08923135 
32 84 643 0.17166 -0.9135074 -0.3688321 
42 84 649 0.2113084 -0.966865 -0.1432512 
-152.3333 149 523.3333 -0.08300353 -0.8626794 -0.4988935 
-88.5 158.3333 465.3333 -0.008636799 -0.8422254 -0.5390564 
-152.5 174.3333 481.3333 -0.0263084 -0.8591541 -0.5110403 
-56.5 171 445.5 0.1138009 -0.8732393 -0.4738171 
-25 10 446 0.9170346 0.2889294 -0.2748951 
-25 6 441.5 0.854929 0.4155039 -0.3105689 
-118.5 68 666 0.009405527 -0.9927485 -0.1198417 
33.5 84 642 0.1759365 -0.8961737 -0.4073316 
-82.5 132.5 509.5 0.06959289 -0.8366378 -0.5433177 
-152.5 150 521.5 -0.09553921 -0.8516534 -0.5153239 
-8.5 106 557 0.03763985 -0.8869448 -0.4603392 
9.5 100 569.5 0.3856046 -0.850733 -0.3571588 
-59 84.5 485.5 -0.8294549 0.2904235 -0.4771361 
-40.5 -18 433 0.1085612 -0.2848645 -0.9524006 
-122.5 68.5 661.5 -0.0333143 -0.94958 -0.3117498 
-99 164.5 461 -0.7574549 -0.3638878 -0.5420774 
12 100 576 0.6175252 -0.7723512 -0.1487831 
-88.5 133 508 0.0209193 -0.8488616 -0.528201 
-88.33334 134.6667 505.6667 0.04266271 -0.8656855 -0.4987671 
-130.3333 164.6667 494 -0.0444437 -0.8239725 -0.5648842 
-90.5 202.5 436 -0.2540416 -0.1047712 -0.9615019 
-90.6 198.6 439.4 -0.2749304 -0.7138852 -0.644035 
-86.25 194.75 439.75 -0.5493394 -0.4132189 -0.7262757 
-90.25 194.5 443.5 -0.5916284 -0.5283241 -0.6089743 
-94.5 194.5 447.5 -0.2639126 -0.7785487 -0.5693962 
-86 186 432 -0.4843305 0.5108362 -0.7102607 
-74.66666 121 529.3333 -0.1368232 -0.8526615 -0.5042298 
-70 114.5 535.5 -0.5371571 -0.6852232 -0.4918653 
-14 106 552 0.470342 -0.7557917 -0.4555845 
-6.5 105 558 -0.03517888 -0.886889 -0.4606412 
1.5 102 563.5 0.09599964 -0.8686587 -0.4860207 
5.5 101 566 0.1898535 -0.8625327 -0.4690341 
13 101 574 0.6146383 -0.7746463 -0.1488046 
-14 98.5 559.5 0.5457933 -0.7046698 -0.4533764 
5.4 98.4 571.4 0.242797 -0.8820711 -0.4037329 
-26.66667 6.333333 439.6667 0.7919163 0.4770349 -0.3811907 
-44.5 6 422 -0.2326044 0.6146125 -0.7537551 
-39 1 422 0.5015402 -0.1663577 -0.8489892 
-136 74.5 653.5 -0.2978517 -0.8796021 -0.3709237 
-66.5 130.5 515.3333 -0.2567947 -0.6978752 -0.6686006 
-94.6 136.8 501.6 0.03414281 -0.8579987 -0.512516 
-90.66666 138 499.6667 -0.03360133 -0.8887678 -0.4571245 
-158.5 147 528 -0.1732372 -0.8784655 -0.4452946 
-154.6667 151 519.6667 -0.1195139 -0.8373827 -0.5333915 
-158.3333 153 517.6667 -0.1499911 -0.8491269 -0.5064446 
-154.5 154 516 -0.1215473 -0.8554199 -0.5034711 
-134.3333 154 511.6667 -0.05116186 -0.8166981 -0.5747927 
-102.5 151 476 -0.2617726 -0.7800811 -0.5682858 
-86.5 157 465.5 0.009802593 -0.8498234 -0.5269766 
-134.25 166.75 491.75 -0.07365298 -0.8378485 -0.5409114 
-54.6 170.4 447.4 0.1228055 -0.8802295 -0.4583829 
-83 191 439 -0.4848773 0.2830175 -0.8275235 
-91 190.5 447 -0.7986193 -0.2482951 -0.5482306 
-76.5 122 529 -0.03715403 -0.8812103 -0.4712622 
-74.5 118 535 -0.2100133 -0.7875719 -0.5793315 
-60 106.5 497.5 -0.8896261 0.109492 -0.4433698 
-74.5 115 539 -0.2916952 -0.8010246 -0.5227557 
-2.5 106 555 -0.01412618 -0.8498513 -0.5268332 
-3 103 559 -0.0313972 -0.8787952 -0.476165 
-59 86.5 487 -0.8322145 0.2777054 -0.4798946 
-63 83 495 -0.9443145 0.1737473 -0.2794318 
-30.5 11 439 0.6008228 0.494297 -0.6282376 
-32 10.5 437 0.4667102 0.6244095 -0.6263341 
-30.5 9 437 0.5792328 0.6000812 -0.5517173 
-42.5 7 423.5 0.03971933 0.8035223 -0.5939481 
-42.5 5 421 -0.008112973 0.3630635 -0.9317291 
-38.33333 2.333333 423 0.6005331 0.03859236 -0.7986681 
-40 2.5 421 0.3649289 -0.007948698 -0.9310015 
-48.5 -1.5 425 -0.4879927 -0.2240778 -0.8435948 
-20 46.5 485.5 0.9601207 0.2024428 -0.1928347 
-130.5 75 651 -0.1663502 -0.9139609 -0.3701393 
-20 62.5 501.5 0.9727726 0.1823866 -0.1429985 
-78.5 126 523 -0.03826093 -0.8659697 -0.4986307 
-67 126.5 519.5 -0.4877673 -0.5673774 -0.66345 
-86.33334 134.3333 507 0.05911946 -0.8514776 -0.5210478 
-126.5 158 507 0.04924005 -0.838396 -0.5428331 
-98.66666 152.6667 473.3333 -0.07099248 -0.8399987 -0.5379242 
-132.5 166 493 -0.06140801 -0.829225 -0.5555313 
-142.5 170 487 -0.03443092 -0.8558354 -0.5161009 
-98 170.5 459 -0.9037279 -0.03887459 -0.4263387 
-82 195 436 -0.4086663 -0.419826 -0.8103938 
-76 117 536 -0.2048479 -0.8037623 -0.5585727 
-19 46 488 0.9613658 0.20228 -0.1867048 
-21 48 484 0.9621117 0.181664 -0.203321 
-128 69 660 -0.1439355 -0.9244636 -0.3530575 
-19 54 496 0.9651437 0.2086948 -0.1579367 
-136 73 656 -0.3461853 -0.8560469 -0.3838483 
-66 125 518 -0.6694353 -0.433389 -0.6033493 
-68 127 518 -0.3223024 -0.6385445 -0.6988435 
-100 149 480 -0.01511567 -0.8384175 -0.544819 
-99 150 479.5 0.02421954 -0.8494665 -0.5270864 
-98 169 458 -0.880479 -0.09973065 -0.4634766 
-68.5 114.5 529.5 -0.8809689 -0.3022367 -0.3640698 
1.5 96.5 573.5 0.1456601 -0.8849673 -0.4422849 
-28 7 437 0.7174942 0.5515829 -0.425392 
-24 1 439 0.8867462 0.2917186 -0.3585826 
27 80 659 0.2102039 -0.9776547 -0.002375309 
-120.5 156 509 -0.3360679 -0.7400355 -0.5825855 
-72.5 124 525 -0.2419026 -0.8504663 -0.4671083 
-96.5 196 445.5 -0.07192758 -0.8483415 -0.524541 
-33 -5.5 428 0.5472547 -0.2360424 -0.802992 
-121 160 505 -0.1187973 -0.853856 -0.5067713 
-68.5 132 513 -0.002537733 -0.8345869 -0.5508705 
-124.5 68 665 -0.05203586 -0.9850075 -0.1644771 
7.666667 104.3333 561.3333 0.170942 -0.883635 -0.4358532 
-161 176 481 -0.01497054 -0.8781415 -0.4781668 
-117 156 505.5 -0.6528466 -0.5601771 -0.5098951 
-161 152 521 -0.1650527 -0.8390791 -0.5183666 
-21 -27.5 466 0.8624277 -0.3945333 -0.3171152 
-76.5 116.25 537.5 -0.1997439 -0.7977962 -0.5688793 
-88.33334 192.3333 441.3333 -0.7240751 -0.0597562 -0.6871278 
-33 -11.5 430 0.5210469 -0.3704744 -0.7689335 
-96.5 132.5 509.5 0.08979888 -0.8841851 -0.4584242 
-46.33333 -3.333333 424 -0.353052 -0.3183788 -0.8797666 
-128.5 159 504 0.02500623 -0.8825644 -0.4695261 
-64.5 171 444 0.01623334 -0.8713517 -0.4903902 
-34.33333 -3.666667 427 0.512302 -0.2057105 -0.8338044 
-80.66666 130 515.6667 0.02629429 -0.8809194 -0.4725353 
-44.5 -19.5 433 -0.09444327 0.08418378 -0.9919645 
-80.5 127 519.5 0.03501445 -0.8618572 -0.505941 
-144.5 168.5 489.5 -0.003690759 -0.8405126 -0.5417793 
-160.3333 172.3333 485 0.0327137 -0.8088663 -0.587082 
-18 44.5 491.5 0.9508469 0.2340813 -0.202722 
-21 -4 442 0.9012362 0.08327381 -0.4252516 
-36.66667 -3.333333 425.6667 0.4794198 -0.2241144 -0.8484865 
-92.5 197 442 -0.2523924 -0.7871145 -0.5628045 
-5 107 552 -0.0117441 -0.840296 -0.5420007 
-10.5 104 560 0.2888704 -0.8251495 -0.485471 
11.5 103 564 0.3449042 -0.8602405 -0.3755361 
11 99 576 0.5629154 -0.80284 -0.1964031 
-44.66667 8.666667 429.6667 -0.09735022 0.9304364 -0.3532862 
-21 0.5 445.5 0.8787817 0.3779919 -0.2913159 
-44.66667 0.5 421.3333 -0.3062732 -0.1964664 -0.9314493 
-18.5 48.5 495.5 0.9599035 0.2222157 -0.1708962 
-21 54.5 484 0.9764813 0.1235413 -0.176697 
-21 58.5 487.5 0.9767542 0.1572935 -0.1456366 
43 85 642 0.1667422 -0.9212254 -0.3514838 
-68.66666 124.6667 521.3333 -0.5069173 -0.6451253 -0.5717063 
-76.4 128.6 517.4 -0.04292243 -0.8667163 -0.4969512 
-84.5 131 512 0.06131544 -0.8708486 -0.4877122 
-82.5 136.5 503.5 0.1165724 -0.8772516 -0.4656613 
-84.33334 137 501.6667 0.0764989 -0.9090062 -0.409702 
-140.5 154.5 512 -0.06408209 -0.7747441 -0.6290192 
-124.5 160.5 501.5 0.03108674 -0.9030379 -0.4284346 
-93 157 466 -0.0008683456 -0.829209 -0.5589381 
-141 167 491.5 0.003603408 -0.8634714 -0.5043849 
-98.6 160.2 463.4 -0.470881 -0.6444134 -0.602497 
-86 202.5 434 -0.3021832 0.06800671 -0.9508209 
-88.5 202.5 435.75 -0.2625176 0.009958294 -0.9648758 
-82.6 198.6 433.4 -0.2044858 -0.3041612 -0.9304148 
-86.6 198.2 437.4 -0.4255547 -0.5953876 -0.6814813 
-84.42857 178.4286 431.4286 -0.2567049 -0.6733544 -0.6933227 
-71 122 530 -0.3612113 -0.7934251 -0.489901 
-63 106.5 506 -0.9608531 0.08236868 -0.264531 
-12.5 104.5 558 0.4560831 -0.768712 -0.4484085 
-54 90.5 482 -0.6212749 0.3871427 -0.6812767 
-56 90.5 484 -0.6859814 0.3496598 -0.6380969 
-63 94.5 502 -0.9623573 0.0775723 -0.2604825 
9.5 102.5 565.5 0.2726954 -0.8641933 -0.4228559 
3.5 99 567.5 0.1402549 -0.8798491 -0.4540862 
-61 80 486 -0.8771856 0.2799443 -0.3900982 
-60 78.5 483.5 -0.8637417 0.2870523 -0.4141876 
-59 78.66666 481.6667 -0.807891 0.339157 -0.4819592 
-60 76.5 482 -0.842053 0.3088208 -0.4422404 
-62 77 487.5 -0.9157735 0.2264561 -0.3317779 
-40.33333 6.666667 423.6667 0.2641763 0.7191856 -0.6426376 
-40.4 4.8 421.4 0.3356164 0.3577821 -0.8714089 
-25 4 438 0.8337384 0.4295244 -0.3469715 
-23 2 442 0.8791169 0.3643162 -0.3072901 
-22 0.6666667 443.3333 0.8874041 0.3423549 -0.3087186 
-26.2 -1.6 433.4 0.8011572 -0.02799081 -0.5977991 
-48 -1.5 424 -0.5062897 -0.2418852 -0.8277454 
-35 -1.5 426 0.5231255 -0.1653512 -0.8360614 
-28.5 -5.5 431.75 0.6325741 -0.2685264 -0.7264596 
-120.5 69 662 0.001411513 -0.9574727 -0.2885203 
-138 75 654 -0.3328378 -0.8749481 -0.3516885 
35.5 83 647.5 0.1983732 -0.9594828 -0.2001022 
-90.5 133 508 0.005683261 -0.8627703 -0.5055642 
-90.66666 134.6667 506 0.03837168 -0.8717063 -0.4885241 
-146.4 146.8 525.6 -0.04716831 -0.8674617 -0.4952629 
-154.5 150 521.5 -0.09834121 -0.846729 -0.5228567 
-152.5 151 519.5 -0.1185635 -0.839361 -0.5304865 
-148.6667 152 517.3333 -0.1305611 -0.8452353 -0.5181999 
-150.5 153 515.5 -0.1323791 -0.8528115 -0.5051617 
-150.6667 155 513.6667 -0.1095874 -0.8568298 -0.5038189 
-126 161 499.5 0.04182995 -0.8862071 -0.4613971 
-106.5 154.5 477.5 -0.7969386 -0.3267489 -0.508059 
-98.5 155 469.5 -0.1570022 -0.7865312 -0.5972596 
-142.5 165 495.5 0.0163609 -0.8453202 -0.5340096 
-90.5 157 467.5 -0.003009294 -0.8462309 -0.5328078 
-142.5 166 493.5 0.02064383 -0.8491707 -0.5277148 
-90.4 158.4 465.4 -0.004499004 -0.8390118 -0.5440946 
-130.5 169 488 -0.02849826 -0.8386027 -0.5439976 
-130.5 170.5 485.5 -0.01837344 -0.8143587 -0.580071 
-136.6667 171 483.6667 0.03942653 -0.8553535 -0.5165423 
-154.5 173 483.5 -0.04268939 -0.8546469 -0.5174516 
-154.5 174.3333 481.3333 -0.05701953 -0.8615097 -0.5045294 
-58.6 170.8 445.6 0.1121799 -0.8626466 -0.4932103 
-160.3333 148.6667 525.3333 -0.202427 -0.8577332 -0.4725642 
-96.5 156 469 -0.03784526 -0.8242763 -0.5649216 
-86.66666 200.3333 435 -0.3941354 -0.2870035 -0.87309 
-84.66666 198.3333 435 -0.3972276 -0.4740418 -0.7858083 
-70.5 120 531 -0.5037777 -0.6992576 -0.5071951 
9.5 104 563 0.2394305 -0.8701227 -0.4307664 
-21 -1.5 443 0.8969361 0.2532628 -0.3624412 
-21 57 485 0.9787242 0.1335111 -0.1557999 
-122.5 160 503 -0.06688687 -0.881623 -0.4671907 
-82.6 196.6 435.4 -0.3362791 -0.4809295 -0.8097057 
-88.5 198 439 -0.3922259 -0.6384362 -0.6622372 
-86.5 196.5 439.25 -0.4990404 -0.5337716 -0.6826761 
-87 194.5 441 -0.5802636 -0.4179388 -0.6990146 
-72.5 118 535 -0.382995 -0.7333981 -0.5616423 
-71 116.5 535.5 -0.5095885 -0.6669972 -0.5435387 
-70.66666 114.6667 537.3333 -0.4977827 -0.7120853 -0.4951231 
-72.5 114.5 539.25 -0.3638305 -0.7849359 -0.5015008 
-71 111 541 -0.4108759 -0.7962834 -0.4439749 
-10.5 106 557 0.2620377 -0.8545366 -0.4484458 
-14 102 557 0.5038478 -0.7521484 -0.4247472 
9.5 100.5 567.5 0.3390652 -0.8585988 -0.3845034 
-38.33333 4.666667 423 0.545053 0.3282943 -0.7714533 
-20 -26 467 0.8547367 -0.399221 -0.3317345 
-42.5 -18 433 -0.006884723 -0.1202024 -0.9927256 
-32 -9.5 431 0.5794154 -0.3151111 -0.7516535 
-19 47 489 0.9617515 0.2011704 -0.1859153 
-114.5 69 659 -0.005778995 -0.9434468 -0.3314739 
-114.5 70 657 -0.009135936 -0.919555 -0.3928552 
-23 59 481 0.9553415 0.1856228 -0.2299278 
44 86 643 0.1714078 -0.9218003 -0.3477119 
45.5 86 641 0.1427137 -0.91674 -0.3731229 
-78.33334 130.6667 513.3333 0.01316136 -0.8804748 -0.4739103 
-94.66666 132.3333 511.6667 0.02859193 -0.8687828 -0.4943673 
-92.5 134 507.5 0.03145935 -0.8703713 -0.49139 
-82.33334 138 501.3333 0.1367613 -0.9012447 -0.4111622 
-88.33334 138 499.6667 0.01309107 -0.9001828 -0.4353154 
-148.5 146 527.5 -0.07890746 -0.874414 -0.4787211 
-86.5 138 497 0.05021584 -0.893639 -0.4459683 
-154.6667 149 523.3333 -0.09307144 -0.8636317 -0.4954574 
-152.5 154 515 -0.1221828 -0.8520755 -0.5089586 
-107 152.5 479.5 -0.7316029 -0.41861 -0.5380732 
-126.5 162.25 497.25 0.006309307 -0.8550055 -0.5185804 
-100.5 154 471.5 -0.2814355 -0.7590476 -0.5870613 
-132.5 170 487 -0.03390053 -0.8323568 -0.5532025 
-98.66666 162.6667 461.3333 -0.6660201 -0.4850264 -0.5667158 
-59 169 447.5 0.1410408 -0.8494321 -0.5085004 
-60.5 170 447 0.1066769 -0.8548065 -0.5078641 
-83 179 430 -0.265479 -0.5782518 -0.771457 
-62 86 494 -0.9348688 0.1818551 -0.3048758 
7.5 98.5 571.5 0.3453293 -0.8653076 -0.3633051 
-44.5 10 432 -0.05322727 0.9291626 -0.3658195 
-19 -25 466 0.8535501 -0.4025412 -0.3307762 
-31 -11 432 0.5767108 -0.3319393 -0.7464724 
-19 50.5 493.5 0.9621626 0.2083775 -0.1755622 
21 79 658 0.174447 -0.9843976 -0.02301132 
-128 162 500 -0.008724039 -0.8817832 -0.4715742 
-71 112 539.5 -0.4439768 -0.7763982 -0.4473148 
-61 82 488 -0.890029 0.2550864 -0.3778617 
-91 198 441 -0.3224263 -0.7396341 -0.5907476 
-71 118 533 -0.5044615 -0.6740675 -0.5395847 
-26 7 441 0.8244942 0.4336841 -0.3634934 
-20 61 505 0.9715385 0.1992777 -0.1280679 
39.5 84 645.5 0.17527 -0.9463512 -0.2714775 
25 80 667 0.2037498 -0.9786104 0.02842151 
-143 168 491 0.01987877 -0.8561834 -0.5162895 
-90.66666 196 443.3333 -0.4468294 -0.6822246 -0.5787168 
-89 194 443 -0.6103156 -0.4610706 -0.6441498 
41 84 647 0.2000155 -0.957403 -0.2082628 
-159 148 527 -0.1915756 -0.8697997 -0.4546948 
-73 121 529.5 -0.3343371 -0.8056169 -0.4890811 
-14 100 559 0.5334209 -0.7251604 -0.4354362 
-66 132 515 -0.2030379 -0.7483041 -0.6315194 
-136.5 169 488 -0.01566884 -0.8597792 -0.5104254 
-120.5 158.5 505.75 -0.2170649 -0.8007371 -0.5583037 
-40.66667 4.333333 420 0.2328496 0.2636935 -0.9360806 
-57 90.5 485.5 -0.7410666 0.3198852 -0.5903336 
-78.5 116.5 537.5 -0.09677855 -0.8290803 -0.5506901 
-64.5 169 447.5 0.0001542678 -0.8653517 -0.501165 
-160.5 174.5 481.75 -0.04915849 -0.8515404 -0.5219795 
-160.6667 173 483.6667 0.02866169 -0.8147222 -0.5791428 
-96.5 156.5 467.5 -0.09098829 -0.7927296 -0.6027445 
-120.5 156.5 507.75 -0.3011802 -0.7585723 -0.5778049 
-160.5 149 524 -0.2006035 -0.8502002 -0.4867422 
-96.5 133 508 0.08378167 -0.8862776 -0.4555137 
-65 111 514 -0.9683414 0.028838 -0.2479587 
-136.4 170.6 485.6 0.006272996 -0.8530501 -0.5217914 
-154.5 148.3333 525.3333 -0.08247734 -0.8676883 -0.4902188 
-88.5 136.25 503.5 0.04301513 -0.8791196 -0.4746562 
-92.5 132 511 0.004000478 -0.8679002 -0.4967227 
-70.5 132 513 0.1086487 -0.839119 -0.5329868 
-72.66666 124.3333 523.6667 -0.2490886 -0.8424206 -0.4777891 
39.5 85 643.5 0.1745728 -0.9344921 -0.3102402 
-120.5 69 659 -0.002878179 -0.9453781 -0.325963 
-126.5 68 665 -0.08891945 -0.9828686 -0.1614398 
-22 -28 465 0.8688964 -0.387244 -0.3083198 
7.333333 96.66666 575.6667 0.3869429 -0.856205 -0.3423278 
-57 85 483 -0.7553058 0.3459884 -0.5566015 
-72.5 112.5 543.5 -0.3066362 -0.8395003 -0.4485683 
-80.66666 116.3333 539.3333 -0.06957342 -0.8363238 -0.5438033 
-89 191 441 -0.7270713 0.02306026 -0.6861746 
-96.5 196.5 443.5 -0.07336852 -0.8592526 -0.5062627 
-128.5 160 503 0.0005889183 -0.8834532 -0.468519 
-96.5 134.5 505.5 0.06965604 -0.8684341 -0.4908872 
-160.5 150.5 521.5 -0.1617435 -0.835734 -0.524774 
-96.6 158.4 465.4 -0.1711548 -0.7880788 -0.5913017 
-64.6 170.2 445.4 0.01059067 -0.8709215 -0.491308 
-80.5 128 519 0.04548938 -0.8644123 -0.5007215 
-154.5 172.5 485.25 -0.05458361 -0.8284546 -0.5573902 
-80.5 118 537 -0.05696099 -0.8503054 -0.5231979 
-46.5 -19.5 433 -0.1527347 0.11148 -0.9819595 
-16.25 -17.5 465.5 0.8573656 -0.3924511 -0.3330259 
-65 108.5 515 -0.9728215 0.01868488 -0.2308014 
-65 114.5 517 -0.9576901 -0.04071957 -0.2849063 
-22 -3.5 441 0.9023154 0.08550719 -0.422511 
-38.33333 -3.666667 425 0.4378233 -0.2593448 -0.8608433 
-44.5 -3.5 423.25 -0.1867936 -0.3681368 -0.9108148 
-32.4 -5.4 429.4 0.5634061 -0.2609794 -0.7838771 
31.5 83 645.5 0.1877124 -0.930033 -0.3159155 
-90.5 156.5 469 0.01334528 -0.8477814 -0.5301779 
-82.5 200.5 433 -0.1664028 -0.07137509 -0.9834713 
-86.25 198.75 435.75 -0.445166 -0.5011812 -0.7420543 
-86 178.6667 431.6667 -0.5103847 -0.5400748 -0.6691986 
-70.33334 118.6667 531.3333 -0.5195153 -0.6754322 -0.52335 
-63 98 503 -0.9599942 0.06932962 -0.2713018 
-52.5 90.5 481.25 -0.5636426 0.3989232 -0.7233031 
13.5 105 561 0.3709956 -0.8735837 -0.3149823 
-14 103 555.5 0.5049787 -0.7560619 -0.4163736 
1.5 99 567 0.09146508 -0.8844774 -0.4575303 
-58.66667 82.66666 483.6667 -0.8099532 0.3244858 -0.4885538 
9.5 98 575.5 0.4915495 -0.8330314 -0.2538463 
-58.5 80.5 481.5 -0.7885762 0.3432174 -0.5102445 
-14 90.5 575 0.4960495 -0.7511792 -0.4355052 
-28 11 441 0.7403048 0.4252382 -0.5206931 
-36.33333 2.333333 425 0.5853128 0.04996097 -0.8092668 
-46.5 2.5 423 -0.5492525 0.05200422 -0.8340368 
-22 1 445 0.8802441 0.3774787 -0.2875418 
-26 0.5 433.5 0.8273174 0.1010387 -0.5525731 
-22 -1 443 0.9033112 0.2714968 -0.3321421 
-20.25 -1.25 445.25 0.8946701 0.3116512 -0.3200608 
-30 -5.5 431 0.613403 -0.2801443 -0.7384145 
-18 -21.5 467 0.8467513 -0.4061139 -0.3436333 
-16.5 -19.5 467.5 0.8472344 -0.4051669 -0.3435603 
-18 45 493 0.9528103 0.2314681 -0.1964052 
-18 47 495 0.9556887 0.2335018 -0.1792651 
34 83 647 0.1948716 -0.9548986 -0.2240399 
44 85 647 0.1931666 -0.9510778 -0.2411177 
-74.5 127 519.5 -0.09437916 -0.8499484 -0.5183439 
-78.5 129 517.5 -0.01923585 -0.8844292 -0.4662778 
-74.5 130 515 -0.006033753 -0.8573794 -0.5146495 
-76.33334 130.6667 513.3333 0.007386 -0.8683006 -0.4959835 
-90.66666 132.6667 509.3333 -0.006087452 -0.8589521 -0.5120198 
-94.5 134 507.5 0.06930633 -0.8781314 -0.4733728 
-86.5 137 501.5 0.04476976 -0.9074706 -0.4177235 
-82.5 138.5 499.5 0.1195921 -0.8884549 -0.443109 
-150.4 146.4 527.4 -0.07884772 -0.8726782 -0.4818878 
-84.5 139 497.5 0.08267407 -0.8862405 -0.4557883 
-146.5 150.5 519.5 -0.08984166 -0.8652214 -0.4932753 
-148.5 153 515.5 -0.1208148 -0.8462787 -0.5188605 
-106 150.5 479.5 -0.5514868 -0.6312658 -0.5453126 
-126.5 160.5 501.5 0.0242083 -0.9054328 -0.4237989 
-122.3333 162 499.3333 0.02093403 -0.8798652 -0.4747621 
-102.4 154.4 471.4 -0.4848176 -0.6289324 -0.6077796 
-140.5 165 495.5 -0.03707305 -0.8375694 -0.5450717 
-140.5 166.5 493.6667 -0.01206475 -0.847158 -0.531204 
-142.5 167 491.5 0.02048439 -0.8725116 -0.4881639 
-138.5 168.5 489.5 -0.03305226 -0.8738652 -0.4850435 
-134.5 170 487 -0.01219563 -0.8381988 -0.5452284 
-98 162.5 459.5 -0.4696058 -0.623934 -0.6246414 
-158.5 174 483.5 -0.04272044 -0.840927 -0.5394597 
-62.5 170 447 0.04834362 -0.8601021 -0.5078261 
-96.5 198 441 -0.05774527 -0.8173797 -0.573198 
11.5 102.5 565.75 0.3552499 -0.858237 -0.3704413 
-60.5 88.5 491.5 -0.90399 0.1974292 -0.3792412 
-60 80.5 483.5 -0.831279 0.3247204 -0.451145 
-46.33333 8.333333 429.3333 -0.1763031 0.9028244 -0.3922058 
-42.5 8 425 0.01838881 0.8705177 -0.4917934 
-32 -8 431 0.5819412 -0.2932985 -0.7584988 
-18.6 -23.6 465.4 0.8469592 -0.411842 -0.3362236 
-21 52.5 487 0.9705325 0.1619488 -0.1784354 
-90 136 505 0.03535582 -0.8713233 -0.489434 
-150.5 152 517.5 -0.1285293 -0.8503381 -0.5102993 
-140 168 491.5 -0.003758727 -0.866092 -0.4998706 
-84.66666 202.6667 434 -0.2729519 0.1519768 -0.9499476 
-94.5 197 442 -0.1533176 -0.8444185 -0.5132749 
-12.5 107 554 0.3880656 -0.8015774 -0.4548393 
-10.5 106 556 0.2986303 -0.8574247 -0.4190977 
-60 91 490 -0.8514557 0.2187042 -0.4766462 
9.5 103 564 0.2597572 -0.8677043 -0.4238107 
13.5 102.5 568 0.5454309 -0.7997954 -0.2506642 
-56 86.5 482 -0.6953299 0.3782842 -0.611079 
11.5 101 568 0.4235688 -0.844764 -0.3270525 
-26.33333 10.66667 443.6667 0.8467362 0.3428472 -0.4068091 
-48.5 9 432 -0.1856177 0.9213792 -0.3414769 
-44.5 8 428 -0.1390564 0.8997234 -0.4137163 
-48.33333 6.333333 425.6667 -0.4112574 0.6544327 -0.6344961 
-22 2.5 447.5 0.8664829 0.4453852 -0.2254763 
-26 2.5 435.5 0.8384638 0.3352404 -0.4296421 
-42.5 2.5 420 0.01821174 -0.03161847 -0.9993341 
-34.66667 0.6666667 426 0.5654569 -0.09419911 -0.8193809 
-48 0.5 424 -0.5289913 -0.1259197 -0.8392332 
-44.33333 -1.333333 422 -0.2235723 -0.3327076 -0.9161447 
-19 -2 448 0.9219127 0.2759602 -0.271888 
-42.5 -3 422 0.001830606 -0.390801 -0.9204734 
-19 50 492 0.9620169 0.205852 -0.1792997 
-114.5 69 662 0.02164406 -0.966516 -0.2556918 
-20 50.5 489.5 0.9703352 0.1712624 -0.1706423 
-21 56 484 0.9775493 0.1348103 -0.1619377 
41.5 85 642 0.1586139 -0.9276927 -0.3379763 
-86.5 131 512 0.03090733 -0.8702813 -0.4915844 
-148.5 151 518 -0.1162421 -0.8434199 -0.5245289 
-148.3333 154.6667 514 -0.09288918 -0.8389526 -0.5362183 
-142 155 512 -0.02922827 -0.7967302 -0.603628 
-118.5 157 506 -0.4627943 -0.6895609 -0.5570701 
-122.5 159 504 -0.08338594 -0.8676769 -0.4900853 
-124.5 161 500 0.03234036 -0.8909231 -0.4530011 
-98.5 159 464 -0.3682475 -0.717579 -0.5911633 
-58.5 171 444 0.09260976 -0.8707613 -0.4829059 
-63 96 502 -0.9606641 0.06962589 -0.2688434 
-124.5 162 497.5 0.02563849 -0.8593383 -0.5107646 
-61 98.5 497.5 -0.9162672 0.1161543 -0.383357 
-26.75 8.5 441.5 0.8163309 0.421498 -0.3948965 
-59 89 489 -0.8430873 0.2466741 -0.4778657 
-55 85 481 -0.6844049 0.3986971 -0.6104348 
-48.5 -18 433 -0.1749803 -0.3165262 -0.9323053 
-120.5 70 657 -0.0113813 -0.9050974 -0.425052 
-72.66666 126 521.3333 -0.1934469 -0.8271301 -0.5276687 
-138 166 495 -0.05917628 -0.8249814 -0.5620533 
-13 105 556 0.4912179 -0.7570054 -0.4308687 
-37 4.333333 423.6667 0.5836756 0.3387689 -0.737942 
7.5 98 573.5 0.3496372 -0.8790544 -0.3240636 
-85 196 439 -0.5230103 -0.4752919 -0.7075011 
-83 196 437.5 -0.452218 -0.4697327 -0.7581887 
-73 114 542 -0.3153082 -0.8217265 -0.4747067 
-84.66666 188.3333 435.3333 -0.4918797 0.54813 -0.6764672 
-84.4 156.6 467.6 0.02987832 -0.8425484 -0.5377914 
-160.5 155 514 -0.06779017 -0.8903672 -0.4501673 
-96.5 139 498 -0.006193066 -0.8621578 -0.5066021 
-1 95 574 0.1147791 -0.8699513 -0.4795941 
-0.5 97 571.5 0.08940406 -0.8731663 -0.4791529 
-65 120.5 516 -0.9175917 -0.1087715 -0.3823536 
-76.5 124.5 523.5 -0.05549197 -0.8661739 -0.4966522 
-90 188 442 -0.863176 0.1223608 -0.489852 
-99 168.5 461.5 -0.9048624 -0.05904058 -0.4215901 
-146.5 173 482 -0.08422938 -0.8488238 -0.521923 
-134.5 165 494 -0.09219557 -0.8153978 -0.5715123 
-104.3333 154.6667 473.6667 -0.6946761 -0.4651015 -0.548731 
-102.5 152.5 473.75 -0.3482125 -0.7454746 -0.5683447 
-98.5 151 476 -0.01694023 -0.8598734 -0.5102261 
-104.5 150.5 478 -0.3493739 -0.7083415 -0.6133434 
-118.3333 158.6667 503.6667 -0.4088147 -0.7365643 -0.5388354 
-124.5 158.5 505.5 0.002692734 -0.8637088 -0.5039841 
-90.5 130.5 512 -0.01295779 -0.8666823 -0.4986923 
-72.5 130.5 513.5 0.08000743 -0.8321691 -0.5487199 
-70.5 126.75 519.5 -0.2065204 -0.7586991 -0.617839 
45 85 650 0.2449194 -0.9617615 -0.1225947 
-127 69 662 -0.1068896 -0.9504284 -0.2919942 
-35 -19 434 0.509998 -0.1674745 -0.8437147 
-46.5 4.5 422 -0.4999913 0.231306 -0.8345696 
-35 4.5 426 0.5627326 0.3939311 -0.7267396 
-36.75 6.25 425.75 0.4737163 0.6340519 -0.6112046 
-28.66667 6 433.6667 0.6702314 0.5880337 -0.4527762 
-24.5 6.5 445.5 0.8984287 0.3733088 -0.2312278 
1 95 576 0.1782452 -0.8824111 -0.4354072 
-0.5 98.5 569.5 0.05689454 -0.8702914 -0.4892402 
-58.66667 90.66666 487.6667 -0.7844926 0.2839522 -0.5513099 
-2.5 104.5 558 -0.02673923 -0.8698824 -0.492534 
-76.5 114.5 541.5 -0.1982644 -0.8459557 -0.4950255 
-62 106 500 -0.9218246 0.104791 -0.3731731 
-78.5 115 540 -0.1132591 -0.8424213 -0.5267816 
-82.5 182 428 -0.1576034 0.06796446 -0.9851609 
-92.6 194.6 445.6 -0.4286486 -0.6949875 -0.5772805 
-94 202.5 436 -0.1957209 -0.1024429 -0.9752942 
-50.5 170.6667 447.6667 0.03038815 -0.8912642 -0.4524651 
-148.5 174 481.5 -0.05764706 -0.8513329 -0.5214491 
-138.5 170 487 -0.01077747 -0.8713505 -0.4905427 
-134.5 168.25 489.5 -0.05775223 -0.8552474 -0.5149919 
-84.4 158.2 465.4 0.0288672 -0.8450075 -0.5339747 
-130.5 166.5 491.5 -0.03593308 -0.8367136 -0.5464607 
-136.5 166.3333 493.3333 -0.06694969 -0.8373777 -0.5425093 
-118.5 162 499.5 -0.176925 -0.834178 -0.5223454 
-102.5 150 479 -0.2034455 -0.7917091 -0.5760266 
-122.5 158 507 -0.1154477 -0.8215081 -0.5583872 
-126.5 156.5 509 0.02434701 -0.848727 -0.5282705 
-130.5 154.5 511.5 0.0128535 -0.8524863 -0.5225917 
-158.5 154.5 515.5 -0.1123327 -0.8726937 -0.4751707 
-156.5 154 517 -0.1227609 -0.8444796 -0.5213291 
-154.5 153 517.5 -0.1138979 -0.8430188 -0.5256868 
-146.6 148.6 521.6 -0.06961855 -0.8823797 -0.4653595 
-154.5 146.5 527.5 -0.1118526 -0.88048 -0.4606995 
-94.5 138 499.5 0.006184793 -0.8656802 -0.5005594 
-90.66666 137 501.6667 0.02087419 -0.8831491 -0.4686275 
-95 135 503.5 0.06714799 -0.8626655 -0.5012978 
-82.6 134.4 507.4 0.11193 -0.8482276 -0.5176693 
-86.5 132.5 509.5 0.04658693 -0.8486113 -0.5269615 
-70.5 130 515.5 0.013797 -0.8030438 -0.5957603 
-66.5 128.5 517.25 -0.3452247 -0.6410849 -0.6854416 
-76.5 126.25 521.25 -0.0620168 -0.8627585 -0.5017986 
37.5 85 641.5 0.1506357 -0.906189 -0.3951334 
37.5 83 655.5 0.2561596 -0.9656736 -0.04309025 
-132.5 74 653 -0.1847989 -0.8835475 -0.4303409 
-124.5 70 657 -0.08591062 -0.8982127 -0.431084 
-36.5 -18 433 0.310856 -0.2829813 -0.9073534 
-24 -1.333333 437.3333 0.8811614 0.142322 -0.4508871 
-38.6 -1.4 423.8 0.4764908 -0.2818682 -0.8327705 
-22.66667 -1.666667 439.3333 0.8906446 0.1497014 -0.4293503 
-48.66667 2.333333 425 -0.5192832 0.03756154 -0.8537764 
-34.5 6.25 427.5 0.4860778 0.6240367 -0.611806 
