ply
format ascii 1.0
comment VCGLIB generated
element vertex 957
property float x
property float y
property float z
property float nx
property float ny
property float nz
element face 0
property list uchar int vertex_indices
end_header
31 180 474 0.3874413 -0.5615755 -0.7311102 
-30.5 111.5 491.75 -0.2041035 0.3913222 -0.8973343 
-24.5 110 491 0.3034382 0.3854286 -0.8714185 
-61 115.5 518 -0.8948707 0.1254566 -0.4283306 
-102.5 120 540 0.08217851 -0.8369092 -0.5411374 
-96.5 119.5 541.5 -0.0675974 -0.8208596 -0.5671158 
-88.5 116 546 -0.008087846 -0.8440745 -0.536165 
-90.5 115.5 547.5 0.005620161 -0.8417102 -0.5399004 
-82.5 112 551.5 -0.05780159 -0.8542959 -0.5165631 
-88.5 110 555.5 0.03218057 -0.8521535 -0.5223015 
-92.5 108 558 -0.01803168 -0.8468368 -0.531547 
-128.5 108 562 0.02307197 -0.831797 -0.5546002 
-166.3333 110 597.3333 -0.1974916 -0.8825983 -0.4266348 
-88.5 103.5 565.5 0.04122881 -0.819689 -0.5713231 
-168.5 108 601.5 -0.06464943 -0.8461133 -0.5290679 
-92.5 102 568 -0.01814196 -0.8484335 -0.5289911 
-82.5 99.5 571.5 -0.07126554 -0.8269519 -0.5577381 
-90.5 98 574 -0.09443183 -0.830539 -0.5488966 
-90.5 96 576 -0.0871238 -0.8329449 -0.5464543 
-102.5 96 579.5 -0.03470105 -0.8364435 -0.5469536 
-102.5 94 582 -0.02012561 -0.8311695 -0.5556548 
-157 100 630 -0.2526974 -0.9673821 -0.01777691 
-104.5 91.5 585.5 -0.00950074 -0.826543 -0.5627934 
-86.5 123.3333 535.5 0.05831783 -0.8446606 -0.532116 
-83 124 532 -0.003621734 -0.8853703 -0.4648725 
-22 116 495 0.5065563 0.3360223 -0.7940339 
-82.33334 126 529.6667 0.02279613 -0.9072139 -0.4200517 
-74.5 127.5 527 -0.0312215 -0.8642797 -0.5020418 
-72.5 127.5 525.5 -0.006897825 -0.862936 -0.5052663 
-79 130 522 0.03629332 -0.8685779 -0.494222 
-64.5 131.3333 521.3333 -0.0558132 -0.8324258 -0.5513187 
-50.33333 127.3333 503.3333 -0.7279908 0.3236465 -0.6043859 
-78.5 131.25 519.25 0.0288989 -0.8544959 -0.5186537 
-50.5 131.5 507.5 -0.718804 0.4065071 -0.5639795 
-48.5 131.5 505 -0.6817375 0.485369 -0.5474039 
-76.5 135.5 513.5 -0.0919553 -0.8503064 -0.5181924 
-48.5 136 509.5 -0.5954085 0.1149687 -0.7951546 
-50.5 138 510 -0.1511761 -0.7533979 -0.6399511 
-52.5 138 508 -0.09962259 -0.7934843 -0.6003816 
29.5 142 498 0.02323746 -0.85599 -0.51647 
5.5 144 496 0.005255652 -0.8257174 -0.5640596 
5.5 146 493.5 0.01157816 -0.8618327 -0.5070604 
13.5 147.3333 491.3333 -0.06898475 -0.8378493 -0.5415254 
1.5 150 486 -0.01406931 -0.8629829 -0.5050372 
1.5 151.5 483.5 -0.004730778 -0.868917 -0.4949353 
3.5 152 482 0.01840027 -0.8756603 -0.4825769 
-0.5 154 479.5 -0.002392065 -0.8619032 -0.5070672 
5.5 156 475.5 0.004821362 -0.8427172 -0.538335 
13.5 159.3333 471.3333 -0.0396176 -0.8307936 -0.5551689 
15.66667 160 469.6667 -0.01800629 -0.824972 -0.5648868 
9 160 468 -0.007427401 -0.8557338 -0.5173631 
41.5 175.3333 483.3333 0.2240278 -0.7367188 -0.6380101 
-38.33333 168 459.6667 -0.1208173 -0.8778378 -0.4634695 
43 176 482 0.121784 -0.7889353 -0.6022871 
-36.5 168 458 -0.09851706 -0.8839995 -0.4569895 
-74.5 191 464 0.03889883 -0.8594989 -0.5096554 
20 183 465 0.7232897 -0.1569514 -0.6724718 
-28.5 111 490 -0.120638 0.4033311 -0.907067 
-99 119 544 -0.01703834 -0.8146799 -0.5796606 
-92.5 111 554 -0.01907089 -0.8474343 -0.5305576 
-166.5 111 595 -0.2356068 -0.8999364 -0.3668841 
-90 103 567 0.01839522 -0.8395337 -0.542996 
-56 79.5 493.5 -0.8397362 0.301133 -0.451843 
-42.33333 127.3333 495.6667 -0.333655 0.4253871 -0.8412611 
-40.5 127 494 -0.06600551 0.4374566 -0.8968138 
-78.5 135 515 -0.02496172 -0.8474531 -0.5302833 
-50 135.5 511.5 -0.5803037 -0.0294757 -0.8138667 
27.5 143 497 0.01819808 -0.8404232 -0.5416252 
6 151 487 0.03416444 -0.8701613 -0.4915814 
7.5 151 485.5 0.003726736 -0.8726811 -0.4882764 
47.5 175 485 -0.03146975 -0.8166292 -0.5763041 
-32.5 167 461 -0.04661068 -0.8784112 -0.4756272 
62 210 470 0.4008681 -0.3089769 -0.8624605 
-61 118 519 -0.8767899 0.120042 -0.4656496 
-102.5 122 537.5 0.08849324 -0.8545575 -0.5117623 
-62 115.5 520 -0.8892449 0.1042989 -0.4453821 
-84 114 548 -0.04465906 -0.843824 -0.5347585 
-162 110 594 -0.3878826 -0.8843213 -0.259852 
-180 106 604 -0.1058245 -0.9430776 -0.3152869 
-55 83.5 495 -0.8500917 0.2378152 -0.469881 
-158 100 632 -0.2547719 -0.9667795 -0.02070454 
-84 124 534 0.02299361 -0.881152 -0.4722737 
-59 122 517 -0.8659422 0.1663161 -0.4716811 
-48 127.5 502 -0.6969396 0.3357357 -0.6336851 
-52 132 510 -0.7487184 0.3075038 -0.5872496 
15 148 489 -0.05408664 -0.8524848 -0.5199465 
3.5 155.25 477.5 -0.01291779 -0.8632974 -0.5045301 
12 158 472 -0.03673011 -0.8228473 -0.5670742 
56 211 465 0.3673841 -0.6888543 -0.624907 
-78.66666 195 455.3333 0.008942801 -0.8627057 -0.5056272 
30 179 475 0.5120783 -0.4718187 -0.7177485 
7.333333 163 465.6667 -0.02029715 -0.8701711 -0.4923316 
-54 131 512 -0.7836972 0.2129987 -0.5834811 
-107 91 587 -0.02292738 -0.8277131 -0.560683 
-164 111 594 -0.3372298 -0.8943282 -0.2940291 
-52 87 490 -0.8174919 0.2656782 -0.511001 
-97 95 581 -0.09124906 -0.846741 -0.5241215 
-58 79 496 -0.8579668 0.2756097 -0.4335116 
13.66667 155 477.6667 -0.01021039 -0.8575485 -0.5143019 
-32.33333 123.3333 496 -0.07584541 0.3941642 -0.9159051 
-88.5 123 535.5 0.02043637 -0.8438858 -0.5361335 
-102.4 91.6 585.6 0.005460058 -0.8309021 -0.5563919 
-100.5 91 587 -0.008055012 -0.8274903 -0.5614222 
33.5 187.5 465.5 -0.05843163 -0.8670608 -0.494764 
-55 75.5 489 -0.8469028 0.2623041 -0.4625496 
23.33333 139.3333 503.6667 -0.01447809 -0.8794104 -0.4758442 
21.66667 139.6667 501.6667 -0.04988439 -0.8768347 -0.4781972 
-23 107 490 0.4548702 0.3644267 -0.8125801 
-18.33333 107.5 493.3333 0.6052852 0.2966866 -0.7386521 
-16.33333 107.6667 495 0.6591535 0.2702417 -0.7017736 
-140.5 107 563 -0.01955003 -0.8747746 -0.4841354 
-142.5 107.5 561.5 -0.02488661 -0.8867455 -0.4615876 
42 171 489 0.440277 -0.5574932 -0.7038164 
40 171 487 0.5422054 -0.4821672 -0.6881338 
38 171 485 0.6249247 -0.3558067 -0.6948891 
36 171.5 483 0.6407529 -0.2586913 -0.7228518 
32 171.5 479 0.7360809 -0.005046404 -0.6768748 
53.5 209.5 467.75 0.5407962 -0.1262632 -0.8316232 
63.6 209.6 473.4 0.3620641 -0.170121 -0.916498 
51.25 205.75 465.5 0.5265221 0.19574 -0.8273212 
-70.5 197 451.5 0.05151554 -0.8796361 -0.4728493 
-64.6 197.4 453.2 0.003729706 -0.8720758 -0.4893568 
-64.5 193.5 457.5 -0.005405061 -0.8639812 -0.503495 
-66.5 193 459.5 -0.02297439 -0.8753489 -0.4829458 
-66.5 189.6667 463.6667 0.02680847 -0.8512818 -0.5240236 
27.5 185 469 0.3429782 -0.6545017 -0.6737903 
-50 177 460 -0.5731254 0.4780354 -0.6655895 
-52 177 462 -0.5451885 0.5235294 -0.6547416 
-54 177.5 464 -0.5525283 0.5248083 -0.647525 
-52.5 173 458 -0.5223882 0.07426155 -0.849468 
-104.5 121.5 537.5 0.06959263 -0.8489097 -0.5239364 
-106.5 121 539 0.05240214 -0.8390839 -0.5414724 
-63 117.5 523 -0.8857454 0.08374917 -0.4565537 
-22.4 109.4 491.6 0.4507755 0.3468256 -0.8225044 
-61 113.5 517 -0.9046868 0.1321264 -0.4050735 
-62 113 520 -0.9038162 0.09121139 -0.4180871 
-106.5 117.5 543.5 0.01678104 -0.8438351 -0.5363403 
-60 109.3333 513.3333 -0.8937921 0.1395665 -0.4262124 
-92.4 113.8 549.6 0.007076675 -0.8542883 -0.5197513 
-94.5 113 551 -0.0235483 -0.8621801 -0.5060542 
-80.5 109 557 -0.1663529 -0.8497973 -0.5001712 
-169 113 593 -0.160756 -0.9118497 -0.3777403 
-82.33334 105.6667 564 -0.1048206 -0.8276613 -0.5513523 
-84.5 105 565 -0.0353339 -0.8161003 -0.5768291 
-170.5 109.5 599.5 -0.01043202 -0.8534791 -0.5210227 
-94.5 101 571 -0.02035069 -0.8708137 -0.4911919 
-86.5 97 575 -0.03292267 -0.8367661 -0.5465699 
-104.6667 97.33334 577.6667 -0.02350923 -0.8400556 -0.5419908 
-106.5 93 583.5 -0.02095337 -0.8222947 -0.5686761 
-90.5 89.5 587.5 -0.06028897 -0.8285922 -0.5565971 
-92.5 89 589 -0.07503369 -0.8290125 -0.5541735 
-94.5 125.5 531 -0.03725449 -0.8786153 -0.4760748 
-64 125 526 -0.7634188 -0.101117 -0.6379398 
-24.66667 117.3333 494 0.3726374 0.3432465 -0.862162 
-68.5 129 525 0.06744153 -0.8300751 -0.5535585 
-54 125 508 -0.8292626 0.2124727 -0.5168936 
-66.5 129.5 523.5 -0.002155175 -0.8028911 -0.596122 
-64.5 133 517.5 0.0585885 -0.9048933 -0.421587 
-70.5 133.5 515.5 -0.02281427 -0.891019 -0.4533924 
-62.5 137 511 0.06293885 -0.8494473 -0.5239065 
-60.6 137.4 509.2 0.02693901 -0.8421512 -0.5385684 
17.5 141.5 499.5 -0.109264 -0.8654975 -0.4888512 
19.5 141.5 498 -0.07816673 -0.8606978 -0.5030799 
9.5 145 495 -0.04621388 -0.8332892 -0.5509024 
15.5 153 481.5 -0.01703128 -0.8688945 -0.4947044 
9.5 157.5 475 -0.01393872 -0.8269655 -0.5620798 
3.5 161 469 0.03020095 -0.8391268 -0.5430967 
5.5 161.6667 467.6667 -0.002618151 -0.8494595 -0.5276475 
35.5 173.5 481.25 0.525371 -0.3466484 -0.7770587 
27.33333 173.6667 473.3333 0.8067027 0.1101943 -0.5805928 
-42.5 169 459.5 -0.1201442 -0.8568068 -0.5014455 
39.5 177 481 0.2381592 -0.7160294 -0.6561875 
-40.33333 169.6667 457.5 -0.1579127 -0.8652636 -0.4757966 
29.6 177.4 475.2 0.6326771 -0.2890796 -0.7184377 
-60.6 199.2 447.4 0.04624562 -0.889002 -0.4555621 
-66.5 199 449.5 0.01394236 -0.8856552 -0.4641342 
-70.4 191.8 461.6 0.0093693 -0.8577737 -0.5139421 
27.66667 183.3333 471 0.4561652 -0.5519001 -0.6980827 
-50 175 458 -0.5476108 0.2174256 -0.8079905 
-110.6667 119 541.6667 -0.01113069 -0.8611252 -0.5082712 
-92.5 111.5 551.75 -0.02322194 -0.8458565 -0.5329049 
-82.5 111.5 553.5 -0.06373236 -0.8584987 -0.5088401 
-168.6667 111.3333 595.6667 -0.1326423 -0.9027951 -0.4091052 
-86.5 103.5 565.5 0.02495657 -0.8093994 -0.5867281 
-84.5 103 567 -0.0466563 -0.7962433 -0.6031749 
-110.5 95 581 0.02060713 -0.8423951 -0.5384662 
-92.33334 87.33334 591.3333 -0.04568933 -0.818746 -0.5723351 
-68.5 127 527 -0.08511832 -0.7990214 -0.5952476 
-70.5 127.5 525.5 0.0486076 -0.8588482 -0.5099187 
-54 127.5 509.5 -0.8107604 0.3180793 -0.4914196 
-51 127.5 505 -0.7569289 0.3205967 -0.5694527 
-66.33334 135 513.3333 0.06029248 -0.8657876 -0.4967663 
21.5 143 497 -0.02195023 -0.8396291 -0.5427167 
9.5 151 485 -0.03402542 -0.8801404 -0.4734926 
15.4 151.4 483.4 -0.01081198 -0.8688264 -0.4949988 
3.5 159.3333 471.3333 0.007803195 -0.8243616 -0.5660099 
-44.5 167 463 -0.02024017 -0.8249104 -0.5649011 
39.5 175 483 0.3583978 -0.6125495 -0.7045098 
-46.6 167.4 461.2 -0.03224295 -0.8084241 -0.5877167 
37.66667 175.3333 481 0.3664249 -0.5485054 -0.7515815 
55 207.5 468 0.4906853 0.01925118 -0.8711242 
62 207.5 473 0.480489 0.008931755 -0.8769553 
26 183.5 469 0.4771173 -0.5193737 -0.70895 
-54.5 175.5 462 -0.5308858 0.4779767 -0.6997847 
22 175.5 465 0.829944 0.2566111 -0.4953218 
-104.6667 119.6667 540 0.0812448 -0.830559 -0.5509728 
-104.6 95.8 579.6 -0.02798621 -0.8275295 -0.5607243 
-30.4 119.6 493.6 -0.1439783 0.3119881 -0.9391133 
24 175.5 467.5 0.8401165 0.1805152 -0.5114866 
-60 201 445 0.0317036 -0.8892006 -0.4564178 
29.5 185.75 467.5 0.1599019 -0.779021 -0.6062654 
-48.33333 177.3333 457.6667 -0.5973011 0.4329943 -0.6750906 
-54.33333 173.3333 459.6667 -0.5111076 0.2763606 -0.8138759 
-21 113 494 0.5217499 0.3457209 -0.7799065 
-18 109.5 495 0.6130411 0.3098099 -0.7267726 
-92.5 101 569.5 -0.02936949 -0.8597009 -0.509953 
-51 85.5 488 -0.8139183 0.2787122 -0.5097613 
-88 125 533 0.01215378 -0.8655829 -0.5006183 
-28.5 121.5 493.75 0.02396632 0.3986328 -0.9167975 
-52 125.5 505.5 -0.7882086 0.2464488 -0.5639062 
-55 129 512 -0.819639 0.2572409 -0.5118779 
-39 129 496 0.1704352 0.5398947 -0.824297 
13.33333 149.3333 487.3333 -0.04635237 -0.8747838 -0.4822912 
40 173.5 485 0.4508097 -0.5701721 -0.6867856 
31 173.5 478 0.7017224 -0.07712059 -0.7082641 
-64.5 195 455.5 -0.01819095 -0.8512497 -0.5244454 
-84.5 115.5 547.5 -0.04187924 -0.8386323 -0.5430857 
-90.5 99 573 -0.09032354 -0.8262188 -0.5560612 
-50 83.5 485.5 -0.8131854 0.2996963 -0.4989105 
-56 83 496 -0.8514351 0.2353632 -0.4686815 
-28.5 115.5 492 -0.09979832 0.3370981 -0.9361652 
-78.33334 131 521.6667 0.02902194 -0.8645352 -0.5017336 
-48 131 504 -0.6747694 0.4592172 -0.5777593 
3.5 147.3333 491.3333 0.04431009 -0.8669419 -0.4964356 
1.5 147.6667 489.6667 0.007136445 -0.8632781 -0.5046782 
9.5 163 466 -0.02531343 -0.87198 -0.4888867 
-62 115 521 -0.8929268 0.0837183 -0.4423495 
-65 123.5 527.5 -0.7883555 -0.1680055 -0.591836 
-56.5 202 442 0.07635932 -0.8913994 -0.4467395 
-58.5 202 443.5 0.05111945 -0.890762 -0.4515861 
-62.5 200 445.5 0.03543382 -0.8842183 -0.465728 
-68.5 198 450 0.02210238 -0.8875408 -0.4601986 
-67 196 453 0.01037067 -0.873284 -0.4871013 
-78.33334 194 455.3333 0.009654987 -0.8620193 -0.5067836 
29.5 182 472 0.3884744 -0.5975453 -0.7014465 
-20.5 107.5 491.75 0.5317026 0.3322144 -0.7790546 
-59 112 513 -0.8820448 0.1497278 -0.4467422 
-87 110 555 0.02428599 -0.8567309 -0.5151917 
-80.66666 108 559.3333 -0.1834024 -0.8452238 -0.5019565 
-80.5 106 562 -0.1619506 -0.8400393 -0.5177895 
-166.5 108 601.5 -0.1274569 -0.8453695 -0.5187536 
-82.5 102 568 -0.09572966 -0.7854822 -0.6114357 
-49 86 485 -0.8052113 0.2981486 -0.5125838 
-92.5 100 572 -0.07167157 -0.8436112 -0.5321498 
-84.5 98 573.5 -0.03357772 -0.8332863 -0.5518211 
-104.5 94 582 -0.01861299 -0.8296982 -0.5579018 
-55 78 491 -0.8365381 0.3020372 -0.4571406 
-94.5 88 590 -0.05391796 -0.8152072 -0.5766542 
-90.33334 124 533.3333 -0.004530551 -0.8602923 -0.5097811 
-92 124 532 -0.02146432 -0.8636612 -0.5036155 
-92.5 126 530 -0.02816333 -0.8963341 -0.4424841 
-53 124 507 -0.8175635 0.1994063 -0.5402102 
-30.5 122 495 -0.1244587 0.4083761 -0.9042892 
-65 132 519 0.009738329 -0.906347 -0.4224219 
-53 130 509 -0.7686288 0.3494827 -0.5357908 
-51 130 507 -0.7367494 0.4231987 -0.5273548 
-68.5 134 514 0.01016112 -0.8831828 -0.4689189 
-60.5 136 512 0.06642664 -0.8566997 -0.5115204 
20 140 500 -0.06140534 -0.8598832 -0.5067841 
11.5 144 496 -0.08010314 -0.8371681 -0.5410482 
11.5 146 493.5 -0.05690539 -0.8378238 -0.542967 
14 146 492 -0.07696798 -0.8178416 -0.5702728 
15.5 150 485.5 -0.01630566 -0.8866715 -0.4621123 
13.5 152 482 -0.01496023 -0.8740208 -0.4856583 
-14.5 154 479.5 -0.07846317 -0.8601465 -0.5039759 
11.66667 156 475.6667 -0.0175377 -0.8465261 -0.5320582 
11.33333 158 473.6667 -0.02939053 -0.8217807 -0.5690454 
1.5 160 470 0.06100335 -0.8337067 -0.5488276 
-42.5 166 464 -0.02858084 -0.8261834 -0.5626758 
33.5 172 481 0.6680959 -0.1520573 -0.7283726 
-40 168 460 -0.1272211 -0.8720505 -0.4725914 
-39 170 455 -0.1630669 -0.8469337 -0.5060756 
-54 171.5 458 -0.4244606 -0.08160151 -0.9017618 
56 206 469 0.5089579 0.139035 -0.8494888 
-64 192 459 0.01243461 -0.8833934 -0.4684672 
25 182 468 0.6334242 -0.3287048 -0.700519 
-20 112 495 0.5680101 0.3324168 -0.7529035 
-22 112 493 0.4988276 0.3484814 -0.7935564 
-105 118 542 0.06517656 -0.8351097 -0.5462088 
-87 116 546 -0.01033825 -0.8439642 -0.5362999 
-61 107.5 515.5 -0.9161628 0.1192248 -0.3826631 
-168 110 597 -0.1383108 -0.8885924 -0.4373485 
-26 116 493 0.2199194 0.3534309 -0.9092426 
-13 154 478 -0.05000477 -0.8490646 -0.5259171 
-18.5 169.5 455.25 -0.1326436 -0.8302037 -0.5414493 
45.75 177.75 479.75 -0.05913192 -0.8652632 -0.4978183 
-28.6 169.4 457.2 0.01064842 -0.8453904 -0.5340427 
-28.5 167.3333 459.3333 -0.03120419 -0.826624 -0.5618889 
-28.5 166 462 -0.07380085 -0.8464079 -0.5273964 
-14.5 161.6667 467.6667 -0.06820089 -0.8622735 -0.5018299 
-10.5 160 470 -0.1181971 -0.8340172 -0.5389294 
-0.5 157.5 473.5 0.02250645 -0.8507183 -0.5251399 
-0.5 156 476 -0.006752579 -0.868394 -0.4958288 
-6.5 155.5 477.5 -0.01051203 -0.862917 -0.5052364 
7.666667 154 477.3333 -0.002440527 -0.8580481 -0.5135635 
5.333333 154 479.6667 -0.02098893 -0.8772433 -0.479587 
-6.5 152 482 0.0004020577 -0.8799959 -0.474981 
-4.5 152 484 -0.00691749 -0.8811041 -0.4728719 
-2.666667 151.3333 485.3333 -0.02664611 -0.870361 -0.4916928 
-6.5 149.5 487.5 -0.02808261 -0.8571017 -0.5143812 
-10.5 148 489.5 -0.03183775 -0.8484845 -0.5282618 
-0.5 146 493.5 0.02258706 -0.8646131 -0.5019303 
-0.5 144 496 0.01695088 -0.8324599 -0.553826 
37.5 141.5 499 -0.1078733 -0.8187441 -0.5639338 
39.5 140 499.5 -0.1411024 -0.8087093 -0.5710337 
33.5 139.5 501.5 -0.0780964 -0.8132641 -0.5766304 
-72.5 137.5 509.5 -0.07616682 -0.8229112 -0.5630416 
-182 144 538 -0.6217025 0.1412577 -0.7704105 
-74.5 136 510 -0.1105545 -0.8498451 -0.5153067 
-72.5 135.5 511.5 -0.06071325 -0.8637252 -0.5002927 
-53 135.5 515 -0.3849834 -0.6253311 -0.6787848 
-54.5 136 514 -0.2041954 -0.7983269 -0.5665495 
-59 131.5 521 -0.553425 -0.4487644 -0.7016633 
-57 130 517 -0.8159875 0.06316099 -0.5746087 
-43 122 495 -0.4708079 0.3040486 -0.8281875 
-49 122 501 -0.7439495 0.231982 -0.6266766 
-58 125.5 516 -0.8475531 0.2436146 -0.4714932 
-51 121.5 503 -0.7868383 0.2054893 -0.5819447 
-42.33333 117.3333 492 -0.3558854 0.3896685 -0.8494139 
-104.5 126 529 0.01080903 -0.8786763 -0.4772958 
-106.5 125.5 531.5 -0.0006128058 -0.8811511 -0.4728346 
-48 118 498 -0.7445743 0.2579541 -0.6156857 
-50 117.5 500 -0.7766317 0.2310537 -0.5860524 
-46 115.5 494 -0.6813399 0.3051647 -0.6653199 
-104.5 124 532 0.01991274 -0.8835031 -0.4680019 
-40.4 111.6 487.4 -0.01751784 0.4325019 -0.9014629 
-104.5 87.5 591.5 -0.02593454 -0.8402218 -0.5416223 
-104.6667 89.33334 589 -0.00749407 -0.8299898 -0.5577283 
-110.6667 89.66666 587.3333 -0.003013504 -0.8338713 -0.5519507 
-92 92 583.5 -0.09743246 -0.8459538 -0.5242797 
-92.5 93.5 581.5 -0.1128616 -0.8489907 -0.5162142 
-90.5 94 580 -0.07578406 -0.8627524 -0.4999152 
-94.5 96 577 -0.1268749 -0.8348195 -0.5357043 
-176 104 616 -0.2223786 -0.9729614 -0.06240063 
-98.5 98 576 -0.05723983 -0.8695979 -0.4904316 
-104.3333 101.6667 569.3333 -0.07352618 -0.8488597 -0.5234799 
-98.33334 103.6667 565.3333 -0.06845505 -0.8190354 -0.5696446 
-53 91.5 495 -0.8192816 0.2960384 -0.4910589 
-50 91.5 490 -0.7949397 0.3142991 -0.5189288 
-102.5 106 563.5 -0.0225183 -0.8378894 -0.5453753 
-100 106 562 -0.07466995 -0.8333628 -0.5476595 
-52 93.5 494 -0.8113654 0.2815008 -0.5122923 
-122.5 107.5 561.5 -0.06621577 -0.8442184 -0.5318936 
-100.3333 108 559.6667 -0.05301953 -0.8490506 -0.5256444 
-100.3333 109.6667 557.3333 -0.05274607 -0.8608844 -0.5060592 
-51 97.5 495 -0.8354767 0.1930925 -0.5144842 
-98.5 110 556 -0.06741276 -0.8656831 -0.4960327 
-102.5 112 553.5 -0.02792327 -0.8680828 -0.4956336 
-106.5 113.5 551.5 -0.01115096 -0.8651562 -0.5013785 
-104.5 114 549.5 -0.03553659 -0.8651214 -0.5003021 
-66 113.5 528 -0.9220484 0.04512438 -0.3844353 
-65 113.5 525 -0.9027639 0.05358841 -0.4267853 
-94.5 117.3333 543.3333 -0.04049088 -0.8360351 -0.5471799 
-33 108 491 -0.06113863 0.4681375 -0.881538 
-55 111.5 505 -0.8405728 0.1597185 -0.517617 
-34.33333 109.3333 492 0.1980982 0.4040115 -0.8930464 
-34.4 111.6 493.2 0.1804201 0.3791306 -0.907584 
-56 115.5 508 -0.8488812 0.1750956 -0.4987408 
-36.5 111.5 491.5 0.4634605 0.3223029 -0.8254242 
39.5 180 476 -0.0004850386 -0.8179379 -0.5753063 
39.5 182 473.5 -0.07652855 -0.8611076 -0.5026302 
42 182 472 -0.1047243 -0.8611314 -0.4974791 
33.33333 183.3333 473 0.1334294 -0.7641189 -0.6311251 
45.5 183.6667 469.6667 -0.1266412 -0.8709255 -0.4748167 
41.5 185.5 467.5 -0.09580652 -0.871856 -0.4803002 
43.6 185.8 465.6 -0.08358522 -0.8660899 -0.4928506 
-54.5 189.5 464 -0.236104 -0.6154775 -0.751959 
-50.5 191.3333 461.3333 -0.1842271 -0.6645563 -0.7241722 
-52.66667 192 459.6667 -0.09488333 -0.7532136 -0.6508966 
-54.5 193.3333 459.3333 0.01054245 -0.8256019 -0.5641546 
-52.5 194 458 -0.02487563 -0.8191209 -0.5730813 
75.5 203.5 479 0.4164788 0.03030864 -0.90864 
76 206 478 0.3922221 -0.3265642 -0.8599522 
-52.5 197.5 453.5 0.04086877 -0.8596994 -0.5091627 
-50.5 198 452 0.002714186 -0.8674256 -0.4975595 
69.5 206 468 0.2070406 -0.2996004 -0.9313291 
-78.5 198 448 0.05005089 -0.8983734 -0.4363718 
-72.5 199.6667 447.6667 0.05196897 -0.8879102 -0.457072 
-74.75 199.75 445.75 0.07780093 -0.8787054 -0.4709819 
-76.5 200 444 0.07005359 -0.8715447 -0.4852859 
-76.5 202 442 0.06117547 -0.8380077 -0.5422183 
36 179 479 0.2239406 -0.6521995 -0.7242143 
-2.5 163 465.5 -0.002028102 -0.8558003 -0.5173025 
-8.5 147 491.5 -0.02923002 -0.8476642 -0.5297272 
-62 131 525 -0.2876881 -0.6680505 -0.6862537 
-108.6667 99 575.6667 0.02454945 -0.8570644 -0.5146242 
-110.5 99.5 573.5 0.01794557 -0.8533248 -0.5210709 
-96.33334 115 547.6667 -0.02543566 -0.8382172 -0.5447431 
-98.5 115.5 545.5 -0.02244671 -0.8287202 -0.5592129 
33.75 179.25 477.25 0.3365925 -0.584717 -0.7381135 
-58.5 195 457 0.09485374 -0.8553065 -0.5093659 
-52.6 195.8 455.6 0.02768529 -0.8470791 -0.5307453 
-48 75 476 -0.8090245 0.3456793 -0.4753792 
-78.5 201 443 0.05415224 -0.8519769 -0.5207716 
-72.66666 201 445.3333 0.05480785 -0.8823846 -0.4673259 
71 205 466 0.2206003 -0.3177959 -0.9221395 
78 205 475 0.5476967 -0.1752719 -0.8181126 
74 205 479 0.4645521 -0.1508732 -0.8725988 
37.5 181 475.5 0.01610229 -0.820162 -0.5719047 
35.5 181 477 0.1596723 -0.7353767 -0.6585786 
-92.5 121 537.5 -0.0516021 -0.8390476 -0.5416054 
-94.5 121 539 -0.07416115 -0.8458185 -0.5282909 
-102.5 109 559.5 -0.008192861 -0.8557058 -0.5173978 
-48.66667 93.66666 489.6667 -0.8052933 0.268536 -0.5285746 
-50.33333 93.33334 491.3333 -0.8023892 0.2823749 -0.5257717 
-106.5 101 571.5 -0.05380318 -0.8701314 -0.4898741 
-177 105 614 -0.2000628 -0.9743461 -0.103076 
-178 105 615 -0.2248037 -0.9723257 -0.06360753 
-94.5 93 584 -0.112741 -0.8486494 -0.5168015 
-32.5 113.5 493.5 -0.103107 0.3501976 -0.9309837 
-37 113 490 0.4601601 0.3805187 -0.8021585 
-108.5 125 533 0.006572991 -0.8676614 -0.4971122 
-46.5 117.5 495.5 -0.6876293 0.2933834 -0.6641477 
-44.5 117.5 493.5 -0.5901538 0.335761 -0.7341546 
-57 125.5 514 -0.8450005 0.2385911 -0.4785901 
39.5 141.5 497.75 -0.1304583 -0.8190871 -0.5586383 
-2.5 145 495 0.01050916 -0.8540174 -0.5201383 
-8.666667 149 489.3333 -0.0186598 -0.8517964 -0.5235406 
-4.5 153 481.5 -0.001913618 -0.8774115 -0.4797346 
-2.5 157 475 0.02386685 -0.8715064 -0.489803 
-30.5 165 463.5 -0.09529403 -0.8671961 -0.4887637 
-30.5 169 459 0.003483779 -0.8540397 -0.5201962 
-52.66667 115.6667 503.3333 -0.8048471 0.2090457 -0.5554467 
-42 115 490 -0.2655595 0.4601276 -0.8472076 
-14 147 494 -0.07734022 -0.8632586 -0.4988017 
-121 107 563 -0.04483384 -0.8360947 -0.5467501 
-158.5 107 598 -0.398209 -0.8772945 -0.2679255 
-179 139.5 537.5 -0.6094373 0.2192951 -0.7619028 
35 139 503 -0.1147395 -0.8107001 -0.5741081 
-110.3333 123.6667 533.6667 0.03148074 -0.8648218 -0.5010911 
-109 123 535 0.0299381 -0.8540494 -0.5193298 
-60.33333 123.3333 519.3333 -0.8561765 0.1955079 -0.4782661 
-64 107.5 523 -0.9153753 0.05888814 -0.3982717 
65.5 207.5 465.5 -0.0520376 -0.1039566 -0.9932196 
-54.33333 199 449.3333 0.09370688 -0.8778064 -0.4697605 
69 207 470 -0.2562973 -0.9661286 0.03012045 
-52.33333 199 451.3333 0.05297305 -0.8600221 -0.5074998 
75 207 476 0.3389395 -0.5403688 -0.7701439 
47.5 183 471 -0.1228393 -0.8637075 -0.4887941 
-100.5 111 555 -0.04634295 -0.8688247 -0.4929464 
-96.5 103 567 -0.04120659 -0.8403827 -0.5404248 
-92.5 95 580 -0.1205235 -0.8463939 -0.5187402 
-50.5 119.5 501.5 -0.7780818 0.2142225 -0.590506 
-42.5 119.5 493.5 -0.3651618 0.3540691 -0.8609831 
35 143 500 -0.07197076 -0.8408379 -0.536481 
33.66667 143 497.3333 -0.05653569 -0.8621352 -0.5035143 
-26.5 167 461 -0.04937348 -0.8210268 -0.5687507 
-92.33334 119.6667 539.6667 -0.05193986 -0.8388202 -0.5419253 
-90.5 119 541.5 -0.02192878 -0.8498338 -0.5265942 
-50.5 95.5 493 -0.8175769 0.2315485 -0.5272127 
-48 79 480 -0.802389 0.3480134 -0.4848283 
-57 119.5 511.5 -0.8549266 0.1880344 -0.4834705 
-32 109 490 -0.1260631 0.4504274 -0.8838683 
-163 101 627 -0.2316362 -0.9726723 -0.01591169 
-59 129 519 -0.8126733 0.07169272 -0.5782926 
-181 141 541 -0.6558098 0.1855487 -0.7317685 
-52.5 137 513.5 -0.2508399 -0.7418723 -0.621856 
-9 161 469 -0.06320035 -0.8363976 -0.5444674 
-55 196 454 0.09566377 -0.8591673 -0.5026729 
73.33334 203.3333 478 0.5090631 0.0173085 -0.8605552 
-38 112 489 0.4276685 0.3762604 -0.821905 
-59 128 518 -0.8457537 0.09600181 -0.524866 
61 203 470 0.4450348 0.3575591 -0.8210332 
-58 75 494 -0.8659132 0.2321715 -0.443047 
-52 75.5 484 -0.8329065 0.2995651 -0.4653253 
-108.5 91 587 -0.02492856 -0.8276054 -0.5607565 
-110.6667 91.66666 586 0.003139415 -0.8324839 -0.5540404 
-80.5 123.5 535.5 -0.04442057 -0.8586674 -0.5106046 
-56 123.5 511 -0.8496595 0.1961242 -0.4895039 
5.5 155 477.5 0.0009289957 -0.8677695 -0.4969661 
-30.66667 107.6667 489 -0.1907413 0.4565302 -0.8690212 
-88.5 107.5 559.5 0.05925124 -0.8503739 -0.5228322 
-134.5 107.5 561.5 0.02777881 -0.8550428 -0.5178131 
-174.5 107.3333 601.3333 0.03921203 -0.8600218 -0.5087486 
-48 171.5 456 -0.3798935 -0.5186887 -0.7659262 
-132 107 563 0.04799273 -0.8269576 -0.5602123 
-160.5 107 599.5 -0.3075862 -0.8728885 -0.3787564 
-172 107 603 0.003611204 -0.8698522 -0.4932992 
25 171 466 0.8242061 0.2586088 -0.5037915 
-58.5 171.5 462 -0.5280166 0.1621915 -0.8336021 
31.6 139.4 503.4 -0.05126932 -0.8343208 -0.5488901 
49.5 211.5 465.25 0.3816629 -0.3263427 -0.8647739 
-72.4 195.4 455.2 0.07000299 -0.8808683 -0.4681569 
-70.33334 195 457.3333 0.03243648 -0.8751588 -0.4827471 
-60 115.5 516 -0.8936321 0.143855 -0.4251206 
-94.5 115.5 545.5 -0.01799983 -0.8339412 -0.5515596 
-92.5 115.5 547.5 0.000348531 -0.8402237 -0.5422398 
-84.5 99.5 571.5 -0.05536741 -0.8185248 -0.5717968 
-53 83.66666 491.3333 -0.8438134 0.2435479 -0.4781877 
-70.5 131 521 0.04038391 -0.863061 -0.503483 
11.5 147.3333 491.3333 -0.04201943 -0.8474479 -0.5292131 
1.5 163 465.5 0.04134554 -0.8708436 -0.4898184 
52 211 467 0.4841018 -0.3009184 -0.8216408 
-74.6 195.8 453.6 0.07119348 -0.8762414 -0.476584 
-50 179.5 461.5 -0.5544384 0.5223629 -0.6478698 
-72.66666 131.6667 519.3333 -0.01961147 -0.8731598 -0.4870394 
-50.4 201.8 443.6 0.002753839 -0.9010289 -0.4337503 
-52.66667 201.3333 445.6667 0.0469891 -0.909752 -0.4124844 
-54.5 201 447 0.09466645 -0.8973344 -0.4310792 
-78.5 197 451 0.02918714 -0.892895 -0.4493178 
61.5 205.5 471.5 0.4609029 0.1719764 -0.8706277 
-72.5 197 453 0.07218139 -0.8619784 -0.50178 
-72.4 193.4 457.2 0.04600858 -0.8773447 -0.4776502 
-74.5 193 459.5 0.05076155 -0.8783531 -0.4753095 
23.5 185.5 465.5 0.4465006 -0.5245107 -0.7249316 
-48.5 181 462 -0.5584118 0.4625022 -0.6886712 
-50.5 181 464 -0.534138 0.3707866 -0.7597458 
-98.66666 121.3333 539 -0.03483887 -0.8498593 -0.5258569 
-28.5 109.5 490 -0.1068087 0.424904 -0.8989152 
-98 117.6667 543.6667 -0.02826645 -0.8185285 -0.5737702 
-84.5 113.5 549.5 -0.03314252 -0.8572082 -0.5139025 
-86.5 113 551 -0.01561156 -0.8580418 -0.5133426 
-88.5 109 557 0.04360037 -0.8512971 -0.5228693 
-90.5 105.5 563.5 0.02939946 -0.8480901 -0.5290359 
-53 89.5 493.5 -0.8266042 0.2724733 -0.4924265 
-84.5 101 569.5 -0.06408069 -0.8114594 -0.5808849 
-94.33334 97.66666 575.6667 -0.1101547 -0.8344801 -0.5399156 
-96.5 97 577 -0.09545787 -0.8440775 -0.527656 
-98.5 93 583 -0.04064757 -0.8424227 -0.5372819 
-109 93 585 -0.01222179 -0.8233014 -0.5674729 
-56.66667 77.66666 493.3333 -0.8449031 0.2894318 -0.4498533 
-148 97 630 -0.327821 -0.9434687 -0.04899373 
-26.5 113.5 491 0.1158419 0.3592305 -0.9260314 
-81 125 533 -0.03609176 -0.8849216 -0.4643396 
-60 121 518 -0.8696325 0.1520615 -0.4696983 
-86.66666 125 531.6667 0.002610241 -0.8848841 -0.4658042 
-76.5 129 525 -0.01110702 -0.8668557 -0.4984352 
-74.33334 129 523.6667 -0.01909857 -0.8594784 -0.5108151 
-48.5 125.5 501.25 -0.708504 0.298463 -0.6394857 
-40.5 125.5 493.25 -0.1471277 0.3811445 -0.9127334 
-78.5 133.5 516 -0.004044832 -0.8538212 -0.5205508 
-72.66666 133 517.3333 -0.03137994 -0.878173 -0.4773127 
-54.33333 137 511.3333 -0.1100042 -0.7660841 -0.6332569 
25.5 141.5 499 0.04520917 -0.8440111 -0.5344169 
1.5 145.25 495.75 0.03231262 -0.8366172 -0.5468342 
11.5 149 489.5 -0.04399488 -0.8698444 -0.4913607 
5.4 149.4 487.4 0.05021095 -0.8635418 -0.5017712 
5.5 153 483 0.01301539 -0.884199 -0.4669293 
7.5 153 481.5 -0.01666652 -0.8947257 -0.446305 
47.5 161 497 0.6829805 -0.1435907 -0.7161839 
1.5 157.5 475 0.0009239427 -0.851002 -0.5251616 
3.666667 157.6667 473.3333 0.01578736 -0.8232923 -0.567398 
11.5 161 469 -0.02151359 -0.8518109 -0.5234073 
13.5 161.6667 467.6667 -0.02278066 -0.8594455 -0.5107197 
45.5 173 487.5 0.1374544 -0.7347859 -0.664226 
47.5 173.5 485.5 -0.004710315 -0.7903963 -0.6125778 
45.5 177 483 0.005414898 -0.8318306 -0.555003 
47.5 177 481 -0.07240326 -0.8566929 -0.5107202 
-32.25 169.25 457.25 -0.001867023 -0.8554481 -0.5178853 
26 177.5 471.5 0.7454833 -0.08631411 -0.6609118 
58 209 471 0.5004767 -0.0288632 -0.8652688 
-76.6 197.8 449.6 0.06968068 -0.8861169 -0.4581937 
24 181 469 0.7063319 -0.2100636 -0.6759945 
-52 85.5 489 -0.8180767 0.2672011 -0.5092683 
-49 81.5 482 -0.8062243 0.3180372 -0.4988534 
-58 77.5 495.5 -0.8578331 0.2855926 -0.4272695 
-82.5 85.5 591 -0.1330896 -0.8240216 -0.5507046 
-58.33333 121.3333 515.3333 -0.8605308 0.1683396 -0.4807791 
-23 121 496 0.4678438 0.3578494 -0.808125 
-50.5 125.5 503.5 -0.750641 0.2730062 -0.601669 
-42.5 125.5 495.5 -0.4033054 0.3880213 -0.8287245 
-52.66667 137.6667 509.3333 -0.1097476 -0.8185425 -0.5638649 
25 173.5 468 0.8384747 0.2553995 -0.4813848 
-58.33333 173.3333 463.6667 -0.5419263 0.4069565 -0.7353247 
-56 173.5 461.5 -0.5349723 0.2971093 -0.790905 
-74.5 199 449 0.08207069 -0.8853949 -0.4575371 
57.5 207.5 469.75 0.4907627 0.007944514 -0.8712571 
59.5 207.5 471.5 0.4995762 0.03230092 -0.8656675 
-76.33334 191 463.3333 0.05165474 -0.8560152 -0.5143635 
-78.5 191.5 461.5 0.072893 -0.8690221 -0.4893743 
21.75 183.25 465.25 0.6642146 -0.2656719 -0.6987398 
23.5 183.5 467 0.613133 -0.3836114 -0.6905869 
-24.4 111.4 491.4 0.312787 0.3608426 -0.8786108 
-26.5 111 490 0.1539812 0.3988351 -0.9040024 
-101 119 543 0.04180404 -0.8224025 -0.5673682 
-102.5 119.5 541.5 0.07329956 -0.8178134 -0.5707964 
-90.5 111 554 0.01599786 -0.8500301 -0.5264912 
-163 111 593 -0.3644328 -0.8962829 -0.252717 
-93 103 567 -0.0195394 -0.8505639 -0.5255085 
-96.33334 95.66666 579.3333 -0.1048704 -0.8418881 -0.5293643 
-102.5 95 581 -0.02363284 -0.8323045 -0.5538146 
-53 79.5 487.5 -0.8298512 0.2973595 -0.4721487 
-61 119 519 -0.8740202 0.1241612 -0.4697582 
-76.5 127.5 527 -0.02476943 -0.8676666 -0.4965291 
-74.66666 135.3333 513.6667 -0.09729965 -0.8670988 -0.4885411 
-48 135 508 -0.6464472 0.3107972 -0.6967863 
29.5 143 497 0.02069451 -0.8553324 -0.5176661 
1.5 151 485 -0.01238603 -0.8674326 -0.4974006 
7.5 151.5 483.5 -0.01228729 -0.8932608 -0.4493709 
11.5 159.3333 471.3333 -0.03491833 -0.8318543 -0.5538946 
-37 167 463 -0.1050274 -0.8674647 -0.4862862 
41.5 175 485 0.279229 -0.7015919 -0.6555913 
-38.6 167.2 461.4 -0.1179334 -0.8753958 -0.4688005 
47.33333 175.3333 483.5 -0.04584104 -0.8268163 -0.5606011 
-32.5 167.3333 459.3333 -0.02281811 -0.8678354 -0.4963276 
25 175 469 0.8416948 0.1677988 -0.5132186 
61 210 467.5 0.4201219 -0.2888565 -0.8602671 
-52.5 200 448 0.05616646 -0.8937744 -0.4449863 
-74.5 190 464 0.02565928 -0.852194 -0.5225964 
-96.5 122 537.5 -0.0727106 -0.8578439 -0.5087407 
-31 110 491 -0.2152069 0.4260302 -0.8787402 
-96.5 120 540 -0.07600766 -0.8272108 -0.5567272 
-82.5 114 548 -0.02516508 -0.8436576 -0.5362915 
-84.5 112 552 -0.04237362 -0.8527589 -0.5205832 
-94.33334 110 555.3333 -0.05076609 -0.8549559 -0.5162106 
-90.5 108 558 0.0254057 -0.8567398 -0.5151227 
-88.5 106 562 0.06489047 -0.8517267 -0.5199527 
-94.5 103.5 565.25 -0.04665905 -0.8432692 -0.5354625 
-51 88 489 -0.804137 0.285123 -0.521602 
-90.5 102 568 -0.006500444 -0.8349534 -0.5502824 
-178.5 106 604 -0.07862768 -0.9322694 -0.3531168 
-181 106 605 -0.1472557 -0.9519669 -0.2684673 
-92.5 98 574 -0.1173096 -0.8322877 -0.5417894 
-86.5 88 590 -0.1064431 -0.8220983 -0.559307 
-82.5 124 534 0.00124876 -0.8828949 -0.469569 
-58 119.5 513.5 -0.8616976 0.1909481 -0.4701235 
-84 124 532 0.02648354 -0.8856717 -0.4635562 
-84.66666 126 529.6667 -0.001500229 -0.9022697 -0.4311695 
-57 122 513 -0.85816 0.1900456 -0.4769109 
-78.5 128 526 0.01225317 -0.8617755 -0.5071418 
-50 123.5 502 -0.7568753 0.2382679 -0.6085788 
-72.5 130 521.5 -0.01026371 -0.8675614 -0.4972242 
-42 123.5 494 -0.2717349 0.3596101 -0.8926594 
-50.5 134 511 -0.6958013 0.1680441 -0.6982992 
-49 134 509 -0.663301 0.3362579 -0.6685525 
29.5 140 502 -0.01187081 -0.8551379 -0.5182648 
27.5 140 500 0.01785886 -0.8581216 -0.5131359 
27.5 142 498 0.03671803 -0.8477182 -0.5291745 
3.5 146 493.5 0.03363711 -0.8660082 -0.4988972 
7.5 150 486 0.008321713 -0.8720877 -0.4892789 
-6.5 154 479.5 0.003204776 -0.8690461 -0.4947208 
3.5 156 476 -0.009385702 -0.8502115 -0.5263577 
13.5 158 472 -0.03032271 -0.8314594 -0.5547575 
9.5 160 469 -0.00474605 -0.8459787 -0.5331957 
47.5 172 488 0.0795377 -0.7843204 -0.6152359 
-34.33333 166 463.6667 -0.06734598 -0.8770347 -0.4756835 
-32.5 166 462 -0.06822503 -0.8702036 -0.4879458 
-34.5 168 458 -0.03655889 -0.8754835 -0.4818633 
-54 87.5 493 -0.8371132 0.2367013 -0.4931672 
64 208 467 0.1273171 -0.3339541 -0.9339514 
-77 196 452 0.01641935 -0.8721482 -0.4889663 
63.33333 203.3333 471.6667 0.4814439 0.2906825 -0.8268709 
-73 192 460 0.02455949 -0.8667191 -0.4981915 
-110.5 122 535.5 0.03328905 -0.8411046 -0.5398471 
-54 90 495 -0.835303 0.2712095 -0.4782409 
-96.5 94 581.5 -0.09333834 -0.8479259 -0.5218331 
-75 126 528 -0.04680472 -0.8765885 -0.4789592 
-63 75.5 508 -0.9289511 0.130398 -0.3464767 
-40.66667 91.33334 478 0.2227783 0.542908 -0.8097042 
-23 91.5 484 0.3680047 0.4528898 -0.8120734 
-126.6667 91.33334 587.6667 -0.1537174 -0.8518016 -0.5008044 
-128.6667 123.3333 533.3333 -0.05935007 -0.8550202 -0.5151874 
-36 123.5 497 0.3339042 0.377714 -0.8636203 
41 155 484 0.786157 0.06122803 -0.6149864 
23.5 155 477.5 0.003130297 -0.8327218 -0.5536829 
-42.66667 91.66666 479 -0.2572335 0.5423737 -0.7997886 
13.5 139.6667 503.6667 -0.04624604 -0.8488119 -0.5266686 
-38.5 199.6667 447.6667 0.02126495 -0.8447014 -0.5348152 
-28.6 175.6 445.6 -0.234356 -0.739061 -0.6315585 
-30.5 175.5 447.5 -0.2712265 -0.6660198 -0.6948769 
-16.33333 111.6667 497 0.6608777 0.2959107 -0.6896938 
-114.5 119.5 540 0.03651842 -0.8692231 -0.4930696 
-116.5 119 541 0.0247384 -0.8728917 -0.4872864 
-30.5 103.5 487 -0.2096177 0.4336831 -0.8763444 
-136.5 111 553.5 0.04514987 -0.8675908 -0.4952248 
-138.5 111 555 0.02270871 -0.8691539 -0.4940202 
-63 103.5 520 -0.9273078 0.08625011 -0.3642269 
-22 95.5 487 0.5053915 0.3162306 -0.8028558 
-178.5 111.5 595.5 0.01508349 -0.8314123 -0.5554513 
-56 87.5 497 -0.8496786 0.2269497 -0.4759623 
-166.5 103.5 607.75 -0.0995867 -0.9045191 -0.4146416 
-26.5 79.5 475.5 0.1830819 0.4930421 -0.8505237 
-116.5 95 581 -0.06477079 -0.8401664 -0.5384471 
-34.5 127.5 499.25 0.05978765 0.4452764 -0.8933949 
13.5 143 499 -0.07106687 -0.8511737 -0.5200509 
15.5 143 497 -0.1032639 -0.8496076 -0.5172074 
17.5 143.5 495.5 -0.09317313 -0.8401625 -0.5342712 
19.5 151 485 -0.019493 -0.8773439 -0.479466 
21.5 151.5 483.5 -0.009365555 -0.8857285 -0.4641092 
25.6 159.2 471.4 0.1424018 -0.8001897 -0.582596 
45.33333 167.6667 492 0.4352298 -0.4565638 -0.7759668 
37 167.5 484 0.7520862 0.002882719 -0.6590585 
-54.5 167.3333 463.3333 -0.09797309 -0.7195895 -0.6874533 
-30.4 195.6 451.8 -0.3249533 -0.4997034 -0.8029333 
-42.33333 179.3333 455 -0.5597895 0.5497457 -0.6200125 
-142.5 115 547.5 -0.004487555 -0.8782333 -0.4782114 
-24.5 99.5 486 0.4332038 0.2846003 -0.8551825 
-30.5 99 484 -0.1743794 0.3472221 -0.9214275 
-62 99.5 515.5 -0.9259506 0.1461345 -0.3482244 
-130.5 99 576 -0.03052799 -0.8643301 -0.5019975 
27.5 147.6667 489.6667 -0.03030054 -0.8217806 -0.568998 
46 163 495 0.6768534 -0.1844027 -0.7126467 
39 163 486 0.8066468 0.1689394 -0.5663749 
19 163 465.5 0.03514894 -0.8456481 -0.5325823 
-32.5 171.3333 453.3333 0.01788704 -0.8443021 -0.535569 
-45 171 457 -0.2493782 -0.7412112 -0.6232308 
-28 195.5 450 -0.3916305 -0.4485073 -0.8034095 
-40.5 179.5 453 -0.5774219 0.4908989 -0.652382 
-20.5 99.5 489.5 0.5737599 0.2770164 -0.7707539 
-18.66667 83.33334 479.6667 0.4971056 0.4021458 -0.7688725 
-84 107 561 -0.03554511 -0.8458962 -0.5321617 
-184.5 107 605.5 -0.2007621 -0.957796 -0.2057216 
-186 107 607 -0.2337676 -0.9609482 -0.1480925 
-38.4 201.8 445.6 0.04456148 -0.8659875 -0.4980763 
-36.5 201 447 0.007981834 -0.836084 -0.5485435 
-30.5 197.5 450 -0.2276728 -0.6602677 -0.7156897 
-24 181 440 -0.4682284 -0.1918636 -0.8625257 
-26.5 177.5 442 -0.3769612 -0.4987613 -0.7804726 
-24.5 177 443.5 -0.2089815 -0.6851562 -0.6977735 
-30.66667 177.3333 445 -0.4852463 -0.3259208 -0.8113641 
-40.5 181.5 455 -0.5560227 0.603478 -0.5715357 
-36.6 173.4 451.2 -0.2481689 -0.5910062 -0.7675442 
-114.5 121.25 537.5 0.03541437 -0.8539442 -0.5191582 
-112.5 121 539 0.03460543 -0.8546352 -0.5180746 
-28.5 105.5 487.25 -0.09307074 0.449428 -0.888455 
-26.5 101.5 485.75 0.1944169 0.3643593 -0.9107383 
-132.5 113.5 551.5 0.06541814 -0.8625459 -0.5017322 
-138.3333 109.6667 558 0.02383788 -0.8931842 -0.4490587 
-40.5 93 480 0.1505678 0.5531772 -0.8193439 
-178 113 594 0.001244643 -0.8577319 -0.5140957 
-136.3333 105.6667 563.6667 -0.02259464 -0.8466554 -0.5316618 
-142.5 105.5 565.5 -0.09961089 -0.8885008 -0.447933 
-203 113 617 -0.38602 -0.9197883 -0.07055567 
-176.5 109 599 0.051239 -0.8481697 -0.5272406 
-190.5 109 601 -0.1982894 -0.9431303 -0.2668082 
-189 109 603 -0.2170485 -0.9498317 -0.2251881 
-194 109 614 -0.3194552 -0.9469736 -0.03449022 
-132.5 101 571 0.04111168 -0.8947403 -0.4446906 
-46.66667 85.66666 481.3333 -0.7883437 0.3108905 -0.5309061 
-130.5 101 573 0.01589816 -0.885771 -0.4638502 
-160.6667 105.3333 603.6667 -0.1761425 -0.8764808 -0.4480573 
-166.5 105 605 -0.1082032 -0.8557256 -0.50599 
-59 85.5 501.5 -0.8547387 0.220957 -0.4696805 
-114.5 97 577 -0.03810764 -0.831663 -0.5539715 
-157 101 611 -0.1787027 -0.9455597 -0.2719967 
-155 101 613 -0.2217892 -0.9456161 -0.2379488 
-112.5 93 584 0.0022814 -0.8293818 -0.5586777 
-146 97.5 609.5 -0.4556765 -0.8714601 -0.1814281 
-148 97 616 -0.3962829 -0.9066405 -0.1447859 
-62 77.5 506 -0.9169354 0.1575669 -0.3666093 
-132.5 125.5 531 -0.04692706 -0.8314359 -0.5536354 
-32.5 129.5 499.25 -0.0685124 0.4344272 -0.8980975 
13.5 141 501 -0.05093775 -0.8505839 -0.5233664 
11.5 141.5 499.5 -0.04129347 -0.8479834 -0.5284118 
17.5 145.5 493.5 -0.07581896 -0.805557 -0.5876474 
23.5 149 487.5 -0.0155099 -0.8456528 -0.5335081 
21.5 153 482 -0.01567331 -0.8674335 -0.4973063 
19.66667 157.3333 475 0.03221501 -0.8386935 -0.54365 
17.5 157.5 473.5 0.01651132 -0.8370006 -0.5469528 
45.5 165.5 493 0.5435867 -0.3250533 -0.7738565 
41.5 165.5 489.5 0.7347872 -0.08587805 -0.6728393 
43.4 165.4 491.6 0.6691313 -0.1711957 -0.7231565 
39.5 165.5 487.5 0.7670559 0.02772679 -0.640981 
37.5 165.5 485.25 0.7761947 0.1063812 -0.6214539 
25.5 161 469 0.2963938 -0.7206146 -0.6267897 
47.5 169.6667 491.6667 0.2116565 -0.6679778 -0.7134474 
-48.5 165.5 464 -0.06123259 -0.8132326 -0.5787084 
-54.5 169 461 -0.1932017 -0.6341277 -0.7487024 
-48.5 169.3333 459.3333 -0.1373139 -0.7205185 -0.6797044 
-18 113.5 497 0.6029215 0.3099921 -0.7351127 
-24 101.5 487 0.446176 0.3038529 -0.8417841 
-62 105.5 517.5 -0.9328314 0.09640458 -0.3471769 
-21 97.5 488 0.5376418 0.2968951 -0.7891733 
-23 97 486 0.4850599 0.2786988 -0.8288812 
-17 93 488 0.5764603 0.3976836 -0.7138217 
-56.5 89.5 499.5 -0.8458757 0.2486836 -0.4718589 
-134.6667 101.6667 569.6667 0.004652733 -0.8818099 -0.4715821 
-192 109 615 -0.3082628 -0.9506975 -0.03388681 
-30.33333 77.33334 473.6667 -0.1112707 0.5627307 -0.8191172 
-126.5 93 585.5 -0.1141141 -0.8513997 -0.5119538 
36 165.5 483 0.8084817 0.1797383 -0.560403 
31 169 476 0.8122374 0.271207 -0.5164467 
29.66667 169.6667 473.3333 0.8133315 0.2914014 -0.5035645 
-32.5 202 444 -0.06364311 -0.8687349 -0.4911713 
-20.5 178 440 -0.1601505 -0.7840214 -0.5997185 
-26.5 176 444 -0.2387423 -0.7084683 -0.6641346 
-24 174 447.5 -0.03802046 -0.894469 -0.4455107 
-38.5 174 450 -0.3566206 -0.4786167 -0.802339 
-126.5 122 534 0.01665279 -0.8793141 -0.475951 
-124.6667 122 535.6667 0.04536525 -0.8885226 -0.4565848 
-112.5 118 543.5 0.002932045 -0.8645379 -0.5025591 
-115 118 542 0.02393779 -0.8774859 -0.4790046 
-140.5 116 546 0.03744372 -0.8780766 -0.477053 
-18.5 103.5 491.75 0.616574 0.2742243 -0.7379956 
-22 102 489 0.5465629 0.2833533 -0.7880228 
-134.6667 114 549.6667 0.07061506 -0.8580268 -0.5087274 
-135 112 552 0.06271996 -0.8630583 -0.5011953 
-16 100 493 0.6790797 0.278296 -0.6792659 
-140.5 110 556 -0.01074487 -0.8773119 -0.4798005 
-138.5 108 560 0.02221372 -0.8803387 -0.4738254 
-177 112 594 -0.002360814 -0.8524094 -0.5228695 
-18.5 92 487 0.5446446 0.4301981 -0.719925 
-178.5 110 597.5 0.02048913 -0.8404371 -0.5415218 
-142.5 104 568 -0.2152991 -0.88671 -0.4091354 
-128.3333 103.3333 569.3333 0.03613127 -0.8717835 -0.4885572 
-202 112 619 -0.3652526 -0.9290862 -0.05821879 
-178.5 108 600 0.007692457 -0.8764186 -0.4814885 
-190 108 603 -0.2416324 -0.9514568 -0.1906403 
-129 100 574 -0.0220069 -0.8660724 -0.4994341 
-164.5 104 606 -0.09884359 -0.883653 -0.4575886 
-158.5 102 609.5 -0.1440229 -0.9297944 -0.3387325 
-112.5 96 578 0.005919904 -0.8369849 -0.547194 
-114.6667 96 579.6667 -0.03201494 -0.8391546 -0.5429499 
-152 100 613 -0.3029363 -0.9235428 -0.2351561 
-114.5 94 582 -0.02814518 -0.8459125 -0.5325786 
-115 92 584 -0.02486804 -0.8301908 -0.5569244 
-124.5 92 586 -0.06967875 -0.8509367 -0.5206262 
-134.5 124 532 -0.04078515 -0.8466299 -0.530617 
-134.5 126 529 -0.03480621 -0.833559 -0.551333 
-42 134 501 -0.20526 0.7110855 -0.6724774 
15.5 140 502 -0.09089954 -0.8561147 -0.5087287 
19.5 144 494 -0.05455694 -0.8059652 -0.5894435 
23.5 146 491.5 -0.005856744 -0.8206381 -0.5714182 
21.5 150 486 -0.02030006 -0.8614383 -0.5074564 
23.66667 151.6667 482 -0.007413136 -0.8760407 -0.4821803 
17.5 156 475.5 0.0146493 -0.8521362 -0.5231152 
47 164 494 0.5492057 -0.3244376 -0.7701385 
31 158 472 0.3536341 -0.6089154 -0.7100457 
27.5 160 470 0.3115446 -0.6809718 -0.6627349 
45 170 490 0.2943122 -0.6284704 -0.7200036 
-52.5 168 462 -0.0963889 -0.7409227 -0.6646373 
-51 170 458 -0.2345109 -0.5264378 -0.8172318 
-28 103.5 486 0.05176525 0.4329194 -0.8999451 
-32 127 498 -0.04999612 0.4196264 -0.906319 
41.66667 159.6667 487.6667 0.8231672 0.2597165 -0.5049189 
-36 200 446 0.01018154 -0.8390675 -0.5439321 
-38 172 452 -0.1810616 -0.7207498 -0.6691311 
-61 100 513 -0.9055123 0.1237674 -0.4058684 
-47 90 485 -0.7801426 0.3348129 -0.5284674 
-188 108 602 -0.1920857 -0.9379207 -0.2888041 
-63 82 509 -0.9196724 0.1499195 -0.3629417 
-144 96 610 -0.4956794 -0.8533687 -0.1614427 
36 164 482 0.8201789 0.2450816 -0.5169542 
-28.5 75.5 471.75 0.06431279 0.5876966 -0.8065213 
-26.75 187.75 449.25 -0.5762823 0.4650312 -0.6720452 
-24.5 91.5 483.25 0.3072307 0.4584616 -0.8339199 
-113 91 587 -0.007971492 -0.8364125 -0.5480426 
-142.5 123.3333 533.3333 -0.05598688 -0.8407757 -0.5384811 
25.6 155.2 477.4 -0.01630677 -0.8277622 -0.560842 
-46.5 201.6667 443.6667 -0.02783204 -0.8848014 -0.4651364 
-40.5 201.3333 445.3333 0.03622117 -0.8716162 -0.4888489 
-43 201 447 -0.002223695 -0.8818937 -0.4714431 
-24.5 189.5 449 -0.5797993 0.3248814 -0.7471846 
-27 189.5 451.5 -0.5969965 0.2413649 -0.7650739 
-16.5 181.5 434 -0.3729702 -0.357481 -0.856213 
-24.5 185.5 445 -0.5690879 0.5832027 -0.5796668 
-18.5 181.5 435.5 -0.3972801 -0.3443153 -0.8506559 
-27 185.5 447 -0.5538696 0.5836209 -0.593814 
-23 181.6667 439.3333 -0.5373634 -0.1239811 -0.8341877 
-24.66667 181.6667 441 -0.5640083 0.06926668 -0.8228589 
-20.5 177.3333 441.3333 -0.06512585 -0.8420732 -0.535417 
-22.5 177 443.5 -0.03898302 -0.8041369 -0.5931646 
-16.5 177 445 -0.05743926 -0.8748135 -0.4810428 
-42.25 173.75 451.75 -0.451915 -0.3549551 -0.8184007 
-44.75 173.25 453.25 -0.5454923 -0.2403144 -0.8029242 
-47 173.5 455 -0.5678334 -0.1199179 -0.8143618 
-124.5 121 537 0.03226741 -0.8929484 -0.4490011 
-126.5 117 543.5 -0.007883416 -0.8839422 -0.4675297 
-22.66667 101.3333 488 0.5040411 0.2837863 -0.8157254 
-136.5 113.5 549.5 0.05257913 -0.8598155 -0.5078905 
-138.5 113 551 0.02853722 -0.8577529 -0.5132696 
-24.5 97.5 485.5 0.4321955 0.275254 -0.8587446 
-26.4 93.4 483.6 0.2545609 0.3198823 -0.9126194 
-188.3333 113 593.6667 -0.01617114 -0.8267908 -0.5622771 
-134.25 105.75 563.5 0.001193076 -0.8361989 -0.5484251 
-128.6 105.4 565.2 0.03084092 -0.8130869 -0.5813249 
-37 89 481 0.5657738 0.3443445 -0.7492176 
-28.5 85 478 -0.04472356 0.5524825 -0.8323238 
-30.66667 85.66666 479 -0.2222787 0.5717536 -0.7897404 
-136.3333 101.6667 569.6667 -0.03905626 -0.8777487 -0.4775269 
-138.5 101 571 -0.1345863 -0.896697 -0.4216885 
-60 89.5 506 -0.8636926 0.2570185 -0.4335628 
-168.5 105 605 -0.09386723 -0.8593149 -0.5027593 
-170.5 105 607 -0.113042 -0.9123625 -0.3934669 
-124.3333 97.33334 577.6667 -0.04106417 -0.8382686 -0.543709 
-127 97 579 -0.04708246 -0.8399144 -0.5406728 
-63 85.5 511 -0.9136549 0.182042 -0.3634495 
-64 85 514 -0.9275631 0.1559122 -0.3395851 
-20.5 77.5 477.25 0.4571149 0.3488565 -0.8181352 
-126.3333 93.66666 583.3333 -0.0830583 -0.8441061 -0.5297039 
-112.5 93 585 0.006580636 -0.8281018 -0.560539 
-147 97 623 -0.3624787 -0.9279428 -0.08678434 
-138.5 125 531 0.009628776 -0.8416674 -0.5399104 
-136.5 125.5 529.5 0.002363062 -0.8388028 -0.5444302 
-16.2 121.6 501.4 0.6822141 0.2654568 -0.681261 
-20.5 121.5 498 0.4932008 0.3353022 -0.8026989 
-44 129 498 -0.5274137 0.4618927 -0.7130848 
-36.5 133.5 502 -0.002689102 0.5152248 -0.8570508 
-46 137 508 -0.4905499 -0.03438083 -0.8707347 
-35 137.5 503 -0.2492244 0.1925375 -0.9491136 
-32.66667 137.3333 502 -0.2508867 0.06595045 -0.9657673 
3.5 141 501 0.005353875 -0.8136961 -0.5812657 
5.6 141.6 499.6 0.01228678 -0.7892545 -0.6139433 
29 145 495 -0.01791548 -0.8412728 -0.5403139 
31.5 145 493 -0.0578732 -0.8516845 -0.5208495 
25.5 149 487.5 -0.01046443 -0.852387 -0.5228068 
27.5 153 481 -0.01289109 -0.8711503 -0.4908472 
37.4 153.4 479.6 0.4320391 -0.5184517 -0.7379364 
39 157.5 481.5 0.8268542 0.112495 -0.551051 
29.5 157 475 0.1353702 -0.7384001 -0.6606362 
31.5 157.5 473.5 0.3601161 -0.5897031 -0.7228878 
39.5 161.5 485.5 0.8182623 0.2399268 -0.522381 
17.5 161.6667 467.6667 -0.01791381 -0.8566063 -0.5156596 
25.5 169.5 467.5 0.821088 0.2413402 -0.5172713 
-59 169 463 -0.326238 -0.2957449 -0.8978328 
-56.5 169 461 -0.304315 -0.5157178 -0.8008918 
-20.6 181.6 437.4 -0.4995591 -0.2465731 -0.8304471 
-128.5 117 545.5 -0.03133378 -0.8846483 -0.4652049 
-30.5 97.5 483.75 -0.1688964 0.3286834 -0.9292155 
-20.33333 97.66666 489 0.5539708 0.3010235 -0.7762096 
-134 109 559 0.04348308 -0.8784778 -0.4758004 
-16.25 93.75 489.25 0.611183 0.3643799 -0.7026256 
-140.5 101 573.5 -0.247478 -0.911294 -0.3290862 
-142 101 575 -0.3456043 -0.9005526 -0.2637475 
-18.33333 81.66666 479 0.5143225 0.3255711 -0.7933952 
-61 77 502 -0.8986171 0.2015556 -0.3896956 
-17 117 498 0.6268819 0.2922457 -0.7222269 
45 157 492 0.790431 0.2837199 -0.542883 
46 161.5 495 0.7148424 -0.08076587 -0.6946058 
43 161 490 0.794881 0.1249614 -0.5937583 
29 169 472 0.8220679 0.2992887 -0.4843868 
13.5 139 505 -0.05154254 -0.8452283 -0.5319141 
3.666667 139.3333 503 0.007038591 -0.8589837 -0.5119546 
1.5 139.5 501.75 -0.02284517 -0.8457614 -0.533072 
-40.5 199.6667 447.6667 0.009890809 -0.8585042 -0.5127112 
-28 191.5 452 -0.5610502 -0.02603413 -0.8273723 
-36 183 452 -0.5438801 0.614375 -0.5716099 
-44 183 460 -0.5060847 0.4186148 -0.7540823 
-18.5 175.5 445.5 -0.008519157 -0.8659793 -0.5000073 
-44 175 452 -0.5799432 -0.05757233 -0.81262 
-122.6667 119 541.3333 0.002028463 -0.8740529 -0.4858266 
-134.6 111.8 553.4 0.05824122 -0.8631713 -0.501541 
-132.3333 111.3333 555.6667 0.07514164 -0.8743387 -0.4794638 
-63 103 521 -0.9272705 0.09360706 -0.3625012 
-28.5 95.5 483.75 0.07085669 0.3038867 -0.9500695 
-38 87 481.5 0.6032961 0.3757297 -0.7034636 
-142.5 103.5 569.5 -0.2471977 -0.8905473 -0.3818624 
-36.5 87.5 483.25 0.3463397 0.4019877 -0.847617 
-61 87.5 507 -0.8849316 0.2286435 -0.4057318 
-16.66667 79.33334 479.6667 0.629502 0.2939014 -0.71927 
-60 79 500 -0.876214 0.2251765 -0.4260805 
-45 127.5 499 -0.6201038 0.371279 -0.691103 
-34.33333 135.3333 502 -0.1679678 0.3554812 -0.9194672 
3.5 143 499 0.02020398 -0.7975267 -0.6029453 
1.6 143.6 497.6 0.01927846 -0.8070161 -0.5902147 
31.5 143 496 -0.01658303 -0.8621406 -0.5063977 
29.5 151 485 -0.05850086 -0.8609139 -0.5053759 
