ply
format ascii 1.0
comment VCGLIB generated
element vertex 960
property float x
property float y
property float z
property float nx
property float ny
property float nz
element face 0
property list uchar int vertex_indices
end_header
13.5 154 487 0.02921563 -0.6622731 -0.7486927 
19.625 155.25 486.5 0.02735301 -0.3487705 -0.936809 
13.5 156 485 0.1046824 -0.3746759 -0.9212272 
15.57143 157.4286 484.7143 0.1973494 -0.1094804 -0.9742008 
75.4 163.4 502.6 0.1362748 -0.4323265 -0.8913603 
18 158 486 0.1772312 0.151774 -0.9723959 
11 159 483 0.1628296 0.1072588 -0.9808069 
21.5 160 488 0.2293698 0.5183992 -0.8238033 
23.66667 161 489 0.2291105 0.5847471 -0.7781897 
9.333333 160 484 0.1904099 0.18214 -0.9646601 
11 161 485 0.2039422 0.4009486 -0.8931113 
81.5 167.3333 500.8333 0.08930499 -0.657997 -0.7477062 
83.33334 169 500 0.02738947 -0.7482889 -0.6628075 
81.66666 169.6667 498.4445 0.03549939 -0.8109567 -0.5840283 
-19 163 477 0.1952923 0.04323743 -0.9797915 
88 170 496.6667 -0.07611336 -0.8756647 -0.4768836 
73.4 171 496.6 0.003438947 -0.8043972 -0.594082 
75.33334 172 494.5 0.0002370905 -0.8462178 -0.5328371 
-24.6 167.6 478.4 0.2522697 0.42376 -0.8699353 
-26.33333 169 479 0.2484246 0.4316674 -0.8671497 
-24.33333 169.6667 480 0.2271212 0.3675392 -0.9018486 
-36.5 171.5 478.5 0.2089242 0.3698283 -0.9053053 
-38.14286 173.7143 478 0.1346194 0.1621685 -0.9775372 
-32.33333 175.3333 479 0.1961985 -0.08469991 -0.9768993 
-34.66667 177.6667 478.8889 0.148387 -0.2047881 -0.9674932 
-8.666667 179.5 482 0.1076738 -0.665225 -0.7388384 
-14.66667 179.6667 480.2222 0.108391 -0.6314321 -0.7678182 
-12.5 181.1667 480.3333 0.09606795 -0.7017842 -0.7058824 
-35 180 477 0.09022358 -0.4001904 -0.9119799 
-32.5 181.3333 476.8333 0.06286235 -0.5292915 -0.8461081 
-14.66667 181.5 478.5 0.07197354 -0.7117395 -0.6987466 
-8.25 183 478 0.06479434 -0.8358577 -0.5451089 
-38.33333 183 476 0.04598507 -0.5374681 -0.8420294 
-36.625 183.75 475 0.01871893 -0.6106539 -0.7916764 
-38.5 185 474 0.02348563 -0.6166166 -0.7869133 
-32.66667 186 472.5 -0.04454459 -0.7320766 -0.6797643 
-30.33333 187 472 -0.0370744 -0.7687595 -0.6384624 
14 194 460 -0.07786142 -0.8405002 -0.5361875 
-28.5 194 463 -0.1148893 -0.535481 -0.8366962 
-30.66667 193 464.5 -0.1364347 -0.6580377 -0.7405214 
-28.25 191.625 464.75 -0.05869088 -0.7301161 -0.6807979 
-26.5 191 466.5 -0.01634961 -0.7434182 -0.6686271 
-28.33333 190 467 -0.05591455 -0.7598669 -0.6476697 
-30.57143 189.4286 468.5714 -0.07141436 -0.7561474 -0.650493 
-32.33333 189 470 -0.08113788 -0.7555324 -0.6500673 
-28.66667 188 469 -0.04838447 -0.779364 -0.6247005 
-34.5 188 470.5 -0.06803232 -0.7499142 -0.6580276 
7.25 107.25 513 0.105912 0.3979224 -0.9112851 
-6.5 105.6667 512.6667 -0.1229166 0.4319798 -0.8934679 
-6.5 103 511 -0.1256413 0.4551971 -0.8814817 
-0.5 101.6667 510 0.05408438 0.4202168 -0.9058105 
-12.33333 98 510 -0.1179215 0.483325 -0.8674627 
-26.66667 89 509 -0.3385855 0.491147 -0.8025799 
-25 88 508 -0.3455309 0.4856631 -0.8029569 
-96.5 98 570.5 -0.0544858 -0.8911678 -0.4503903 
-98.5 97 572 -0.09878708 -0.9004771 -0.4235353 
-28 85 507 -0.3350513 0.4460169 -0.8299456 
-30.66667 85.5 508.1667 -0.3404677 0.4487037 -0.8262849 
-78.5 96 574 -0.1573464 -0.8589264 -0.487327 
-24.5 83.33334 504.6667 -0.3663819 0.4510884 -0.8138081 
-30.5 83 507 -0.3408612 0.4230947 -0.8395264 
-72.5 94 575 -0.0308267 -0.8842196 -0.4660532 
-8.5 81.5 498.25 -0.07555673 0.5404834 -0.8379552 
-74.5 93 577 -0.09702146 -0.9124207 -0.3975869 
-10.66667 80 498 -0.1268328 0.4930792 -0.8606895 
-20.33333 81.33334 502 -0.3852251 0.4378552 -0.8123327 
-78.5 93 580 -0.1393092 -0.9221034 -0.3609962 
-12.5 79 497 -0.1599101 0.4938782 -0.8547007 
-76.5 92 581 -0.1215934 -0.9329984 -0.3387169 
-82 92 582 -0.1267404 -0.9325103 -0.3381739 
-22.66667 79.66666 502 -0.3456578 0.4882252 -0.801347 
-81 92 584 -0.121957 -0.9440681 -0.3063689 
-86 92 586 -0.1259499 -0.9678176 -0.2178666 
-84.5 91.5 588.5 -0.1442886 -0.981091 -0.1290013 
-8.5 76 496 -0.1281304 0.5363995 -0.8341812 
-10.625 77.375 497 -0.137712 0.5118699 -0.8479532 
-72.5 90 586 -0.08045044 -0.9638262 -0.2541 
-74 90 589 -0.09690516 -0.9830609 -0.1555658 
-10.5 75 495 -0.1494318 0.5401979 -0.8281645 
-68.5 89 590.5 -0.168385 -0.9719215 -0.1643629 
-71 89 592 -0.1323757 -0.9845983 -0.1142061 
-65 88 596 -0.2434853 -0.9661014 -0.08580863 
-22.5 73 497 -0.3512896 0.5393505 -0.7653083 
-63 87 598 -0.2519723 -0.9651371 -0.07085458 
-20.66667 72 496 -0.3308865 0.5256414 -0.7837189 
-22 71 495 -0.3277591 0.5248955 -0.7855309 
-42.33333 -6.666667 461 -0.6660382 0.2476959 -0.7035908 
-40 -6.666667 458.5 -0.5989429 0.2724275 -0.7530277 
-41 -8 460 -0.6713394 0.1264026 -0.7302917 
-40 -32 485 -0.5376683 -0.7953198 -0.2799627 
-40 -31 483 -0.5480875 -0.7765411 -0.3107799 
-43 -30 485 -0.6150614 -0.7326869 -0.2913236 
-46 35 507 -0.9163153 0.141112 -0.3747715 
-46 37.5 508 -0.9124241 0.09729876 -0.3975113 
-45 38 506 -0.9030446 0.1035677 -0.4168744 
-44 39.5 504 -0.8767916 0.1261234 -0.4640361 
-44 41 503 -0.8459567 0.1645943 -0.507214 
-48 55 517 -0.8774208 0.2117507 -0.4304583 
-48.5 59 520.5 -0.9078754 0.1378229 -0.3959383 
-46 61.5 517 -0.9329542 0.04746887 -0.3568518 
-49 63.5 524 -0.9069202 0.1007144 -0.4090872 
-50 65.5 525 -0.9153037 0.08848935 -0.3929233 
-48 65.5 523 -0.9270202 0.05233166 -0.3713421 
-45 65.33334 510 -0.9457171 0.003209719 -0.3249752 
5.5 109 513 0.06927796 0.398842 -0.9143991 
3.5 110 514 0.04092347 0.4260583 -0.9037696 
5.5 111.5 515 0.06470697 0.4184811 -0.9059176 
-34.66667 115.6667 526.6667 -0.4204526 0.6263325 -0.6564506 
5.6 113.8 516 0.07164809 0.4880701 -0.8698587 
7 113 515 0.08747964 0.447631 -0.8899291 
-38.5 118 532.5 -0.4469209 0.5582134 -0.6990419 
-36.5 117.5 530.5 -0.4276458 0.7028186 -0.5684761 
-34.5 117 528.5 -0.406503 0.6888992 -0.6001443 
-32.25 117.25 526.5 -0.3877331 0.6795248 -0.6228236 
11.5 115 517 0.1880288 0.4789484 -0.8574693 
-34.5 119 531 -0.3787261 0.6549302 -0.6539365 
19 117 522 0.5738063 0.5579702 -0.5995128 
-33 120 532 -0.4041242 0.6172033 -0.6750879 
9 117 517 0.1204951 0.5760913 -0.8084552 
-38.33333 123 538 0.01999905 -0.8322491 -0.5540411 
-32.66667 123.6667 536.3333 -0.3427805 0.6635248 -0.6650085 
-28 123 533 -0.3506309 0.6210428 -0.7009736 
-35 124 534 0.05697343 -0.8901964 -0.4520005 
-32.5 125 534.5 0.05743537 -0.8406754 -0.5384849 
-144.6667 131 560.6667 -0.3540532 -0.8159972 -0.4569408 
-148 132 564 -0.4861203 -0.7894774 -0.3747165 
-30.5 126 533 -0.01218724 -0.8643101 -0.5028116 
-147 133 561 -0.406429 -0.8319029 -0.3778267 
-146 132 559 -0.3151139 -0.8541328 -0.4137155 
-28 126 531 -0.06113497 -0.8428218 -0.5347092 
-26.5 127 530.5 -1.160128e-05 -0.8645124 -0.5026116 
-30.66667 127.6667 526.3333 0.07196491 -0.9390489 -0.3361669 
-28.5 127 528 0.04690251 -0.8937054 -0.446196 
15.5 128 524.5 -0.04819304 -0.8198505 -0.5705459 
13 129 524 -0.0447937 -0.8591579 -0.5097463 
15.5 129 522.5 -0.06712304 -0.8743086 -0.4807068 
9.5 130 520.5 -0.09739786 -0.8996876 -0.4255301 
27.25 131.75 516.5 -0.07025521 -0.8457903 -0.5288696 
25 133 516 -0.01908638 -0.851958 -0.523262 
26 132 515 -0.04581955 -0.8517067 -0.5220118 
27.4 133.4 514.6 -0.0530438 -0.827607 -0.5587961 
29.5 134 513 -0.07519523 -0.8110685 -0.5800978 
27.5 135 512 -0.04152557 -0.8094435 -0.5857277 
25.5 135.75 510.25 -0.04931619 -0.7891734 -0.6121873 
55.6 135 508.4 0.003469202 -0.8584886 -0.5128208 
27.5 137 510 -0.06141276 -0.8088318 -0.5848246 
53.5 136 507 -0.01664853 -0.8481377 -0.5295144 
49.66667 137.3333 504.3333 -0.09862998 -0.7991524 -0.5929819 
47 139 504 -0.09815817 -0.7916644 -0.6030194 
45.4 140 502.6 -0.05607393 -0.7712635 -0.6340414 
51.5 140 500.75 -0.0808877 -0.7625404 -0.641864 
49.5 141.3333 500.5 -0.09396769 -0.7628442 -0.6397178 
51.5 142 499 -0.07382253 -0.7701089 -0.6336265 
53.5 143 498 -0.03216923 -0.786596 -0.6166295 
51.5 143.5 497 -0.09941095 -0.7976086 -0.5949269 
49.66667 145 496 -0.06851864 -0.8174543 -0.5719036 
51.6 145.6 494.4 -0.0524765 -0.8167217 -0.5746407 
29.375 147.5 494.625 -0.08628356 -0.7898804 -0.6071607 
17.33333 149.5 492.5 -0.09190658 -0.8372233 -0.5390829 
19.5 150 491 -0.03613024 -0.8003819 -0.5984007 
21.5 151.5 490 -0.02849586 -0.7763164 -0.6296991 
19.66667 152 489 -0.04045469 -0.7356095 -0.6761969 
17.5 153 488.5 -0.02293413 -0.6985808 -0.7151635 
19.66667 154 487 -0.03493531 -0.5468625 -0.8364932 
13.5 155.3333 486.3333 0.08105216 -0.5197095 -0.8504897 
19.5 155.75 485 0.04226329 -0.2462526 -0.9682838 
17.33333 157.3333 485 0.1371803 -0.02568814 -0.990213 
87.33334 163.5 504 0.04141581 -0.4799046 -0.8763427 
35.5 161.5 494 0.2212138 0.420707 -0.8798126 
86 164 503 0.0398014 -0.5396228 -0.8409656 
85 165 504 0.05645246 -0.5431164 -0.8377576 
87.5 165.6667 502.8333 0.005625551 -0.6169391 -0.7869908 
73.4 165.6 500.4 0.0819673 -0.5313033 -0.8432071 
11.8 161.6 486.2 0.222849 0.4563886 -0.861422 
79.55556 167.3333 500.6667 0.1163897 -0.6338386 -0.7646581 
77.5 168 499 0.08158178 -0.6744131 -0.7338333 
78 169 500 0.07098119 -0.6833194 -0.7266611 
79.5 169.6667 498.6667 0.06135595 -0.7779962 -0.6252658 
87.5 171 496.5 -0.09028246 -0.872813 -0.4796317 
85.6 172 494.4 -0.0909517 -0.878723 -0.4685869 
-24.5 171.6667 481 0.2509488 0.1167535 -0.9609336 
-26.375 173.625 480.25 0.1917068 -0.00923958 -0.9814088 
-31 175.3333 479 0.1935109 -0.1192807 -0.9738201 
-28.66667 175.5 480 0.1711744 -0.1711547 -0.9702605 
-30 177 480 0.1418628 -0.259299 -0.9553214 
-28.5 177.8333 479 0.1181672 -0.3341886 -0.9350692 
-16.5 179.6667 480 0.114922 -0.5998277 -0.7918331 
-19 180 479 0.1378057 -0.5915259 -0.7944222 
-30.71428 181.4286 477 0.05999599 -0.547566 -0.8346089 
-16.5 181.5 478.75 0.07570589 -0.6899043 -0.719931 
-24.5 183 476.5 0.04525112 -0.6974898 -0.7151645 
-26.66667 184 474.8333 0.02288583 -0.7301805 -0.6828709 
-24.33333 185 474 -0.006511459 -0.7809449 -0.624566 
-30.25 185.625 472.5 -0.03090472 -0.7517523 -0.658721 
-32.8 187.4 472 -0.05880875 -0.7507735 -0.6579368 
15.33333 194 460.5 -0.03994479 -0.8495082 -0.5260612 
-30.33333 194 463 -0.1558186 -0.4970586 -0.8536119 
-28.66667 193 464.3333 -0.09308448 -0.6952226 -0.7127419 
-30.5 191.5 465 -0.1012522 -0.7153563 -0.6913851 
-24.625 191.375 466.5 0.006851749 -0.7459522 -0.6659643 
-30 190 467 -0.07467857 -0.7631698 -0.6418683 
-28.66667 189.3333 468.6667 -0.05767399 -0.7657142 -0.64059 
-34.66667 189 470 -0.05503363 -0.7513129 -0.6576476 
-30.5 188 469 -0.06614441 -0.7681888 -0.6367974 
-32.42857 187.8571 470.4286 -0.07528946 -0.7558625 -0.6503871 
5.5 107.5 512.75 0.072585 0.3883864 -0.9186335 
-4.5 105.3333 512.1667 -0.0815054 0.4417959 -0.8934054 
-4.5 103 511 -0.07572926 0.4556834 -0.8869147 
-2.666667 102 510 0.006674067 0.4358133 -0.9000124 
-14 98 510 -0.1187787 0.4926923 -0.8620592 
-24.5 89.5 508.75 -0.3600553 0.4800601 -0.799939 
-24.33333 87.33334 507 -0.3503457 0.4677044 -0.8114866 
-26.33333 87.5 508 -0.3427793 0.481761 -0.8064792 
-98.5 98 571 -0.09584031 -0.8918613 -0.4420385 
-96.5 97 572 -0.04978709 -0.9057922 -0.420787 
-28.6 85.8 508 -0.3353008 0.4572795 -0.8236922 
-76.66666 95.33334 574.3333 -0.1498485 -0.8633131 -0.4819086 
-78.5 95 576 -0.155327 -0.8794423 -0.4499497 
-28.5 83.5 507 -0.3403815 0.439574 -0.831213 
-30.75 83.75 508 -0.3491112 0.4275655 -0.8338521 
-74.5 94 575 -0.09391401 -0.8897601 -0.446662 
-10.66667 81.5 498.6667 -0.1223075 0.513346 -0.8494214 
-72.5 93 576.5 -0.0476138 -0.9055732 -0.4215094 
-78.5 94 578 -0.1533914 -0.9056198 -0.3953782 
-8.5 80 498 -0.09491099 0.5104931 -0.8546278 
-22.4 81.6 502.8 -0.3651651 0.4510338 -0.814385 
-76.5 93 580 -0.1238886 -0.9261214 -0.3563017 
-14 79 497 -0.2077914 0.4878454 -0.8478382 
-21 80 502 -0.3652379 0.465496 -0.806173 
-78.5 92 581 -0.1334153 -0.9306691 -0.3406691 
-83 93 583 -0.1157146 -0.9381055 -0.3264481 
-15 78 498 -0.2541248 0.4985455 -0.828778 
-80 92 583 -0.1259446 -0.9405281 -0.3155074 
-82.5 92 584.5 -0.1356405 -0.9508013 -0.2785295 
-85 92 586 -0.1316276 -0.9674413 -0.2161751 
-8.5 77.5 496.75 -0.1236919 0.5322288 -0.8375158 
-74.5 90 587 -0.1041192 -0.9729033 -0.2064423 
-72.5 90 588 -0.09001373 -0.9786565 -0.1847406 
-8.5 75.5 495 -0.1306278 0.543204 -0.8293768 
-10.8 75.8 496 -0.1471755 0.5234601 -0.8392431 
-70 89 591 -0.1473489 -0.9795372 -0.1370955 
-67 89 594 -0.2107659 -0.9741405 -0.08141281 
-20.33333 73.33334 497 -0.3336861 0.5339047 -0.7769166 
-64 88 595 -0.2422972 -0.9656392 -0.09398464 
-62 87 601 -0.2479388 -0.966944 -0.05954491 
-20.33333 71.33334 495 -0.3126432 0.5163328 -0.7972796 
-22.8 71.6 496.6 -0.3564088 0.5310602 -0.7687314 
-19 70 494 -0.296709 0.5205791 -0.8006005 
-41 -6.666667 460 -0.6327668 0.3110399 -0.7091264 
-40.2 -8.6 458.4 -0.6209553 0.09503617 -0.7780634 
-42.5 -8.333333 460.6667 -0.6964413 0.05917108 -0.7151703 
-41 -31 485 -0.5861786 -0.758218 -0.2854822 
-42 -30 483 -0.5963483 -0.7422903 -0.3055713 
-46 35.5 508 -0.9210405 0.1196196 -0.3706419 
-45 36 506 -0.9142663 0.1347727 -0.3820388 
-43 37.66667 502 -0.8649693 0.1639666 -0.4742818 
-44 42 504 -0.823032 0.1874542 -0.536171 
-47 57.5 518 -0.8986674 0.1645768 -0.406585 
-46 59.33333 516 -0.9131294 0.07822568 -0.4000943 
-48 60 519 -0.9114954 0.1266791 -0.3913164 
-45 59 514 -0.9203473 0.03876609 -0.3891762 
-48 61.5 520 -0.9219986 0.08218919 -0.3783699 
-48 64 522 -0.9209608 0.07486989 -0.3823947 
-45 63.5 510.5 -0.9565723 -0.06063028 -0.28512 
7 109 513 0.1013064 0.4023015 -0.9098849 
1.666667 110 514 0.01577366 0.4272938 -0.9039752 
7.333333 111.5 515 0.1143805 0.415038 -0.9025856 
5 113 515 0.05286133 0.4378928 -0.8974718 
7.5 113.8333 516 0.100994 0.4791455 -0.8719059 
-38.5 117 530.5 -0.4674708 0.6596925 -0.5884531 
-33 116 526 -0.4055633 0.6459585 -0.6467273 
20 116 523 0.6414353 0.5276837 -0.5568758 
-33 118 528 -0.3786504 0.709451 -0.5943931 
9.5 115 517 0.1357991 0.4933786 -0.8591486 
17.75 117.5 522.25 0.5163803 0.5934182 -0.6174191 
19.66667 117.6667 524.3333 0.6188494 0.556875 -0.5539997 
-35 120 532.5 -0.3812905 0.5870482 -0.7141372 
-32.5 119.5 530.5 -0.4020264 0.6070373 -0.6854783 
-37 123 538 0.1743228 -0.943828 -0.2807139 
-32 122 533 -0.325398 0.6177582 -0.7158849 
-34.5 123.5 536.25 -0.3146316 0.8731392 -0.3723371 
-32 123 535 -0.3463948 0.5698072 -0.7452049 
-34.5 125 535 0.01564643 -0.888086 -0.459411 
9 123 525 0.003255953 0.6635826 -0.7480959 
-146 132 561 -0.408219 -0.8265707 -0.3874765 
-144.3333 131.6667 558.6667 -0.3180318 -0.8390296 -0.441458 
-28.6 126 532.6 -0.07727765 -0.8461138 -0.5273704 
-149 133 564 -0.5168434 -0.7821137 -0.3480963 
-30.5 126 531 -0.01496407 -0.8859292 -0.4635792 
-146 133 558 -0.328706 -0.8600057 -0.3903109 
-30.5 127 528.5 0.01118767 -0.9236822 -0.3829963 
-24.5 127 531 0.03526513 -0.8482603 -0.528404 
-28.5 128 526 0.08302175 -0.932685 -0.3510074 
13.33333 128 525 -0.08596848 -0.8200288 -0.5658288 
13.4 129 522.4 -0.0583508 -0.8794084 -0.4724788 
11.5 130 520.5 -0.07266115 -0.8976318 -0.4347155 
25.66667 131.6667 516.6667 -0.02683549 -0.8417997 -0.5391226 
27 132 515 -0.06611008 -0.848397 -0.5252161 
28 133 516 -0.07016931 -0.845435 -0.5294487 
25.6 133.6 514.4 -0.044175 -0.830886 -0.5546865 
31.4 133.6 513 -0.103783 -0.8030026 -0.5868697 
25.6 135.4 512.2 -0.04428325 -0.8097894 -0.5850471 
27.5 135.5 510.5 -0.03731947 -0.80331 -0.5943907 
53.4 135 508.6 -0.01006794 -0.8576568 -0.514124 
25.2 137.4 510 -0.05273138 -0.7975386 -0.6009589 
55.5 136 506.5 0.03438912 -0.8383566 -0.5440363 
51.5 137.6667 504.6667 -0.06863847 -0.8085276 -0.5844415 
45.5 139 504.5 -0.06140244 -0.8018726 -0.5943318 
47.6 139.8 502.6 -0.08778752 -0.7697509 -0.6322793 
49.5 140 501 -0.1099336 -0.7578056 -0.6431527 
51.71429 141.2857 500.2857 -0.07372236 -0.769511 -0.6343642 
49.5 142 499 -0.08708454 -0.7730314 -0.628362 
49.66667 143.5 497 -0.0881812 -0.8038718 -0.5882297 
51.5 145 496 -0.06847049 -0.8191 -0.5695498 
49.28571 145.5714 494.4286 -0.06520668 -0.8316154 -0.5515106 
31.5 147.6667 494.6667 -0.1081832 -0.7834983 -0.6119042 
19.5 149 493 -0.08863938 -0.815965 -0.5712653 
17.33333 150 491 -0.07524748 -0.8104541 -0.5809492 
23.66667 151.5 490.5 -0.04078147 -0.7802658 -0.6241171 
19.66667 153 488.3333 -0.002275516 -0.6518891 -0.7583109 
17.5 154 487 0.009566855 -0.5758657 -0.8174883 
15.66667 155.3333 486.4445 0.03474523 -0.4407915 -0.8969368 
17.5 156 485 0.0831961 -0.2357264 -0.9682518 
19.33333 157 485 0.1064147 -0.009784051 -0.9942737 
85.4 163.6 504 0.05242164 -0.4771131 -0.8772771 
34 161 494 0.207125 0.4503298 -0.8685058 
73.33334 164 501 0.1194116 -0.4715661 -0.8737084 
87.5 164 503 0.006013033 -0.5729807 -0.8195468 
85.75 165.75 503 0.0349603 -0.6036669 -0.7964697 
75.6 165.6 501 0.1107657 -0.5301533 -0.8406358 
10 162 486 0.2300281 0.4622381 -0.8564013 
77.5 167.3333 500.6667 0.1067189 -0.5997983 -0.7930026 
83.66666 167.3333 502 0.05388239 -0.639035 -0.767288 
79.5 169 500 0.09047472 -0.6876917 -0.7203433 
77.66666 169.6667 498.4445 0.05580206 -0.7489222 -0.6603042 
85.4 171 496.6 -0.0797267 -0.8647822 -0.4957776 
87.25 171.25 494.5 -0.1041403 -0.8761868 -0.4705863 
-26.25 171.75 480.625 0.2288225 0.1544145 -0.9611433 
-24.5 173.5 481 0.2286095 0.003740109 -0.973511 
-30 175.5 480 0.17333 -0.1384926 -0.9750777 
-29 177.2 480 0.1433718 -0.2864955 -0.9472935 
-28 176 479 0.1497822 -0.2522066 -0.9560111 
-30.5 177.6667 479 0.1329351 -0.2924752 -0.9469882 
-18.57143 179.5714 480 0.1594318 -0.517997 -0.8403931 
-18.55556 181.3333 478.7778 0.09108038 -0.6614233 -0.744462 
-16.5 181 480 0.0879216 -0.6486242 -0.7560135 
-28.33333 182 477 0.05029989 -0.6022504 -0.796721 
-26.5 183 476.5 0.03146853 -0.67169 -0.7401637 
-24.33333 184 474.5 0.001990004 -0.7562062 -0.6543304 
-26.75 185.25 474 -0.001546976 -0.7639166 -0.6453133 
-28.5 185.3333 472.3333 -0.01655754 -0.7600601 -0.6496419 
-34.5 187.5 472 -0.06205417 -0.7412353 -0.6683709 
-26.71428 193.8571 463 -0.02918488 -0.6106212 -0.7913849 
-24.5 193 464.25 0.008136125 -0.7164267 -0.697615 
-31 193 466 -0.1240929 -0.6969389 -0.7063124 
-26.4 191.6 464.8 -0.01638058 -0.7451575 -0.6666873 
-28.33333 191 466.5 -0.04497756 -0.750216 -0.6596613 
-26.5 190 467 -0.02372313 -0.763831 -0.6449801 
-24.5 189.5 468.5 0.00146985 -0.770769 -0.6371131 
-26.5 188 469 -0.005054056 -0.7923579 -0.6100357 
-38.5 189 470.5 -0.03830952 -0.7440144 -0.6670644 
-36.4 187.6 471 -0.05419648 -0.7435665 -0.6664621 
7.5 108 514 0.1124576 0.4039901 -0.9078245 
1.666667 107.5 513 0.02268142 0.3917131 -0.9198078 
-0.5 105.3333 512 0.002456615 0.4221984 -0.9065001 
-0.5 103 511 0.03097983 0.4152336 -0.9091873 
-6.5 102 510 -0.1297787 0.4484866 -0.8843174 
-10.5 98 510 -0.124048 0.4839862 -0.8662387 
-28 89 509 -0.32645 0.4899502 -0.8083187 
-96 98 569 -0.04745637 -0.8888988 -0.4556391 
-30.33333 87 509 -0.3357565 0.4713859 -0.8155139 
-100.5 97 572.5 -0.1227699 -0.9012331 -0.4155795 
-26.28572 85.42857 506.7143 -0.3490771 0.4535152 -0.8200422 
-73 95 574 -0.05360132 -0.8700901 -0.4899695 
-19 82 502 -0.3681961 0.4470995 -0.8151893 
-14.5 81.5 499 -0.2387857 0.5135777 -0.8241477 
-76.5 93 577 -0.1164977 -0.9075029 -0.4035675 
-12.5 80 498 -0.1665839 0.4805617 -0.8609938 
-74.5 93 579 -0.09251212 -0.9249886 -0.3685615 
-86.5 93 582 -0.08958325 -0.9395754 -0.3304131 
-10.66667 79 497 -0.1377087 0.4972258 -0.8566229 
-74.5 92 580.5 -0.08091022 -0.9369547 -0.3399552 
-85 92 583 -0.121283 -0.9421394 -0.3125119 
-12.5 77.5 496.5 -0.1661221 0.5107304 -0.8435389 
-80.5 91 586 -0.1259531 -0.9657147 -0.2270043 
-83 91 588 -0.1522826 -0.9791816 -0.1342135 
-14.57143 75.57143 496 -0.2343402 0.5023144 -0.832325 
-66.5 89 590 -0.2038012 -0.9636272 -0.1728807 
-17 74 496 -0.2867157 0.5303122 -0.7978491 
-64 88 591 -0.242801 -0.9576111 -0.1550119 
-69 89 596 -0.1930656 -0.9786372 -0.07067525 
-18.5 73 495 -0.2948018 0.5258622 -0.7978477 
-22.66667 74 498 -0.3524213 0.5280603 -0.7726265 
-16.6 71.4 494.4 -0.2768045 0.520012 -0.8080636 
-22.6 69.4 495 -0.3382198 0.519282 -0.7848271 
-41 -11 460 -0.6931306 -0.1156291 -0.7114774 
-42.33333 -12.66667 461 -0.7261472 -0.2189669 -0.6517391 
-40 -12.6 458.6 -0.6291099 -0.2033901 -0.7502356 
-40.5 -30 480.5 -0.5662109 -0.7499692 -0.3419815 
-44 35 503 -0.8925839 0.1873994 -0.4100919 
-44.33333 37.33333 504.3333 -0.9004902 0.1359933 -0.4130657 
-46 39.5 509 -0.9093913 0.06134848 -0.4113926 
-45 39.33333 506 -0.8996021 0.08229227 -0.4288871 
-43 41.66667 502.3333 -0.7988115 0.2167025 -0.5611953 
-42 43.33333 500.6667 -0.6199715 0.408401 -0.6699581 
-40.5 45 501 -0.5726262 0.4189415 -0.7046895 
-48 51.5 514.5 -0.8676122 0.2493818 -0.4301832 
-48 54 516 -0.8758675 0.2275042 -0.4255562 
-50 59.66667 524 -0.9090616 0.1082562 -0.4023528 
-49 60 522 -0.9059347 0.1190396 -0.4063397 
-44 59 510 -0.9515702 -0.06447226 -0.3005953 
-45 61.33333 512.3333 -0.9441591 -0.05449216 -0.3249528 
-46 63.5 516.5 -0.9471164 -0.01755166 -0.3204098 
-46 65.5 514 -0.9580624 -0.04437419 -0.2831031 
3.5 109 513 0.04193364 0.404714 -0.9134814 
5.5 110 514 0.07658274 0.4156926 -0.9062752 
3.5 111.5 515 0.03218883 0.425899 -0.904198 
-38.5 115.5 528.5 -0.4703472 0.6340589 -0.6137938 
-36 115 527 -0.4403313 0.5911942 -0.6757202 
1.666667 113 515 0.01745391 0.4516571 -0.8920209 
21.66667 115.6667 524.6667 0.7287967 0.4568716 -0.5100234 
3.5 114 516 0.02992423 0.4906203 -0.8708596 
13 115 517 0.2568058 0.4893501 -0.8334191 
18 115.3333 520 0.5184655 0.5113651 -0.6853461 
-36 119 531 -0.3578988 0.5677648 -0.7413175 
-34 118 530 -0.3888294 0.6950281 -0.6047708 
18 120 524 0.5087195 0.5860886 -0.6306383 
-38.5 123.5 536.5 0.02774427 -0.8692284 -0.4936318 
-26.5 123.5 532.5 -0.3488139 0.6180875 -0.7044833 
-24.5 123 531 -0.2138274 0.6056909 -0.766431 
-146.5 131 564 -0.4689019 -0.7897267 -0.3955538 
-36.5 124 534 -0.004215672 -0.9106511 -0.413155 
-24.5 125.5 532.5 -0.02779465 -0.7778937 -0.6277809 
-26.5 126 531 -0.01546772 -0.8458074 -0.5332642 
-148.5 133.5 560 -0.4336338 -0.8207884 -0.3718444 
-28.33333 127 530 0.004162347 -0.8861082 -0.4634598 
-26.66667 127 528.3333 0.04319974 -0.8546255 -0.5174447 
-24.5 128 526.5 0.03128796 -0.9012508 -0.4321666 
11.5 129 524 -0.08354008 -0.8477581 -0.5237627 
9.5 129 522 -0.120092 -0.8522764 -0.5091199 
15.5 130 520.5 -0.05266276 -0.8789442 -0.4740083 
29.66667 131.6667 516.6667 -0.1031958 -0.840006 -0.5326731 
31.66667 132 515 -0.1168719 -0.8373566 -0.5340177 
29.5 133.5 514.5 -0.08494981 -0.8190876 -0.567344 
27.5 134 513 -0.05350708 -0.8109953 -0.5826009 
29.5 135 512 -0.08108209 -0.805406 -0.5871515 
31.5 135.5 510.5 -0.1073592 -0.8016642 -0.588055 
49.5 135 508.5 -0.05687481 -0.8374441 -0.5435556 
29.66667 137 510 -0.07599211 -0.8148859 -0.5746183 
51.33333 136 506.5 -0.04468774 -0.8415461 -0.5383339 
53.5 136 505 -0.02084049 -0.8259211 -0.5634005 
55.375 137.625 504.75 0.04143953 -0.8130642 -0.5806974 
41.33333 139 504.5 -0.04639656 -0.820986 -0.5690601 
43.6 140 502.4 -0.02101161 -0.8039081 -0.5943823 
53.5 140 501 -0.0365646 -0.7738118 -0.6323595 
55.66667 141 500.5 0.01342153 -0.7861742 -0.6178593 
53.5 142 498.5 -0.03392855 -0.7717041 -0.6350761 
51.33333 143 498 -0.09296072 -0.7800175 -0.6188142 
53.71429 143.4286 496.8571 -0.03668961 -0.7958182 -0.6044232 
55 144 495 -0.02413975 -0.8105745 -0.5851379 
56 145 496 -0.01612883 -0.8141746 -0.5803962 
53.4 145.4 494.6 -0.02321881 -0.8077417 -0.5890793 
25.66667 147 496 -0.06403498 -0.7978363 -0.5994638 
27.5 147.25 494.25 -0.07208199 -0.7921603 -0.6060416 
25.33333 149 494 -0.0559516 -0.8006223 -0.5965512 
23.5 149.5 492.5 -0.04546878 -0.8035434 -0.593507 
21.33333 150 491 -0.0194087 -0.8002437 -0.5993608 
19.66667 151.5 490 -0.03880928 -0.7710782 -0.6355568 
21.5 152 489 -0.02764821 -0.735659 -0.6767876 
23.6 153 488 -0.04269236 -0.6623766 -0.7479537 
21.5 154 487 -0.01365591 -0.5267512 -0.8499098 
11.66667 155.3333 486.3333 0.06000883 -0.5550324 -0.8296614 
21.5 155.5 485 0.02878135 -0.3280428 -0.9442243 
39.5 160 494 0.2293758 0.4821579 -0.8455238 
81.5 163.5 504 0.1142058 -0.4663222 -0.8772119 
37.4 161.6 494.6 0.2231362 0.3326773 -0.916262 
17 159 485 0.2282162 0.2843943 -0.9311484 
40 162 496 0.2070628 0.2270244 -0.9516223 
83 164 503 0.0889914 -0.5129242 -0.8538088 
15.5 160 486 0.2440696 0.3554583 -0.9022636 
81.44444 165.4444 502.3333 0.1123494 -0.5710172 -0.8132139 
13.33333 161.3333 486.3333 0.2626146 0.4872716 -0.8328264 
16 162 488 0.2387996 0.5344986 -0.8107318 
79 166 501 0.1413716 -0.5980045 -0.7889263 
73.6 167.4 500.2 0.06499537 -0.5635678 -0.8235089 
87.4 167.6 502.2 -0.01272669 -0.6889198 -0.7247258 
75 169 500 0.06244507 -0.6473501 -0.7596304 
75.5 168 499 0.05677757 -0.6557948 -0.7528012 
73.66666 169.6667 498.3333 0.03126659 -0.715776 -0.6976297 
81.5 171.1667 496.5 0.01925569 -0.8489617 -0.5281035 
83.5 172 494.5 -0.06041867 -0.8752592 -0.4798655 
81.66666 173 494 -0.02813622 -0.8698565 -0.4925017 
-30.5 171.5 480 0.2182143 0.2487941 -0.9436547 
-28.66667 173.6667 480 0.2142098 0.01318076 -0.9766988 
-30.66667 173.3333 479 0.2262883 0.1322083 -0.9650464 
-26.28572 175.4286 480.1429 0.1659114 -0.1860081 -0.9684392 
-24.5 177 480 0.1548001 -0.3540823 -0.9223138 
-26.6 177.8 479 0.1210466 -0.3636744 -0.923628 
-22 179 480 0.1710591 -0.4424355 -0.8803349 
-20.5 180 479 0.1473507 -0.5760952 -0.8039914 
-22.25 181.375 478.375 0.1142609 -0.6106139 -0.7836422 
-24.66667 182 477 0.07619601 -0.6472314 -0.758476 
-16.5 183 478 0.0529682 -0.7485885 -0.6609158 
-30.66667 183 476 0.04884231 -0.6348558 -0.7710854 
-28.5 184 474.5 0.01537273 -0.7090879 -0.7049525 
-30.5 185 474 -0.006892066 -0.7267005 -0.6869199 
-24.33333 185.6667 472.6667 -0.02555003 -0.7824409 -0.6222005 
-38.66667 187.3333 472.6667 -0.01648772 -0.7105801 -0.7034231 
11.5 193.5 462.5 -0.05710452 -0.8345968 -0.5478935 
9.6 193 464 -0.05701697 -0.8176318 -0.5729113 
11.5 192 465 -0.04314102 -0.8278095 -0.5593482 
13.33333 191 466.5 -0.02248845 -0.8171912 -0.5759278 
15.66667 191 468 -0.07448417 -0.8262126 -0.5584128 
9.666667 189.5 468.5 -0.02091572 -0.8035657 -0.5948485 
21.5 187.5 470.5 0.02217238 -0.8736403 -0.4860668 
-22.33333 109.3333 517 -0.1902501 0.4157732 -0.8893467 
-20.5 107.5 516.25 -0.2097514 0.3878311 -0.8975475 
-14.33333 105.3333 513 -0.1998247 0.4039375 -0.8926951 
-12.66667 103.5 512.3333 -0.1591323 0.4207248 -0.8931223 
-10.5 102 512 -0.1351479 0.4617189 -0.8766702 
-8.333333 101.5 510.3333 -0.1401164 0.4569816 -0.8783708 
-10.5 99.5 510 -0.1296473 0.4723633 -0.8718168 
-92.33334 105.6667 559 -0.01442254 -0.8341358 -0.5513706 
-94.5 105 560 -0.03208151 -0.8246375 -0.5647511 
-92 104 560 0.004571898 -0.8341128 -0.5515751 
17.5 93.5 509 0.4408967 0.3222438 -0.8377165 
-90.5 103.5 562.5 0.05615732 -0.8432837 -0.5345269 
-92.5 102 563 0.02986394 -0.8247855 -0.5646567 
-94.5 101 564 -0.03204338 -0.8258148 -0.5630304 
19.5 91.5 508.8333 0.6134024 0.2880711 -0.7353588 
-96.5 101 566 -0.09626304 -0.8399527 -0.5340534 
-98 100 567 -0.1171759 -0.8415964 -0.5272433 
15.625 89.5 506.75 0.3480208 0.3431844 -0.8724139 
-96.66666 99.33334 568 -0.07557838 -0.8673044 -0.4920071 
-102.6 99.2 570.6 -0.1178676 -0.8871092 -0.4462561 
11.33333 87.44444 504.4445 0.1812841 0.4296655 -0.8846037 
13.5 85.5 504 0.2511227 0.425972 -0.8691865 
13.33333 83.33334 503 0.2828085 0.4468663 -0.8487225 
-70 95 574 0.01339882 -0.8699425 -0.4929712 
15.42857 83.42857 504.1429 0.3610565 0.4086484 -0.8382391 
-64 94 575 -0.3070321 -0.8202474 -0.4826237 
-0.5 81.5 498.5 0.1147851 0.569563 -0.8138933 
-66.4 93.4 576.6 -0.1430759 -0.8907008 -0.4314875 
-68.33334 93 578 -0.03216677 -0.9103628 -0.412559 
-4.5 79.5 496.5 -0.03117557 0.5504995 -0.8342533 
-68.5 92 580 -0.07808063 -0.922665 -0.3776145 
-2.666667 78 496 0.0339066 0.5576026 -0.8294153 
-82 91 591 -0.1481256 -0.9850216 -0.08826808 
-86 92 595 -0.1490908 -0.9883189 -0.03158747 
-2.4 75.6 494.4 0.02318817 0.5835385 -0.8117544 
-64.5 89 586 -0.2497529 -0.9244755 -0.2880428 
-67 90 588 -0.1679655 -0.9603842 -0.2223731 
-76.5 90 591 -0.1202341 -0.9862034 -0.1137837 
-78.5 90 592.5 -0.1516775 -0.9850064 -0.08219703 
-98 93 609 -0.1286851 -0.9895941 -0.0643723 
-100.5 93 611 -0.1293016 -0.984165 -0.1212451 
-102.5 93 612.5 -0.1326631 -0.9801464 -0.1473552 
-73 90 594 -0.1315804 -0.9890647 -0.06661607 
3.5 74 494 0.1408217 0.5807726 -0.8017932 
-43 2 476 -0.5247284 0.7334915 -0.4320307 
-45 0 472 -0.3877593 0.8311555 -0.3985265 
-46 -1 471 -0.4569566 0.7811912 -0.4253599 
-44.2 -6.4 462.6 -0.6797021 0.2613539 -0.6853461 
-46.5 -6.5 464.5 -0.7084703 0.1846496 -0.6811568 
-45 -8.333333 464 -0.7211683 0.01868387 -0.6925078 
-52 -8.333333 473 -0.8564359 -0.2220172 -0.4660751 
-57 -10 478 -0.8003814 -0.306492 -0.5152208 
-50.5 -10.5 472.5 -0.8353179 -0.3328406 -0.4375628 
-52 -10.5 474.5 -0.7976429 -0.3362742 -0.5006849 
-49 -11 470.5 -0.8175812 -0.3193068 -0.4791703 
-52 -12 476 -0.7589387 -0.434075 -0.4853772 
-56 -12 481 -0.773531 -0.4239228 -0.4711044 
-43 -12 462 -0.7374677 -0.2252803 -0.6367025 
-46 -12.66667 466.6667 -0.7839819 -0.350398 -0.512439 
-49 -12.5 472.5 -0.811967 -0.4060513 -0.4193234 
-55 -14 480 -0.7343328 -0.4858735 -0.4740066 
-51 -17 482 -0.7271357 -0.5029468 -0.4672453 
-50 -18 481 -0.7409701 -0.5002371 -0.4480248 
-48.5 -18.5 478.5 -0.7455592 -0.5201728 -0.4166076 
-52.5 -18.5 483 -0.7153831 -0.5442796 -0.438163 
-48.5 -20.25 480.75 -0.7289876 -0.5394829 -0.4213494 
-44.5 -28.5 485 -0.645951 -0.6972156 -0.3108661 
-41 -29 480 -0.5805244 -0.7338052 -0.3528757 
-42 -28 479 -0.6129602 -0.6995254 -0.3673474 
-44.66667 -27 482.3333 -0.6760852 -0.6489796 -0.3489046 
-46 -27 484 -0.6897146 -0.6425079 -0.3338824 
-45 -24 481 -0.7267877 -0.5704789 -0.3825355 
-45 -23 479 -0.7380994 -0.5552592 -0.3832708 
-47 -22 480 -0.7308792 -0.5494409 -0.4048833 
-48.66667 21.66667 502.3333 -0.8882483 0.3257752 -0.3238605 
-45 24 496 -0.8782303 0.3204854 -0.3549657 
-44 25.5 494.5 -0.8657822 0.3312552 -0.3750883 
-44.5 33.5 502.5 -0.8875024 0.2543629 -0.3842382 
-16.5 111.5 516.5 -0.2675472 0.4078756 -0.8729582 
24 115.6667 528.6667 0.7796233 0.3682499 -0.5065368 
24 120 532 0.6017957 0.04028872 -0.7976333 
20 120 528 0.6068096 0.4436235 -0.6595304 
23 121 531 0.5325097 -0.1039468 -0.840017 
19 121 527 0.5285677 0.4966137 -0.6884701 
18 122 528 0.5431386 0.3633318 -0.7569614 
13.66667 123.6667 526.6667 0.201248 0.541315 -0.8163806 
15.5 124 529 0.2597019 0.3234219 -0.9099193 
13.71429 125.5714 528.8571 0.04459291 0.1319692 -0.9902503 
11.5 126 530 0.04587151 0.2173935 -0.9750056 
11.5 127 529 -0.05866564 -0.669045 -0.740903 
9.666667 128 526.3333 -0.08189701 -0.8256943 -0.5581412 
-26 129 524 0.07505187 -0.9311019 -0.3569544 
-30.42857 129.7143 520.7143 0.01492784 -0.859705 -0.5105726 
-24.66667 129.5 522.5 0.04626521 -0.9106371 -0.4106089 
83.5 131 516 -0.08689105 -0.8383269 -0.5381989 
81.4 131.4 514.6 -0.06683037 -0.8343129 -0.5472255 
87.8 131.8 512.8 -0.0719348 -0.8180526 -0.5706273 
85.5 133 512 -0.06976762 -0.8417918 -0.5352748 
87.5 133.5 510.5 -0.03760529 -0.8242711 -0.5649451 
63.5 135 508.5 0.02081904 -0.8392876 -0.5432889 
81 135 510 -0.06559072 -0.8332559 -0.5489832 
61.5 136 506.5 0.02099967 -0.8361436 -0.5481084 
57.57143 137.7143 504.5714 0.03621154 -0.8183606 -0.5735632 
63.66667 137 506 0.0189728 -0.8344922 -0.5506931 
69.66666 139.3333 502.3333 -0.02115748 -0.8200899 -0.5718435 
71 139 504 -0.009479494 -0.8322054 -0.5543866 
59 140 501 0.01163232 -0.789345 -0.6138398 
57.6 141.2 500.4 0.01564346 -0.7980483 -0.6023905 
59.33333 142 499 -0.00145143 -0.8077773 -0.589486 
61 143 498 -0.009193594 -0.8038613 -0.5947457 
59.5 144 496 -0.02315506 -0.7971839 -0.6032924 
57 144 495 -0.02146932 -0.8116964 -0.5836849 
57.5 145 496 -0.02346794 -0.8060553 -0.5913748 
59.66667 145.6667 494.1111 0.002277371 -0.7259589 -0.6877343 
85.5 147 495 0.1555173 0.1245485 -0.9799501 
87.66666 147.6667 496.6667 0.2179304 0.3256704 -0.9200246 
85 149 497 0.1668424 0.53595 -0.8275996 
83.5 150 498.5 0.1940799 0.6606767 -0.7251478 
-38.5 149.5 492.5 0.02807106 -0.7774457 -0.6283234 
87 152 501 0.2340685 0.7113838 -0.6626802 
-32.66667 151.3333 492.3333 0.01075222 -0.7814935 -0.6238208 
87.33334 155.3333 505 0.2369899 0.4170694 -0.8774332 
75.5 155 501 0.2394881 0.6516693 -0.7197032 
-32.75 153 490.75 0.008250331 -0.8206292 -0.5714015 
85.33334 157.6667 505 0.1693174 0.1503555 -0.9740251 
-38.71429 153.1429 488.4286 0.03410045 -0.8146079 -0.5790089 
85.33334 159.3333 506 0.1317282 -0.07450206 -0.9884822 
-36.5 154 487 0.01311517 -0.8485676 -0.5289244 
-26.66667 155 486 -0.04075814 -0.8091835 -0.5861406 
81.4 161.8 505 0.1278198 -0.3103884 -0.9419773 
87.5 161 506 0.06030424 -0.3060437 -0.9501057 
-36.6 155.6 484.4 0.00467858 -0.8512636 -0.5247175 
-38.5 157 484 -0.01358603 -0.8323168 -0.5541338 
-36.66667 157 482.5 0.006871695 -0.8303475 -0.5572036 
-34.5 158 480.5 0.01036501 -0.8179042 -0.5752611 
37.25 163.375 495 0.1971329 0.06914108 -0.9779357 
39.5 163.5 496 0.2251777 0.07065852 -0.9717523 
-36.5 159.25 480 -0.02786129 -0.7911831 -0.6109445 
15.57143 163.5714 488.7143 0.2396475 0.5223645 -0.8183547 
39.5 165.6667 494.8333 0.1858598 -0.1603497 -0.969404 
-38.66667 160 479 -0.02348459 -0.7855912 -0.6183001 
-37 161 478 -0.02634762 -0.7719798 -0.6351008 
12 166 490 0.2488253 0.3229587 -0.9131176 
33.33333 167.6667 494 0.07009068 -0.2010276 -0.9770748 
13.42857 167.4286 490.7143 0.2521341 0.04485417 -0.9666523 
35 169 494 0.07703044 -0.3510936 -0.9331665 
14 169 492 0.2354752 -0.1064093 -0.9660375 
9.2 169.6 489 0.2234565 -0.07151316 -0.972087 
16 170 491 0.1764631 -0.2486606 -0.9523805 
17.375 171.25 491 0.1244319 -0.4010382 -0.907571 
19.66667 173 490 0.04900172 -0.5361557 -0.8426956 
24 172 489 0.1091878 -0.5405729 -0.8341816 
21.6 173.6 489 0.02528674 -0.5827477 -0.8122597 
19.66667 175.3333 488.3333 0.04619085 -0.5869225 -0.8083245 
17.5 176 487 0.1211748 -0.6385136 -0.7600112 
19.375 177.25 486.375 0.04790156 -0.682318 -0.7294846 
13.5 178 484.75 0.1394875 -0.7005571 -0.6998307 
3.5 179.5 484 0.01890633 -0.7285775 -0.6847025 
1.285714 179.7143 482.5714 0.06181764 -0.7294035 -0.6812848 
7.8 180 480.6 -0.0240261 -0.7788556 -0.626743 
5.25 181.25 480.375 -0.01849218 -0.8207406 -0.5710018 
7.666667 181.8333 478.8333 0.001951171 -0.8025011 -0.5966474 
1.333333 183 478 -0.0361405 -0.8101876 -0.5850556 
15.5 184 476.5 0.03528253 -0.8154257 -0.5777856 
13 185.5 476 0.03037312 -0.8135241 -0.5807375 
14 184 475 0.02356564 -0.8126895 -0.5822202 
15.5 185.6667 474.6667 0.0109359 -0.8140723 -0.5806608 
9.5 186 473 0.0406165 -0.7886223 -0.613535 
23.28572 187.4286 472.5714 0.01245559 -0.8598128 -0.5104575 
15.44444 193.3333 462.3333 -0.03861736 -0.8553091 -0.516677 
13.33333 193 464 -0.04803603 -0.8332986 -0.5507323 
15.66667 191.5 465 -0.05016414 -0.8329561 -0.5510606 
9.666667 191 466.5 -0.03821754 -0.8034799 -0.5941039 
11.5 191 468 -0.01685541 -0.826249 -0.5630529 
13.33333 189.5 468.5 -0.02866875 -0.827184 -0.5611994 
17.33333 188 470.5 -0.0624512 -0.8393678 -0.5399643 
-18.625 109.625 516.625 -0.2648874 0.3776867 -0.8872358 
-18 107.75 515 -0.2676236 0.3826176 -0.8842972 
-10.5 105.5 513 -0.128302 0.4063133 -0.9046813 
-8.666667 103.6667 512 -0.1438831 0.4398098 -0.8864903 
-15 102 512 -0.165258 0.4759296 -0.8638176 
-12.75 101.25 511 -0.1505039 0.466307 -0.8717262 
-14.5 99.5 510 -0.1381776 0.4944007 -0.8581812 
-88.5 106 558 0.001571831 -0.8461856 -0.532886 
-90 105 560 0.01494964 -0.8462582 -0.5325631 
-88.5 104 561 0.03727356 -0.862857 -0.5040719 
-94.6 103.6 562.4 -0.03317164 -0.8187693 -0.5731636 
-90.66666 101 564.6667 0.08961011 -0.8442156 -0.5284601 
-100.5 101 566.5 -0.1260551 -0.8378005 -0.5312253 
11.33333 89.5 506 0.1724318 0.3834792 -0.9073098 
-100.5 99.5 568.5 -0.1178298 -0.8616384 -0.4936551 
-98.5 99 570 -0.1051176 -0.878445 -0.4661381 
15 87 505 0.3027206 0.3941225 -0.8677717 
16 86 506 0.3907698 0.3827949 -0.8371183 
11.33333 85.5 503 0.2058043 0.4639506 -0.8616232 
9.6 83.4 502.6 0.2089243 0.5119695 -0.8332094 
-66.33334 95.33334 574.3333 -0.09768918 -0.8493028 -0.5187887 
-69 94 575 -0.02478358 -0.878763 -0.4766145 
-4.5 81.5 498 -0.01470963 0.5586943 -0.8292432 
-70.5 93 577 -0.006594872 -0.9137135 -0.4063055 
-6.666667 80 498 -0.06361337 0.5256959 -0.8482908 
-65 93 578 -0.2707809 -0.8706498 -0.4106661 
-0.5 79 496.5 0.1066917 0.5635304 -0.8191766 
-64.5 91.5 580.5 -0.2984059 -0.8777267 -0.3748997 
-4.5 77 495 -0.04176604 0.5665397 -0.8229753 
-6.666667 77.5 496.3333 -0.09327977 0.5422735 -0.8350081 
-62.5 91 582 -0.3697403 -0.8696831 -0.3270219 
-86.5 92 590.5 -0.1381015 -0.9865629 -0.08730263 
-66.33334 90 585 -0.2125478 -0.9276614 -0.3070305 
-84 91 592 -0.1530265 -0.9851352 -0.07804817 
-100.5 93 606.5 -0.1436506 -0.988547 -0.04625326 
-102 93 608 -0.1447509 -0.9878055 -0.05733686 
-70.5 90 588 -0.1175075 -0.9724267 -0.2014406 
-6.714286 75.42857 494.4286 -0.1129956 0.5634066 -0.8184162 
-80 90 599 -0.1593097 -0.9868874 -0.02595652 
-96.5 92 613 -0.09012222 -0.9860495 -0.1399442 
7.5 73.5 494 0.2078607 0.5978858 -0.7741619 
24 73.5 510 0.8912748 0.1920309 -0.4107962 
-44 2 475 -0.4925265 0.7651933 -0.4146043 
-40.75 1.5 470.5 -0.4068727 0.7866316 -0.4643979 
-42.25 1.5 472.25 -0.4394486 0.7848849 -0.4368532 
-47 1 476 -0.4560022 0.8179058 -0.3508447 
-42.5 0 470 -0.3828468 0.8155203 -0.4339988 
-47 0 474 -0.4413321 0.8189194 -0.3668747 
-48.75 -4.5 468 -0.7255239 0.3806328 -0.5733532 
-51 -6 472 -0.8400827 0.05264784 -0.5398974 
-52 -6.5 474 -0.861136 -0.01227971 -0.5082263 
-57 -7 479 -0.8793293 -0.06228435 -0.4721235 
-47 -8.333333 466 -0.771934 -0.03225299 -0.634884 
-50.66667 -8.333333 470.6667 -0.8502781 -0.1414237 -0.5069777 
-53 -8.5 476 -0.8146975 -0.2477544 -0.5242956 
-56 -8.75 480.5 -0.8341393 -0.2386409 -0.4972546 
-46 -10.5 465 -0.7715334 -0.1941224 -0.6058487 
-56 -11 482 -0.773531 -0.4239228 -0.4711043 
-44 -10.66667 462.5 -0.747077 -0.1603154 -0.6451162 
-45 -12.33333 464.3333 -0.7703359 -0.2686929 -0.5782618 
-50.33333 -12.33333 474.3333 -0.7924129 -0.4055298 -0.4556615 
-53 -14.5 482.5 -0.7227214 -0.5117425 -0.4645358 
-54 -15 484 -0.7147301 -0.513276 -0.475088 
-50.5 -16 478.5 -0.7356306 -0.5140997 -0.4410772 
-52.66667 -16.66667 484.6667 -0.715795 -0.5244738 -0.4610474 
-54 -16.5 482.5 -0.7219313 -0.5104923 -0.4671326 
-52 -20 481 -0.726063 -0.5347052 -0.4323458 
-50.25 -20 483 -0.7237895 -0.5521587 -0.4138231 
-43 -29 483 -0.6339872 -0.7065441 -0.3144135 
-44 -26 478 -0.7222072 -0.5865094 -0.3666382 
-46 -24.5 482 -0.7152409 -0.5810951 -0.3882769 
-46 19.5 494.5 -0.8697381 0.3143879 -0.3804154 
-46 21.5 496 -0.8779839 0.3183781 -0.357463 
-46 24 499 -0.877959 0.3285115 -0.3482362 
-47 25 501 -0.8833416 0.3292537 -0.3336161 
-45 26 498 -0.8820335 0.3149808 -0.3504342 
-47 27 503 -0.8949751 0.3128179 -0.3180638 
-46 30 504 -0.9037871 0.2829951 -0.3210649 
-46 32 506 -0.9178467 0.2377754 -0.3178368 
-50 63.5 526 -0.9240199 0.08587909 -0.3725748 
-51 66 528 -0.9332728 0.08255839 -0.3495512 
-16 109 515 -0.2597217 0.3807399 -0.887458 
-32 116 525 -0.4100033 0.6358433 -0.6539118 
24 118 530 0.6983961 0.2847175 -0.6566421 
21 121 529 0.5680932 0.2759097 -0.7753348 
10 123 526 0.07136403 0.6268433 -0.7758703 
9.5 125 528 -0.05057773 0.5586113 -0.8278862 
16 125 530 0.1155673 -0.06691757 -0.991043 
15 127 528 -0.06019904 -0.6442563 -0.7624369 
13.66667 128 526.6667 -0.1288963 -0.8083134 -0.5744696 
-28.5 128 525 0.09106489 -0.9336499 -0.3464175 
-31 128 522.5 0.03226759 -0.9021494 -0.4302152 
-28.5 129 522.5 0.05979193 -0.8976982 -0.4365352 
-26.5 130 520.5 0.04470479 -0.881318 -0.4704043 
87.5 131 516 -0.09566696 -0.8256484 -0.5560148 
85.4 131.4 514.6 -0.1020413 -0.8354524 -0.5400063 
83.33334 132 513 -0.08348145 -0.852419 -0.5161519 
81.66666 133.3333 512.3333 -0.08803631 -0.8414903 -0.5330513 
83.5 133.5 510.5 -0.07905092 -0.8347883 -0.5448663 
59.66667 135 508.3333 0.03753788 -0.8470937 -0.5301163 
57.33333 136 506.3333 0.03912169 -0.8336953 -0.5508373 
61.5 137.6667 504.6667 0.01678412 -0.8233628 -0.5672672 
65.44444 139.3333 502.3333 -0.0005596277 -0.8133032 -0.5818399 
63.5 140 501 -0.00640176 -0.8121589 -0.5834011 
61.5 141 500.75 -0.001274894 -0.8122663 -0.5832854 
63.33333 142 498.5 -0.01122176 -0.816678 -0.5769845 
58 143 498 -0.01357423 -0.8026522 -0.5962929 
63.5 143.3333 496.6667 -0.01706111 -0.8046981 -0.5934392 
61.33333 144 495 -0.003837476 -0.7962507 -0.6049547 
63.625 145.75 494 0.008934599 -0.6494212 -0.7603765 
81.5 147 495 0.2169897 0.1673103 -0.961729 
84 148 496 0.1793516 0.358716 -0.9160545 
87.5 149 498 0.2182992 0.5978073 -0.7713442 
81.66666 149.6667 496.6667 0.2225821 0.5584826 -0.799096 
81.33334 151.3333 498.6667 0.2255714 0.6963643 -0.681318 
83.66666 151.6667 500.6667 0.202822 0.7134932 -0.6706644 
-34.5 150 493 0.04005009 -0.7749818 -0.6307133 
-36.5 151 492.25 0.0566815 -0.7862496 -0.6153038 
81.5 153 501 0.207714 0.7020326 -0.6811792 
-38.5 151.6667 490.6667 0.01625625 -0.785785 -0.6182861 
80 154 502 0.1998338 0.6597822 -0.724399 
82 155 503 0.2179815 0.5771388 -0.7870164 
83.5 155.75 504.25 0.197634 0.4704694 -0.8599997 
81.5 157.5 505 0.2325459 0.2251994 -0.9461541 
87.5 157.5 506 0.1884622 0.176921 -0.966013 
-34.6 154 488.4 0.00705373 -0.8338705 -0.5519151 
81.5 159.3333 506 0.1778888 0.05129156 -0.982713 
-30.6 155 486.4 -0.01736538 -0.838097 -0.5452448 
83.5 161 506 0.1072637 -0.165037 -0.9804373 
-32.33333 155.6667 484.6667 0.01600717 -0.8421014 -0.5390818 
85.5 162 505 0.06756483 -0.3230121 -0.94398 
-35 156 483 0.007091413 -0.8439497 -0.5363754 
-34 157 484 0.02018051 -0.8413358 -0.5401359 
-32.6 157 482.4 0.03829753 -0.8366471 -0.5464018 
-38.33333 158 480.6667 -0.02438188 -0.8063918 -0.5908789 
33.33333 163.5 494 0.2077722 0.2072082 -0.9559789 
-32.66667 159 480 0.02638383 -0.8036692 -0.5944912 
-34.6 160 478.4 -0.009389884 -0.7777226 -0.6285375 
35.57143 165.4286 494.1429 0.1438046 -0.08600754 -0.9858615 
9.25 163.25 486.5 0.217553 0.5389685 -0.8137467 
11.66667 163.6667 488.6667 0.2423994 0.5389893 -0.8066803 
-32.5 161 478 0.041845 -0.7008383 -0.7120919 
15.8 165.6 490 0.2524025 0.3392397 -0.9062061 
9.333333 165.5 488.3333 0.2407153 0.4299531 -0.8701704 
37.5 167.6667 494 0.1208589 -0.2828143 -0.95153 
40 169 494 0.1332972 -0.3838576 -0.9137205 
11.5 169.3333 490 0.2533258 -0.1127695 -0.9607857 
21.5 171.3333 490.6667 0.05834636 -0.4576347 -0.8872239 
24 171 492 0.1584159 -0.4927196 -0.855647 
23 173 490 0.08001982 -0.5440354 -0.8352379 
17.5 173.5 489 0.09118851 -0.5867726 -0.804601 
23.33333 175.5 488 0.04642645 -0.6120247 -0.7894748 
21.33333 175.3333 487 0.03418687 -0.6005377 -0.7988653 
11 176 485 0.08912479 -0.6580521 -0.7476792 
9.375 177.625 484.75 0.0178549 -0.6965917 -0.7172456 
23.33333 177.6667 486.6667 0.01330714 -0.708519 -0.7055663 
11.66667 178 483 0.09148308 -0.740182 -0.6661543 
5.333333 180 482.5 -0.02642871 -0.7704407 -0.6369637 
1.428571 181.4286 480.1429 -0.01898488 -0.7909899 -0.6115347 
3.5 182 479 -0.03460244 -0.8151879 -0.5781622 
5 183 478 -0.03257279 -0.8113906 -0.5835961 
11.33333 184 476.5 0.04502573 -0.7968834 -0.6024529 
9.5 184 475 0.03793094 -0.8027555 -0.5951009 
11.33333 185.8333 474.5 0.02788794 -0.7957217 -0.6050201 
14 186 473 0.005951649 -0.8193132 -0.5733153 
19.57143 187.1429 472.5714 0.01548066 -0.8615434 -0.507448 
9.714286 193.7143 462.5714 -0.05769915 -0.8313351 -0.5527681 
11.5 193 464 -0.0561468 -0.8273889 -0.5588158 
9.666667 192 465 -0.04674896 -0.8096108 -0.5851025 
15.66667 191 466.5 -0.05188187 -0.8070496 -0.5882 
13.33333 191 468 -0.03694021 -0.8330401 -0.5519778 
9.666667 190 467 -0.03815851 -0.818028 -0.5739112 
11.5 189.5 468.5 0.00548609 -0.8181272 -0.5750111 
23.33333 188 470.5 0.04887254 -0.8691306 -0.492162 
-20.5 109.5 517 -0.2183332 0.3962672 -0.8917976 
-22.5 107.5 516.75 -0.1683377 0.4042877 -0.8990071 
-12.66667 105.5 513 -0.1487105 0.4070513 -0.9012184 
-14.5 103.5 512.25 -0.1873239 0.425522 -0.8853478 
-10.5 101 511 -0.1273305 0.4553638 -0.8811531 
-9 100 510 -0.1337852 0.4682727 -0.873397 
-94.5 106 558.5 -0.0286182 -0.8340558 -0.5509374 
-93 105 560 -0.009562097 -0.8209084 -0.5709798 
-94.33334 104 561 -0.04016374 -0.8258402 -0.562472 
19.33333 93.33334 509 0.5607101 0.3056717 -0.7695252 
-88.4 103.4 562.6 0.06062421 -0.8534515 -0.5176344 
-94.5 102 563 -0.03767494 -0.816333 -0.5763515 
-92.5 101 564 0.03877708 -0.8289795 -0.5579331 
17.5 91.33334 508.3333 0.449994 0.3167319 -0.8349768 
-98.5 101 566 -0.1257039 -0.84033 -0.5272988 
-96 100 567 -0.05963263 -0.8513125 -0.5212592 
13.6 89.4 506.4 0.2384191 0.3730362 -0.8966607 
-98.5 99.25 568.5 -0.11367 -0.8697509 -0.4802214 
-100.5 99 570 -0.1171493 -0.8741899 -0.4712411 
15.8 87.6 506.4 0.3577605 0.3786708 -0.85359 
9.5 87.66666 504.6667 0.1274556 0.4522216 -0.8827517 
15.25 85.25 504.75 0.3323066 0.4062935 -0.8511745 
14 84 504 0.275541 0.4388183 -0.8552868 
-68.5 95 574 -0.02684946 -0.8601056 -0.5094089 
-2.666667 81.5 498 0.04581565 0.5742816 -0.8173748 
-0.5 80 498 0.1118621 0.5540586 -0.8249278 
-64.5 93.25 576.25 -0.2874782 -0.8524394 -0.4366959 
-70.5 93 579 -0.02766657 -0.9312327 -0.3633735 
-6.666667 79 497 -0.08418102 0.5346364 -0.840879 
-70.5 92 580 -0.03870867 -0.9343181 -0.3543323 
-0.5 77.5 496 0.09447075 0.5730245 -0.8140751 
-2.666667 77 495 0.02012368 0.5657191 -0.8243525 
-68.5 90 585 -0.1132672 -0.9462214 -0.303044 
-80.5 91 590 -0.1462774 -0.9844627 -0.09713888 
-85 91 594 -0.1477536 -0.9876648 -0.05183706 
-87 92 596 -0.1440353 -0.9890255 -0.03290007 
-66 89 587 -0.2057507 -0.9502545 -0.2338442 
-97 93 608 -0.1284618 -0.9901707 -0.05531312 
-0.5 75.33334 494.3333 0.08622827 0.5793554 -0.8105011 
-64.5 89 588.5 -0.242195 -0.9454417 -0.2179027 
-74.5 90 595 -0.1302163 -0.9899698 -0.0548051 
1.666667 74 494 0.1251253 0.570024 -0.8120446 
-80 90 605 -0.1556736 -0.9872472 -0.03329571 
-42.66667 2 474.3333 -0.4925786 0.7463782 -0.4475332 
-44.5 1 473 -0.4198739 0.8078304 -0.4136615 
-44.5 -0.5 470.5 -0.3921956 0.8192348 -0.4183742 
-46.5 -0.5 472.5 -0.4501021 0.8022558 -0.3921654 
-45 -7 464 -0.6993479 0.1727664 -0.6935881 
-52 -7 473 -0.8672461 -0.05748913 -0.4945495 
-44 -8.333333 462.5 -0.7090145 0.06068387 -0.7025781 
-46 -8.333333 465 -0.7611555 0.0178363 -0.6483241 
-50 -10 471 -0.8293216 -0.2995787 -0.4716761 
-53 -10.5 477 -0.7904376 -0.3042389 -0.5316457 
-56 -10.33333 480.6667 -0.7834695 -0.3506782 -0.5130306 
-46.75 -10.75 466.75 -0.7872169 -0.2632886 -0.5576456 
-50 -12 472 -0.8196034 -0.3755259 -0.4327015 
-47 -12.5 468.5 -0.7858858 -0.3655084 -0.4987858 
-48 -12.5 470.5 -0.7952427 -0.3982216 -0.4571746 
-56 -12.5 478.5 -0.7745318 -0.4069647 -0.4842317 
-52 -14.5 481 -0.7340403 -0.4873112 -0.4729829 
-55 -15 479 -0.7175616 -0.4960082 -0.4889593 
-53 -18 484 -0.7131901 -0.5356743 -0.4521205 
-49 -19 480 -0.7233462 -0.5361727 -0.4350737 
-48 -20 479 -0.7432899 -0.5247486 -0.4149205 
-52 -20 482.5 -0.7167257 -0.5619949 -0.4128754 
-42.5 -28.5 481 -0.6198021 -0.7085777 -0.337288 
-40.5 -28.5 478 -0.5981311 -0.7207861 -0.3502953 
-44 -28 483 -0.6431153 -0.6913386 -0.3293231 
-46 -28 485 -0.671537 -0.6708115 -0.3147223 
-43 -26.5 478.5 -0.6601184 -0.6565477 -0.3649504 
-46 -26 483 -0.6938682 -0.6203344 -0.3656942 
-44 -24.5 478.5 -0.7359977 -0.5704509 -0.3645452 
-46 -23 479 -0.7266589 -0.5590324 -0.3993114 
-47 21.5 499 -0.8805756 0.3166648 -0.3525763 
-46 23 497 -0.874328 0.3274343 -0.3582421 
-45 23 494 -0.8752241 0.321521 -0.3613961 
-45 25 497 -0.8801355 0.3146907 -0.355431 
-46 31 505 -0.9100932 0.267182 -0.3167713 
-45 31.5 502.5 -0.8869829 0.2831208 -0.3648342 
-45 34 504 -0.9038429 0.206228 -0.3748841 
-50 62 526 -0.9217096 0.0870143 -0.3779947 
-18.33333 111.3333 517 -0.2707633 0.4027446 -0.8743477 
-16 113 517 -0.2586627 0.4451071 -0.8573058 
23 115.5 527 0.7634486 0.4019222 -0.5055739 
21.66667 117.6667 526.3333 0.6923845 0.4828072 -0.5361912 
23 117.5 528.5 0.7190017 0.4056845 -0.5643197 
23.33333 119.3333 530.6667 0.5950239 0.2264956 -0.7711331 
20 119.5 526.5 0.6359702 0.4765226 -0.6070158 
23.75 121.5 532 0.5183764 -0.07953225 -0.8514462 
21.66667 121.6667 530.3333 0.4971054 0.02120763 -0.867431 
17.5 121.5 526.5 0.4478905 0.4492961 -0.7729988 
19.75 121.75 528.5 0.5315963 0.3011754 -0.7916431 
15.5 123 527 0.3154016 0.4940168 -0.810228 
14 124 528 0.1504779 0.4689161 -0.8703299 
15.4 125.8 528.6 0.03134197 -0.2706735 -0.9621609 
