ply
format ascii 1.0
comment VCGLIB generated
element vertex 966
property float x
property float y
property float z
property float nx
property float ny
property float nz
element face 0
property list uchar int vertex_indices
end_header
-89.5 139.5 499.5 -0.05349667 -0.8423359 -0.5362913 
-73.6 141.8 497.6 0.05682994 -0.8517715 -0.5208223 
-73.5 143 495.5 0.0726549 -0.8527635 -0.5172192 
-79.5 143.5 493.5 0.05877059 -0.8339162 -0.5487528 
-75.6 145.6 491.4 0.07973181 -0.8125266 -0.5774457 
-73.5 145 493 0.09433114 -0.8326463 -0.5457124 
-71.5 147.3333 489.3333 0.07435847 -0.8264297 -0.5581083 
-69.5 148 488 0.07091723 -0.8312845 -0.5513047 
-57 149 489 0.06961324 -0.8144985 -0.575974 
-59.5 149.75 487.75 0.1115476 -0.8149769 -0.5686561 
-57.5 151 487 0.09151996 -0.8093476 -0.5801558 
-63.5 151 485 0.129367 -0.7971697 -0.5897327 
-61.66667 152 483.3333 0.1112289 -0.7987552 -0.5912854 
-59.5 153 483.5 0.09232824 -0.8107274 -0.5780974 
-69.5 153 481 0.07667983 -0.8090028 -0.582782 
-71.33334 154 479.6667 0.04625746 -0.8349006 -0.5484535 
-67.5 155.6667 477.6667 0.1289441 -0.8316146 -0.5401764 
-79.66666 155.6667 474 0.1280166 -0.8323568 -0.5392532 
-65.5 158 473.5 0.1806416 -0.810694 -0.5569057 
-67 159 473 0.1748442 -0.8048306 -0.567166 
-65.4 159.6 471.6 0.1566875 -0.8298956 -0.5354646 
-71.33334 160 469.6667 0.09943911 -0.8156597 -0.569922 
-129 167 464 -0.5097966 0.09405004 -0.8551387 
-131 167 466 -0.5420013 0.117606 -0.8321079 
20 119 537 -0.02252484 -0.8627973 -0.5050481 
36 112 546 0.01522347 -0.8480894 -0.5296345 
77 113 564 0.8999328 0.110628 -0.4217611 
26 97 569 0.04462037 -0.8262557 -0.5615252 
-21.5 13 437.5 0.6156387 0.7057897 -0.3504995 
-25 18 445 0.5787707 0.6638728 -0.4736005 
-27 20 445 0.5272893 0.6568061 -0.539047 
-21 30 453 0.3900082 0.2956102 -0.8720713 
-14 50 466 0.09631905 -0.1246507 -0.9875146 
-15.5 51.5 466 0.0511006 -0.1280872 -0.9904456 
-109.5 133.5 518 -0.6143643 -0.7715913 -0.1649348 
-111.5 135.5 518 -0.6515973 -0.7468672 -0.1327048 
-95.5 137 503.5 0.1340651 -0.833143 -0.5365624 
-89.5 138 501.5 -0.0652684 -0.8451796 -0.5304824 
-62 150 486 0.122861 -0.8041129 -0.5816422 
-68 158 472 0.1377135 -0.8167307 -0.5603445 
-121.3333 189.6667 464 -0.5828255 -0.2471347 -0.7741052 
-123.4 189.4 465.6 -0.5989655 -0.1843781 -0.7792593 
-119 187.5 464 -0.3939731 -0.4308344 -0.8118909 
-117.6667 187 465.3333 -0.322683 -0.45265 -0.8312543 
-114 183.5 465 -0.3818829 -0.1493368 -0.9120657 
-113 181.5 464 -0.4176491 0.05345099 -0.9070349 
-115.5 181.5 466 -0.369295 -0.004846041 -0.9292996 
-129.6667 167.6667 465.3333 -0.5290045 0.2186369 -0.8199708 
-129 165.5 464 -0.4843211 -0.1215643 -0.8664037 
-67.5 163 467 0.1296537 -0.8388207 -0.5287436 
-65.5 162 468 0.1130264 -0.8322989 -0.5426818 
-67.4 161.4 469.6 0.1196754 -0.8098354 -0.5743209 
20.66667 119.3333 535.6667 -0.04299554 -0.8598864 -0.5086715 
20.5 118 538 -0.01088896 -0.8786157 -0.4774054 
26.5 117.5 539.5 0.00809767 -0.871514 -0.4903039 
36.5 116 540 -0.01071933 -0.8264908 -0.5628482 
34.5 114 543.5 -0.00961385 -0.8301724 -0.5574238 
38.5 112 546 0.009383988 -0.8434409 -0.53714 
24.33333 111.6667 547.3333 -0.004971857 -0.8166391 -0.5771273 
77 114 565 0.900564 0.1137635 -0.4195742 
24.5 110 550 -0.01812243 -0.8365371 -0.5476105 
30.5 109 551 0.001893701 -0.8243623 -0.5660594 
18.5 107.5 553.5 0.174909 -0.8077274 -0.5630128 
79 109.5 568 0.8598497 0.1868467 -0.4751283 
30.5 105.5 555.5 0.02997573 -0.8495519 -0.5266528 
28.5 105 557 -0.00112123 -0.8472807 -0.5311443 
26.5 104 558 -0.01618258 -0.8416721 -0.5397465 
28.5 103 560 0.01341271 -0.8382391 -0.5451379 
30.5 103 561 0.03182217 -0.8383263 -0.5442392 
66.5 101.5 563.5 0.04894414 -0.8466874 -0.5298347 
28.5 102 562 0.01318573 -0.8262824 -0.5631018 
64.5 101 565 -0.0007604986 -0.8530262 -0.5218676 
30.5 99.5 565.5 0.04458627 -0.8121357 -0.5817626 
26.6 97.8 567.6 0.01774892 -0.8255202 -0.5640934 
24.5 97 569 0.09723365 -0.819707 -0.5644697 
30.5 96 570 0.04416499 -0.8456591 -0.5318929 
19 93.5 571.5 0.2673045 -0.7905834 -0.5509322 
23 93 575.5 0.1630245 -0.8060831 -0.5689052 
26.66667 91.66666 577.6667 0.0899903 -0.7886443 -0.6082286 
36.5 91 579 0.03232209 -0.8067535 -0.5900035 
38.5 89.5 579.5 0.02937406 -0.8111153 -0.5841483 
36.5 89.5 581.5 0.03253746 -0.8139758 -0.579987 
36.5 87.5 583.5 0.03788628 -0.85046 -0.5246736 
38.5 87 586 0.06912321 -0.8615207 -0.5029951 
36.33333 86 585.3333 0.04282364 -0.8542596 -0.5180799 
42.5 86 588 0.1050638 -0.8877395 -0.4481966 
40.5 85 589 0.109053 -0.8974586 -0.4274057 
46.5 85 592 0.009456316 -0.952379 -0.3047702 
-17.5 12 445.5 0.6531053 0.6883886 -0.3155544 
-19 12 443 0.6485811 0.6929384 -0.3149268 
-23.5 13.5 437.5 0.5775368 0.7391173 -0.3466366 
-25.4 19.6 445.6 0.5626895 0.6490285 -0.5119987 
-27.6 19.2 443.6 0.5308821 0.6994751 -0.4784338 
-45.5 21 435 -0.1459905 0.8954452 -0.4205529 
-47.5 22 437.5 -0.2011742 0.8953801 -0.39727 
-41.5 23 441 0.08622502 0.9234973 -0.3737888 
-39.66667 24 443.6667 0.06858861 0.8897381 -0.451289 
-37 24 445 0.07025886 0.8345436 -0.5464436 
-35.5 25 446 0.09066338 0.7436395 -0.6624052 
-37.5 25.5 447.5 -0.07282408 0.7751812 -0.6275275 
-25 26 451 0.3801378 0.2752084 -0.8830377 
-37.5 28 449.5 -0.2171408 0.6595016 -0.719658 
-21.75 29.25 451.75 0.3529539 0.2488062 -0.901953 
-24 31.5 451.5 0.339761 0.2701705 -0.9008721 
-21.5 31.66667 453.3333 0.401472 0.3262373 -0.8557976 
-21.33333 33.66667 455 0.4267596 0.3827462 -0.8193788 
18.5 120 534 -0.03944148 -0.8397149 -0.5415933 
20.5 121 533 -0.06866536 -0.836085 -0.5442858 
22.5 121.3333 531.3333 -0.04681138 -0.8253965 -0.5626094 
20.5 123 531 -0.05732662 -0.8213282 -0.5675682 
-81.5 133 511 0.1037658 -0.8332272 -0.5431069 
-109 133.5 515 -0.5333236 -0.8122286 -0.2363278 
-88 133 509 0.01313397 -0.8063558 -0.5912849 
-85.5 133.5 507.5 0.06325866 -0.8157754 -0.574899 
-87.5 135 507 0.003694664 -0.8261446 -0.5634461 
-89.5 135.5 505.5 -0.03041408 -0.8192413 -0.5726419 
-92 136 504 0.03710463 -0.8277975 -0.5597987 
-93.5 137.5 503.5 0.09481277 -0.8302975 -0.5491963 
-91.5 138 502 0.003258734 -0.8458533 -0.5334056 
-89.5 139 501 -0.06140405 -0.8406015 -0.5381624 
-91.5 139.5 499.5 0.0257268 -0.8583827 -0.5123644 
-75.5 141.6667 497.6667 0.09129233 -0.8575416 -0.5062492 
-80 142 494 0.07022323 -0.8399041 -0.5381728 
-75.5 143 495.5 0.09045988 -0.8547165 -0.5111524 
-77.4 143.6 493.6 0.08744321 -0.8407107 -0.5343773 
-73.5 146 491.5 0.07307437 -0.8317655 -0.5502966 
-69.5 147.3333 489.3333 0.07602354 -0.8227048 -0.5633625 
-53.5 149 491 0.07569531 -0.823926 -0.5616192 
-71.5 148 488 0.07134505 -0.8355366 -0.544783 
-59.66667 149.3333 489 0.0988557 -0.8229358 -0.5594679 
-57.5 149.5 487.75 0.08312601 -0.808691 -0.5823307 
-63.66667 149.6667 486 0.1251753 -0.8093055 -0.5738953 
-59.5 151 487 0.1117921 -0.8075738 -0.5790744 
-61.4 151.4 485.6 0.1167939 -0.7913618 -0.6000882 
-63.5 152 484 0.1441053 -0.7986122 -0.5843391 
-57.5 153 483.5 0.07609437 -0.81634 -0.5725371 
-71.5 153 481 0.05104475 -0.8267319 -0.5602758 
-69.5 154 479.5 0.07810825 -0.8361253 -0.542949 
-71.5 155 479 0.04499789 -0.8344464 -0.5492489 
-68 154 478 0.1152466 -0.8364731 -0.5357527 
-65.5 155.6667 477.6667 0.1582676 -0.8277283 -0.5383469 
-78 156 474 0.1270867 -0.8337625 -0.537298 
-67.66666 158 473.6667 0.166334 -0.8034286 -0.5716953 
-67.5 159.5 471.5 0.1486995 -0.8074881 -0.5708341 
-65 159.5 473 0.168142 -0.8188527 -0.5488247 
-70 160 470 0.1044931 -0.8124943 -0.573528 
-113 192 458 -0.2292359 -0.6108448 -0.7578388 
-119 186 466 -0.346191 -0.3737645 -0.8604952 
-131.3333 165.3333 465.6667 -0.5720927 -0.2100242 -0.7928429 
38.33333 115.6667 541.6667 0.01405498 -0.8182116 -0.5747455 
32.5 113 545.5 -0.01221957 -0.8389511 -0.5440696 
27 111 549 -0.02790136 -0.8230286 -0.5673142 
79 111.5 569.5 0.8865922 0.1612986 -0.4335172 
23 82 588 0.2584746 -0.801906 -0.5386442 
-20 13 442 0.6377472 0.7021496 -0.3166456 
-25.33333 17.66667 443.3333 0.5655525 0.7139632 -0.4128039 
-44 23 440 -0.004314443 0.9296702 -0.3683676 
-14 51 466 0.0431553 -0.1466231 -0.9882507 
-75.5 145 493.5 0.09392978 -0.8406337 -0.5333968 
-113 195.5 456 -0.5130225 -0.3664943 -0.7762023 
-115.3333 195.6667 458 -0.6096042 -0.2006193 -0.7668994 
-113.4 193.4 457.6 -0.374094 -0.5357421 -0.7569901 
-121 195.5 464 -0.7642466 0.1798724 -0.6193326 
-113.5 187.3333 463.3333 -0.2452728 -0.4571432 -0.8549043 
-114 185.5 465 -0.3351133 -0.3373388 -0.8797168 
-117.5 181.5 466 -0.3674164 0.00455712 -0.9300454 
-129.3333 169.3333 465.6667 -0.5128956 0.3601973 -0.7792278 
-69.5 163 467 0.1161419 -0.8411742 -0.5281448 
-71.5 162 467.5 0.1052304 -0.8271295 -0.5520719 
18.5 119.5 535.5 -0.02296668 -0.8495291 -0.5270416 
31 119 539 -0.01865322 -0.8445097 -0.5352154 
18.33333 118 537.6667 0.009206302 -0.8650026 -0.5016828 
28.5 117.5 539.5 0.008256054 -0.862857 -0.5053806 
34.5 116 540 -0.02992344 -0.8261987 -0.5625836 
32.5 115.5 541.5 -0.04347072 -0.8101804 -0.5845666 
39 115 543 0.01786256 -0.8281773 -0.5601815 
36.5 114 543.5 0.006240993 -0.8337213 -0.5521502 
38.5 113 545 0.01611016 -0.8446934 -0.535008 
32.5 112 546 -0.009947934 -0.8331343 -0.5529812 
30.5 111.5 547.5 -0.008142951 -0.8215064 -0.5701412 
78 115 568 0.8872737 0.05050544 -0.4584698 
30.5 110 549.5 0.001696483 -0.8346341 -0.5508022 
24.5 109.5 551.5 -0.02379348 -0.840362 -0.5415031 
78 109.5 565 0.8680317 0.1044198 -0.4854043 
20.5 107.75 553.5 0.09233652 -0.8218825 -0.5621239 
26.5 105.5 557.25 -0.03060743 -0.8368187 -0.5466238 
28.5 104 558 0.009632064 -0.8483558 -0.5293391 
26.5 103 560 0.001721091 -0.830827 -0.5565282 
24.33333 103.3333 561 -0.005063501 -0.8295048 -0.5584767 
70.5 103 563 0.1601952 -0.7796602 -0.6053656 
68.33334 101.6667 563.6667 0.08200362 -0.8405774 -0.5354486 
26.5 102 562 0.01086201 -0.8248414 -0.5652598 
70.5 101.5 565.5 0.0792089 -0.8228748 -0.5626749 
24.5 99.5 565.5 0.04881207 -0.8037156 -0.593008 
28.5 97.66666 567.6667 0.01995756 -0.8233523 -0.5671796 
31 97 569 0.04867466 -0.8297972 -0.5559383 
22.33333 95 571.3333 0.1816145 -0.820641 -0.541816 
20 94 571.5 0.2164166 -0.8031164 -0.5551288 
22.33333 93.66666 573.6667 0.199059 -0.8110994 -0.5499941 
28.5 91.5 577.5 0.06560848 -0.8094192 -0.5835548 
34.5 91 579.5 0.04604783 -0.8158742 -0.5763931 
32.5 90 580 0.06109752 -0.8192653 -0.5701504 
34.5 89.5 581.5 0.03559129 -0.8231965 -0.5666401 
34.5 88 583 0.03804039 -0.8357007 -0.5478661 
32.5 87 585.5 0.06132336 -0.8468552 -0.5282762 
46.5 87 587 -0.005956861 -0.8843702 -0.4667483 
44.5 86 588 0.07616748 -0.8974529 -0.4344846 
46.5 85 590 0.0001821101 -0.9302831 -0.3668424 
-17 12 448 0.6719533 0.655783 -0.3441331 
-23.33333 15.66667 441.3333 0.5745125 0.7415247 -0.3465209 
-25.5 20 447 0.5548475 0.5959841 -0.5804716 
-41.5 22 438 0.08808967 0.9317385 -0.3522833 
-47.5 23 441 -0.1677168 0.930169 -0.3265835 
-45.5 23 440 -0.04443857 0.9293966 -0.3663977 
-35.5 24 445 0.1437439 0.7880459 -0.5985996 
-37.5 25 446 0.006172697 0.82471 -0.5655223 
-35.5 25.5 447.5 0.01951546 0.7102515 -0.7036774 
-33.5 27 448 0.07603716 0.6008443 -0.7957415 
-35.5 28 449 -0.1162352 0.6273181 -0.7700399 
-17.5 29.5 453.75 0.4528478 0.3558203 -0.8175089 
-19.6 31.6 453.6 0.4300746 0.3648821 -0.8257705 
-19.5 33.5 455.5 0.4739245 0.3893518 -0.7898105 
-24 33.5 452 0.361167 0.3329031 -0.8710534 
-21.66667 33.33333 454 0.4201062 0.359145 -0.8333821 
-18 35 456 0.4961446 0.412551 -0.7639649 
-23.6 35.6 453.6 0.3934189 0.3867812 -0.8340396 
20.5 120 534 -0.05945653 -0.8456144 -0.5304726 
18.5 121 533 -0.04394206 -0.8321821 -0.5527587 
16.5 122 532 -0.004060274 -0.8392792 -0.5436856 
18.5 123 531 -0.02533257 -0.8344728 -0.5504666 
-112 135 522 -0.6729802 -0.7292542 -0.1236366 
-81.5 133.5 509.5 0.1292346 -0.8240555 -0.5515715 
-83.66666 133.6667 507.3333 0.09940439 -0.8247124 -0.556748 
-81.5 135.5 507 0.1063273 -0.8353875 -0.5392795 
-95.25 135.25 505.5 0.1046951 -0.8306036 -0.5469338 
-93.5 136 504 0.09052555 -0.8267894 -0.5551797 
-91.4 137.6 503.6 0.01485517 -0.8333363 -0.5525666 
-93.66666 138 501.6667 0.08757029 -0.8401685 -0.5352086 
-95 139 501 0.1457899 -0.83663 -0.528011 
-93.5 139.5 499.5 0.08135029 -0.8547351 -0.5126501 
-77.4 141.6 497.6 0.1025543 -0.8559969 -0.506707 
-79.5 142 496 0.08184633 -0.8498749 -0.5205898 
-77.5 143 495 0.09434477 -0.850237 -0.5178766 
-75.5 143.75 493.75 0.09477121 -0.8461635 -0.5244289 
-79.5 145 491 0.06415677 -0.8118453 -0.5803372 
-67.5 147.3333 489.3333 0.09422204 -0.8360382 -0.5405204 
-51 149 491 0.03414791 -0.8350512 -0.5491115 
-65.5 148 488 0.1230493 -0.825866 -0.5502766 
-61.5 149.25 489.5 0.0976932 -0.843352 -0.5284067 
-63.6 149.4 487.4 0.1135664 -0.8221483 -0.5578305 
-59.5 151.6667 485.6667 0.1042549 -0.7953389 -0.5971322 
-71.5 152 481.5 0.04240311 -0.8098966 -0.585038 
-63.5 153 483.5 0.1347999 -0.7971852 -0.5884937 
-65.5 153.5 481.5 0.1435412 -0.7982073 -0.5850307 
-67.5 154 479.5 0.109524 -0.8241512 -0.5556793 
-69.5 154 478 0.07572676 -0.8345109 -0.5457628 
-65.33334 155.3333 479 0.1460533 -0.820504 -0.5526678 
-71.6 155.6 477.6 0.03883447 -0.8450397 -0.5332914 
-75.5 157 475 0.1300092 -0.8490257 -0.5121064 
-69.66666 158 473.6667 0.1081832 -0.8166444 -0.5669113 
-71.5 158 472 0.0842034 -0.8195624 -0.5667692 
-69.5 159.5 471.5 0.1157687 -0.8007327 -0.5877284 
-69.5 161 469.5 0.1203172 -0.8176731 -0.5629693 
-122 193 465 -0.7285424 0.03469006 -0.6841217 
-133 165 466 -0.6343651 -0.3049808 -0.7103293 
75 116 563 0.9007521 0.1206962 -0.4172268 
79 113 570 0.8834537 0.1055811 -0.4564671 
24.5 106 555.5 -0.04146412 -0.8347781 -0.5490231 
24 96 570 0.1259015 -0.8276075 -0.5470054 
-21.5 14 441.5 0.6069921 0.7213236 -0.3335459 
-23 14 439 0.5861611 0.7429812 -0.3231008 
-29 20 443 0.4495029 0.7405786 -0.4994902 
-43.5 21 435.5 -0.01857506 0.9316493 -0.3628837 
-17 34 457 0.5460563 0.4143417 -0.7281095 
-19 36 457 0.501664 0.4434164 -0.7427753 
-109.5 133 521.5 -0.6609875 -0.7341801 -0.1551617 
-108 133 515 -0.4943976 -0.8301827 -0.2576193 
-90 137 505 -0.03592238 -0.8260887 -0.5623941 
-96 138 500 0.1443409 -0.8333521 -0.5335636 
-70 156 476 0.05018112 -0.8382565 -0.5429623 
-37.5 165 467.5 0.05182597 -0.8360816 -0.5461518 
6.5 164 469.5 0.008910675 -0.8449849 -0.5347158 
0.5 163.5 471 0.1060513 -0.8350453 -0.5398634 
-114 124 566 -0.3977529 -0.9140043 -0.07993098 
-117 125 572 -0.3984941 -0.91541 -0.05680559 
-51.5 13.5 433.75 -0.6657059 -0.06816289 -0.7430946 
-49 13.5 432 -0.6339279 -0.05373063 -0.7715235 
-49.5 45.5 463.25 -0.6812955 0.3156424 -0.6604592 
-51.5 45.5 465.5 -0.7422137 0.2744215 -0.6114014 
-49.5 48 465 -0.6671108 0.3313701 -0.667201 
50.5 123.5 529.5 0.04951265 -0.849177 -0.5257823 
48.5 129 521 0.1063586 -0.7894843 -0.6044853 
50.5 129.5 519.5 0.2758073 -0.7147902 -0.642655 
58 131.5 530 0.9005812 0.0135438 -0.4344768 
57 131.5 527 0.8878419 -0.06787536 -0.4551149 
-45.5 133.5 507.5 -0.1937858 0.3592798 -0.9128883 
-33.5 133 503.5 0.1981504 0.6875271 -0.6986007 
-47.5 135.5 508 -0.0894395 0.001718812 -0.9959908 
-34 135 505.5 0.171219 0.5756561 -0.799565 
-43 137.5 509 -0.02261978 -0.2432397 -0.9697024 
-41.5 139 509 0.07265532 -0.5623465 -0.8237036 
-43.33333 139.3333 507.6667 0.04861982 -0.6877238 -0.7243426 
-37.5 140 505.5 -0.07643531 -0.8758073 -0.4765702 
-41.5 141 504 -0.006821742 -0.9174284 -0.3978423 
-47.66667 141 501.3333 -0.001287693 -0.9061925 -0.4228635 
-45.5 142 499.5 -0.02157835 -0.8896881 -0.4560587 
8.5 145.5 497.5 0.06892398 -0.8240058 -0.5623734 
10.5 147 497 0.07706717 -0.8295632 -0.5530692 
8.5 147 495 0.07856817 -0.8411011 -0.5351412 
14.33333 147.6667 494 0.01310739 -0.8538611 -0.520336 
-13.5 149 491 -0.005340109 -0.8092191 -0.5874827 
-3.5 150 489.5 0.05328826 -0.8115074 -0.5819073 
-1.5 151 489 0.05487524 -0.7995531 -0.5980833 
-2 150 488 0.05744707 -0.8013676 -0.5954072 
-3.6 151.6 487.8 0.07107561 -0.8089212 -0.5836051 
-3.5 153.3333 485.3333 0.0856146 -0.821283 -0.5640606 
-1.5 154 484 0.09663068 -0.8329327 -0.5448721 
-3.5 155 483 0.05308865 -0.8389359 -0.5416349 
2.666667 156 481.3333 0.09335229 -0.8604315 -0.5009421 
12.4 157.4 481.6 -0.001798774 -0.8011364 -0.5984792 
14.5 158 480 0.001619554 -0.8001232 -0.5998335 
12.33333 159.3333 479 0.02371086 -0.8225579 -0.5681869 
10.4 159.8 477.6 0.08047128 -0.8361456 -0.5425724 
8 160 476 0.07820052 -0.8491101 -0.5223952 
14.5 161.6667 475.6667 0.04827234 -0.8483186 -0.5272809 
0.5 161.5 473.5 0.09912942 -0.8218147 -0.5610651 
2.5 162 472 0.07933699 -0.8348517 -0.5447277 
-39.5 165 467.5 0.01640737 -0.8310439 -0.5559648 
4.5 164 469.5 0.03158679 -0.8486491 -0.5280123 
2.5 163.5 471 0.08412231 -0.8321441 -0.548142 
-49.66667 13.33333 433 -0.6361645 -0.06320345 -0.7689604 
-49.5 15.5 431.75 -0.6400798 0.1331363 -0.7566853 
-51.6 15.6 433.4 -0.6522382 0.1586703 -0.7412213 
-51 45 464 -0.7061788 0.3041291 -0.639388 
-51.5 47.5 465.75 -0.7124066 0.3088765 -0.6301367 
-49.33333 47 463.6667 -0.6682943 0.3437933 -0.6596886 
48.5 123.5 529.5 -0.006647349 -0.8682739 -0.4960407 
56 128 526 0.7325472 -0.3835054 -0.562404 
58 129.5 529.5 0.8552999 -0.1001533 -0.5083613 
52 128 522 0.3136225 -0.7491342 -0.5834714 
50.5 129 521.5 0.2950756 -0.7442451 -0.5991909 
57 129.5 527 0.8264142 -0.2133104 -0.5210934 
48.5 129.5 519.5 0.1057227 -0.7845336 -0.6110073 
52 131.5 518 0.5438475 -0.5623263 -0.6229119 
-47.5 133.5 507.5 -0.1588169 0.2800021 -0.9467714 
-35.66667 133.3333 503.3333 -0.01268478 0.7581112 -0.6520019 
-33 134 505 0.2687993 0.6162781 -0.7402354 
-45.5 135.5 508 -0.09285885 0.07042596 -0.9931855 
-41.5 137.5 509 0.029218 -0.1919008 -0.9809793 
-44 137.5 508 -0.04469657 -0.2799235 -0.9589813 
-41.5 139.5 507.5 0.04994739 -0.7172509 -0.6950226 
-39.5 140 506 0.01557173 -0.8377343 -0.5458559 
-43 141 504 0.03022321 -0.9046493 -0.4250837 
-37 140 503 -0.100768 -0.8673515 -0.4873882 
-45.33333 141 501.3333 -0.006282286 -0.9213781 -0.3886169 
-47.5 142 499.5 -0.009203074 -0.8844365 -0.4665698 
10.4 145.6 497.8 0.08167616 -0.8226921 -0.5625893 
8.5 146 496 0.07308823 -0.8279078 -0.5560815 
10.5 147.5 495.5 0.0624022 -0.8397817 -0.5393261 
12.5 148 494 0.03547976 -0.8493261 -0.5266748 
-15.5 149 491 0.006942314 -0.8206072 -0.5714504 
-1.5 149.5 489.5 0.04698442 -0.8064577 -0.5894222 
-3.5 151 489 0.05979057 -0.805619 -0.5894092 
-1.5 151.6667 487.6667 0.06903128 -0.8022398 -0.5929975 
-1.5 153.3333 485.3333 0.09947521 -0.8151486 -0.5706466 
-3.5 154 484 0.07205779 -0.8258024 -0.5593372 
-1.5 155.5 483 0.08468618 -0.851801 -0.5169751 
0.6666667 155.6667 481.3333 0.1037938 -0.8578011 -0.5033926 
14.6 157.2 481.4 -0.00986888 -0.7976195 -0.6030802 
12.5 158 480 0.01794144 -0.8130022 -0.5819841 
8.5 159.6667 477.6667 0.08361496 -0.8417369 -0.5333737 
14.66667 159.3333 479 -0.003509039 -0.8048422 -0.5934786 
12.5 161.25 475.75 0.07596661 -0.8614257 -0.5021701 
2.5 162 473.5 0.08587397 -0.8083689 -0.5823792 
0.5 162 472 0.1048337 -0.8266473 -0.552869 
-113 123 563 -0.3989365 -0.9070668 -0.1344602 
-35 135 505 0.09326789 0.6078753 -0.7885359 
-43 139 509 0.02761123 -0.4999317 -0.8656247 
-113.6667 195.3333 457 -0.5137743 -0.3586476 -0.7793638 
-122 195.5 465.5 -0.7707945 0.2147565 -0.5997962 
-121 193.5 464 -0.6957517 -0.01250402 -0.7181736 
-115.4 187.4 463.4 -0.2932703 -0.4816124 -0.8258584 
-115.5 185.5 465 -0.3199779 -0.3536035 -0.8789646 
-113 185.5 464 -0.3280045 -0.3139246 -0.8909907 
-117.5 183.5 466 -0.3540131 -0.1733953 -0.919026 
-71.5 163 467 0.1083048 -0.8379812 -0.5348434 
-69.5 162 468 0.1127485 -0.8248748 -0.553958 
22.5 119.75 533.5 -0.04012897 -0.8590173 -0.5103715 
16.5 119.5 535.75 -0.005654407 -0.838355 -0.5450954 
18.5 119 537 -0.007544671 -0.8600402 -0.5101705 
16.4 117.8 537.6 -0.00662463 -0.8627187 -0.5056407 
30.5 117.5 539.5 -0.01690806 -0.8509406 -0.5249899 
34.5 115.5 541.5 -0.02590647 -0.8128009 -0.5819653 
38.5 114 543.5 0.02310521 -0.8370038 -0.5467092 
36.5 113 545 0.01400318 -0.8457718 -0.533361 
34 112 546 0.006933498 -0.8363042 -0.5482218 
28.5 111.5 547.5 -0.01772787 -0.8169759 -0.5763993 
28.5 110 549.5 -0.01478664 -0.8263289 -0.5629938 
78 113.5 567 0.8939316 0.1215024 -0.4314204 
26.66667 109.3333 551.6667 -0.04603863 -0.83579 -0.5471157 
78 111.5 565.5 0.8933393 0.1235317 -0.4320705 
76 111.5 563 0.872281 0.03410695 -0.4878141 
22.33333 108 553.3333 -0.00115086 -0.8305621 -0.5569249 
24.5 107 555 -0.04000122 -0.8307722 -0.5551733 
26.5 106 555 -0.04518878 -0.8415108 -0.5383471 
24.5 105.5 557.5 -0.02165742 -0.8313693 -0.5552981 
30 104 558 0.03266132 -0.8492323 -0.5270084 
24.5 103.5 559.5 -0.01665015 -0.8324919 -0.5537869 
68.5 103 563 0.1088028 -0.8099174 -0.5763642 
26.5 103 561 0.0006043958 -0.833755 -0.5521343 
70.5 102 564 0.1299484 -0.8080189 -0.5746467 
24.5 102 562 0.01196077 -0.8173087 -0.576076 
68.66666 101.3333 565.3333 0.07433876 -0.8364547 -0.5429708 
26.5 99.5 565.5 0.02179611 -0.8093621 -0.5869054 
30.4 97.8 567.6 0.04738144 -0.8232477 -0.5657016 
26.5 96 570 0.04284006 -0.8451063 -0.532879 
21 95 571.5 0.2001356 -0.8097308 -0.5516174 
20.66667 93.33334 573.3333 0.2158318 -0.803925 -0.5541853 
30.33333 91.66666 577.3333 0.05014046 -0.8237347 -0.5647541 
32.5 91 579 0.06193998 -0.811126 -0.5815824 
34.5 90 580 0.03977527 -0.8107242 -0.5840756 
32.5 89.5 581.5 0.05792134 -0.818942 -0.5709459 
32.5 88 583 0.06201662 -0.8421245 -0.5357054 
34.5 87 585.5 0.04074008 -0.8515226 -0.5227327 
44.5 87 587 0.04774109 -0.8842769 -0.464516 
46.5 86 588 -0.01543925 -0.8977865 -0.4401604 
44.5 85 589.5 0.08078244 -0.9186413 -0.3867458 
-21.66667 13.66667 439.6667 0.6045769 0.7274858 -0.3244244 
-24 15.5 440 0.5640252 0.751967 -0.3412058 
-41.5 21 436 0.08452351 0.9349882 -0.3444603 
-43.5 22 438 0.01379893 0.9321573 -0.3617906 
-33.33333 22 443.3333 0.252174 0.8127334 -0.5252359 
-47 23 440 -0.1235399 0.9291154 -0.3485433 
-35.5 23 444 0.1767942 0.8158122 -0.5506308 
-33.5 23.5 445.25 0.186362 0.7717978 -0.6079452 
-39.5 25 445.5 -0.002900583 0.8569632 -0.5153695 
-33.5 25.5 447.5 0.1057791 0.6551673 -0.7480419 
-35.5 27 448 -0.02763512 0.6686657 -0.7430495 
-33.5 28 449 0.01032555 0.5556937 -0.831323 
-19.5 29.5 453 0.389327 0.3059199 -0.8688138 
-18 31.5 454 0.4628891 0.379749 -0.8009522 
-17.75 33.25 455.75 0.4850137 0.388823 -0.7833126 
-23.5 33.5 453.5 0.3812097 0.3571809 -0.8527021 
-19.5 35.5 456 0.4774649 0.416538 -0.773643 
-17.25 35.75 457.25 0.5467108 0.4300501 -0.7184457 
16.5 121.5 533.25 -0.02149606 -0.8378171 -0.5455276 
18.5 121.5 532 -0.03914092 -0.8360762 -0.5472153 
16.5 123 531 -0.003605508 -0.8377247 -0.546081 
-111 134 521 -0.6714925 -0.7297154 -0.1288927 
-83.33334 133.3333 509.3333 0.1138819 -0.8256766 -0.5525296 
-81.5 134 508 0.1119485 -0.8333458 -0.5412971 
-83.33334 135.3333 507 0.0994702 -0.840467 -0.5326546 
-93.5 135.5 505.5 0.07917441 -0.8200629 -0.56677 
-95.75 135.75 503.75 0.1432074 -0.8321074 -0.535807 
-95.5 137.5 501.5 0.1475952 -0.8249704 -0.5455635 
-89.5 137.5 503.25 -0.07678656 -0.8356941 -0.5438008 
-93.5 139 501 0.08275168 -0.8385437 -0.5385135 
-95.5 139.5 499 0.1442419 -0.8505219 -0.5057734 
-79.5 141.5 497.5 0.1003197 -0.8405715 -0.5323304 
-78 142 496 0.1037006 -0.8508416 -0.5150871 
-73.5 144 493.5 0.1004084 -0.8433173 -0.5279527 
-77.4 145.2 491.4 0.06963293 -0.8086218 -0.5841936 
-65.5 148 489.5 0.120001 -0.8403221 -0.5286384 
-49.5 149 491 -0.01878941 -0.8466698 -0.5317868 
-67.5 148 488 0.09093941 -0.8357056 -0.541596 
-63.5 149 489 0.1159508 -0.8367251 -0.535207 
-61.4 149.6 487.6 0.1063994 -0.8153587 -0.5690953 
-57.5 151.3333 485.3333 0.08182423 -0.7992245 -0.5954368 
-61.33333 153 483.3333 0.1058438 -0.8011363 -0.5890481 
-69.5 152 481 0.07442517 -0.8085379 -0.5837185 
-67.5 153.25 481.5 0.1174606 -0.8114835 -0.5724487 
-65.5 154 480 0.1458717 -0.8109947 -0.5665765 
-67.5 155 479 0.1195731 -0.8338771 -0.5388426 
-69.5 155.5 477.5 0.07039073 -0.8456401 -0.5290917 
-71.5 156 475 0.05262534 -0.8540351 -0.5175468 
-74 157 475 0.08515646 -0.8568473 -0.5084891 
-71.6 157.8 473.6 0.06698966 -0.8329141 -0.5493329 
-69.5 159 473 0.1213853 -0.821587 -0.5570103 
-71.4 159.4 471.2 0.09429481 -0.8096589 -0.5792763 
-65 161 471.5 0.1403876 -0.8362426 -0.5300846 
-71.66666 161 469.3333 0.09426123 -0.8261835 -0.5554599 
-115 194 458 -0.5042464 -0.3427136 -0.7926431 
-123 194 466 -0.7703512 0.1708181 -0.6143128 
33 116 540 -0.03863612 -0.8180149 -0.5738979 
78 116 569 0.8794541 0.008993374 -0.4758989 
23 95 573 0.1700283 -0.8266975 -0.5363411 
-22 15 442 0.5991144 0.7225646 -0.3449093 
-24 35 452 0.3778775 0.3788067 -0.8448161 
-22 35 454 0.4233335 0.3865232 -0.819383 
-108 133 518 -0.5701576 -0.7939993 -0.2109161 
-91 137 505 -0.02697417 -0.824636 -0.5650202 
-79 143 495 0.07443041 -0.8493733 -0.5225182 
-117.5 171 460 -0.4020911 0.4419109 -0.8018962 
-119.3333 171.3333 462 -0.4072481 0.4772845 -0.7786838 
-125 173 466 -0.4082181 0.509897 -0.7572073 
-119 169 460 -0.4258797 0.2257174 -0.8761724 
-115.3333 165.3333 459 -0.20136 -0.5271868 -0.8255472 
-53.5 163.6667 467.6667 0.115046 -0.764402 -0.6343926 
-55.5 162 468 0.1009268 -0.8113059 -0.5758442 
78.33334 125.6667 566 0.4434968 -0.6135206 -0.6533782 
34.66667 119.6667 535.5 -0.01364535 -0.8454504 -0.5338795 
32.5 119 537 -0.01578403 -0.8570796 -0.5149422 
34.5 118 538 -0.03640313 -0.8249298 -0.5640618 
44.66667 117.3333 539 0.0473415 -0.811919 -0.5818474 
16.6 115.6 541.6 0.04784477 -0.8342815 -0.5492588 
22.5 115 543.5 0.0196424 -0.8130199 -0.5819045 
79 119.5 571.5 0.7508218 -0.2668098 -0.6042179 
22.5 113.5 545 0.02035503 -0.7901264 -0.6126058 
46.4 111.8 547.6 0.01911365 -0.8273296 -0.5613915 
16.33333 111.6667 546 0.1365232 -0.7507507 -0.6463241 
46.5 110 550 0.02463835 -0.8275648 -0.5608292 
40.5 109.5 551.5 -0.0007687584 -0.83842 -0.5450242 
36.33333 107.6667 553.3333 0.02191025 -0.8384289 -0.5445704 
42.5 105.5 557.5 0.03856897 -0.8450385 -0.5333127 
40.5 103 561 0.02437189 -0.8536725 -0.5202397 
52.5 101.5 563.5 0.04322215 -0.8538196 -0.5187716 
42.5 102 562 0.03818313 -0.8445949 -0.5340427 
54.5 101 566 0.04957749 -0.844101 -0.5338873 
40.5 100 566 0.04453333 -0.8470544 -0.5296373 
46.5 99 567 0.04696246 -0.8427923 -0.5361862 
44.5 99 569 0.0420342 -0.8351836 -0.5483626 
46.5 98 570 0.03929365 -0.8241871 -0.5649527 
38.66667 96 571.3333 0.06556957 -0.8343402 -0.5473363 
36.5 95 573.5 0.0602131 -0.8441623 -0.5326954 
32.33333 93 575.3333 0.07869516 -0.8380394 -0.5399048 
34.5 93 577 0.05561246 -0.8275012 -0.5587031 
22 88 580 0.1709516 -0.7831014 -0.5979362 
22 86 582 0.20482 -0.7769009 -0.595377 
28.66667 85.33334 587.6667 0.191991 -0.8257916 -0.5302903 
32.5 84 589 0.08460829 -0.8619128 -0.4999478 
38.33333 83 591.3333 0.1186302 -0.9189042 -0.3762206 
-17.75 15.5 451.5 0.6912287 0.3780929 -0.6158319 
-24 23.5 450 0.4375224 0.3404661 -0.8322602 
-29.5 29.5 450 0.1238183 0.3638819 -0.9231787 
-32 31.5 450 -0.06448662 0.3829162 -0.9215296 
-37.5 33.5 453.75 -0.4213104 0.2342562 -0.8761402 
-46 35.5 459 -0.6951917 0.02532336 -0.7183781 
36.5 120 534 0.02826539 -0.8409415 -0.5403873 
34.5 121 534 -0.0002026583 -0.8657829 -0.5004197 
78.5 128 563.5 0.2674769 -0.7259037 -0.633656 
32.5 121.5 531.5 0.007714456 -0.8720188 -0.4894116 
-97.5 133.5 509 0.00820765 -0.8745592 -0.4848494 
-99.5 133.5 508 -0.03582978 -0.8881902 -0.458077 
-107.5 137.5 503.5 -0.3316258 -0.866307 -0.3735459 
-111.4 139.8 501.6 -0.3667245 -0.8555516 -0.3654377 
-109.5 139.75 499.75 -0.3291317 -0.8444835 -0.4225164 
-63.2 143.4 497.4 0.1450211 -0.8059776 -0.5739068 
-58 145 497 0.03644023 -0.8204334 -0.5705797 
-59.5 145 496 0.05570434 -0.8400388 -0.5396591 
-61.5 146 494 0.08137846 -0.8411958 -0.5345721 
-61.6 147.2 491.4 0.08937521 -0.8580409 -0.505745 
-52 148 490 0.05089972 -0.8356759 -0.5468593 
-79.5 149 487 0.02500811 -0.8120598 -0.5830382 
-73.5 149.5 485.5 0.0350346 -0.8215109 -0.5691156 
-75.5 150 484 0.03939893 -0.8184656 -0.5732031 
-73.33334 151 483.3333 0.05785225 -0.7992715 -0.5981792 
-49.5 154 481 -0.006508758 -0.8013515 -0.5981584 
-49.5 155.5 479.5 -0.0116898 -0.7937251 -0.6081643 
-57.5 157.6667 477.6667 0.09339998 -0.8160165 -0.5704328 
-59.66667 158 475.6667 0.09822024 -0.8338092 -0.5432449 
-57.33333 159.3333 475 0.07518648 -0.8506121 -0.5203903 
-55.66667 160 473.6667 0.07972763 -0.8806641 -0.4669842 
-51.5 161.3333 471.3333 0.06656824 -0.8562841 -0.5121974 
-53.5 162 470 0.08233275 -0.8386009 -0.5384885 
43 107 555 0.008397012 -0.8487248 -0.528768 
40.33333 105.6667 555.6667 0.007155888 -0.8453068 -0.5342335 
42.33333 103.6667 559.6667 0.05291081 -0.8543871 -0.5169362 
55 103 563 0.02725202 -0.8572862 -0.5141185 
-38 20 435 0.2239998 0.9157428 -0.3335255 
-47.5 26 451.5 -0.3089938 0.8774442 -0.3668985 
-47.33333 33.33333 459.6667 -0.7178042 0.09677159 -0.6894871 
77 127 565 0.4284593 -0.6319009 -0.6458514 
-104 133 512 -0.2665509 -0.8844708 -0.3829649 
-51.66667 155.3333 481.3333 0.002104018 -0.7889873 -0.6144059 
-33.5 166 468 0.03743304 -0.8533041 -0.520068 
2.5 164 469.5 0.07523048 -0.8396157 -0.5379459 
0 164 467.5 0.07041927 -0.8375044 -0.5418742 
4.5 163.5 471 0.036708 -0.8377898 -0.5447576 
-53 15.5 434 -0.6829882 0.1334766 -0.7181304 
-51.4 17.6 433.6 -0.6244898 0.3109165 -0.7164798 
-49.5 17.5 431.75 -0.5761051 0.3344811 -0.7458051 
-49.5 19.5 433.75 -0.4836663 0.5951148 -0.6417986 
-49 51 466 -0.6608118 0.3075176 -0.684661 
-122 127 565 -0.3516737 -0.9325988 -0.08114839 
-123 128 563 -0.3285478 -0.9404104 -0.08766136 
-125 129 564 -0.326167 -0.9421921 -0.07674068 
56.66667 125.3333 529.3333 0.5564516 -0.5763073 -0.5985245 
58 127 529 0.7575564 -0.3345661 -0.5605121 
56.5 127.5 527.5 0.7198649 -0.4214084 -0.551552 
50.5 127.5 522 0.2328929 -0.7830588 -0.5766974 
56 129.5 525 0.7756831 -0.329016 -0.5385762 
52.5 129.5 521.5 0.4956224 -0.6288565 -0.599081 
54.66667 131.3333 521.6667 0.7409924 -0.3583773 -0.5678874 
50.5 131.5 517.5 0.3786599 -0.6544003 -0.6545051 
52.75 131.5 519.5 0.5986033 -0.5336234 -0.5974281 
-41.5 134 507 -0.2277645 0.4381432 -0.869571 
-39.5 134 505.5 -0.2696508 0.5364869 -0.7996689 
-43.66667 135.3333 508 -0.1120213 0.2236536 -0.9682099 
-45 137 508 -0.01486135 -0.2416855 -0.9702408 
-47.5 139.5 507.5 0.03940947 -0.7229791 -0.6897449 
-33.5 140 505.5 -0.04339148 -0.8572257 -0.5131095 
-35.5 140 503 -0.07541315 -0.856564 -0.5105008 
-46 141 503.5 0.02598914 -0.8978311 -0.4395724 
-43.5 141 501.5 -0.007783511 -0.9284118 -0.3714713 
-41.4 141.8 499.6 -0.01090777 -0.9033372 -0.4287923 
12.5 145.5 498 0.05158534 -0.8230212 -0.5656633 
14.5 147 497 -0.005746885 -0.8393239 -0.5436012 
12.5 147.5 495.5 0.04126007 -0.8448828 -0.533358 
10.5 148 494 0.05822733 -0.8413365 -0.5373663 
8.5 148 492 0.06540124 -0.8257892 -0.560174 
-9.5 149 491 0.06002277 -0.8092339 -0.5844125 
-7.666667 149.6667 490 0.04561115 -0.8088899 -0.5861884 
-5.6 151.2 489.4 0.04624221 -0.8102434 -0.5842664 
-7.333333 152 487.3333 0.04307508 -0.8170607 -0.5749404 
-2 152 486 0.08236212 -0.8194851 -0.5671515 
-7.5 153.3333 485.3333 0.03292516 -0.8163106 -0.5766739 
-5.5 154 484 0.04145163 -0.8263544 -0.5616229 
8.5 157 481.5 0.04327872 -0.8301252 -0.555895 
10.33333 158 479.6667 0.05063935 -0.825321 -0.5623887 
14.4 159.8 477.6 0.01711873 -0.8172449 -0.5760363 
10.5 161 475.5 0.09488433 -0.8593543 -0.5025011 
4.5 162 473.5 0.0551841 -0.8257225 -0.5613708 
6.5 162 472 0.01386217 -0.8506346 -0.5255746 
-35 167 467 0.04818107 -0.8669001 -0.496148 
-35 165 469 0.07031593 -0.8403912 -0.5373996 
54.33333 123.6667 529.6667 0.2539014 -0.7561175 -0.6031752 
-17.5 133.5 516 0.477769 -0.1194119 -0.8703319 
49 132 516 0.226071 -0.7294253 -0.6456242 
-19 135 515 0.2430451 -0.6677259 -0.703613 
-37.5 133 503.5 -0.24109 0.7436563 -0.6235791 
-37.5 135 505.5 -0.06587961 0.5264305 -0.847662 
-117.6667 169.3333 459.3333 -0.3929408 0.2300528 -0.8903221 
-119.6667 169.6667 461 -0.4003792 0.3457938 -0.8486007 
-113.4 165.4 459.2 -0.07506157 -0.5885028 -0.8050032 
-55.5 163.5 467.25 0.115076 -0.7776161 -0.6181188 
-53.5 163 469 0.09876278 -0.7922564 -0.6021427 
-55.5 162 469.5 0.06878924 -0.8467762 -0.5274828 
76.5 125.5 565.25 0.5570898 -0.4825089 -0.6758965 
32.5 120 535.5 0.001689437 -0.8546288 -0.5192367 
34.5 119 537 -0.02612404 -0.8451232 -0.533933 
32.5 118 538 -0.0265163 -0.837861 -0.5452393 
46.5 117.5 539.25 0.05195266 -0.8125359 -0.5805915 
16.5 116 540 0.04809163 -0.8487668 -0.5265759 
18.5 116 542 0.03506288 -0.8277236 -0.5600395 
20.5 115 543.5 0.02730261 -0.8136951 -0.5806506 
20.5 113.5 545 0.02254185 -0.8018724 -0.59707 
79 117.5 572 0.8087845 -0.1667504 -0.5639698 
18.5 112 546 0.03555551 -0.7873944 -0.6154233 
44.5 111.5 547.75 0.03117989 -0.8304611 -0.5562034 
47 111 549 0.02046933 -0.8258922 -0.5634564 
44.33333 110 549.6667 0.02377459 -0.8308069 -0.5560528 
42.5 109 552 0.004905446 -0.8396439 -0.5431151 
38.6 107.4 553.4 0.007191702 -0.8346822 -0.550685 
42.5 106 556 0.02742204 -0.8483511 -0.5287234 
40.66667 105.3333 557.6667 0.01126208 -0.8416155 -0.5399598 
40.5 103.5 559.5 0.01650942 -0.850895 -0.5250763 
42.66667 103.3333 561 0.05208093 -0.8533554 -0.5187216 
54.5 101.5 563.5 0.03645117 -0.8617786 -0.5059735 
40.5 102 562 0.02429 -0.8466741 -0.531557 
42.5 100 566 0.03964307 -0.8536094 -0.5194029 
46.5 99 569 0.03732141 -0.838254 -0.5440013 
44.5 97.5 570 0.04509449 -0.8234158 -0.5656439 
36.5 96 571.5 0.07943529 -0.8406796 -0.535675 
38.33333 95.33334 573.3333 0.04881876 -0.835221 -0.5477431 
34.5 93 576 0.05033679 -0.8350415 -0.5478795 
33 93 577 0.07270557 -0.8284009 -0.5553971 
47 92 578 -0.002684935 -0.823192 -0.5677568 
30.5 85.5 587.5 0.1098219 -0.8453906 -0.522737 
36.5 83 591.5 0.09851462 -0.9008527 -0.4227994 
39 83 593 0.1486685 -0.9339724 -0.3249513 
-17 15.5 453 0.6541705 0.2604728 -0.710081 
-39.5 20 435 0.1721454 0.9247651 -0.339375 
-23.6 21.4 449.4 0.5243054 0.4337556 -0.7327755 
-48 26 453 -0.3439073 0.8535827 -0.3913112 
-45.5 26 451 -0.2841515 0.8657021 -0.4120895 
-45.5 27.5 453.5 -0.3809632 0.7704633 -0.5111295 
-31.5 29.5 450 0.03479654 0.4176438 -0.9079443 
-39.66667 31.66667 455 -0.4573607 0.3798403 -0.8040788 
-35.75 31.75 451.25 -0.3132835 0.4145443 -0.8544042 
-48 34 461 -0.7550324 0.02854078 -0.6550662 
-46 34 459 -0.6857197 0.08511955 -0.7228715 
-47.5 35.5 459.75 -0.7259517 0.002685373 -0.6877403 
-37 35.5 454 -0.3499398 0.1612904 -0.9227825 
38.5 120 534 0.04685973 -0.8306019 -0.5548916 
76.4 127.8 563.6 0.4294286 -0.5984604 -0.6763405 
78.5 127 565 0.3300172 -0.6877027 -0.6466481 
34.5 121.5 531.5 0.003395045 -0.8747809 -0.4845069 
-99.5 133 509 -0.05901673 -0.8932854 -0.4455986 
-97.5 134 508 0.01296549 -0.8725465 -0.488359 
-108 137 506 -0.365581 -0.8600188 -0.355975 
-105 136 502 -0.2054611 -0.873534 -0.4412755 
-109.6667 139 501.6667 -0.3450968 -0.8516908 -0.3943741 
-63.5 142 498 0.1498439 -0.8012606 -0.5792481 
-61.66667 143.6667 498 0.09674087 -0.8027099 -0.5884709 
-63.5 144 495.5 0.1508232 -0.8231703 -0.5473965 
-59.5 145 497 0.0579198 -0.8278004 -0.5580249 
-57.5 145 495.5 0.05373459 -0.8412696 -0.5379387 
-63.6 145.6 493.4 0.1452309 -0.8412373 -0.5207954 
-63.4 147.2 491.4 0.1330396 -0.8550583 -0.5011745 
-75.5 149.3333 485.3333 0.04625564 -0.8196364 -0.5710137 
-73.5 150 484 0.0448276 -0.8187356 -0.572418 
-73 151 485 0.05780204 -0.8157759 -0.5754725 
-75.5 151 483 0.03533298 -0.8117008 -0.5830038 
-51.5 154 482 0.005186533 -0.8117603 -0.5839678 
-49.5 155 481 -0.004118951 -0.8027838 -0.596256 
-51.5 155.75 479.5 0.006410419 -0.7969587 -0.6039997 
-59.4 157.2 477.4 0.09701881 -0.8215514 -0.5618191 
-57.5 158 476 0.08215734 -0.8385784 -0.5385503 
-59.5 159.5 475 0.09139147 -0.8340859 -0.5440114 
-53.5 160 473.5 0.0448088 -0.8826164 -0.4679535 
-55 160 471.5 0.06495301 -0.8800201 -0.4704739 
-49.5 161.3333 471.3333 0.07244217 -0.8342096 -0.5466686 
-117.5 172 461.5 -0.3898226 0.5366743 -0.7483442 
46 105 559 0.05713876 -0.8607455 -0.5058185 
52.5 101 565.5 0.05359201 -0.848543 -0.5264054 
44.66667 99.33334 567.3333 0.04115257 -0.8532635 -0.5198537 
36 94 574 0.05655042 -0.8461738 -0.529898 
22.66667 87.33334 581.3333 0.1655376 -0.7823464 -0.6004428 
34.5 84 589.5 0.07180864 -0.873313 -0.4818382 
36 82 594 0.1429253 -0.9419451 -0.3038287 
-31.66667 21.33333 441.6667 0.3223287 0.8200426 -0.4729 
32.5 121 533.5 0.01347786 -0.872958 -0.4876091 
-106 137 503 -0.2768127 -0.8703656 -0.4072328 
-78 149 487 0.03023571 -0.8165116 -0.5765367 
-121.3333 175.3333 466 -0.3799647 0.4516327 -0.8072514 
-123.5 173.5 465.75 -0.3821974 0.5052984 -0.7736916 
-121.5 173 464 -0.3851056 0.5445725 -0.7450735 
-119.5 167.5 459.5 -0.4013011 0.06081361 -0.9139251 
-117.75 165.5 459.5 -0.264592 -0.4357901 -0.860278 
-119.6667 165.3333 461 -0.3118595 -0.4004692 -0.8616078 
-51.5 163.5 468 0.1157462 -0.7566829 -0.6434547 
-49.5 163 469 0.1201257 -0.7664217 -0.6310053 
-51.5 162 470 0.08604294 -0.8366809 -0.5408898 
75 125.5 563 0.7062656 -0.3205464 -0.6312204 
36.5 119 535.5 -0.00378105 -0.8369025 -0.547339 
78.66666 125.3333 567 0.4165525 -0.6312387 -0.6542337 
42.5 117.5 539 0.04027216 -0.8223787 -0.5675133 
36.33333 118 537.6667 -0.01548056 -0.8244318 -0.5657494 
22.5 116 541.5 0.006998789 -0.8356615 -0.5492002 
17 115 543.5 0.01947684 -0.8165054 -0.5770093 
16.5 113 545 0.09452616 -0.7757215 -0.6239558 
22.5 112 546 0.01678935 -0.8109825 -0.5848294 
40.66667 111.6667 547.3333 0.01659825 -0.83944 -0.5431989 
40.5 110 550 0.004628471 -0.8333092 -0.5527878 
46.5 109.5 551.5 0.02021157 -0.8325992 -0.5535071 
32.5 108 552 0.03677137 -0.8285682 -0.5586793 
34.5 108 553 0.04241079 -0.8364967 -0.5463284 
44.5 107 555 0.0261755 -0.853901 -0.5197768 
46.5 106 556 0.03933012 -0.861348 -0.5064907 
44.5 105.5 557.5 0.05654874 -0.8535503 -0.5179325 
44.5 104 560 0.06124713 -0.8502264 -0.522842 
46.5 103.5 561.5 0.05400583 -0.8451235 -0.5318363 
50.5 101.5 563.5 0.04162702 -0.8506339 -0.5241079 
44 102 562 0.05230247 -0.8443618 -0.5332144 
48.5 101 565 0.04692364 -0.8560739 -0.5147191 
46.5 100 566 0.05010803 -0.8503393 -0.5238438 
40.5 99 567.5 0.04684027 -0.8476555 -0.5284753 
40.5 97.5 569.5 0.04903552 -0.8279816 -0.5586072 
32.33333 95.33334 571.6667 0.07109231 -0.850297 -0.5214796 
34.5 95 573 0.08247034 -0.8495131 -0.5210817 
38.5 93.5 575.5 0.02577481 -0.8268526 -0.5618279 
32.5 94 574 0.07025756 -0.8476977 -0.5258065 
36.5 93 577 0.03310099 -0.8302269 -0.556442 
42 92 578 0.02700168 -0.8167602 -0.5763452 
22.5 89 579 0.1747386 -0.7843535 -0.595194 
22.66667 85.33334 583.3333 0.2182334 -0.7838396 -0.5813515 
26.5 85 587 0.2211022 -0.8134608 -0.5379549 
38.5 84 590 0.09502049 -0.8962255 -0.4333024 
32.5 83 591.5 0.1192392 -0.889123 -0.4418625 
32.5 82 594 0.1566357 -0.9171583 -0.3664503 
-18 17.5 451.5 0.6169857 0.2831952 -0.7342541 
-33 18 435 0.3797049 0.853824 -0.3561023 
-19.5 19.5 451.25 0.5680166 0.3029507 -0.7652307 
-17 19.5 453 0.481153 0.09488364 -0.8714866 
-35.66667 20 435.6667 0.3004333 0.8904818 -0.3417338 
-33.25 19.75 437.25 0.3406611 0.8620159 -0.375338 
-47.5 27.5 455.5 -0.484568 0.7248774 -0.4896393 
-27.5 29.5 450 0.2282881 0.305893 -0.9242911 
-39.66667 29.66667 453.3333 -0.4109153 0.5595578 -0.7197526 
-37.5 29.5 451.25 -0.3155793 0.5838824 -0.7479913 
-47.66667 31.33333 459.3333 -0.7347296 0.3288663 -0.5933122 
-37.75 31.75 453.25 -0.4209129 0.4088309 -0.8097467 
-35.66667 33.66667 453 -0.3441854 0.3035912 -0.8884643 
-33.5 33.5 451 -0.1741184 0.3513997 -0.919892 
-39.5 35.5 455 -0.4029008 0.06114886 -0.9131987 
-35 35 452 -0.2682526 0.2582001 -0.928102 
36.5 121 533.5 0.02595763 -0.8573201 -0.5141289 
38.66667 122 531.3333 0.08484775 -0.8625107 -0.498875 
78.5 129 563 0.186291 -0.7715018 -0.6083425 
-103.5 133.5 509.5 -0.2197973 -0.8957838 -0.3863424 
-101.3333 133.6667 508 -0.1117241 -0.9097697 -0.3997962 
-104 135 507 -0.2186366 -0.904709 -0.3656499 
-105.5 135.75 505.5 -0.2812908 -0.8885872 -0.3623374 
-111.3333 138 505.6667 -0.4373028 -0.8513538 -0.2897639 
-109.5 138 503.5 -0.3695628 -0.8583925 -0.3557888 
-107.5 138 502 -0.3241588 -0.8610306 -0.3918511 
-112 139 503.5 -0.3817647 -0.8588157 -0.3416012 
-105.3333 138 499.6667 -0.2047681 -0.8537905 -0.4786563 
-57.5 143.5 497.5 0.0298303 -0.8100425 -0.5856118 
-61.5 145 495.5 0.09272202 -0.8386363 -0.5367419 
-59.5 146 493.5 0.0651161 -0.8483232 -0.5254595 
-59.5 147 491.5 0.07780729 -0.8538721 -0.5146344 
-73.5 149 487 0.04694369 -0.8318311 -0.5530401 
-79.5 149.5 485.5 0.02459255 -0.8113441 -0.5840513 
-77.5 150 484 0.03425464 -0.8170261 -0.5755822 
-79.6 151.2 483.4 0.01543604 -0.8253438 -0.5644195 
-55.5 154 481.5 0.04616882 -0.8148058 -0.5778928 
-53.5 155.5 481 0.04167316 -0.7956679 -0.6042979 
-55.6 155.8 479.6 0.06159741 -0.800463 -0.5962087 
-63.33333 157 477.3333 0.1512007 -0.8184516 -0.5543242 
-61.5 158 476 0.1198006 -0.823207 -0.5549579 
-63.5 159 475 0.128292 -0.8167063 -0.5626118 
-49.5 160 473.5 0.02793756 -0.8656863 -0.4998068 
-53.4 161.4 471.6 0.08133971 -0.8678367 -0.4901462 
-115.3333 171.3333 459.6667 -0.3474659 0.4466593 -0.8244774 
-120 172 463 -0.3865645 0.4978774 -0.7763286 
79 121 571 0.6088467 -0.436069 -0.6626836 
43 99 569 0.04723426 -0.8405912 -0.5396068 
-43.33333 27.33333 451.6667 -0.290036 0.7955572 -0.5319471 
-26 31 450 0.2797267 0.2719069 -0.9207712 
-34 36 453 -0.1732513 0.2774383 -0.9449931 
35 120 534 -0.001902064 -0.8533478 -0.5213386 
-107.6667 139.3333 499.3333 -0.2925708 -0.8378475 -0.460884 
-113.5 172 459 -0.3465067 0.4253667 -0.83606 
-116 172 461 -0.3741552 0.5097947 -0.7746724 
-121.5 174 465 -0.3831503 0.51182 -0.7689188 
-116 170 459 -0.3120901 0.2700716 -0.9108574 
-118 167.5 459 -0.3603387 -0.03231503 -0.9322616 
-119.5 166 460 -0.3319378 -0.2884793 -0.8981075 
-49.5 163.5 468 0.1288214 -0.7503604 -0.6483551 
-51.5 163 469 0.1148051 -0.770117 -0.6274866 
-49.5 162 470 0.1088797 -0.8078294 -0.5792727 
38.5 119 535.5 0.03470024 -0.8239138 -0.5656518 
38.5 118 538 0.01156292 -0.821955 -0.5694351 
40.5 117.5 539 0.02806285 -0.8267108 -0.5619268 
20.5 116 541.5 0.03285749 -0.8322955 -0.5533575 
18.5 115 543.5 0.02106652 -0.8192223 -0.573089 
16.33333 114 543.6667 0.07667852 -0.7992068 -0.5961451 
18.5 113.5 545 0.0250133 -0.7929013 -0.6088365 
20.5 112 546 0.03374328 -0.807622 -0.5887343 
42.5 111.5 547.5 0.02107058 -0.8333421 -0.5523558 
42.5 110 549.5 0.002309158 -0.8365273 -0.5479203 
44.66667 109.3333 551.6667 0.01414087 -0.835983 -0.5485732 
32.5 107.5 553.5 0.04327449 -0.8372334 -0.5451308 
46.5 107 555 0.02660384 -0.855615 -0.5169287 
44.5 106 556 0.03711752 -0.8552165 -0.5169401 
46.66667 105.6667 557.3333 0.04183622 -0.8607076 -0.5073778 
46.5 104 560 0.05884184 -0.8486449 -0.5256801 
44.5 103.5 561.25 0.06115862 -0.8487291 -0.5252795 
51 103 563 0.04311892 -0.8452286 -0.5326625 
48.5 101.5 563.5 0.04844166 -0.8536583 -0.518576 
50.5 101 565 0.04415492 -0.8490868 -0.5264048 
42.33333 99 567.3333 0.04288495 -0.8470545 -0.5297732 
42.5 97.5 570 0.039155 -0.8244135 -0.5646321 
34.5 96 571.5 0.08456662 -0.8452582 -0.5276239 
33 95 573 0.07510647 -0.8549851 -0.5131858 
34.5 94 574 0.07383352 -0.8484378 -0.5241202 
36.66667 93.33334 575.6667 0.03370845 -0.8299209 -0.5568618 
38.5 93 577 0.02541386 -0.8257579 -0.5634519 
40.5 92 578 0.03110301 -0.8139386 -0.5801178 
23 89 581 0.1648744 -0.7850126 -0.5971361 
25 85 587 0.2273468 -0.804368 -0.5489132 
23 85 585 0.2388582 -0.792266 -0.5614815 
36.5 84 589 0.07627082 -0.8885189 -0.4524567 
34.5 83 591.5 0.0965571 -0.8947719 -0.4359588 
34.5 82 594 0.136828 -0.9415836 -0.3077314 
-17 17.5 453 0.5870311 0.1312102 -0.7988607 
-18 19.5 452 0.485951 0.1431498 -0.8621831 
-48 28 457 -0.5390631 0.6936437 -0.4777754 
-44 28 453 -0.3652372 0.7042473 -0.6088001 
-39.5 29 451.5 -0.319804 0.6756336 -0.6642625 
-25.5 29.5 450 0.302392 0.2711024 -0.9138176 
-37.33333 31.33333 451.6667 -0.3994269 0.4386747 -0.8049986 
-27.5 31 450 0.2129497 0.2816488 -0.9355888 
-48 32 461 -0.7396835 0.2330067 -0.6313288 
-39.5 33.5 455.5 -0.432631 0.1771408 -0.8839976 
-35 33.5 452 -0.300928 0.3155803 -0.8999175 
-35.6 35.4 453.4 -0.3066693 0.2292962 -0.9237842 
-33.33333 35.33333 452 -0.1426877 0.30514 -0.9415572 
-38 35.5 455 -0.39033 0.08415057 -0.9168213 
38.5 121.5 533.5 0.06261786 -0.849559 -0.5237639 
75 127 563 0.5389136 -0.4811939 -0.6913932 
36.5 121.5 531.5 0.04504506 -0.8740379 -0.4837652 
39 123 531 0.09869979 -0.8616868 -0.4977493 
-101.6667 133.3333 509 -0.13307 -0.9046087 -0.4049388 
-103.5 134 508 -0.2078738 -0.9061664 -0.3683081 
-107.3333 136 505.6667 -0.3457761 -0.8673608 -0.3579443 
-105 136 504 -0.2525329 -0.8811406 -0.3997731 
-109.3333 137.3333 505.6667 -0.3907428 -0.8575594 -0.3345324 
-105.6667 137.3333 501.3333 -0.2217367 -0.8741302 -0.4321217 
-107 138 500 -0.2848724 -0.8472546 -0.4483384 
-105.5 139 499 -0.1992875 -0.8477353 -0.491558 
-59.4 143.6 497.8 0.04358127 -0.8147124 -0.5782253 
-61 145 497 0.08049195 -0.8256865 -0.5583573 
-63 145 495 0.1318519 -0.8335308 -0.5365087 
-57.5 146 493.5 0.04097854 -0.8527359 -0.5207324 
-57.5 147 491.5 0.04953234 -0.8473513 -0.5287178 
-55.5 148 489.5 0.07067352 -0.8191283 -0.5692399 
-77.4 149.4 485.4 0.03942615 -0.8123109 -0.5818905 
-79 150 484 0.02408182 -0.8192192 -0.5729747 
-77.5 151 483 0.04295652 -0.820328 -0.5702777 
-53.5 154 482 0.01648277 -0.8133077 -0.5816004 
-55.33333 155.3333 481 0.05036186 -0.8037982 -0.5927665 
-53.4 155.8 479.6 0.03764058 -0.8032832 -0.5944068 
-61.5 157 477.5 0.1268941 -0.8176045 -0.5616234 
-63.6 157.8 475.6 0.1486123 -0.8073442 -0.5710602 
-61.33333 159 475.3333 0.1161355 -0.8243133 -0.5540941 
-51.66667 160 473.3333 0.04259714 -0.8792948 -0.4743692 
-55.5 161 471.5 0.07571412 -0.8754057 -0.4774225 
-123 175 466 -0.3857552 0.4650148 -0.7968402 
40 111 549 0.01191871 -0.837864 -0.5457491 
34 108 552 0.04105768 -0.8381456 -0.5438992 
44 100 566 0.0504486 -0.8539045 -0.5179787 
-19 18 451 0.6078502 0.3412115 -0.7170027 
-33.5 19 435.5 0.351751 0.8658961 -0.3556615 
-41.5 28 451.5 -0.3180768 0.7383932 -0.5946449 
-39 31 454 -0.4206864 0.4213919 -0.8034002 
-111 138 503 -0.3739009 -0.8544762 -0.3606504 
-108 139 501 -0.329695 -0.8494461 -0.4119982 
-80 151 485 0.02086898 -0.8154626 -0.5784333 
-34 167 467 0.04448131 -0.8682506 -0.4941278 
-35.6 165.4 467.4 0.06250021 -0.8448619 -0.5313212 
-33.5 165.3333 469.3333 0.05153538 -0.8392043 -0.5413688 
0.6666667 164 469.3333 0.09308777 -0.8398106 -0.5348392 
6.5 163.5 471 0.003624304 -0.8408389 -0.5412734 
-51 17 432 -0.6225654 0.2340727 -0.7467411 
-49 19 432 -0.4913732 0.5607435 -0.6664227 
52.5 123.5 529.5 0.148992 -0.8218067 -0.5499411 
58 125.5 530 0.6606439 -0.4156945 -0.6250982 
58 128 528 0.8197171 -0.2483453 -0.5161284 
48.5 127.5 522 0.09114239 -0.8149214 -0.5723602 
56 131.5 525 0.8377106 -0.1968897 -0.5093872 
52.5 130 520 0.5209109 -0.6040253 -0.6031627 
48.5 131.5 517.5 0.154769 -0.7283546 -0.6674924 
54 132 520 0.7586778 -0.3298919 -0.5617645 
50.5 132 516 0.3956928 -0.6420266 -0.6566803 
-17.33333 133.6667 517 0.3977829 -0.3751107 -0.8372937 
-18 135 515 0.1734395 -0.7354253 -0.6550331 
-43.5 133.5 507.5 -0.1975938 0.4032157 -0.8935177 
-43 136 509 -0.08364923 0.1422225 -0.9862939 
-41.5 135.5 507.75 -0.1140971 0.2126866 -0.9704362 
-47.5 137.5 508 0.01641173 -0.469291 -0.8828911 
-45.66667 137.6667 509 -0.02087786 -0.33005 -0.9437326 
-45.5 139 508 0.05386174 -0.6531743 -0.7552896 
-35.5 140 505.5 -0.06236405 -0.8840789 -0.4631579 
-47.33333 141 503.6667 0.04230748 -0.8903219 -0.453362 
-33.5 140 503 -0.01081654 -0.8299953 -0.5576655 
-41.66667 141 501.6667 -0.008527762 -0.9269471 -0.3750951 
-43.5 142 499.5 -0.0005957673 -0.8965396 -0.4429632 
14.5 145.5 498 -0.01154006 -0.8206364 -0.5713341 
12.5 147 497 0.05269419 -0.840652 -0.5390059 
14.66667 147.3333 495.6667 -0.01162111 -0.8466064 -0.5320927 
8.5 147.5 493.75 0.07254338 -0.8380935 -0.5406818 
-11.5 149 491 0.02646978 -0.8119896 -0.5830715 
-5.5 150 490 0.03194721 -0.8147452 -0.5789383 
-7.5 151.25 489.25 0.04375805 -0.817385 -0.5744275 
-5.5 152 487.5 0.04773705 -0.8171689 -0.5744181 
-5.6 153.4 485.4 0.0520962 -0.8133622 -0.5794203 
-7.5 154 483 0.03963823 -0.8225425 -0.5673206 
-5.5 155 483 0.02907367 -0.8371518 -0.5461975 
4.5 156 482 0.071727 -0.8600228 -0.5051891 
10.5 157 481.5 0.02423686 -0.8190213 -0.573251 
8.5 158 479.5 0.06856976 -0.8333635 -0.5484556 
10.66667 159.3333 479 0.05772655 -0.8280442 -0.5576832 
12.6 159.8 477.6 0.0464838 -0.8217884 -0.5678936 
0 160 474 0.09273952 -0.8066073 -0.5837672 
