ply
format ascii 1.0
comment VCGLIB generated
element vertex 969
property float x
property float y
property float z
property float nx
property float ny
property float nz
element face 0
property list uchar int vertex_indices
end_header
45.66667 190 475.6667 0.05243553 -0.8731605 -0.4846042 
43.5 192 471 -0.009134324 -0.8585934 -0.5125757 
49.4 194.8 467.6 0.07518387 -0.8432767 -0.5321954 
39.5 197 463.5 -0.002771677 -0.823104 -0.5678841 
41.5 198 463 0.009972692 -0.8312952 -0.5557417 
31.75 200.25 459.25 -0.05791829 -0.4964996 -0.8661026 
33.5 202.5 459 -0.07109001 -0.1786003 -0.9813502 
-0.5 213 471 -0.134557 0.6114039 -0.7797948 
39.75 208.25 459.75 -0.1822301 0.4345474 -0.8820209 
1.666667 214.3333 471.3333 -0.1391505 0.6444795 -0.7518532 
-0.5 220 479 -0.1107809 0.7764552 -0.6203587 
33.5 188.6667 477.6667 -0.05566202 -0.8488677 -0.5256665 
31.5 190 477 -0.01352299 -0.8609461 -0.5085165 
39.5 198 461.5 -0.01802566 -0.7937427 -0.6079866 
37.5 208.5 461 -0.170903 0.4359553 -0.8835922 
15.5 182.3333 485.3333 0.1867936 -0.5279647 -0.8284694 
21.5 184 485 0.110201 -0.7010632 -0.7045326 
43.5 194 469 0.0002053983 -0.8326977 -0.5537279 
45.5 192.6667 469.6667 0.04526221 -0.8452014 -0.5325279 
61 217 461 -0.1348901 0.5599759 -0.8174544 
41 222 471 -0.174577 0.762965 -0.6224204 
51.5 184 487 0.05377818 -0.8556539 -0.5147469 
13.5 190 475 0.08278272 -0.8415115 -0.5338591 
9.333333 198.3333 463 -0.03858273 -0.3851363 -0.9220529 
13 203 463 -0.1291449 0.2823319 -0.9505842 
51.5 221 467 -0.1917241 0.7277619 -0.6584865 
36 219 469 -0.1449925 0.7508546 -0.644356 
57.6 180.4 493.2 0.2143324 -0.7843929 -0.5820562 
11 181 484 0.277413 -0.3386424 -0.8990903 
47 183 486 0.05188538 -0.8635792 -0.5015364 
11.5 192.25 471.25 0.1105409 -0.8413283 -0.5291005 
42 224 474 -0.1774649 0.7797123 -0.6004624 
51 182 489 0.02497706 -0.8521397 -0.522718 
5.5 205 465 -0.1479454 0.4601637 -0.8754208 
53.33333 220.3333 465.3333 -0.1953292 0.7076029 -0.6790764 
53.5 181 489.5 0.1042158 -0.8317549 -0.5452731 
51.5 180.5 491.25 0.05066998 -0.8249143 -0.5629821 
49.66667 182.6667 488 0.007522989 -0.8527747 -0.5222248 
13.5 183 484 0.2005276 -0.5529444 -0.8087282 
9.6 184.6 481.6 0.1746377 -0.6308218 -0.7560196 
13.5 186.5 480 0.08388893 -0.7762714 -0.6247923 
1 188 477.5 0.1241896 -0.7600145 -0.6379302 
11.25 188.75 475.75 0.09121478 -0.8594796 -0.5029659 
11.42857 190.5714 473.5714 0.1240762 -0.8372179 -0.5326081 
9.5 191 472 0.1158128 -0.820633 -0.5595971 
11.5 194 469.5 0.07020694 -0.8544353 -0.5147925 
17.5 194.5 467.5 0.03129426 -0.876418 -0.4805333 
15.5 195 466 0.03050811 -0.8733134 -0.4862027 
13.5 196 465.5 0.0183573 -0.8237172 -0.5667037 
7.5 196.3333 463.3333 -0.06436799 -0.6416637 -0.7642804 
10 197 462 -0.05484163 -0.533672 -0.8439115 
7.333333 198.6667 462 -0.1258706 -0.2181565 -0.9677625 
13.5 200.5 461.5 -0.1120152 -0.03202347 -0.9931904 
11.5 202 462 -0.1285642 0.2072405 -0.9698054 
3.666667 206.3333 466 -0.1469024 0.4840251 -0.8626351 
-0.5 208.5 467.75 -0.1452348 0.5285428 -0.8363908 
1.5 210 468 -0.1556157 0.5473939 -0.8222796 
51.5 212.5 459.5 -0.1494845 0.4949031 -0.8559937 
53.5 214 460 -0.1403451 0.5229392 -0.8407365 
41.5 220.5 469.5 -0.173493 0.7572643 -0.6296436 
59.75 218.25 461.75 -0.1468852 0.6062911 -0.7815598 
53.66667 222 467.6667 -0.1970935 0.7288637 -0.6556767 
53.5 184 485 0.06469025 -0.870663 -0.4876074 
-79 191 475 -0.09040758 0.1151358 -0.9892271 
-105 203 485 -0.17738 0.5455166 -0.8191141 
-91 201 481 -0.1987078 0.5064855 -0.8390398 
-80.5 182 481 0.05225259 -0.7782533 -0.6257728 
-87 212 489 -0.1362896 0.6931245 -0.7078161 
-92.66666 196.6667 479 -0.2592099 0.3541671 -0.8985409 
-108.5 204.5 487 -0.3123493 0.5182543 -0.7961472 
-88.5 205 483 -0.1663911 0.6006882 -0.7819768 
-66.66666 186 475.3333 -0.1305878 -0.6716079 -0.7293077 
-121 194 494 -0.7677013 0.4179296 -0.4857672 
-86.33334 206.3333 483.6667 -0.1496545 0.6194295 -0.770656 
-86 215 492 -0.1320277 0.7109701 -0.6907171 
-80.5 180 483.5 0.04587265 -0.8014188 -0.596342 
-114.25 180.25 485.25 0.1377254 -0.6574931 -0.7407662 
-78.5 181 482 0.05300348 -0.8001173 -0.5974973 
-74.5 183 479.5 -0.02361295 -0.7954304 -0.605585 
-68.5 185 476 -0.09175119 -0.7224007 -0.6853606 
-68.5 187 474 -0.1333192 -0.5006197 -0.8553396 
-78.5 188.5 473.5 -0.04412672 -0.1719809 -0.9841115 
-80 190 474 -0.06783951 0.0373107 -0.9969984 
-76.5 192.5 475.25 -0.112251 0.1826351 -0.9767518 
-90.33334 196.3333 478 -0.1983983 0.3468856 -0.9166834 
-74.5 194.5 475.25 -0.156138 0.2597552 -0.9529681 
-96.66666 198.6667 481.6667 -0.2298708 0.4118118 -0.8817996 
-90.5 198.5 479.25 -0.210752 0.4052148 -0.889598 
-92.33334 202.3333 482 -0.2260676 0.5285046 -0.8182765 
-106.5 204 486 -0.210789 0.5508355 -0.807557 
-112.3333 206.6667 489.3333 -0.4532986 0.4885598 -0.74554 
-86.33334 204.3333 482 -0.1428546 0.5722504 -0.8075408 
-106.5 206.5 487.75 -0.1850926 0.5869079 -0.7882131 
-106.5 208.5 489.5 -0.1631137 0.6172807 -0.7696482 
-106.5 210.5 491.5 -0.1658663 0.645076 -0.745899 
-84 208 484 -0.1551431 0.6291789 -0.7616197 
-84.5 212 488 -0.1374203 0.6986178 -0.7021744 
-80.5 186 477 0.0551156 -0.6563685 -0.7524245 
-78.5 184.5 477.5 0.0544587 -0.7688098 -0.6371545 
-117 204 497 -0.8128478 0.3301417 -0.4798801 
-72.5 212 485 -0.1690521 0.6951764 -0.6986781 
-71 209 483 -0.1784218 0.6448742 -0.7431709 
-92 190 476 -0.1741794 0.2239622 -0.9589069 
-114 200 488 -0.6712285 0.3539469 -0.6512864 
-66 198 474 -0.2175307 0.3582569 -0.9079275 
-72 206 480 -0.1788904 0.59528 -0.7833518 
-72 208 482 -0.1757331 0.6226621 -0.7625023 
-104.5 180 485.5 -0.06251192 -0.7852571 -0.6160061 
-92.33334 181 481.6667 -0.06311676 -0.8078954 -0.5859362 
-86.66666 185 475.6667 -0.03917268 -0.5142074 -0.8567709 
-86 187 474 -0.08922581 -0.2224942 -0.9708425 
-115 198 490 -0.7122662 0.381641 -0.58909 
-117 206 500 -0.772613 0.3748209 -0.5124242 
-68 196.5 474 -0.2364224 0.2979046 -0.9248553 
-74.5 202 478 -0.1800124 0.5066911 -0.8431249 
-114 211 494 -0.5614377 0.5746429 -0.5954606 
-72.5 210 484 -0.1788349 0.6671399 -0.7231476 
-92.4 184.4 477.4 -0.1206614 -0.5879092 -0.7998773 
-82.5 195 477 -0.1494234 0.337953 -0.9292257 
-80.5 196.5 477 -0.1575387 0.3595673 -0.9197245 
-78.5 198.5 477 -0.1762595 0.3836182 -0.9065151 
-76.5 200.5 477.5 -0.1718484 0.4539418 -0.8743026 
-70.5 204 479 -0.198805 0.5527225 -0.809305 
-76.5 203 479 -0.1581734 0.5306764 -0.8326847 
-68.5 198.5 475.25 -0.2224493 0.3516843 -0.9093043 
-90.5 188 475 -0.1494794 0.03314313 -0.9882092 
-88.5 186.5 475 -0.072803 -0.2740678 -0.9589508 
-96.5 183 479.5 -0.1352996 -0.7393421 -0.6595963 
-90.5 180 483 -0.03468463 -0.8251702 -0.5638183 
-75 212 487 -0.1345877 0.6985275 -0.7028126 
-86.5 180.5 483 0.03755732 -0.8057298 -0.5910913 
-92.5 186.5 475 -0.1862477 -0.1607431 -0.9692644 
-86.5 188.5 475 -0.09702192 0.07013118 -0.9928083 
-95 193 479 -0.2329286 0.3630281 -0.9021944 
-73 203 479 -0.1846097 0.552644 -0.8127139 
-81 207 483 -0.1318045 0.5981047 -0.7905051 
-80.5 215 491 -0.1275561 0.7265819 -0.6751357 
-96 192 478 -0.2309537 0.3498763 -0.9078805 
-114 208 492 -0.614715 0.4734553 -0.6308451 
-74.66666 208.3333 483.3333 -0.1542393 0.6325728 -0.7589874 
-108.5 180 485.5 0.01052445 -0.7431347 -0.6690592 
-84.5 182.6667 479.6667 0.05332798 -0.7866008 -0.6151547 
-90.6 184.8 475.6 -0.07578115 -0.4933662 -0.8665144 
-88.33334 190.3333 476 -0.144497 0.1858429 -0.9718966 
-96.75 194.25 479.5 -0.2311067 0.3647374 -0.9019735 
-82.33334 192.6667 476 -0.1416947 0.2607493 -0.9549516 
-78.33334 196.3333 476 -0.1544674 0.3403405 -0.927528 
-70.5 202.5 477.75 -0.1981499 0.5006003 -0.8426957 
-78.5 206 482 -0.1480492 0.5926544 -0.7917336 
-74.33334 204.3333 480 -0.1618498 0.5669345 -0.8077066 
-78.5 214 490 -0.1179271 0.7236754 -0.6799906 
-88.5 181 481.5 0.01744196 -0.8036067 -0.594905 
-86.5 182 481 0.03739621 -0.8038062 -0.5937147 
-80.5 204 481 -0.1523997 0.5549089 -0.8178328 
-80.5 213 489 -0.1264017 0.7071841 -0.6956388 
-72.66666 200.6667 477 -0.1899579 0.4406405 -0.8773552 
-90.5 191 477 -0.1855468 0.2308083 -0.9551439 
-88.5 184.5 477.5 0.01671959 -0.6295535 -0.7767773 
71.4 186.6 489.4 0.4968536 -0.7310851 -0.4676014 
75 194 493.5 0.9464018 -0.2136519 -0.2422323 
63.5 180.3333 495.3333 0.2056646 -0.7675703 -0.6070734 
69.5 180.3333 497.3333 0.3738871 -0.7219077 -0.5822867 
71.33334 185 491.6667 0.5042273 -0.7281748 -0.4642373 
73 186.6667 491.6667 0.6769864 -0.595017 -0.4331793 
74 188.5 493.5 0.7767197 -0.4620027 -0.4280889 
66 188 486 0.2464807 -0.8254101 -0.5078834 
63.5 182 493.5 0.1752246 -0.8171793 -0.5491033 
67.33334 218.3333 461.3333 -0.01981365 0.6138576 -0.7891681 
78 201 501 0.9638411 -0.1459154 -0.2229774 
32 65 645 0.7857598 -0.5693958 -0.2415988 
8 -40 517 0.9209392 -0.2893812 -0.2610164 
-18 130 529 0.01489188 -0.8373953 -0.5463948 
-36 56 505 -0.5366086 0.4117666 -0.7365457 
40 68 665 0.5522737 -0.7296166 -0.4033031 
62 66 673 0.06386626 -0.9354146 -0.3477368 
64 108 601 0.5317408 -0.7869158 -0.313074 
66 110 601 0.465768 -0.7917323 -0.3952472 
-9 134 523 0.09120084 -0.8558541 -0.5091132 
55 66 671 -0.03169897 -0.881722 -0.4707032 
33 56 655 0.8917726 -0.3490696 -0.2879097 
-78.5 178.5 485.25 0.05104916 -0.8125653 -0.5806304 
-66 168.5 491.5 -0.8402745 -0.2107786 -0.4995109 
-74.5 162.5 505.5 -0.4757423 -0.6585382 -0.5830924 
-76.33334 154.6667 515.6667 -0.6963958 -0.4397587 -0.5671377 
-14.33333 124.6667 539.6667 0.06885682 -0.7676806 -0.6371228 
-43 57 516 -0.8996838 0.1640695 -0.4045372 
-34 54 502 -0.4231108 0.4694405 -0.7749857 
-36 54 504 -0.5598521 0.4155258 -0.716871 
-38 54 506 -0.6735408 0.3450928 -0.6536466 
57 65 672 -0.01476608 -0.9110587 -0.4120122 
61 65 676 0.0490834 -0.9653192 -0.2564173 
53 75 658 0.09079891 -0.7862152 -0.6112456 
60 78.5 655.5 0.004597604 -0.8580913 -0.5134767 
49 81 648 0.3732911 -0.8236724 -0.4268697 
-75 99 570 0.06309438 -0.8547552 -0.5151823 
69 107 610 0.1798795 -0.8849115 -0.429622 
75.5 109 605.5 0.06482625 -0.8627858 -0.5013963 
-74.5 176 491 -0.008306005 -0.7834345 -0.6214189 
-6.5 136 519 0.1090128 -0.8772323 -0.467525 
-6.5 133 523 0.1137562 -0.8467131 -0.5197465 
51.5 74 659 0.08590956 -0.7951654 -0.6002762 
-39 52.5 507 -0.7591914 0.2690986 -0.5926335 
42 68 667 0.3860518 -0.7604175 -0.5222349 
35 67 651 0.7720412 -0.6105508 -0.1765786 
58 76 659 0.07087463 -0.8036084 -0.5909234 
47 79 651 0.4033085 -0.819534 -0.4070705 
54 80 651 0.06338107 -0.8660984 -0.495839 
67.5 106 611 0.2510193 -0.8690579 -0.4262955 
64 106 607 0.4372363 -0.8398281 -0.3217348 
77.5 108 607 0.07259838 -0.8551997 -0.513189 
-74.5 104 563 0.03008706 -0.79784 -0.6021181 
-66.5 108 559 -0.02913395 -0.8319903 -0.5540248 
-4.5 136 521 0.0996438 -0.8726313 -0.4781067 
-78.5 110 553 0.05126233 -0.8389475 -0.5417926 
-42 59 513 -0.8225482 0.2341401 -0.5182595 
52 81 649 0.1518925 -0.8543896 -0.4969377 
-88.5 100 569.5 -0.05299081 -0.841563 -0.5375536 
71.5 108 609 0.0850212 -0.8805861 -0.466197 
-74.5 106 561 0.06617878 -0.8030974 -0.5921612 
-82.66666 167 501.3333 -0.02414622 -0.8222508 -0.5686128 
-71 154.5 501 -0.936207 -0.06419992 -0.3455358 
-68.5 108.25 557.5 0.00380274 -0.8428871 -0.5380771 
-78.66666 108.6667 555.3333 0.05510059 -0.8574122 -0.5116721 
-80.5 106.5 559.5 0.01913183 -0.8562083 -0.5162765 
-76.66666 105 561.6667 0.05321031 -0.813247 -0.5794808 
67.5 111 600 0.4439001 -0.7819183 -0.4376718 
-80.5 103 563.5 0.01293431 -0.8228027 -0.56818 
-82.5 102 565.5 0.02156473 -0.8366168 -0.5473641 
65.5 108 603.5 0.435988 -0.8408458 -0.3207693 
65.5 107 605.5 0.4175867 -0.8456376 -0.3324432 
-82.66666 100.6667 567.3333 0.02770938 -0.8512672 -0.5240003 
-76.66666 98.33334 571.3333 0.03384382 -0.8589467 -0.5109452 
-70.5 98 573.5 0.101794 -0.8448064 -0.5253001 
-72.5 97 573.5 0.08745736 -0.8511097 -0.5176518 
-70.5 96.5 575.5 0.09225851 -0.8506833 -0.5175194 
-70.5 95 577.5 0.07609872 -0.8798395 -0.469139 
-72.5 94 580 0.08677344 -0.8720597 -0.4816454 
49.5 83 645.5 0.3694639 -0.8246632 -0.4282839 
-38 64.5 512 -0.602565 0.397981 -0.6917561 
-34.5 58.5 506 -0.4672749 0.4167816 -0.7797098 
-36.4 58.6 507.4 -0.5717008 0.3707989 -0.7318923 
55.5 76.5 657.5 0.08226342 -0.8031905 -0.590015 
33 64 648 0.8277189 -0.5006934 -0.2533527 
33 66 646 0.7664842 -0.6101453 -0.2005613 
-42 52.5 511.5 -0.8829076 0.1410156 -0.4478715 
43.5 70.5 663.5 0.3103452 -0.8292251 -0.4648349 
-80.5 109 554 -0.02484098 -0.8473025 -0.5305294 
-76.5 111 551.5 0.05971586 -0.8435308 -0.5337507 
-80.5 112.5 550 -0.05925275 -0.8007485 -0.5960628 
-52.5 116 549.5 -0.01122312 -0.838953 -0.5440883 
-10.66667 121 547.6667 0.3917464 -0.6749335 -0.6252996 
-14.5 120.5 543.5 0.5962433 -0.2415681 -0.765597 
-12.5 120.5 545.5 0.617124 -0.4017984 -0.6765473 
-16.5 120.5 541.75 0.5115927 -0.02595687 -0.858836 
-10.5 122 545.5 0.1725972 -0.8321874 -0.5269483 
-14.6 122.8 541.6 0.2626134 -0.5771936 -0.7732282 
-4.5 123 540 -0.04391005 -0.8655019 -0.4989775 
-16.5 125 538 0.0656525 -0.8217824 -0.5660067 
-12.5 126 535.5 -0.02960136 -0.9027476 -0.4291508 
-10.5 127 534 0.02145322 -0.8769996 -0.4800119 
-18.5 128.5 531.5 -0.007125423 -0.8740998 -0.4856942 
-20.5 129 529.5 0.04273114 -0.8665807 -0.4972042 
-24.4 130.2 527.4 0.09823251 -0.8629768 -0.495602 
-28 131 524 0.1011832 -0.8446183 -0.5257204 
-12.5 132 525.5 -0.006367003 -0.8858351 -0.4639566 
-8 133 522 0.1027064 -0.8511727 -0.5147392 
-6.5 134.5 521.5 0.1171091 -0.8535786 -0.5076308 
-8.5 136.5 517.5 0.06902 -0.8656463 -0.4958757 
-75 148 512 -0.9269958 -0.008923622 -0.3749656 
-75 154 513.5 -0.8345188 -0.2306488 -0.5003794 
-74.25 160.75 507.5 -0.5212773 -0.6324915 -0.5729088 
-76.5 162 507.5 -0.3552669 -0.7215738 -0.5942362 
-88.6 164.6 505.6 0.01781532 -0.8058364 -0.5918702 
-84.5 166 503.5 -0.02000022 -0.8064551 -0.590957 
-88.5 168 501.5 -0.003868663 -0.8106914 -0.585461 
-74.5 168 499.5 -0.2309072 -0.7309288 -0.6422032 
-76.5 169 497.5 -0.07668147 -0.8000587 -0.5950008 
-74.5 170 497.5 -0.1571605 -0.7759512 -0.6109013 
-80.5 171 496 -0.01786549 -0.8142138 -0.5802902 
-80.5 174.3333 491.3333 0.0502783 -0.8077939 -0.5873169 
-78.5 175 490 0.0521118 -0.8270675 -0.5596818 
-76.5 176 489.5 0.03430268 -0.8093302 -0.5863515 
-78.6 176.6 487.8 0.05884884 -0.8218058 -0.5667204 
-117 178.6667 483.6667 0.06580222 -0.6063712 -0.7924545 
-78.66666 107 557.3333 0.05999894 -0.8688076 -0.4915013 
77.5 110 605 0.09353682 -0.8418901 -0.5314809 
61.5 79 653 -0.03791552 -0.8722822 -0.4875308 
-37 61 509 -0.5793557 0.3702513 -0.7261273 
57 67 669 -0.02065237 -0.8406644 -0.5411627 
-68.66666 172.3333 493 -0.504613 -0.5391786 -0.6742791 
-90 168 502 -0.005398279 -0.8088403 -0.5880036 
-74 150 508 -0.9176875 -0.05151394 -0.3939493 
-27 127 532 0.08114186 -0.8909759 -0.4467417 
4 -8 488 0.9197202 0.3280872 -0.2155775 
1 1 498 0.8312674 0.5240952 -0.1852537 
-34 60 506 -0.4382535 0.4178999 -0.7957974 
77 107 608 0.03459966 -0.8621211 -0.5055196 
63 107 602 0.5541573 -0.7918747 -0.2566015 
-73 160 507 -0.6949391 -0.4655869 -0.5479859 
-77 156 515 -0.5830545 -0.5691506 -0.5797544 
-12.5 133 523.5 -0.009171656 -0.8867584 -0.4621422 
33 62 655 0.9261588 -0.3230067 -0.1946703 
-72.5 176 491 -0.07115161 -0.7630156 -0.6424521 
-80.5 172 495 -0.0209624 -0.8059598 -0.5915991 
-94.5 166 503 0.04725244 -0.7958367 -0.6036648 
-92.5 164 507 0.004764404 -0.8210146 -0.5708873 
-71 159 503 -0.8651632 -0.1737993 -0.4704109 
-76.5 160 511 -0.4221433 -0.7020575 -0.573507 
-79 159 511.5 -0.3328057 -0.7334237 -0.5927312 
-12.5 136 519 0.03339565 -0.8589473 -0.5109738 
-26 130 527 0.1064786 -0.8702767 -0.4809166 
-28.5 129 527 0.09445843 -0.8780836 -0.4690916 
-32.5 128 531 0.04292084 -0.9050996 -0.4230277 
-4.5 124 539 -0.03947526 -0.8649614 -0.5002835 
-8.333333 120.3333 547.6667 0.0930621 -0.8002099 -0.5924555 
-66.5 110 555 -0.004291892 -0.8667597 -0.4987076 
53.5 66 671 -0.04465596 -0.8788656 -0.4749748 
32 56.5 651 0.8372838 -0.3802848 -0.3928605 
2 -2 495.5 0.8304495 0.5284092 -0.1764584 
47.5 77 655 0.3369895 -0.8106185 -0.4788903 
50 78 655 0.1760669 -0.8341976 -0.522604 
-42 62.5 515 -0.8252763 0.2710608 -0.4954243 
-34.5 62.5 507.25 -0.4547616 0.4146709 -0.7881878 
55.5 80 651 0.0399207 -0.8687423 -0.4936529 
-94.5 102 567 -0.07068536 -0.8340904 -0.5470803 
-72.5 104 563 0.01708587 -0.7877591 -0.6157464 
75.5 113 599 0.1422583 -0.8192713 -0.5554792 
-73 162 505 -0.6350159 -0.5141603 -0.5765362 
53.5 76 657.5 0.09760165 -0.7926987 -0.6017498 
-70.4 168.6 497.4 -0.4731399 -0.5983052 -0.6466603 
-69 166.5 497 -0.7218851 -0.3549026 -0.5940759 
-12.5 134 521 0.01198104 -0.8675488 -0.4972077 
-8.5 122 545 0.006940223 -0.8715379 -0.490279 
-68.5 110.5 553 0.02710901 -0.8852865 -0.4642555 
48 66 673 0.1336729 -0.8682889 -0.4777091 
-0.5 2.5 497 0.8230667 0.5336731 -0.1943048 
57.5 81 649 0.0005374096 -0.8436878 -0.5368339 
70 108 609 0.1367226 -0.8892144 -0.436583 
73.5 112 601 0.1429984 -0.8209032 -0.5528738 
-72.5 106 561 0.04156866 -0.7925007 -0.6084527 
-15 124 541 0.202727 -0.6631048 -0.7205511 
2 -3 493 0.8313925 0.5250941 -0.1818317 
-2.5 128 533 0.03972036 -0.8203197 -0.5705243 
-68.4 178.8 485.6 -0.2403866 -0.7880687 -0.5667116 
-66 176.5 486 -0.5121698 -0.6124372 -0.6021652 
-68.5 177 487.5 -0.297468 -0.7506177 -0.5899881 
-70.5 176.5 489.5 -0.1629105 -0.778689 -0.6058908 
-68.33334 175 489.6667 -0.4161648 -0.6371939 -0.648684 
-66 172.5 490 -0.7255604 -0.3785628 -0.5746758 
-78 108 557 0.07188246 -0.8727905 -0.4827731 
-74.5 97 573.5 0.04641911 -0.8562717 -0.5144356 
54 80 653 0.07579249 -0.8619647 -0.5012708 
48 78 653.5 0.3053916 -0.8321604 -0.4628661 
-40 54.66667 509.3333 -0.7853258 0.2438035 -0.5690548 
-4.666667 122.6667 541.3333 -0.07487715 -0.8705171 -0.4864088 
-28.5 130.5 525.5 0.09686578 -0.8596379 -0.501637 
-6.5 132 525.5 0.09509435 -0.8512979 -0.5159932 
-75 160.5 509 -0.4873272 -0.6727936 -0.5566517 
-67 169 493 -0.7708126 -0.2931996 -0.5655812 
-78.75 172.75 493.5 -0.004579765 -0.7859928 -0.6182187 
75.33334 114.6667 597.3333 0.1448088 -0.8219156 -0.5508949 
-66.5 107 560 -0.02937355 -0.7932102 -0.6082391 
77.5 114 599.5 0.1200852 -0.8214484 -0.5574963 
-70.5 105 562 0.01914954 -0.7660126 -0.6425403 
75.5 111 602 0.1089453 -0.8164402 -0.5670595 
77.66666 110.3333 603.6667 0.1082548 -0.8184621 -0.5642701 
-66.5 103 564 0.05480595 -0.8382782 -0.5424813 
-96.5 102.25 565.5 -0.1745852 -0.7801911 -0.6006845 
-96.5 101 568 -0.1060655 -0.8160256 -0.5682011 
-90.5 100 569.5 -0.08561938 -0.8486376 -0.5219997 
73.66666 106.3333 611.6667 0.007185381 -0.8843553 -0.4667591 
-70.5 99 572 0.09288744 -0.8486944 -0.5206628 
-76.5 95 577.5 -0.01149654 -0.8714538 -0.4903429 
-74.5 94 580 0.06015004 -0.867156 -0.4943911 
96 99 626 0.2088828 -0.7701401 -0.6027042 
97.6 98.6 627.6 0.2007963 -0.7490994 -0.6312931 
61.66667 82.33334 647.6667 -0.006623106 -0.828068 -0.5605885 
-36.33333 60.33333 508 -0.5384954 0.388043 -0.7479609 
-42 60.5 513.5 -0.8209618 0.256096 -0.51033 
57.5 75 660 0.08246917 -0.7914156 -0.6056899 
-1 6 502 0.8577592 0.4422942 -0.2619639 
0 4.5 503.5 0.8526002 0.463067 -0.2421609 
35 66 654 0.8003269 -0.5744507 -0.171707 
51.5 67 670 -0.0179019 -0.8579684 -0.5133905 
-68.5 109 556 0.03300671 -0.8677303 -0.4959382 
-69 112 551.5 0.02405641 -0.8733787 -0.4864473 
-66.66666 112.6667 549.6667 0.03358781 -0.8631242 -0.5038736 
-2.5 118.5 547.5 -0.0820861 -0.8689781 -0.4879947 
-4.5 119 546 -0.1559977 -0.8682821 -0.4709044 
-6.5 120.5 545.5 -0.1199029 -0.8838444 -0.4521533 
-4 121 544 -0.102558 -0.8616772 -0.4969852 
-2.5 124.5 537.5 -0.003321066 -0.8452588 -0.5343469 
-6.5 126 535.5 0.02387933 -0.8518856 -0.5231833 
-8.5 127 534 0.04572943 -0.8570912 -0.5131311 
-30.5 129 529.5 0.06200118 -0.8914472 -0.4488628 
-10.5 133 522 0.04805487 -0.8712618 -0.4884605 
-14.5 134.5 520 -0.004159118 -0.8733497 -0.487076 
-10.5 136.5 517.5 0.04185633 -0.8546628 -0.5174935 
-76.66666 158 513.3333 -0.5247287 -0.6129786 -0.590692 
-71 156.5 502 -0.9263456 -0.03208986 -0.3753052 
-77 162 510 -0.3115249 -0.7522209 -0.5806169 
-90.4 164.6 505.6 0.006594234 -0.8038648 -0.5947755 
-96.5 165 504 0.008502066 -0.8389863 -0.5440862 
-96.5 166.6667 501.6667 0.04290696 -0.7878507 -0.6143698 
-72.5 168 499.5 -0.352753 -0.6724146 -0.6507104 
-68.5 168.5 495.5 -0.6617875 -0.4565312 -0.5946568 
-72.5 170 497.5 -0.2853509 -0.7182482 -0.634582 
-68.25 170.75 493.75 -0.607152 -0.4591506 -0.6484962 
-68 172.6667 491.6667 -0.5284418 -0.5078212 -0.6803433 
-80.5 114 549 -0.08474352 -0.8068713 -0.5846172 
63 106 605 0.4971071 -0.8211288 -0.2804141 
75 110 605 0.05787575 -0.8512284 -0.5215944 
55.5 67 669 -0.02824847 -0.8431123 -0.5369951 
32 58.5 653 0.9000748 -0.3028497 -0.3132851 
32 62 649 0.8700161 -0.3855827 -0.3072427 
-37 67 513 -0.5891078 0.3906771 -0.7073355 
-76 106 561 0.05979458 -0.8153106 -0.5759282 
-25 131 526 0.1172676 -0.8484596 -0.5161054 
-12 122 545.5 0.3618294 -0.7056773 -0.609179 
43 71 662 0.3973177 -0.8233371 -0.4052835 
1.5 -3.5 489.5 0.8421593 0.5033209 -0.1934834 
59.33333 79 653.3333 -0.007428657 -0.8737289 -0.4863565 
48 82 646 0.4582276 -0.8020124 -0.3831496 
-38 66 512 -0.6002396 0.3919273 -0.6972126 
-66 96 578 0.03812212 -0.8721631 -0.4877278 
-72 98 573.5 0.08740444 -0.8460868 -0.5258305 
63 105 608 0.439805 -0.8420488 -0.3122907 
-75 162 507 -0.4803533 -0.6681979 -0.5681306 
-8.5 133 523.5 0.09308808 -0.8553809 -0.5095667 
32 60.5 651.5 0.9017892 -0.3122567 -0.298784 
1.5 -2 491.5 0.8304516 0.5260535 -0.1833516 
-76.5 170.5 497 -0.07792106 -0.7994134 -0.5957069 
-72 150.5 505 -0.881229 -0.1346763 -0.453098 
-75 152.5 513 -0.8815183 -0.1712604 -0.4399947 
-17 126 537 -8.213538e-05 -0.8709909 -0.4912992 
-14.5 125 537.5 -0.01060943 -0.876212 -0.4818091 
-80.66666 110.3333 553 -0.02803908 -0.829187 -0.5582676 
-78.5 109 553 0.05196737 -0.8390707 -0.5415346 
-38 52.5 505 -0.6828467 0.3296894 -0.6519396 
0 -1 489 0.8268345 0.53275 -0.180339 
-34.75 56.75 505.25 -0.4923247 0.4225337 -0.7609742 
67.5 107 609 0.2725905 -0.8736346 -0.4030598 
73.5 108 609 0.04846677 -0.8799093 -0.4726632 
-80.5 178.3333 485.3333 0.0495925 -0.8128597 -0.5803446 
-74.5 176 489.5 0.01155214 -0.7950398 -0.6064474 
-80.5 175 490 0.05941871 -0.8173048 -0.5731338 
-78.5 171 496 -0.0323944 -0.8070135 -0.5896438 
-74.5 169 498 -0.1891809 -0.7647729 -0.6159003 
-82.5 166.5 503.6667 -0.0406315 -0.8007503 -0.5976188 
-84.5 165 504 -0.03083322 -0.7921233 -0.6095819 
-86.5 164.5 505.25 -0.01019871 -0.7976821 -0.602992 
-76.33334 163 505.6667 -0.3549387 -0.7233762 -0.5922377 
-76 155 514 -0.6768064 -0.4429148 -0.5880134 
-76 152.5 516 -0.8015537 -0.2777373 -0.5295032 
-6.5 136.5 517.5 0.09837368 -0.8834405 -0.4580998 
-2.666667 136 521.6667 0.07471735 -0.8691532 -0.4888662 
-8.5 134.5 521.5 0.1050545 -0.862557 -0.4949333 
-10.5 132 525.5 -0.004410046 -0.8789639 -0.4768678 
-18.5 129 529.5 0.008469949 -0.8468729 -0.5317279 
-20.5 128 532 0.0156437 -0.8938468 -0.4480996 
-12.5 127 534 0.005124427 -0.885981 -0.4636933 
-16.5 125 540 0.1414561 -0.6721344 -0.7267913 
-2.5 123 540 -0.0122573 -0.8628004 -0.5053962 
-16.5 122.6667 541.5 0.3950297 -0.3096058 -0.8649253 
-10 121 546 0.307812 -0.7754935 -0.5512365 
-13 116.5 544 0.827566 0.03261948 -0.5604201 
-50.5 116 549.5 -0.2991918 -0.7549543 -0.583548 
-78.5 112.5 549.5 -0.02807471 -0.8113762 -0.5838496 
-81 112 552 -0.0430654 -0.8138467 -0.5794816 
53.5 74.5 659.5 0.08179388 -0.7919018 -0.6051456 
51.5 73 660 0.07875675 -0.8075272 -0.5845487 
-42 56.66667 513.6667 -0.8849698 0.180169 -0.4293807 
45.5 71 664 0.2217754 -0.837087 -0.5001011 
-38.75 54.5 507.5 -0.7123049 0.315013 -0.627207 
-40 52.5 508 -0.7999358 0.2265732 -0.5556682 
41.5 68.5 665.5 0.4288953 -0.7644013 -0.4813934 
56 65 672 -0.02332173 -0.9049373 -0.4249055 
33 58 656 0.9333391 -0.2718665 -0.23445 
-1 0 488 0.8120825 0.5553416 -0.1792143 
51.5 75 658 0.1270608 -0.7977539 -0.589444 
57 76.5 657.5 0.06671397 -0.8099865 -0.5826415 
61.66667 78.33334 655.6667 -0.02768511 -0.8722314 -0.4883093 
-36.5 62.5 509.5 -0.5471426 0.4064662 -0.7317241 
49.5 79 652 0.2393871 -0.8510608 -0.4673216 
-40.5 62.5 513.5 -0.7444189 0.3318046 -0.5794361 
53.33333 80.66666 649.3333 0.07597259 -0.856504 -0.5105186 
-70.5 94 580 0.08011997 -0.8731591 -0.4808057 
-72.5 95 577.5 0.06836671 -0.874848 -0.4795488 
-72.5 96 576 0.07296324 -0.8650362 -0.4963756 
-76 97 572 0.03165687 -0.8553194 -0.5171331 
-74.33334 98.33334 571.6667 0.06688379 -0.8439473 -0.5322401 
67.5 105 612 0.2407939 -0.8582067 -0.4533206 
-76 99 570 0.06069828 -0.8517417 -0.5204343 
69.66666 106.3333 611.6667 0.1528403 -0.8771116 -0.4553188 
-87 100 569.5 -0.006534672 -0.8571092 -0.5150934 
65.5 106 608 0.3729827 -0.8554038 -0.3594 
-84.33334 100.3333 567.6667 0.01679153 -0.8516923 -0.5237731 
77.5 109 606 0.07775997 -0.8541419 -0.5141936 
65.33334 108.6667 601.6667 0.4711136 -0.81039 -0.3483104 
-78.5 103 564 0.03480981 -0.8291484 -0.5579438 
-74.5 105 562 0.0414407 -0.8022181 -0.5955912 
-80.5 107 558 0.01834981 -0.863579 -0.5038795 
-66.5 108.5 557.5 -0.02718231 -0.8408233 -0.5406269 
-86.33334 168 501.6667 -0.00704718 -0.8180064 -0.575166 
-71 153 501 -0.9111096 -0.1208905 -0.3940365 
-68.5 108 559 0.008992375 -0.8256425 -0.564122 
-78.5 106.5 559.5 0.04677285 -0.8509358 -0.5231832 
-76.5 104 563 0.052355 -0.8094605 -0.5848355 
75.5 108 607 0.03690873 -0.8764706 -0.4800388 
49.5 82 647 0.3383666 -0.831646 -0.4403101 
47.5 81 647.5 0.4348221 -0.8130586 -0.3871247 
51.5 80 651 0.1395768 -0.8607219 -0.4895675 
-43 58.66667 515.6667 -0.895727 0.18674 -0.4034867 
59.5 65 675 0.03733705 -0.9605156 -0.2757097 
57.5 66 671 -0.01113854 -0.8711622 -0.4908691 
-36.5 52.5 503.5 -0.6012354 0.3734756 -0.7064221 
-34.5 54.5 503.25 -0.4573394 0.4505071 -0.766736 
-36.66667 56.66667 507 -0.5943409 0.3761092 -0.7108451 
-80.66666 108.6667 555.3333 -0.01451324 -0.8545444 -0.5191755 
-75 111 551.5 0.03841644 -0.8542066 -0.5185127 
-12 120.3333 547.3333 0.5698366 -0.5396086 -0.6197652 
-14 122 543.5 0.452307 -0.5545444 -0.6984977 
-10.5 126 535.5 -0.001456585 -0.8859972 -0.4636883 
-22.5 130.6667 527.6667 0.1004343 -0.858218 -0.5033636 
-6.5 134 523 0.113055 -0.8494926 -0.5153455 
-8.5 136 519 0.08768163 -0.8744333 -0.4771566 
-88.5 164 507 0.001284587 -0.8183348 -0.5747403 
-76.33334 168 499.3333 -0.1286652 -0.7787844 -0.6139545 
-66.33334 170.6667 491.3333 -0.7502586 -0.3157327 -0.5808829 
-78.5 174.3333 491.3333 0.03537591 -0.7868493 -0.6161306 
-76 176 491 0.008990526 -0.7940134 -0.6078338 
-80.5 177 487.5 0.05434994 -0.8174708 -0.5733999 
-78.33334 178 487.3333 0.05926624 -0.8212162 -0.567531 
-84.5 102 565.5 -0.01608456 -0.8253949 -0.5643268 
-34.5 52.5 501.5 -0.4684286 0.418085 -0.7783185 
-84.33334 167 501.6667 -0.005679268 -0.8263273 -0.5631616 
-66 166 491 -0.9073094 -0.04694471 -0.4178348 
-16 132 527 -0.002558085 -0.8575245 -0.5144368 
33 55 655 0.8714595 -0.3994914 -0.2845436 
-37 65 511 -0.5785162 0.4139169 -0.7028455 
-35 67 511 -0.5029385 0.44265 -0.7423704 
-86 102 567 -0.004838759 -0.8275955 -0.5613041 
-118 179 484 0.002525802 -0.5858006 -0.8104513 
-78 169 498 -0.0476864 -0.8133535 -0.5798122 
-74 163 504 -0.4993639 -0.6094855 -0.6157622 
-74 159 508 -0.6954293 -0.4812037 -0.5336864 
-78 155 516 -0.5432913 -0.5578917 -0.6273687 
-76.5 148 515.5 -0.9188381 -0.02789733 -0.3936476 
-18 127 532 -0.02252269 -0.8928632 -0.4497643 
-10.5 122 543.5 0.1439702 -0.8188784 -0.5556175 
-14 118.5 543.5 0.7204533 -0.06160344 -0.690762 
-12 116.5 547.5 0.7922195 -0.0160855 -0.6100242 
45.5 72.5 661.5 0.2258424 -0.8434403 -0.4874461 
34 65 650 0.8202174 -0.5290974 -0.2174841 
1 -3.5 485.5 0.8507615 0.4840604 -0.204672 
1 -2 488 0.8381688 0.5130032 -0.1852049 
-74 152.5 509.5 -0.9156173 -0.06953026 -0.395993 
-16.33333 118.6667 541 0.6369581 0.1238953 -0.7608774 
59.5 67 669 -0.002260682 -0.8390697 -0.5440192 
-38.33333 60.33333 509.6667 -0.6273215 0.3584035 -0.6913861 
-34.5 64.5 509 -0.4899341 0.4316796 -0.7573753 
71.5 110 605 0.1415168 -0.8716069 -0.4693341 
-70.66666 108.3333 557.3333 0.05287588 -0.8537648 -0.5179671 
49.5 80.5 649.5 0.2968462 -0.8340828 -0.4649605 
-84.5 164 507 -0.03956351 -0.8137247 -0.5799024 
-74.5 110 555 0.09609517 -0.86173 -0.4981839 
49.5 74 659 0.1294307 -0.8180465 -0.5603997 
39 68 663 0.6041005 -0.7199833 -0.3415946 
61.5 66 671 0.03651607 -0.8920031 -0.450552 
55.5 65 675 -0.003859927 -0.9438652 -0.3303082 
57.5 78 655 0.03890983 -0.8502507 -0.524938 
-66.5 95 579 0.04574156 -0.8842689 -0.4647325 
63.5 108.5 599.5 0.5933523 -0.747436 -0.2987852 
65.5 110.5 599 0.5339326 -0.7586939 -0.3732285 
67.66666 112.3333 599 0.4191327 -0.7870958 -0.4525573 
-72.5 108 559 0.07763346 -0.8409172 -0.5355664 
-76.5 178.5 485.5 0.03765966 -0.8225097 -0.5675029 
-74.66666 178 487.6667 0.01666501 -0.8297089 -0.5579476 
-76.5 177 488 0.06108525 -0.825274 -0.5614192 
-77 175 490 0.03442535 -0.8039839 -0.5936537 
-74.5 174.5 491.5 -0.02880884 -0.7602984 -0.6489348 
-70.5 172.5 493.5 -0.2990963 -0.6360328 -0.7113395 
-74.5 170.5 495.75 -0.1657782 -0.7636421 -0.6239938 
-80.5 169 499.5 -0.03738138 -0.831451 -0.5543391 
-66 164 490 -0.9255784 0.001882456 -0.3785515 
-88.5 167 502 -0.009468505 -0.8007929 -0.5988665 
-86.5 166 503.5 0.02614418 -0.8202932 -0.5713453 
-80.5 163 506 -0.09929688 -0.8169684 -0.5680693 
-78.5 162 507.5 -0.2120758 -0.7871221 -0.5791914 
-75 155 512 -0.8257208 -0.2703544 -0.4950694 
-72 148 504 -0.7665424 -0.3421133 -0.5434806 
-2.5 137 518 0.07085993 -0.8989058 -0.4323739 
-4.333333 136.3333 519.6667 0.09554992 -0.8821437 -0.4611863 
-4.5 135 522 0.108397 -0.8539749 -0.5088978 
-2.5 134 523.5 0.07501347 -0.8411587 -0.5355604 
-4.5 133 524 0.09598934 -0.8367109 -0.539167 
-14.6 132.2 525.6 -0.007271824 -0.8798494 -0.475197 
-31 131 524 0.05488778 -0.8503979 -0.5232694 
-20.5 131 526 0.08590098 -0.8458374 -0.5264791 
-18.6 130.8 527.6 0.03585464 -0.8391951 -0.5426472 
-24.5 128 531.5 0.068942 -0.898051 -0.4344553 
-14.5 126 535.5 -0.07151104 -0.9119045 -0.4041242 
-12.5 124.5 539.5 0.02645933 -0.8434356 -0.5365782 
-6.5 123 540 -0.07480145 -0.8774835 -0.4737377 
-12.5 123 541.5 0.1849944 -0.7911529 -0.5829701 
-14.66667 116.3333 541.6667 0.757951 0.1420476 -0.6366576 
-74.5 112.5 550 0.01480854 -0.8576617 -0.5140011 
-78.5 111 551.5 0.02227554 -0.8298426 -0.5575528 
-75 109 554 0.08388677 -0.856766 -0.5088371 
-76.75 108.75 555.75 0.08696284 -0.859684 -0.5033696 
-43 54.33333 515.6667 -0.9055634 0.1498621 -0.3968582 
42 70 664 0.4147424 -0.7939703 -0.444522 
43.5 68 668 0.3097643 -0.7842684 -0.5375586 
-43 52.5 513.5 -0.9045774 0.1330242 -0.4050238 
59.5 65 672 0.0122601 -0.9095274 -0.4154632 
0 0 492 0.8193182 0.5459547 -0.1750748 
-42 58 512 -0.8186119 0.2299137 -0.5263215 
-38 58 508 -0.6507813 0.3379822 -0.679891 
47.5 75 658 0.2510255 -0.8268934 -0.5032231 
55 77 656 0.08429077 -0.820941 -0.5647575 
-40.5 60.5 511.25 -0.7259954 0.3127506 -0.6124687 
55.5 79 654 0.05716519 -0.8547466 -0.515888 
53 79 652 0.0873982 -0.8607221 -0.5015168 
-38.5 62.5 511.5 -0.6544445 0.3748388 -0.656657 
-41 64.5 515.5 -0.7980429 0.3017194 -0.5216252 
53.66667 82.66666 647.3333 0.08816091 -0.8351455 -0.5429177 
51.5 83 646 0.2635014 -0.8354083 -0.4823484 
-68.5 96.5 575.5 0.06199841 -0.8477834 -0.5267063 
63.66667 104.3333 611.3333 0.3663669 -0.8453938 -0.3886959 
-78.5 98.5 571.5 0.01760845 -0.8669478 -0.4980877 
-68.4 98.6 573.8 0.07718037 -0.8435102 -0.5315391 
64 106 610 0.3798386 -0.8542098 -0.3550328 
67 107 606 0.3263149 -0.8738975 -0.360308 
69 107 608 0.2026178 -0.8912959 -0.4056323 
-88.33334 100.6667 567.6667 -0.05837715 -0.8312087 -0.5528872 
71.5 108 607.5 0.1106367 -0.8879699 -0.4463954 
67.5 109 603.5 0.3694215 -0.8405173 -0.3963061 
73.5 109 606 0.07609269 -0.8722839 -0.4830433 
69.66666 110 603.6667 0.2445174 -0.8541591 -0.4589375 
-74.5 103 564 0.01681683 -0.8086689 -0.5880237 
67.5 110 601.5 0.393223 -0.8023262 -0.4490526 
69.5 113 598 0.3538953 -0.7978891 -0.4879866 
-74.5 107 560 0.07367755 -0.8228199 -0.563506 
-76.5 107 558 0.09050855 -0.8588834 -0.5041106 
-78.5 105 561.5 0.03918803 -0.8182384 -0.5735418 
-82 100 569.5 0.01178375 -0.85939 -0.5111849 
-39 64.5 513 -0.6698716 0.3744417 -0.6411438 
61.5 77 657.5 -0.009220928 -0.844564 -0.5353754 
44 70 665 0.2912299 -0.8211986 -0.4907321 
-36.66667 54.66667 505 -0.5754368 0.3960711 -0.715542 
-76.5 110 553 0.06127902 -0.8438565 -0.5330583 
-12.66667 118.3333 545.3333 0.7558359 -0.1782123 -0.6300415 
-10.66667 125 537.3333 -0.04394047 -0.8888988 -0.4559914 
-22.5 129 529.5 0.06082248 -0.871742 -0.4861755 
-6.5 136 521 0.1188254 -0.8726709 -0.4736306 
-72 154 505 -0.9342265 -0.03592943 -0.3548662 
-82.5 164.5 505.5 -0.05996122 -0.7948664 -0.6038145 
-80.4 170.4 497.2 -0.01504202 -0.8086954 -0.5880354 
-78.5 176 489 0.05708766 -0.8152288 -0.5763186 
-88.33334 102 565.6667 -0.05796117 -0.804768 -0.590753 
-16.5 127 533 -0.04833832 -0.8915527 -0.4503301 
-70.66666 148.3333 501.3333 -0.7073085 -0.4569349 -0.5393749 
-82.5 168 501 -0.01833016 -0.8372129 -0.5465699 
-0.5 -1.5 485 0.8326751 0.5159692 -0.2010671 
-68 154 494 -0.754207 -0.2417294 -0.6105233 
-97 111 558 -0.8027679 -0.2716519 -0.5308192 
42 72 658 0.5294276 -0.7906238 -0.3076044 
49 71 664 0.06202439 -0.8490691 -0.5246282 
38 70 652 0.7147537 -0.6800257 -0.1633775 
36 68 652 0.7490952 -0.6401714 -0.1704025 
39 65 668 0.6000703 -0.6374372 -0.483311 
45 75 656 0.4375612 -0.8034135 -0.4038154 
44 76 652 0.5778357 -0.7453539 -0.3324958 
46 78 652 0.4549995 -0.7903467 -0.4102773 
103 91 642 0.3132363 -0.8175794 -0.4831634 
63 111 590 0.720033 -0.6660355 -0.194806 
89 113 602 0.1876813 -0.8227345 -0.536548 
93 115 600 0.2913792 -0.8205371 -0.491749 
67 115 590 0.6224515 -0.7409108 -0.2522011 
-88 99 569 -0.03569815 -0.8522115 -0.5219782 
65.5 112.5 593 0.6524486 -0.7134293 -0.2555965 
-84.5 114 549 -0.09423021 -0.805317 -0.5853077 
45 80 645 0.6224073 -0.7338469 -0.2721727 
-19 128 533 -0.0242576 -0.904071 -0.4266935 
-96.5 174 493 0.01364158 -0.8285382 -0.5597664 
-66.66666 152.3333 493 -0.4476507 -0.540782 -0.7121543 
-18 121 541 0.4672163 -0.07516344 -0.8809423 
97.5 92 637 0.207173 -0.8179005 -0.5367665 
-95 108 557 -0.2917784 -0.7249143 -0.6239908 
-84.5 178.3333 485.3333 0.04323905 -0.8134416 -0.5800372 
-84.5 175 490 0.02254723 -0.8289697 -0.558839 
-94.42857 172.4286 493.4286 -0.01781765 -0.8430263 -0.5375771 
-86.5 169 498 -0.03144634 -0.831018 -0.5553559 
-66 156.5 490 -0.7168024 -0.3933789 -0.5757148 
-92.6 162.4 509.4 0.0001474357 -0.8464171 -0.5325205 
-90.5 161 510 0.01715771 -0.842881 -0.5378264 
-70 151 496 -0.6737436 -0.4453872 -0.5896607 
-27 136 517.5 0.05762513 -0.8514849 -0.5212032 
-26.5 133 522 0.1105906 -0.852131 -0.51151 
-22.5 132 525.5 0.1145589 -0.8405498 -0.529483 
-14.5 129 530 -0.001019356 -0.8323977 -0.5541778 
-10.5 127 532 0.04204798 -0.8521732 -0.5215676 
-24.5 127 534 0.1011129 -0.8384272 -0.5355521 
-28.5 120 536 -0.0574471 0.3643646 -0.9294829 
-30.5 116.5 534 -0.1605023 0.5234818 -0.8367831 
-82.5 112.5 549.75 -0.105883 -0.7925988 -0.6004797 
-82.66666 108.6667 554 -0.07696974 -0.8319763 -0.5494462 
53.5 72.5 661.5 0.0830512 -0.8114311 -0.5785171 
51.5 69 668 -0.01763203 -0.8281574 -0.5602183 
43.5 74.5 654 0.5529457 -0.7633647 -0.3339543 
-90.5 97 573.5 -0.08534082 -0.8521963 -0.5162156 
89.5 107 612 0.1805064 -0.8585469 -0.4799111 
79.66666 110.3333 605.6667 0.1083787 -0.8326021 -0.5431647 
-84.5 107 558 -0.08893032 -0.8392091 -0.5364882 
-28.5 132 523.5 0.08687098 -0.8445189 -0.528433 
41 67 667 0.4706525 -0.7240949 -0.5041557 
-38.5 74.5 515.75 -0.5409379 0.370021 -0.7552951 
-92.66666 96.33334 575.3333 -0.0891535 -0.8283761 -0.5530324 
96 104 619 0.3779068 -0.7613186 -0.5268591 
84 108 611 0.115235 -0.8611553 -0.4951086 
-88.66666 104.3333 563.3333 -0.0534749 -0.7972979 -0.6012126 
-80.5 102 565.5 0.02193695 -0.8345093 -0.5505571 
-80.5 167 501.5 -0.06833011 -0.817659 -0.5716333 
-82.5 106.5 559.5 -0.03037041 -0.8433299 -0.5365375 
87.5 112 603.5 0.1378715 -0.8281276 -0.5433195 
-82.5 103 563 0.005914684 -0.8204376 -0.5717055 
79.66666 108.3333 607.3333 0.1131126 -0.853915 -0.5079712 
-80.5 101 567 0.0211124 -0.8451535 -0.5341066 
98 106.5 619.5 0.4104095 -0.7413148 -0.5310522 
-86.5 98.5 571.5 0.01765435 -0.8609481 -0.5083863 
-84.5 108.5 555.5 -0.1023617 -0.8365396 -0.5382597 
-85 112 551 -0.08977079 -0.8064466 -0.5844529 
-32.66667 116.6667 535 -0.2381235 0.5136855 -0.8242721 
-30.5 118.5 535.5 -0.1701939 0.4836981 -0.8585279 
-30.66667 122.6667 539 -0.04764855 -0.1459023 -0.9881508 
-20.5 124.5 539 0.3556422 -0.4170586 -0.8364094 
-18.5 126 539 0.1248449 -0.7879163 -0.6029938 
-22.75 126.5 535.75 0.165697 -0.7663321 -0.620709 
-16.5 128.5 531.5 -0.01779897 -0.8572199 -0.5146429 
-10.5 131 527.5 0.005138427 -0.8653194 -0.5011945 
-30.5 134.5 519.5 0.007072024 -0.8533055 -0.5213634 
-68.5 148 499 -0.463319 -0.6653914 -0.5853118 
-92.5 157 515.5 -0.006445745 -0.8189014 -0.573898 
-90.33334 158 515.3333 -0.001112847 -0.8189997 -0.5737929 
-92.6 160.4 511.4 -0.0121323 -0.8307058 -0.5565795 
-86.5 162.5 507.5 -0.01352292 -0.8393298 -0.5434544 
-78.66666 166 503.3333 -0.1434572 -0.7776563 -0.6121037 
-88.66666 168.3333 499.6667 -0.02919519 -0.8135531 -0.5807573 
-82.5 170.5 495.75 -0.00474664 -0.8184353 -0.5745792 
-96.66666 172 495.6667 0.04289879 -0.8110979 -0.5833352 
-82.5 174.3333 491.3333 0.05354615 -0.8210292 -0.5683696 
-84.6 176.8 487.6 0.04245467 -0.8092043 -0.5859915 
87.5 114 601 0.1174755 -0.8363259 -0.5354983 
-88.5 106 561 -0.03203687 -0.809016 -0.586913 
-86.66666 105 561.6667 -0.06721041 -0.8105401 -0.581814 
85.5 108 609.5 0.1138237 -0.8615049 -0.4948268 
-74.33334 100 569.6667 0.05762924 -0.8626254 -0.5025498 
-92.6 94.2 577.4 -0.04834542 -0.8142143 -0.5785479 
-36.5 70.5 513.75 -0.4998898 0.3992563 -0.7685731 
38 60 673 0.6236857 -0.7095995 -0.3278488 
39 67 665 0.5955524 -0.6855475 -0.4187384 
51.5 70 665.5 0.01209572 -0.8271751 -0.5618141 
-84.5 110 553 -0.1000418 -0.8026103 -0.5880548 
-30.5 120.5 537.5 -0.139238 0.3042213 -0.9423705 
-20.5 126 537 0.1191818 -0.7859564 -0.6066863 
-16.5 130 529 0.01529232 -0.8360562 -0.5484307 
-66.5 148.5 497.5 -0.3797068 -0.6985098 -0.6065533 
-92.75 158.75 513.75 -0.009864 -0.8128341 -0.5824117 
-88.5 170.5 497.5 -0.03323618 -0.8285523 -0.5589245 
-86.5 176 489 0.006921123 -0.8333603 -0.5526869 
-112 166 501 0.04331997 -0.7866191 -0.6159171 
-107 168 501 0.08476196 -0.7992952 -0.5949307 
-30.5 53 501 -0.2515136 0.4995917 -0.8289446 
-65 120 539 0.02397176 -0.8485249 -0.5286123 
73 94 631 0.03606465 -0.8216715 -0.5688193 
-115 173 490 0.2360422 -0.755776 -0.6108083 
-106.3333 164 505.3333 0.1168853 -0.8138385 -0.5692141 
-66.33334 140.6667 505.6667 -0.1712924 -0.8053479 -0.5675154 
-61 121 536 0.09611618 -0.822083 -0.5611963 
-50.5 118 547.5 -0.03941342 -0.8605006 -0.5079227 
-100 114 566 -0.9358119 0.04442322 -0.3496893 
75 85 644 0.07878238 -0.8366894 -0.5419816 
-114.5 178 487 0.1935873 -0.6670405 -0.719431 
-116.5 176.5 487.25 0.2276179 -0.6711881 -0.7054762 
-114.5 174 491 0.2360424 -0.7557759 -0.6108084 
-116 172 491 0.2069075 -0.7906693 -0.5762216 
-114.25 166.5 499.5 0.07109378 -0.7861653 -0.6139135 
-112.4 164.4 503.2 0.04779254 -0.8151179 -0.5773203 
-75 146.5 511 -0.9034506 -0.08010533 -0.4211415 
-66.5 138 511 -0.1507842 -0.7970434 -0.5847957 
-66.5 134.5 515.25 -0.1223556 -0.7933178 -0.5963859 
-56.5 124 535 0.08334845 -0.8338286 -0.5456949 
-59 119 539 0.1177299 -0.8254082 -0.5521242 
-54.5 118 543 0.1964376 -0.8663894 -0.4591096 
-78.5 114 547 -0.05582683 -0.8464312 -0.5295636 
-30.5 55 503 -0.2610911 0.4789346 -0.8381247 
-0.5 -3.5 479.5 0.862577 0.4265528 -0.2720545 
-28.5 57 503 -0.2359021 0.4617784 -0.8550503 
-26.5 58.5 503 -0.1323354 0.4636311 -0.8760899 
-18.33333 62.66667 507 0.3977824 0.4637047 -0.7916737 
-25 65 507 0.01499981 0.4792431 -0.8775541 
-22.5 66.5 507 0.1710177 0.4588982 -0.8718747 
67.5 100 619 0.201534 -0.8124117 -0.5471483 
68 104 615 0.2218391 -0.7993191 -0.5584589 
-104 100.3333 575.3333 -0.7511207 -0.3827665 -0.5378732 
-78 178.5 484 0.04541579 -0.8115555 -0.5825075 
-114.4 170.2 495.6 0.1467993 -0.8049747 -0.5748615 
-68.6 146.2 501.4 -0.4535413 -0.6551993 -0.6041641 
-66 144.6667 501.6667 -0.2743436 -0.7295398 -0.6265041 
-72.5 146 505.5 -0.7418634 -0.3364997 -0.5800058 
-68.33334 144.6667 504 -0.395001 -0.677125 -0.6208672 
-75 144.5 510 -0.8233297 -0.2652079 -0.5017899 
-68.5 142.5 505.5 -0.3230721 -0.7198947 -0.6143094 
-76 142.5 514 -0.8215963 -0.2719383 -0.5010281 
-68.5 140.5 507.5 -0.2514546 -0.7746245 -0.5802823 
-77 140.5 516 -0.7964527 -0.2592535 -0.5463065 
-68.5 137 512 -0.2073448 -0.7669066 -0.6073405 
-72.5 138 513.5 -0.3772366 -0.6767257 -0.6322458 
-70.25 136.75 513.75 -0.2651117 -0.7394679 -0.6187916 
-72.5 136.5 515.5 -0.301186 -0.7125457 -0.6336922 
-68.5 135 514 -0.2188835 -0.7585639 -0.6137351 
-62.5 133 517.5 0.08904302 -0.8531994 -0.5139282 
-64.5 132 519.5 0.05546117 -0.8599483 -0.5073589 
-38.5 131 524 0.06331989 -0.8398237 -0.5391538 
-42.5 129 526 0.05558887 -0.8558687 -0.5141972 
-44.5 128.5 527.5 0.04375018 -0.8463041 -0.5309005 
-44.5 127 529.5 0.06817956 -0.8570122 -0.5107658 
-42.5 126 531.5 0.1298149 -0.8802905 -0.4563297 
-54.5 124 534 0.04681848 -0.8433303 -0.5353522 
-60.5 123 533.5 0.1202976 -0.833209 -0.5397141 
-58.5 122.5 535.5 0.09884177 -0.8262146 -0.5546169 
-62.5 120.5 537.75 0.05680227 -0.8352278 -0.5469624 
-56.5 117 544 0.2045217 -0.8644416 -0.4592512 
-52.66667 116.6667 547.6667 0.107149 -0.8651211 -0.4899843 
-80 115 545.5 -0.1169043 -0.8310471 -0.5437776 
-32.5 54 502 -0.3298326 0.4843993 -0.8102887 
21.5 56.5 645.5 0.0005643027 -0.8201687 -0.5721215 
17.5 55 648 0.1216021 -0.7899179 -0.6010346 
19.5 54 649.5 0.04917938 -0.7907534 -0.6101561 
21.5 53 650 -0.07204457 -0.7715666 -0.6320558 
19.33333 52.33333 651.6667 0.03175692 -0.7563573 -0.6533874 
-0.5 -7.5 475.5 0.8829796 0.1427435 -0.4471817 
-26.33333 56.33333 502 -0.1411644 0.4768544 -0.8675728 
-24.6 60.4 503.6 -0.02678205 0.4801193 -0.8767943 
-20.6 62.4 505.8 0.2749102 0.4798144 -0.8331882 
-22.5 64.5 506 0.1723307 0.5157235 -0.8392445 
77.66666 86.33334 643.6667 0.07765774 -0.835513 -0.5439552 
75.5 86.5 641.5 0.08995327 -0.8304817 -0.549735 
73.5 87 640 0.09028083 -0.8366202 -0.5402926 
75.5 88.5 639.5 0.09187692 -0.8445064 -0.5276055 
65.5 90.5 635.5 0.01117479 -0.8406672 -0.5414367 
71.5 93 632 0.05173593 -0.8288879 -0.5570174 
71.33334 94.66666 629.3333 0.06916239 -0.8235242 -0.5630493 
79.5 96.5 627.5 0.03111128 -0.814892 -0.5787773 
81.5 97 626 0.04499975 -0.8297632 -0.5562986 
85.5 99 624 0.1221528 -0.8404274 -0.5279778 
69.5 101 618 0.1851127 -0.8104533 -0.5557866 
65.33334 102.6667 615.3333 0.2467188 -0.8024504 -0.5433261 
-101 110 570 -0.8971812 -0.08560954 -0.4332865 
-116 171 493.5 0.1936118 -0.8034284 -0.5630428 
-68.33334 139 509.6667 -0.2259139 -0.7821462 -0.5806981 
-44.5 130.5 525.5 0.04914441 -0.8525518 -0.5203273 
-50.33333 120.3333 541.3333 0.1102052 -0.8577205 -0.5021657 
-56.5 118.5 541.5 0.1631658 -0.846458 -0.506839 
75.5 90 637 0.07427976 -0.8353404 -0.5446916 
73.5 100.5 621.5 0.106981 -0.8346713 -0.5402583 
-116.4 178.6 485.8 0.1636481 -0.6473589 -0.7444098 
69.5 104.5 613.5 0.1628678 -0.8483194 -0.5038138 
63.5 102.5 613.5 0.327221 -0.8194023 -0.4706446 
-10.5 120 549 0.390055 -0.6243625 -0.6767781 
67.5 102 617 0.2107701 -0.8047392 -0.5549512 
79.5 98 625 0.0186655 -0.845569 -0.5335398 
77.5 92 633 0.05634663 -0.8386593 -0.5417339 
63.5 91 633 0.008046172 -0.8534256 -0.5211526 
-18.33333 60.66667 505 0.3817416 0.479639 -0.7900757 
-32.5 58.5 505 -0.3583074 0.431992 -0.8276466 
-52 118 545 0.06311861 -0.8494231 -0.523924 
-70 144 505 -0.4529412 -0.6208863 -0.6398003 
-116.6667 174.3333 489 0.2547017 -0.7084503 -0.6581985 
57 64 681 0.06396634 -0.9914159 -0.1140297 
77.33334 160.6667 501.6667 0.2687687 0.634689 -0.7245228 
63.5 150 501.5 0.07524142 -0.8431453 -0.5323952 
13.5 128 533 -0.04876503 -0.7957152 -0.6037047 
-35 48.5 501 -0.5627071 0.2958295 -0.7719104 
-86.5 60 629.5 0.08200994 -0.8429676 -0.5316768 
11.33333 122.3333 541.6667 -0.05185323 -0.8621758 -0.5039486 
-110.3333 76 605.6667 -0.1420625 -0.7833486 -0.6051307 
9.666667 133 525.6667 -0.003079593 -0.8659742 -0.5000793 
-36.5 26 493.5 -0.753473 0.3698506 -0.5435889 
-39 20.33333 493.3333 -0.8298905 0.1460964 -0.5384585 
-66.5 88.5 589.5 0.03784228 -0.798403 -0.6009331 
-70.5 93 581 0.09521778 -0.8775853 -0.4698699 
-66.5 92 585 0.03582761 -0.8544297 -0.5183305 
-80 90 585 0.05182747 -0.7964778 -0.6024426 
-68.5 86 593 0.06988576 -0.8139547 -0.5767094 
-36.33333 -9.5 465.6667 -0.5740921 -0.2009919 -0.7937383 
-34.5 -11.33333 465.6667 -0.5322434 -0.2638205 -0.804435 
-43 44.5 513 -0.9129481 0.07965668 -0.4002258 
-39 49 505 -0.7692883 0.2121515 -0.6026502 
-90.66666 68.66666 617.3333 0.03959642 -0.8256923 -0.5627295 
11.5 119 545.5 -0.05012067 -0.8403061 -0.5397903 
9.5 120 545 -0.09649196 -0.8375354 -0.5377954 
13.5 124 537.5 -0.01498606 -0.8694708 -0.4937569 
15.33333 130.3333 529.3333 -0.0161241 -0.7992603 -0.6007687 
3.5 135 521 -0.06486386 -0.8723304 -0.4845952 
1.5 136 521 -0.01319639 -0.8745074 -0.4848326 
63.5 178.3333 497.3333 0.228317 -0.6768672 -0.6998016 
-90.5 72 613 0.03268139 -0.8605872 -0.5082535 
-96.66666 71 613.6667 0.08262078 -0.8414586 -0.5339674 
-18.5 16.5 485.25 0.358311 0.3534415 -0.8641137 
-20.33333 18.66667 485.3333 0.2793593 0.2623051 -0.9236636 
53.5 120 549 0.05675549 -0.8635126 -0.5011237 
47.66667 118.3333 549.3333 0.09312404 -0.8570616 -0.5067282 
-72.5 92.5 583.5 0.1124664 -0.8564762 -0.5037854 
-75 91 584 0.1022657 -0.8302756 -0.5478907 
-78.5 89 586 0.07254777 -0.8015376 -0.5935271 
-80.5 88 587.5 0.05680314 -0.8191338 -0.5707831 
-73 87 590 0.1178619 -0.8043831 -0.5823027 
-66.5 85 594 0.06998136 -0.8309079 -0.5519915 
-68.5 84 595.5 0.06946046 -0.8439929 -0.5318377 
-102.5 79 600 0.01031163 -0.8226094 -0.5685134 
-98.66666 74 607.6667 0.03209719 -0.8445124 -0.5345733 
-34 8 478 -0.4770216 0.8334518 -0.2789419 
-2.5 2.5 487.5 0.7699424 0.6094711 -0.1890336 
-34.5 -5.5 464 -0.6056448 -0.06722221 -0.7928906 
-40 -7.5 468 -0.7393163 -0.07622658 -0.6690299 
-34 30 492 -0.6462058 0.3448882 -0.6807864 
-38 44.5 502 -0.754297 0.1745277 -0.6329108 
-87 57 642 -0.03008418 -0.9929221 -0.114894 
-44 46 514 -0.9150618 0.1033248 -0.3898537 
-38.75 46.5 503.5 -0.7759392 0.1693394 -0.6076533 
-42 48.5 510 -0.8951705 0.1263264 -0.4274477 
-40.5 48.5 507.5 -0.8506036 0.1690539 -0.4978898 
-74.5 63 628 0.05286692 -0.8526211 -0.5198484 
-78.5 64 626 0.06729537 -0.8494618 -0.5233413 
-76.5 65 624 0.06198343 -0.8655844 -0.4969122 
-74.5 66 624 0.03710466 -0.8694382 -0.4926463 
-76.5 67 622 0.0557866 -0.85755 -0.5113667 
-70.5 67 620 0.02625346 -0.8557007 -0.5168048 
-96.66666 68.66666 616 0.08944792 -0.8234014 -0.5603653 
51.66667 116.3333 555.6667 0.05435293 -0.8528376 -0.5193399 
47.5 117 552 0.1137688 -0.8665478 -0.4859545 
53.66667 117 553.6667 0.03317842 -0.8618333 -0.5061054 
49.5 118 552 0.07807514 -0.8699527 -0.4869155 
13.5 118.5 547.5 0.005453649 -0.8469752 -0.5316044 
11.5 121 543.5 -0.05640141 -0.8480689 -0.5268759 
1.5 123 540 0.04130859 -0.8745829 -0.483113 
7.5 127 534 -0.04149019 -0.8156842 -0.5770077 
21 127 532 0.04018296 -0.8494769 -0.5260934 
15.5 128.5 531.5 -0.02715057 -0.7908849 -0.6113623 
17.5 129 530 -0.02068013 -0.7837632 -0.6207154 
21.66667 131 527.6667 -0.04568994 -0.8067902 -0.5890687 
5.666667 134 523.3333 -0.05321848 -0.8655115 -0.4980538 
3.5 136.5 519.5 -0.05888155 -0.8801771 -0.4709791 
5.666667 136.6667 517.6667 -0.05487302 -0.8648763 -0.498977 
65 149 502 0.07146963 -0.8358907 -0.5442234 
87.66666 152 499.3333 0.489542 -0.4997016 -0.7145957 
87.33334 154.3333 498 0.47721 -0.2796746 -0.8330983 
89 154.5 500 0.751922 -0.1717115 -0.6364971 
85.5 156.5 497.75 0.3068988 0.4023561 -0.8625095 
88 164 512 0.5639976 0.6228091 -0.542232 
83.5 164.5 507.5 0.4439611 0.6113399 -0.6551047 
79.5 168.5 507.5 0.4784658 0.521067 -0.7067953 
83 173 516 0.5579354 0.6488634 -0.5173822 
63.6 176.4 499.6 0.3010566 -0.515867 -0.8020263 
-70.66666 86.33334 591 0.08292502 -0.8022453 -0.5912071 
-100 80 599 0.01067931 -0.8172218 -0.5762244 
-94.5 70 615 0.08628592 -0.8286515 -0.5530745 
-39 -5.5 467 -0.7219033 0.03473626 -0.6911216 
