ply
format ascii 1.0
comment VCGLIB generated
element vertex 971
property float x
property float y
property float z
property float nx
property float ny
property float nz
element face 0
property list uchar int vertex_indices
end_header
39 100 579 -0.04850079 -0.9883398 -0.1443334 
38.5 101.5 573.5 -0.07282355 -0.9207503 -0.3832959 
30.66667 107.3333 563.3333 0.01929211 -0.8500142 -0.5264065 
-113.5 111.5 543.5 0.01096278 -0.838805 -0.5443217 
-141.5 113 541.5 -0.3333161 -0.906964 -0.2575206 
-79 179 490 -0.7951204 0.1442337 -0.5890504 
-98 178 505 -0.0848915 -0.8118613 -0.5776458 
-90 175 504 -0.800536 0.1198197 -0.5871843 
-10 39.5 463 0.7180793 0.1290301 -0.6838958 
-90 184 496 -0.3547948 -0.6016691 -0.7156221 
-14 6 434 0.5431546 -0.1589092 -0.8244581 
38.5 175 455.5 0.2915533 -0.7569216 -0.5848644 
46.75 173.25 461.25 0.6990578 -0.3368308 -0.630764 
46.66667 169 465.3333 0.3183758 -0.6282339 -0.7099008 
38.5 168 464 0.07461246 -0.8175337 -0.5710268 
-121.5 109 549 0.0645166 -0.8375999 -0.5424612 
-121.5 105 553.5 0.01527007 -0.8977884 -0.4401623 
-153.5 109.75 581.25 -0.3092526 -0.75524 -0.5779061 
-121.5 103 559 -0.005298416 -0.8957115 -0.4446042 
-121.5 100 564 -0.1194945 -0.872859 -0.4731156 
-153.5 104 592 0.03942486 -0.8559977 -0.515474 
-114 85 597 -0.6123195 -0.7615876 -0.2122481 
-49.5 17.5 473 -0.4429665 -0.1784182 -0.8786055 
-57.66667 21.66667 477.6667 -0.7721595 0.03724731 -0.6343362 
-58 23.5 479 -0.7958832 0.02205852 -0.6050484 
-49.66667 23.33333 471 -0.488233 -0.07980682 -0.8690566 
38.5 122 537.5 0.1018375 -0.8613182 -0.4977551 
38.5 125.5 533.25 0.04843106 -0.8479133 -0.5279182 
14.5 135 519 0.09312008 -0.8224501 -0.5611636 
-41.5 140 508 0.1381839 -0.8657057 -0.4811017 
-33.5 141 509.5 -0.05286904 -0.6171026 -0.7851046 
-42 142 502 0.1109737 -0.8933029 -0.4355398 
-41.5 145 497 0.03655601 -0.8616526 -0.5061804 
-33.5 148 492 -0.009370266 -0.8220293 -0.5693681 
-33.5 152 487.5 -0.01214604 -0.8317739 -0.5549818 
30.5 162 474 0.03783732 -0.8449628 -0.533485 
-165.5 125.5 593.5 -0.835838 -0.2323947 -0.4973607 
-149.5 105 589.5 -0.0208377 -0.8804523 -0.4736767 
-53.5 21.5 474 -0.5645415 -0.009711163 -0.8253475 
-54 23.5 475 -0.6172283 0.01922888 -0.7865492 
-85.5 68 616 -0.05030576 -0.8090201 -0.5856242 
-37.5 138 509.5 -0.2748803 0.3971646 -0.8756147 
-37.5 139.5 511 -0.03851666 -0.5670044 -0.8228138 
-22 144 500 0.03780146 -0.9306323 -0.3639981 
-37.4 149.8 489.6 0.01434032 -0.8034206 -0.5952392 
26.5 164 471.5 0.003825209 -0.8724558 -0.4886782 
-45.5 153 485 0.1049124 -0.8539363 -0.5096922 
-45.5 146 494 0.005522817 -0.8282179 -0.560379 
-46 140 503.5 0.06337331 -0.8717492 -0.4858367 
-46 134 513 -0.6408801 0.4227449 -0.6407492 
40.33333 175.6667 454 0.4606773 -0.6378927 -0.617146 
48 173.5 464 0.7714815 -0.2046356 -0.6024455 
44.4 171.4 461.4 0.3716079 -0.6727463 -0.6397812 
44.6 169.8 463.6 0.2770896 -0.7010825 -0.6570424 
36.5 167 465.5 0.02797912 -0.848796 -0.5279797 
36.5 166 468 -0.0008967199 -0.8639138 -0.503639 
36.5 117 547 0.1058626 -0.8651466 -0.4902188 
-164 121.5 592 -0.8298461 -0.2060392 -0.5185589 
-123.5 106 552 0.01813567 -0.8809278 -0.4729031 
-119.5 105 555 0.01909173 -0.9044019 -0.4262543 
-151.5 109 583 -0.1809055 -0.824567 -0.5360622 
-119.3333 104 557.6667 0.008265431 -0.900961 -0.4338213 
-151.5 107 585.5 -0.06344428 -0.8693908 -0.4900351 
-120 102 560 -0.02078949 -0.8800979 -0.4743369 
-132 103 569 -0.518853 -0.8397815 -0.1598707 
-155.5 103 593 0.08720973 -0.8496714 -0.5200511 
-155.25 101.25 595.25 0.08006527 -0.8548371 -0.5126824 
-172 103 609 0.8116761 0.5746322 0.1047842 
-163.5 100 597.5 -0.272756 -0.9037192 -0.3299934 
-160 99 601 -0.1301698 -0.9544114 -0.2686162 
-120 89 603 -0.604648 -0.7781958 -0.169741 
-11.5 67.5 477.25 0.5870332 0.4253856 -0.6887954 
-47.5 4 457.5 -0.8012431 0.5270991 -0.283154 
-47.75 21.25 471.25 -0.4672202 -0.1643153 -0.8687381 
-60 23.5 481 -0.8432556 0.01273686 -0.537362 
-52 23.5 473 -0.5295792 0.01116205 -0.8481871 
-47.25 23.75 469.75 -0.4734808 -0.1069162 -0.8742911 
-55.5 25.5 475.75 -0.6690896 0.05637403 -0.7410406 
36 122 536 0.01512227 -0.8436074 -0.5367474 
40.6 123.4 537.6 0.1625148 -0.8531037 -0.4957853 
36.5 124 534 0.01105767 -0.8357426 -0.5490102 
40.5 125 535 0.1280727 -0.8460943 -0.5174185 
28.5 126 531.5 0.01030609 -0.8486139 -0.5289124 
28.5 127.6667 529.6667 0.01723523 -0.8402084 -0.5419896 
4 131 525 0.0697596 -0.8189278 -0.5696411 
16.5 130 524 -0.01781129 -0.8490362 -0.5280344 
16.5 132 522 -0.002838428 -0.8028469 -0.5961785 
16.5 134 519.5 0.02544397 -0.8027239 -0.5958079 
16.5 136 517.5 0.0452164 -0.8282083 -0.5585933 
-35.5 135 505 0.0516651 0.7418709 -0.6685495 
-39.5 143 501.5 0.1308682 -0.905179 -0.4043819 
-43.5 146 495.5 0.03420707 -0.845354 -0.5331103 
-43.5 147.5 493 0.02240874 -0.8103682 -0.5854924 
-35.5 149 491 -0.005102368 -0.8037824 -0.5949015 
32.33333 162 475.6667 0.0210908 -0.8261499 -0.5630556 
32.5 165 471 0.02592207 -0.867597 -0.4965919 
34.5 173 457.5 0.05100388 -0.8738375 -0.4835356 
-125.6667 102 561.6667 -0.1501468 -0.923232 -0.3536927 
-157.6667 101.6667 594 0.09277385 -0.8609412 -0.5001733 
-62 24 483.5 -0.8711314 -0.003441421 -0.4910379 
34.5 118 545.5 0.03252859 -0.8669448 -0.4973417 
34.5 123.5 535.75 -0.02185703 -0.8381842 -0.5449491 
2.25 129.75 525.75 0.2316198 -0.701089 -0.6744082 
49 183 469 0.8472443 0.04643101 -0.5291705 
47 175 463 0.8154991 -0.1285621 -0.5642987 
38.5 171.75 459.5 0.1050875 -0.821878 -0.5598868 
43 171 463 0.2691494 -0.7447467 -0.6106644 
49 171.5 465 0.7038047 -0.2868822 -0.6498904 
34.5 167 467 -0.002060584 -0.8617595 -0.5073128 
-163 124 590 -0.8299112 -0.3530383 -0.4319853 
-159 115.5 586 -0.8172546 -0.09023605 -0.5691682 
-125.5 107 551 0.007323335 -0.8612046 -0.5082057 
-167 113.5 595 -0.8023626 0.09416728 -0.5893614 
-167 100 610 -0.5545928 -0.8301117 -0.05780664 
-125 93 601 -0.5467653 -0.8144311 -0.1942931 
-123 92 598 -0.5957375 -0.7899888 -0.144964 
-121.5 90 601.5 -0.5960492 -0.7872959 -0.1577672 
-7 67.5 481.5 0.7802915 0.3076752 -0.5445009 
-49 3 459 -0.8078808 0.5204392 -0.2765351 
-59 17.5 479.5 -0.8448791 0.08398114 -0.5283243 
-61 21.5 482 -0.8733869 -0.02850622 -0.486192 
-57 27.5 476 -0.6690865 0.09312075 -0.7373275 
-97 66 634 -0.5305121 -0.8422624 -0.09566136 
-83 68 614 -0.05994684 -0.8158308 -0.575175 
44.66667 121 543.6667 0.0561885 -0.8598271 -0.5074843 
45 123 541 0.1156656 -0.855505 -0.5047106 
-35 139.5 510 -0.1683992 -0.06569289 -0.9835274 
-21 145 501 0.02159005 -0.9277338 -0.3726177 
-35 151 489 -0.008936631 -0.8090448 -0.5876791 
18.66667 161 477.6667 0.01951376 -0.8530076 -0.5215336 
32.6 163.6 473.6 0.03619132 -0.8477753 -0.5291193 
-166 100 599 -0.4422663 -0.8541569 -0.2735261 
42.66667 121.3333 541.6667 0.1541315 -0.8612723 -0.4842041 
-158 109 585 -0.4757823 -0.493725 -0.7279195 
-94 65 621 -0.3311223 -0.885101 -0.3270388 
-138 106 569 -0.5542965 -0.823496 -0.120871 
-10 71 480 0.6391517 0.3858332 -0.6652954 
-82 65 618 -0.05830475 -0.8250282 -0.5620757 
38.5 119.5 543.5 0.1234051 -0.8787826 -0.4609908 
14.5 131.5 523.5 -0.001061369 -0.8192084 -0.5734949 
-34 133 502 0.2066235 0.7195566 -0.6629819 
30.5 165.5 469.5 0.05409306 -0.8662052 -0.496752 
-32 105 484 0.1928159 0.4628716 -0.8652006 
-123.5 107.5 549.5 0.04192326 -0.8546401 -0.5175257 
-168 111 598 -0.8810877 0.05015984 -0.4702855 
-151.5 106 587 -0.03014817 -0.869576 -0.4928779 
-132 102 571 -0.5413907 -0.8278857 -0.1466341 
-128 101 568 -0.4482647 -0.8622695 -0.2356909 
-48 9 468 -0.8643923 0.408989 -0.2924963 
-96 65 636 -0.5212924 -0.8484582 -0.09150422 
40.5 121.5 539.5 0.1796503 -0.8536416 -0.4888988 
4.333333 129.3333 527.6667 0.1788173 -0.7954041 -0.5791 
-32 133 504 0.2511579 0.6414468 -0.7248902 
-40 136 509 -0.4109637 0.5503113 -0.7268193 
-39.5 141 504 0.1383671 -0.8279656 -0.5434406 
-169 112 599 -0.8878852 0.03998597 -0.4583243 
-171 109 604 -0.9319849 -0.2015956 -0.3012697 
-129 100 571 -0.4967387 -0.847211 -0.1883726 
-127 99 570 -0.4350908 -0.8671294 -0.2424511 
-159 98 603 -0.1581695 -0.9634731 -0.2161064 
-121 88 607 -0.5659756 -0.7991642 -0.2025049 
-119 87 606 -0.6060355 -0.7761565 -0.1740749 
-49 1 458 -0.7967796 0.5420098 -0.2671474 
-62 12 485 -0.9112343 0.2311261 -0.3409295 
-30 111.5 490 0.6237021 0.3894454 -0.6777374 
-30 105.5 487.5 0.6427709 0.3351043 -0.6888765 
-109.3333 83.66666 589.3333 -0.1961618 -0.868864 -0.4545282 
-110 80 601 -0.5257249 -0.8092441 -0.262178 
-13.5 180 461 -0.4857476 0.4762442 -0.732967 
-13.8 95.4 489.6 0.4565572 0.4230579 -0.7826734 
50.5 142 507.5 0.06371696 -0.8274776 -0.557872 
50.5 143.6667 505.6667 0.07138395 -0.8235285 -0.5627657 
50.5 156 485.5 0.09863201 -0.8509102 -0.5159687 
-11.5 192 459.5 0.002292369 -0.7324774 -0.6807876 
-3.666667 177.5 453.3333 -0.4725137 0.05404993 -0.8796644 
8.5 173.5 454 -0.04221333 -0.7672305 -0.6399807 
4.666667 171.6667 455.6667 0.02212688 -0.7857082 -0.6182015 
8.4 167.8 463.6 0.1037367 -0.8301772 -0.5477632 
4.333333 165.5 465.3333 0.05801541 -0.8357146 -0.5460911 
-19.5 103.5 491.5 0.06310767 0.2987043 -0.9522569 
-15.5 99.5 491 0.295257 0.3609433 -0.8846148 
-15.5 97.5 489.5 0.3126418 0.4118186 -0.855956 
-91.66666 107.6667 552 0.02372378 -0.8485392 -0.5286006 
-11.66667 93.33334 489.6667 0.5963954 0.3631514 -0.7158448 
-83.5 105 557.5 0.01649561 -0.8575942 -0.5140624 
-87.5 104 560 0.08470782 -0.8635817 -0.4970425 
-91.66666 102 561.3333 0.1000828 -0.8531884 -0.5119112 
-140 92 616 -0.2190192 -0.9622036 -0.1618481 
-99.5 86 586 0.05578459 -0.8491704 -0.5251645 
-136 91 619 -0.2319919 -0.9630785 -0.1366003 
-55.6 -16.4 455.4 -0.8039232 -0.1594331 -0.5729647 
-47.66667 -34.66667 445.3333 -0.867681 0.2588929 -0.4243868 
-51.66667 -26.66667 457 -0.7728112 -0.3914866 -0.4995008 
-56 -25 463 -0.7561061 -0.4833556 -0.4412153 
-64 19 491 -0.9404374 -0.05605334 -0.3353141 
-99.5 74 605.5 -0.08790242 -0.8867631 -0.4537888 
-103.5 78 598 -0.0385141 -0.8613045 -0.5066273 
-24 107.5 492 0.1120972 0.3521553 -0.9292045 
8.5 118 542 0.3298726 -0.7345373 -0.5929917 
-15.5 109.5 493.5 0.3470197 0.4267102 -0.8351621 
-15.5 111.5 495.5 0.3960145 0.480286 -0.7826225 
12.5 121 541 0.05562747 -0.8512278 -0.5218398 
8.5 122 538 0.1981178 -0.8214113 -0.5348205 
4.5 123.5 535.25 0.321884 -0.7793041 -0.5376577 
-31.66667 113.3333 490 0.3733914 0.4069851 -0.8336318 
-31.5 115.5 491.5 0.467318 0.3912176 -0.7928195 
8.5 125 533 0.09891483 -0.8343108 -0.542348 
-43.5 119.5 499.75 -0.6922223 0.2236424 -0.6861576 
0 125.5 526 0.7496385 -0.3736222 -0.5463046 
0.6666667 127.3333 527.6667 0.6058655 -0.5402807 -0.5839725 
-35.5 121.5 494 -0.228178 0.3841236 -0.8946418 
36.66667 129.6667 525.6667 -0.03983408 -0.8560448 -0.5153645 
-35.66667 123.6667 495 -0.2199807 0.4354119 -0.8729405 
48.5 132 524 0.003371751 -0.8151576 -0.5792295 
48.5 135 519 -0.03295027 -0.8750167 -0.4829701 
64.5 138 514 0.1424095 -0.8525038 -0.5029482 
60.5 140 511.5 0.1040902 -0.8410429 -0.5308598 
64.5 142 510 0.07657202 -0.8484216 -0.5237535 
52.75 143.25 507.25 0.03440458 -0.8172482 -0.5752581 
56.33333 147 499.6667 0.01266593 -0.8831741 -0.4688744 
52.5 149 497 -0.01132582 -0.8688027 -0.495029 
56.5 150 494 0.0383964 -0.8202474 -0.5707188 
76 155.5 512 0.8793458 0.1084899 -0.4636603 
56.6 153.6 489.8 0.05282173 -0.8032129 -0.5933456 
52.5 155 487.5 0.07642381 -0.8459469 -0.5277625 
-16 155 483 0.01574259 -0.8751008 -0.4836846 
-15.5 154 482 0.01349732 -0.8804029 -0.4740344 
56.5 157 485 0.2103035 -0.7624261 -0.6119469 
-15.5 157 477.5 0.007468075 -0.8439413 -0.5363836 
-27.6 159.4 475.4 0.01344212 -0.8824623 -0.470191 
0.6666667 161 473.3333 0.07725827 -0.7988682 -0.5965239 
-3.5 163.5 471 -0.02899402 -0.8195506 -0.5722729 
-5.5 187.5 461.5 -0.4218917 0.1161922 -0.89917 
-5.5 183.5 458 -0.4774739 0.488149 -0.7305679 
-5.5 177.5 455 -0.475904 0.09672391 -0.8741624 
6.5 175.25 453.75 -0.02647122 -0.720126 -0.6933382 
6.6 173.4 455.2 0.009151428 -0.763523 -0.6457158 
6.5 171 457.5 0.02362204 -0.8026263 -0.5960143 
9 171 459 0.06318111 -0.8493164 -0.5240897 
6.5 169.75 459.75 0.06854132 -0.8276843 -0.5569928 
7 166 464 0.08814189 -0.8335209 -0.5454116 
-21.5 107.5 493 -0.0410899 0.3890676 -0.9202924 
-25 105.5 492 0.2817477 0.3574668 -0.8904132 
7 116 545.5 0.4246027 -0.6981211 -0.5764891 
7 113.3333 547.3333 0.3971213 -0.743918 -0.5374763 
-21.6 101.6 491.2 0.01845104 0.3598029 -0.9328459 
-11.33333 95.66666 491.3333 0.5956088 0.330787 -0.7320042 
-89.5 107.3333 553.3333 0.06683367 -0.851976 -0.5192978 
-5 93.5 499.5 0.8691989 0.1947461 -0.4544967 
-85.5 105 559 0.05352449 -0.8714093 -0.4876279 
-9.333333 89.66666 491.3333 0.7413834 0.3005459 -0.6000192 
-93.5 101 563 0.06189196 -0.8548027 -0.5152492 
-101.5 85 587.5 0.05866706 -0.8485318 -0.5258821 
-131 89 621 -0.292863 -0.9438232 -0.153066 
-109 82 592 -0.2339947 -0.8688818 -0.4362234 
-55 -2 470 -0.8158386 0.5273384 -0.2373219 
-59 -16 460 -0.8526368 -0.06777438 -0.51809 
-51 -36 448 -0.924453 0.1677894 -0.3423935 
-55 -30.5 466 -0.8157901 -0.4196641 -0.3979556 
-63 -28 476 -0.7581328 -0.4985377 -0.4203508 
-55 -26.5 461 -0.7456104 -0.4812485 -0.4609393 
-57 -26 464 -0.761113 -0.4946485 -0.4195592 
-53.75 -24.5 457.5 -0.7314197 -0.4318217 -0.5277835 
-49.5 -24.5 453.5 -0.7513095 -0.301154 -0.5872311 
-55 -22 457.5 -0.7327077 -0.4113697 -0.5421389 
-57 -22 460 -0.7706398 -0.3934412 -0.5013167 
-63 18 490 -0.9376658 -0.05396796 -0.3433227 
-109 78 604 -0.4890386 -0.8367287 -0.2464275 
-105.5 79 597 -0.1461492 -0.8801611 -0.4516159 
-83 80 596 -0.0660575 -0.8365591 -0.5438799 
-29 109.3333 491.3333 0.6531433 0.361915 -0.6651477 
6.25 121.25 539.25 0.3306639 -0.7407397 -0.5847787 
3 121 535 0.4350342 -0.7024339 -0.5633222 
6.5 123 537.5 0.2225528 -0.7961012 -0.562755 
3 123.5 533 0.3803092 -0.7444593 -0.5487671 
-45 118 500 -0.6989185 0.2317953 -0.6765973 
-33 115.5 490 0.1043637 0.4282879 -0.8975956 
-1 127 525 0.7580963 -0.2891568 -0.5845327 
-39.33333 119.3333 496 -0.6255989 0.2542918 -0.7375377 
-37.5 121.5 495 -0.4883746 0.3244286 -0.8100842 
34.5 129 527.5 -0.06360292 -0.854637 -0.5153157 
34.5 131 525 -0.04340026 -0.8610469 -0.5066703 
-33.33333 125.6667 495.3333 0.1901768 0.5288275 -0.8271483 
42.5 133 523 0.1120788 -0.7947147 -0.5965458 
-37.5 127.5 497.5 -0.3209763 0.4711435 -0.8215826 
44.6 133.4 521.4 0.04952416 -0.8320621 -0.5524672 
46.5 136 517.5 -0.0142019 -0.8785142 -0.4775051 
62.5 138 516 0.1323657 -0.8533346 -0.5042812 
62.5 139.5 513 0.1275585 -0.8442714 -0.5205139 
63 141 511 0.1019843 -0.8389739 -0.5345299 
54.5 148 498 -0.01711872 -0.8715509 -0.4900061 
73 153.5 506 0.8669114 0.06576145 -0.4941054 
73 155.5 507 0.873528 0.1343532 -0.4678656 
75 155.5 510 0.8724462 0.1326 -0.4703773 
61 152 492 0.1764241 -0.7673476 -0.6164837 
77 159.5 515.5 0.7887564 -0.2103662 -0.5775893 
54.33333 153 491.3333 0.0358117 -0.8151275 -0.5781736 
-17.5 154 484 0.04244917 -0.8690637 -0.4928755 
-17.5 157 479 -0.007203178 -0.8609523 -0.5086349 
-5.5 162 472 -0.01591516 -0.7924677 -0.6097063 
-5.5 164 469.5 0.004051398 -0.8417065 -0.5399203 
2.5 165 467 0.004040143 -0.8570422 -0.5152304 
0 184 455 -0.4254984 0.5048992 -0.751018 
0.5 182 453 -0.3924487 0.4135243 -0.8215728 
-4 182 457 -0.4864381 0.480433 -0.7297686 
-4 180 455 -0.4871689 0.3357822 -0.8061742 
12.5 169.5 461.5 0.04338295 -0.8492934 -0.5261354 
8.5 115.5 547.5 0.3343805 -0.7548242 -0.5642961 
-87.66666 109.6667 549.3333 0.07867586 -0.8554945 -0.5118001 
-95.5 97.5 569.5 0.03951535 -0.8547325 -0.5175626 
-95.66666 87.66666 583.3333 0.05158629 -0.8260387 -0.5612476 
-103.5 82 593 0.02398121 -0.8601111 -0.5095426 
-48 -33 448 -0.8952556 0.2719955 -0.3528965 
-59.33333 -24.33333 467.3333 -0.757649 -0.5041819 -0.4144498 
-103.5 75 604 -0.187197 -0.8914754 -0.412588 
-23.5 126 501 0.0681565 0.3903424 -0.9181435 
76 158 513 0.8660954 -0.006137772 -0.499841 
-2 182 455 -0.4582238 0.4572974 -0.7621746 
-10 184 461 -0.4016678 0.3870118 -0.8299909 
-89.33334 109.3333 551.6667 0.06095061 -0.8477694 -0.5268512 
-89.5 105.5 555.5 0.08306066 -0.8512195 -0.5181954 
-90 104 557 0.08478088 -0.8602594 -0.5027584 
-10 91 490 0.6906887 0.3203009 -0.6483492 
-57.5 -4.5 473.5 -0.8082361 0.4909156 -0.3252022 
-50 -26.66667 455.3333 -0.8090132 -0.2721662 -0.520983 
-66 27.5 497 -0.9421394 0.08165882 -0.3251233 
-105.5 78 599 -0.1698691 -0.8684622 -0.4657445 
6.5 117.5 543.25 0.3954933 -0.7117208 -0.5805503 
6.5 119.5 541.25 0.3791989 -0.7058939 -0.5982658 
-2 118 519 0.9030201 0.1990991 -0.3806762 
-34 114 491 -0.1435015 0.4210716 -0.8956038 
-25.66667 127.3333 502 0.06198435 0.4397369 -0.8959852 
78 153.5 516 0.893005 0.09259415 -0.4404186 
54.5 149.5 495.5 0.0005121348 -0.8447817 -0.5351109 
54.5 151.5 493.5 0.03088276 -0.8103812 -0.5850886 
-17.5 155.5 481.5 0.01370296 -0.8717921 -0.4896845 
-41.66667 115.6667 497.3333 -0.6679817 0.2395045 -0.7045836 
-1 183 454 -0.4263452 0.4796464 -0.7669218 
-13 90 487 0.5723116 0.3592501 -0.737156 
-101.5 99.5 565.5 0.01345522 -0.8471137 -0.5312414 
-101.5 97.5 567.5 0.03199233 -0.8167064 -0.5761659 
-55 -1 472 -0.8020564 0.4748204 -0.3622859 
-49 -35 448 -0.9106595 0.2113923 -0.3549827 
-67 -22 477 -0.9434685 -0.2008422 -0.2636849 
-63 21.5 485.5 -0.9043581 -0.06680664 -0.4215133 
-65 30 495 -0.9365904 0.1505362 -0.3164446 
-101 73.5 607.5 -0.203699 -0.8959673 -0.3946509 
71 157 504 0.8788385 0.1563049 -0.4507901 
-29.66667 159.6667 473.3333 -0.04430279 -0.8511174 -0.5231026 
-6 95 498 0.8419698 0.2093993 -0.4972313 
-6 89.5 496 0.8300199 0.2658417 -0.4903012 
-6 85.5 492 0.7718462 0.2677182 -0.5766977 
-54 -26.5 459.5 -0.7471808 -0.4647878 -0.4750718 
74 149.5 507 0.7982984 -0.1283574 -0.5884252 
42 135 521 0.09800039 -0.8355995 -0.5405269 
37 175 455.5 0.191017 -0.8065435 -0.5594642 
34.5 173.5 455.5 0.09592831 -0.8651013 -0.492339 
49 176 467 0.8818566 0.1220373 -0.4554513 
46.5 171.5 461.75 0.5377061 -0.5441551 -0.6440244 
44.6 169.4 465.4 0.2396096 -0.6996009 -0.6731611 
38.6 167.2 465.4 0.05925766 -0.8209305 -0.5679451 
-165 126 591 -0.836835 -0.3414404 -0.4279318 
38.5 117 547.5 0.1495361 -0.8705378 -0.4688315 
-165 123.5 594 -0.8249984 -0.234111 -0.5143634 
-159 117.5 586 -0.849115 -0.103087 -0.518051 
-167 119.5 596 -0.8218246 -0.05034268 -0.5675121 
-121.5 107.5 549.25 0.06737598 -0.8392032 -0.539628 
-141.5 109.5 567.5 -0.5490015 -0.8273915 -0.1184092 
-157 111 582 -0.5601695 -0.4798506 -0.6752433 
-133 104 565 -0.4762553 -0.8641296 -0.1626682 
-135 104 579 -0.5548777 -0.8205501 -0.137143 
-157.5 105.5 587.5 -0.1067571 -0.7616645 -0.6391168 
-155.3333 104 591.3333 0.07312237 -0.8534226 -0.5160649 
-153.5 101.5 595.5 0.03350621 -0.855163 -0.5172751 
-161.5 100 597 -0.1153126 -0.9248045 -0.3625461 
-127 95 596 -0.5385488 -0.8286929 -0.1524245 
-9.25 71.75 481.25 0.6674649 0.3723824 -0.6448426 
-119 89 598 -0.6124984 -0.7747465 -0.1568876 
-13.5 71.5 477.5 0.4957531 0.4242443 -0.7577899 
-113 84 597 -0.5856889 -0.7710769 -0.2498177 
-9.666667 67.33334 477.6667 0.6608838 0.3849476 -0.6442422 
-111 82 597 -0.5088198 -0.8089986 -0.2943192 
-47.5 3.5 455.5 -0.8014346 0.5318725 -0.2735221 
-49 1 456 -0.7922134 0.5415621 -0.2812623 
-57.33333 19.33333 477.3333 -0.7798055 0.04124711 -0.6246616 
-59 23.33333 479.6667 -0.8290982 0.01518666 -0.5588968 
-51 23.5 472 -0.5182139 -0.02409234 -0.8549117 
-57 29 476 -0.6526427 0.1418094 -0.7442766 
-55.33333 31.33333 476 -0.5281374 0.247987 -0.8121413 
36.5 119.5 543.5 0.06790616 -0.8803717 -0.469398 
48.5 121.5 541.5 0.02103261 -0.818634 -0.5739304 
30.5 126 531.5 -0.00703335 -0.8432457 -0.5374823 
30.5 128 529.5 0.02434795 -0.8313206 -0.5552596 
6.666667 129.3333 527.3333 0.05795719 -0.8423479 -0.5358087 
8.5 129.5 525.5 0.001629902 -0.8658912 -0.5002298 
12.5 131.5 523.5 0.02834892 -0.8359836 -0.5480218 
-45.66667 133.6667 511.3333 -0.5920196 0.3823833 -0.7094335 
-33 132 501.5 0.2915192 0.6814574 -0.6712916 
-37.66667 133.6667 503.3333 -0.2447518 0.7579287 -0.6046823 
-31.33333 135.6667 507 0.06692272 0.5041799 -0.8610017 
-43.66667 139.6667 507.3333 0.06384853 -0.8840966 -0.4629219 
-45.5 140 505.5 0.08018234 -0.8803445 -0.4675087 
-45.6 141.2 503.4 0.06767501 -0.8803447 -0.4694819 
-41.5 146 495.5 0.01998049 -0.854374 -0.5192744 
-41.5 147.3333 493.3333 0.01250714 -0.8179072 -0.5752142 
-33.5 149.5 491 -0.01412759 -0.8022873 -0.5967709 
-39.5 153.5 485.5 0.03555858 -0.8562673 -0.5153077 
28.5 165.5 469.5 0.0413211 -0.8660293 -0.4982829 
40.4 173.4 457.4 0.2651905 -0.7486879 -0.6075693 
36.6 171.8 459.6 0.07210916 -0.8252865 -0.5600915 
48 171.6667 463.6667 0.6669923 -0.3772775 -0.6424819 
36.5 168 463.5 0.04525201 -0.8318259 -0.5531889 
40.5 167 467.5 0.05033883 -0.8274504 -0.559278 
-119.5 107 551 0.05573085 -0.8383763 -0.5422355 
-123.5 105 553.5 0.009571754 -0.8914256 -0.4530661 
-140 108 572 -0.537976 -0.832271 -0.1338167 
-112 104 556 0.07887949 -0.8398597 -0.5370418 
-151.5 108 584 -0.1139503 -0.8397225 -0.5309253 
-123.5 103 559 -0.01601281 -0.9084921 -0.417595 
-119.5 102 561.5 -0.03501574 -0.8685212 -0.4944137 
-143.5 105 589.5 -0.1345514 -0.900618 -0.4132592 
-123.5 100 564 -0.1689793 -0.8828067 -0.4382902 
-152 103 595 0.01982739 -0.8487368 -0.5284436 
-159.3333 99 599.3333 -0.06928372 -0.9335111 -0.3517908 
-124 93 597 -0.5790697 -0.8046364 -0.1312961 
-123.5 91.5 604 -0.5501888 -0.8084534 -0.2090348 
-11.5 71.75 479.5 0.5919353 0.3996833 -0.6999042 
-7.5 71.25 483.25 0.7429132 0.331596 -0.5814844 
-11.75 69.5 477.5 0.5714243 0.4281444 -0.700119 
-7.666667 69.33334 481.6667 0.7480807 0.3418988 -0.5687535 
-120 87 611 -0.5291445 -0.8259768 -0.1943413 
-8 67.5 480 0.7230704 0.3507753 -0.5950848 
-47.5 1.5 453.5 -0.7956222 0.5230156 -0.3056797 
-51.6 17.6 473.4 -0.3671888 -0.2013681 -0.9080877 
-60 19 483 -0.8839104 -0.01402014 -0.4674462 
-47.5 19.5 471.5 -0.5391313 -0.1187773 -0.8338042 
40.5 118 546 0.1514847 -0.871282 -0.4668191 
36.4 121.8 537.6 0.01825391 -0.8532695 -0.5211506 
40 124 536 0.1418302 -0.8457659 -0.5143582 
36.5 125 533 -0.008988041 -0.8380622 -0.5455008 
32.66667 127.3333 531.3333 -0.003074501 -0.8346013 -0.5508459 
16.5 133 521 0.01606825 -0.8017859 -0.5973954 
-31.33333 129.3333 501.3333 0.4603894 0.5487868 -0.697764 
12.5 135 519 0.08348106 -0.8434947 -0.5306106 
-44 133.5 509.5 -0.5085977 0.4505086 -0.7337373 
-43.5 136 512 -0.5414985 0.2582611 -0.8000503 
-35.5 133 501 0.05700964 0.7469642 -0.6624156 
-35.5 141 509.5 0.07860503 -0.7838868 -0.6159081 
-39.5 141 505 0.1667548 -0.8271988 -0.5365958 
-43.5 142 502 0.07086321 -0.8881148 -0.4541261 
-15.5 144 500 -0.05585787 -0.8884819 -0.4554996 
-43.5 145 497 0.03695234 -0.8600205 -0.5089198 
-35.66667 147.6667 492 -0.01202604 -0.8216574 -0.5698549 
-31.5 149.75 489.5 -0.02485432 -0.8076299 -0.5891658 
-35.5 151.6667 487.6667 -0.01995641 -0.8289213 -0.5590091 
28.5 162 474 0.04258942 -0.8509105 -0.5235813 
32.5 164 471.5 0.02337204 -0.8642333 -0.5025482 
-166 122 595 -0.8236812 -0.1465114 -0.5477989 
-54 17.5 475 -0.4510976 -0.1134849 -0.8852301 
-53.5 19.5 473.75 -0.4661445 -0.08238605 -0.8808643 
-85.66666 65 619.6667 -0.08039531 -0.8390545 -0.5380745 
10.5 133 519.5 0.06507032 -0.8453864 -0.5301771 
10.66667 135 517.6667 0.08630434 -0.8564144 -0.5090246 
26.4 161.8 475.6 0.005327883 -0.8404872 -0.5418053 
26.5 163.5 473 0.005121615 -0.8505138 -0.5259278 
34.66667 175 453.3333 0.1120714 -0.8362602 -0.5367576 
34.5 172 458 0.0535359 -0.8683437 -0.493065 
-157.3333 109.6667 583.6667 -0.5279368 -0.51018 -0.6789693 
-157.5 107.75 585.5 -0.3776429 -0.6013207 -0.7041302 
34.5 120 542 -0.01144228 -0.8724957 -0.4884878 
34.5 121 539 -0.03749925 -0.8555325 -0.5163893 
34 125 535 -0.01939424 -0.8272515 -0.5614971 
-136 106 565 -0.5330928 -0.8348374 -0.1373268 
-164 99 604 -0.3406727 -0.9334201 -0.1125567 
-83.66666 69.33334 613.3333 -0.06953266 -0.8226076 -0.564342 
-31.33333 133.6667 505.3333 0.1714317 0.6213433 -0.7645546 
-32 138 509 -0.1165579 0.1899046 -0.9748593 
46.25 169.75 463.75 0.3873789 -0.6134975 -0.6881558 
46 121 543.5 0.001928147 -0.8514116 -0.5244946 
-33.5 139.5 509.75 -0.09767228 -0.3337912 -0.9375733 
-166 127 589 -0.8158402 -0.4381728 -0.3773717 
-85.5 67 617 -0.05122656 -0.8141358 -0.5784105 
-85.5 69 615 -0.05156144 -0.8207327 -0.5689809 
10.5 130 524 0.01023669 -0.8693768 -0.4940437 
10.5 132 522 0.04387081 -0.84319 -0.5358227 
49 173.5 465.5 0.8166091 -0.0960238 -0.5691475 
38.5 166 468 0.01114172 -0.8533929 -0.5211491 
37 116 548 0.1242697 -0.8605389 -0.4939938 
-161 118 588 -0.8467059 -0.0725228 -0.5270954 
-123 109 549 0.05624957 -0.8419376 -0.536635 
-121.5 106 552 0.0283966 -0.8759068 -0.481644 
-141 108 570 -0.5509967 -0.8250362 -0.1253709 
-155 110 582 -0.3790904 -0.6673341 -0.6410583 
-125.5 103.5 558 -0.06976413 -0.924798 -0.3740074 
-125 102 560 -0.09524594 -0.9089311 -0.4059217 
-131 102 566 -0.4582294 -0.8673046 -0.1944446 
-121 101 563 -0.06625762 -0.8657364 -0.4960952 
-171 107.5 603.5 -0.9263664 -0.2479734 -0.2834688 
-127 100 568 -0.3768227 -0.883408 -0.278559 
-153.5 103 593 0.04026618 -0.8545201 -0.5178553 
-165 100 602 -0.4161817 -0.8931376 -0.1705813 
-125 92 602 -0.531507 -0.8221031 -0.2040757 
-117 86 600 -0.6372443 -0.7528653 -0.1646618 
-49.5 18 472 -0.4836513 -0.1738258 -0.8578264 
-83 66 618 -0.05830464 -0.8250282 -0.5620757 
-31 131.5 503.5 0.3322188 0.5785154 -0.7449502 
-33.5 135.5 505.5 0.1144437 0.5724767 -0.8118947 
-45 143 501 0.02474562 -0.8697348 -0.4928987 
-39 147 495 0.03211921 -0.8479449 -0.5291104 
-33.5 151 489 -0.01570923 -0.8113613 -0.5843339 
-158 104 589 -0.02306086 -0.7863773 -0.6173159 
-126 94 599 -0.5372344 -0.8253107 -0.1739007 
-138 107 565 -0.5482896 -0.8262539 -0.1291631 
46 123 541 0.05910757 -0.8386519 -0.541451 
-110 98 566 0.05953266 -0.8503987 -0.5227598 
-109.5 86 585 -0.1446645 -0.8668039 -0.4772035 
-5.5 191.3333 459.3333 -0.2348469 -0.5202731 -0.8210742 
10.5 172 456 0.01940935 -0.8165714 -0.5769182 
10.5 166 466 0.1046135 -0.853768 -0.5100355 
10.6 117.4 545.6 0.258191 -0.7606042 -0.5956666 
-85.5 108 552 0.08944831 -0.833526 -0.5451912 
-101.5 89.33334 581.3333 0.06807248 -0.8091013 -0.5837133 
-101.5 83 591 0.07246438 -0.8625608 -0.5007373 
-54 -29 463 -0.8033028 -0.4045028 -0.4371294 
-54 -21 455 -0.7217382 -0.3588507 -0.5918785 
-38 113.6667 493.3333 -0.5926608 0.3197283 -0.7392747 
42.33333 129.6667 526 0.08224607 -0.8264608 -0.5569544 
58.5 143 507 0.05363341 -0.8333857 -0.5500834 
58.5 149 497 0.09561215 -0.8556086 -0.5087163 
-21.5 159.25 475.5 -0.01228246 -0.8464935 -0.5322573 
-5.333333 81.66666 493 0.8054359 0.3013998 -0.5103247 
10.5 123.5 535.5 0.0280911 -0.8803663 -0.4734618 
58.5 155.5 487.5 0.2224648 -0.7284715 -0.6479497 
-4 192 458 -0.2051363 -0.6063787 -0.7682605 
-7.5 191 461 -0.1708839 -0.4805199 -0.8601741 
0.5 187.5 457.25 -0.4092686 0.3586185 -0.8389828 
-7.5 189 463 -0.3032853 -0.09999933 -0.9476383 
-11.66667 185.6667 463 -0.3439686 0.1118892 -0.932291 
-7.666667 179.6667 457 -0.4344856 0.3876706 -0.8129784 
116.5 193 503.5 -0.1522293 -0.762015 -0.6294119 
16.5 173.25 455.5 0.04910354 -0.8410041 -0.5387958 
16.5 170 459.5 0.04030852 -0.8582993 -0.5115639 
12.5 167 465 0.08825231 -0.8421545 -0.5319656 
-27.5 107.5 493.5 0.4332592 0.3568684 -0.8276059 
-15.5 105.5 491.75 0.3341125 0.2961704 -0.8947915 
-23.5 99.5 489.5 0.1327715 0.3477054 -0.9281555 
-79.5 111 549 -0.05128754 -0.8460764 -0.5305886 
-79.5 108 553.5 -0.125129 -0.8081235 -0.5755684 
-79.5 106 556 -0.1160198 -0.8307954 -0.5443514 
-83.5 103 561 -0.005854762 -0.8639185 -0.5035976 
-4 87.5 497.5 0.8714676 0.2465896 -0.4239549 
-107.6667 99.33334 565.3333 0.06679388 -0.8429623 -0.5338101 
-8 83.5 490 0.7274721 0.2902565 -0.6217198 
-11.66667 83.33334 486 0.6750869 0.3103689 -0.6692749 
-103.5 88 582 0.07901341 -0.822411 -0.56338 
-131.5 91 613 -0.1899322 -0.9263005 -0.3254124 
-107.5 85 587 -0.08713713 -0.8730243 -0.4798289 
-136 91 625 -0.2626445 -0.9574641 -0.1195011 
-99.5 84 590 0.07699953 -0.8618594 -0.5012679 
-128 88 622 -0.3106203 -0.9377778 -0.1552029 
-95.5 83 593 0.0730523 -0.8449723 -0.5297973 
-99.5 82 592 0.07822522 -0.8542082 -0.5140127 
-95.5 81 595 0.05933078 -0.8563926 -0.512905 
-59.33333 -0.6666667 481 -0.5994185 -0.06057308 -0.7981406 
-48 -38.5 443.5 -0.8424489 -0.01225942 -0.5386369 
-48 -41 445 -0.8167732 -0.2233784 -0.531962 
-52 -31 463 -0.8265433 -0.3606094 -0.4321887 
-64 -25 477 -0.7607956 -0.4612611 -0.4565393 
-52 -23 455 -0.7010103 -0.399613 -0.5906726 
-59.33333 -22.33333 463.6667 -0.7684826 -0.4327365 -0.471353 
-52 -21 453 -0.6938589 -0.3550455 -0.6265003 
-64 -19 471 -0.8836263 -0.1520557 -0.4428134 
-64 27.5 489.5 -0.9272224 0.1340414 -0.3497021 
-99.5 72 609.5 -0.1934446 -0.8976695 -0.3959402 
-95.5 78 600 0.03179532 -0.8296649 -0.5573555 
16.5 120 542 -0.006862 -0.8615864 -0.5075646 
4 119.5 538 0.4212068 -0.6924816 -0.5857083 
16.5 123 537 0.04666437 -0.860658 -0.5070407 
12.5 124 534 0.04203371 -0.8474551 -0.5292004 
-19.5 123.5 501.25 0.2712905 0.3655933 -0.8903612 
44.5 129 527.5 0.06987919 -0.8381016 -0.5410199 
-39.5 123.5 497.5 -0.5819538 0.286237 -0.7611822 
-15.5 125.5 503.25 0.4757699 0.3777242 -0.7943346 
44.5 131 525.5 0.06382734 -0.791527 -0.607792 
40.5 132 522 0.09838793 -0.8024409 -0.5885648 
40.5 134 520 0.1142173 -0.8352239 -0.5379177 
40.5 136 517.5 0.09371918 -0.8667853 -0.4897958 
56.4 137.4 515.4 0.07737797 -0.8490616 -0.5225965 
56.33333 139 513.6667 0.06486133 -0.8501379 -0.52255 
60.33333 142 507.6667 0.07186838 -0.8379097 -0.5410567 
60.33333 144 505.6667 0.05404523 -0.8441784 -0.5333312 
76 145.5 511 0.7188327 -0.3095028 -0.6224852 
72.5 145 507 0.5065916 -0.5411193 -0.6712339 
68.5 146 504 0.2533082 -0.7185501 -0.6477042 
68.5 148 502 0.3948381 -0.6395428 -0.659612 
72 149.3333 503.3333 0.7264349 -0.3141623 -0.6112237 
64 150 496 0.3289042 -0.7824423 -0.5287778 
64.5 152 493.5 0.421 -0.6815771 -0.5985078 
64.25 153.5 491.5 0.4921761 -0.5774075 -0.6514317 
-23.4 153.8 483.6 0.01733794 -0.8237453 -0.5666948 
64.33334 155.3333 490 0.6078615 -0.4186812 -0.6746929 
-23.5 157 479 -0.02264345 -0.83532 -0.5492975 
-20 158 476 -0.0383839 -0.8348367 -0.549158 
-19.5 160 474 -0.02475876 -0.8359727 -0.5482123 
-11.5 162 471.5 0.09807448 -0.8543444 -0.5103695 
12.5 166 467.5 0.1076227 -0.8711093 -0.4791512 
2.5 169 461.5 0.01794411 -0.8443344 -0.5355161 
-61.33333 -2.333333 482 -0.6018915 0.1046379 -0.7916929 
-62 -18.5 466 -0.8863215 -0.1528063 -0.4371322 
34.5 133 521 -0.008237005 -0.8338199 -0.5519753 
66 146 502 0.1700579 -0.7931594 -0.5847892 
-3.333333 189.3333 460 -0.4237942 -0.1021328 -0.8999819 
-11.5 181.5 460 -0.4540034 0.4709146 -0.7563864 
16.6 171.6 457.6 0.06525446 -0.8704826 -0.4878544 
-79.5 109.5 551.5 -0.09992375 -0.8238583 -0.5579182 
-83.5 101.5 563.5 0.0009496176 -0.8678801 -0.4967729 
-107.6667 97.66666 567.6667 0.03379821 -0.8192843 -0.5723907 
-3.333333 81.66666 495.6667 0.8702703 0.2589952 -0.4189882 
-56 0 477 -0.7057914 0.176785 -0.6860069 
-59.33333 -4.666667 477.6667 -0.7632014 0.4016473 -0.5061652 
-64 -17 470 -0.9197577 0.002210701 -0.3924806 
-95.33334 79.33334 597.6667 0.04196934 -0.8358472 -0.5473556 
16.5 121 540 0.002901846 -0.8561579 -0.5167062 
-31.33333 119.6667 493.3333 0.488133 0.3728995 -0.7890958 
76 147 510 0.7799743 -0.1710502 -0.6019818 
-23.5 155.5 481.25 -0.001170929 -0.8429862 -0.537934 
-11.5 163.5 469.5 0.1194058 -0.8649824 -0.4873886 
-9.5 190 461.5 -0.1092028 -0.4666161 -0.8776926 
-13.4 187.4 463.4 -0.201935 -0.2737991 -0.9403491 
-9.666667 177.6667 457 -0.4002942 0.2541792 -0.8804303 
115 193 502 -0.2945181 -0.949609 -0.1072462 
17 175 453.5 0.01025999 -0.7903878 -0.612521 
14.66667 173.3333 453.6667 0.01349595 -0.7996317 -0.6003391 
14.33333 171.3333 459.6667 0.04018376 -0.8703067 -0.4908682 
14.66667 168 463.6667 0.05582002 -0.8641646 -0.5001037 
-29 102 489 0.7015342 0.2605639 -0.663292 
-27 102 491 0.49094 0.3091101 -0.8145115 
-29 99.5 488 0.687353 0.1850747 -0.7023483 
-25.5 97.5 489 0.1740399 0.2592287 -0.9500056 
-29 97.5 486 0.735781 0.08780195 -0.6715036 
-9.25 93.75 493.25 0.7427475 0.2682326 -0.6134961 
-7 93.5 495.5 0.8067706 0.2478607 -0.536364 
-81.5 103.5 559.5 -0.04549884 -0.8652411 -0.4992873 
-3 85.5 500 0.8964451 0.2259677 -0.3812151 
-9 82 489 0.7063953 0.3290893 -0.6266626 
-105.5 87.5 583.5 0.0356347 -0.840521 -0.5406059 
-131 90 615 -0.2273735 -0.9346498 -0.2733699 
-97.5 82 593 0.07366769 -0.8589303 -0.506766 
-57.66667 -2.333333 477.6667 -0.7993355 0.2776179 -0.532908 
-61 -5 480 -0.6880715 0.3243705 -0.6491081 
-61 -7 478 -0.7390749 0.4730398 -0.4795851 
-63 -15 468 -0.9091564 0.1634522 -0.383038 
-65 -17 472 -0.9407224 0.04421528 -0.3362832 
-47 -37 441.5 -0.8255176 0.05347373 -0.5618374 
-51 -43 452 -0.9492159 -0.2260614 -0.2188275 
-49 -43 446 -0.8121367 -0.3297105 -0.4813781 
-59 -20.5 462 -0.790543 -0.3465026 -0.5049533 
-67 21.5 499 -0.9536508 -0.01020804 -0.3007426 
-67 23 498 -0.95178 -0.01383155 -0.3064696 
-65 25 490 -0.9454091 0.04279849 -0.3230636 
-63 29.33333 487.6667 -0.9082234 0.1735808 -0.3807885 
-101 72 611 -0.3097467 -0.8926663 -0.3274201 
-103 73 612 -0.4198672 -0.8735533 -0.2462037 
-97.66666 75.33334 603.3333 0.008850216 -0.8480097 -0.5299067 
-17.33333 107.3333 492 0.1797727 0.3722947 -0.9105374 
14.5 119.6667 543.6667 0.03455028 -0.8468276 -0.5307442 
-23 111 494 0.06493317 0.4145965 -0.9076858 
-25.5 111.5 495 0.2554273 0.4101213 -0.8755327 
-1.666667 121.3333 521.3333 0.9004645 0.1737141 -0.3987318 
-3 122 519 0.8867486 0.2103382 -0.4116246 
-41 121 498 -0.6483075 0.2491448 -0.719461 
-17.66667 125.3333 502 0.3830056 0.376518 -0.8435289 
38.66667 131.3333 523.3333 0.04967844 -0.8111267 -0.5827569 
-17.5 127.5 503 0.391883 0.4136237 -0.8217926 
50.5 139.3333 511.3333 0.04193685 -0.8311275 -0.5544983 
54.5 141 509.5 0.02572125 -0.8277248 -0.5605444 
78.33334 145.3333 513.3333 0.803449 -0.1515415 -0.5757646 
79 147.5 516 0.8865001 0.07906133 -0.4559242 
70.4 145.6 505.6 0.3491977 -0.6580827 -0.6670743 
75 145.5 509 0.6879435 -0.3575871 -0.6315578 
73 147.5 505 0.630877 -0.3836857 -0.6743735 
62.5 147.5 499.75 0.1696118 -0.8370619 -0.520153 
70.4 149.4 501.6 0.6240951 -0.4643965 -0.6283638 
77 152 513 0.8853543 0.1181761 -0.4496469 
63 159.5 488 0.7765514 -0.1238489 -0.6177617 
-25.25 157.75 477.75 -0.02536413 -0.8374342 -0.5459495 
-9.5 161.5 473.5 0.0539426 -0.8105212 -0.5832201 
-2 185.6667 457.3333 -0.4853836 0.4621634 -0.7421642 
14.5 116 548 0.09637091 -0.8355713 -0.5408634 
-81.5 110 550 0.03261416 -0.8512145 -0.5238036 
-81.5 107 555 -0.05289129 -0.828737 -0.5571334 
-105.5 97 569 0.01929147 -0.810966 -0.5847752 
-66 22 494 -0.9516429 -0.04230956 -0.3042791 
-97.5 79 599 0.05481492 -0.8353461 -0.5469847 
-25.5 109.5 493.5 0.2542387 0.384605 -0.8873791 
14.5 122 538 0.01905927 -0.8798965 -0.474783 
14.5 125 533 0.04569613 -0.8411975 -0.5387938 
46 129 529 0.07133438 -0.8637968 -0.498765 
-41.5 123.5 499.75 -0.6446409 0.2660198 -0.7167088 
38.5 135 519 0.06950226 -0.8408133 -0.536845 
62.5 151 495 0.2624354 -0.7930706 -0.549697 
62.5 154 490 0.3722959 -0.6525769 -0.6599539 
-26 155 483 -0.005808772 -0.8412777 -0.5405721 
13 117 547 0.1505293 -0.8190553 -0.5536149 
-57 -0.5 479.5 -0.671811 0.1093351 -0.7326089 
-49 -41 447 -0.8801715 -0.1864298 -0.4365113 
-49 -46 450 -0.7842646 -0.4238606 -0.4530686 
-53 -30 462 -0.8215816 -0.3677822 -0.4355915 
-65 -22 474 -0.8443377 -0.3361739 -0.4172302 
-101 77 601 0.01283533 -0.8515877 -0.5240552 
5 118 540 0.4065714 -0.6898971 -0.5989507 
-1 123.5 523.5 0.8991306 0.05427204 -0.4343027 
-3 123.5 517.5 0.8668517 0.2301294 -0.4422767 
-3 127.5 521.5 0.8162479 -0.02503783 -0.577159 
67 147 503 0.2254122 -0.7437461 -0.6293101 
50.33333 151.6667 492 0.05435637 -0.8442326 -0.5332137 
-25 154 482 0.005030837 -0.8376861 -0.5461288 
-29 156 480 0.008032301 -0.8257606 -0.5639637 
-2 188 459 -0.4579749 0.2039227 -0.8652598 
-10 180 459 -0.4320883 0.4654168 -0.7724551 
-138 91 628 -0.2648156 -0.9587695 -0.1031202 
-50 -45 452 -0.8905473 -0.3287487 -0.3144037 
-66 -20 475 -0.9400726 -0.1334969 -0.3137548 
-109.5 97 569 0.02943977 -0.8231758 -0.5670229 
-109.5 87.5 583.5 -0.1070033 -0.8902159 -0.4427933 
10.5 173.5 453.75 -0.05058241 -0.7782832 -0.6258729 
10.25 171.25 459.25 0.05421931 -0.8648273 -0.4991332 
10.5 168 463.5 0.08559883 -0.831428 -0.5489995 
10.5 115.75 547.5 0.2976637 -0.7629016 -0.5739142 
-85.33334 109.6667 549.3333 0.07226856 -0.8665552 -0.4938213 
-5.333333 87.66666 495.3333 0.8272389 0.2638917 -0.4960213 
-6 85.66666 493.6667 0.8098241 0.2600428 -0.5258923 
-101.5 82 593 0.06574827 -0.8597569 -0.5064538 
-54 -2 469 -0.8124506 0.5303779 -0.2421225 
-54 -30.5 465 -0.8133717 -0.4031121 -0.4194369 
-53.5 -18.5 453.5 -0.7247179 -0.2831949 -0.6281598 
-101.5 75.5 603.25 -0.07916681 -0.8871322 -0.4546747 
10.5 119.5 543 0.1781524 -0.8059705 -0.5645115 
-37.33333 117.3333 493.6667 -0.51082 0.2877397 -0.8101041 
-38 119.5 495 -0.5606815 0.2846597 -0.7775637 
-21.5 125.5 501 0.1325416 0.3802682 -0.9153299 
58.5 147.5 499.5 0.07294121 -0.8670315 -0.4928852 
-1.666667 191 459.3333 -0.3243339 -0.2857017 -0.9017661 
-10 187.5 463 -0.2684708 -0.1033215 -0.9577307 
-9.5 185.5 461.75 -0.3622533 0.242053 -0.9001017 
14.5 172 456 0.04488531 -0.8559041 -0.5151829 
14.5 166 466 0.09356223 -0.8706194 -0.4829783 
14.5 118 545.5 0.07236028 -0.8397041 -0.5382016 
-26 105.5 493 0.2804801 0.3589063 -0.8902343 
-25.5 103.5 491.5 0.3063907 0.344918 -0.8872184 
-81.5 109 553 0.003733895 -0.8333626 -0.552714 
-106 99 567 0.03874533 -0.8259194 -0.5624552 
-10 83.33334 487.6667 0.7018745 0.2900254 -0.6505825 
-97.5 89 581.5 0.04327015 -0.8072001 -0.5886899 
-129.5 90 614 -0.2727822 -0.9167884 -0.2917002 
-50 -42.5 449.5 -0.9166058 -0.2169595 -0.335801 
-50 -23 453 -0.7291282 -0.324329 -0.6026464 
-65.75 -18.5 473.5 -0.9501894 -0.03192764 -0.3100337 
-65.5 19.5 496 -0.9521552 -0.03580377 -0.3035107 
-97.5 77 601 0.04238831 -0.8303665 -0.555603 
-17.5 121.5 501 0.3725591 0.3891081 -0.8424932 
-1.666667 127.6667 523.3333 0.747103 -0.2030461 -0.6329372 
46.5 130 526 0.04359487 -0.8225369 -0.5670384 
38.66667 133.3333 521 0.09275539 -0.824355 -0.5584221 
54.4 139.4 511.2 0.04271361 -0.8336298 -0.5506696 
78 149.5 513.5 0.8761864 0.09464978 -0.4725873 
70.6 147.4 503.6 0.50792 -0.526075 -0.6821015 
78 151.5 515 0.8925664 0.1350134 -0.4302287 
62.25 149.5 497.25 0.212352 -0.8277218 -0.5194066 
54.5 152 492 0.032891 -0.813652 -0.580421 
62.33333 155.6667 488 0.4902533 -0.5447533 -0.6803643 
-25.5 156 480 -0.003057329 -0.8285904 -0.5598469 
-17.6 159.2 475.4 -0.02208267 -0.8282098 -0.559983 
-9.5 163 471 0.1108688 -0.8453692 -0.5225506 
-85.5 104 560 0.05570765 -0.868924 -0.4918005 
-54 -23 457 -0.7233149 -0.41621 -0.5509854 
-102 78 598 0.02502835 -0.8500181 -0.5261585 
10.5 122 538 0.05219847 -0.8685939 -0.4927675 
10.5 125 533 0.0237051 -0.8433928 -0.5367743 
58.5 150 494 0.06499495 -0.8263677 -0.5593677 
58.5 154 490 0.118293 -0.7830788 -0.6105688 
58.66667 157.3333 485.3333 0.3527765 -0.6591309 -0.6641502 
0.5 191.5 458 -0.2638477 -0.2931481 -0.9189389 
-11.5 191 461.5 -0.02962767 -0.623413 -0.7813313 
-13.5 190 462 -0.06332614 -0.5865787 -0.8074127 
0.5 185.5 455.5 -0.412377 0.4826602 -0.7726476 
-11.5 189 463 -0.1565873 -0.3898185 -0.9074811 
-7.5 187.5 462 -0.360567 0.04090632 -0.9318359 
-9.333333 183.3333 460 -0.4122066 0.4637954 -0.7842063 
-13.25 179.25 459.75 -0.4841118 0.4537278 -0.7481757 
-7.333333 177.3333 455.6667 -0.4046718 0.1571499 -0.9008577 
114.5 195 507 0.2170545 -0.3265143 -0.9199325 
12.5 173 455.5 -0.001129442 -0.8158016 -0.5783309 
16.66667 167 465.3333 0.05685593 -0.8876854 -0.4569269 
16.33333 166 467.6667 0.07944074 -0.88534 -0.4581073 
-23 107.5 493 0.014142 0.3709781 -0.9285339 
-19.5 105.5 492 0.02563074 0.3121559 -0.9496851 
-23.5 101.5 491 0.1172879 0.3697184 -0.9217114 
-27.5 99.5 490 0.4511823 0.2816865 -0.8468101 
-83 111 549 0.07237088 -0.8700122 -0.4876898 
-7 95.5 497 0.8127854 0.2196728 -0.5395589 
-83.5 106 556 0.0146041 -0.8424881 -0.5385172 
-87 105 559 0.08088436 -0.8697542 -0.4868115 
-13 85.66666 485.3333 0.6272862 0.3053904 -0.7164138 
-9.333333 85.66666 489.3333 0.7296305 0.2558765 -0.6341659 
-7.333333 85.66666 491 0.7552655 0.2664396 -0.5988189 
-11.4 85.4 487.2 0.680538 0.2745426 -0.6793339 
-3 83.5 497 0.8866613 0.2432067 -0.3932967 
-107.5 88 582 0.04715889 -0.8545612 -0.5172052 
-103.5 85 587.5 0.04023005 -0.8519191 -0.522126 
-97 83 591 0.08081881 -0.8594031 -0.504871 
-99.5 81 595 0.07641958 -0.8562973 -0.5107985 
-59 -2.5 479.5 -0.6842585 0.173617 -0.7082708 
-59.66667 -16.66667 461 -0.8586283 -0.09041723 -0.5045615 
-61 -16.5 463 -0.8819479 -0.04939903 -0.4687513 
-49 -44 447.5 -0.7763036 -0.3870488 -0.4975398 
-61 -22 466 -0.8001225 -0.4020444 -0.4451565 
-63 -20.66667 469.3333 -0.8559337 -0.2839386 -0.4321531 
-63 25.5 487.5 -0.9200482 0.06663776 -0.3860969 
-63 31.5 489.5 -0.9150444 0.1911419 -0.3551882 
-103 74 608 -0.2806016 -0.8972154 -0.34098 
-99.5 78 600 0.05217603 -0.8374307 -0.5440474 
-101 79 599 0.02290247 -0.8479121 -0.5296419 
3 119.5 535 0.4400474 -0.7006574 -0.5616382 
12.5 120 542 0.07341301 -0.8343421 -0.5463367 
7 121 541 0.33745 -0.734714 -0.588492 
12.5 123 537 0.02700776 -0.8734689 -0.4861302 
16.5 124 534 0.0530993 -0.8412147 -0.5380878 
-35.5 119.5 493 -0.2949192 0.3572761 -0.8862148 
-39 121.5 496 -0.5913312 0.2862301 -0.7539229 
48.5 129 527.5 0.02496075 -0.8561015 -0.5162048 
37 130 524 -0.01626008 -0.8387781 -0.5442306 
48.5 131 525.5 0.01574901 -0.8186234 -0.5741149 
-15.33333 127.6667 505 0.5230095 0.4249469 -0.7388377 
36.5 132 522 0.02448045 -0.8236041 -0.5666367 
36.5 134 519.5 0.02573192 -0.8274557 -0.560941 
36.6 135.2 517.4 0.01677678 -0.8470042 -0.5313214 
52.5 137.3333 515.3333 0.03472229 -0.84416 -0.5349657 
50.5 138 513.5 0.02897475 -0.8504632 -0.525236 
50.5 141 509.5 0.04937374 -0.8262237 -0.5611745 
64.33334 144 505.6667 0.0800736 -0.8335583 -0.5465975 
66.5 145 505 0.1079499 -0.8045625 -0.5839743 
75 149.5 509 0.8297232 -0.05361941 -0.5555937 
76.5 149.5 511.5 0.855868 0.03650412 -0.5159044 
60.5 148 498 0.1367999 -0.8474795 -0.512898 
64.66666 149 499.3333 0.2448798 -0.780697 -0.5749313 
73 151.5 505.5 0.8362939 -0.08129162 -0.5422215 
60.33333 153 491.3333 0.1812273 -0.7617673 -0.6219866 
60.66667 155 489.3333 0.3263099 -0.6794013 -0.6572181 
-27.5 154 484 -0.01868372 -0.8402578 -0.5418651 
-29.5 155 483 0.003625369 -0.850325 -0.5262454 
65 157.5 491 0.7924256 -0.1543251 -0.5901233 
60.5 157 487 0.4899137 -0.5326217 -0.6901439 
-27.5 157 479.5 -0.01203853 -0.8260368 -0.5634876 
61 159 485.5 0.6498566 -0.3880926 -0.6535063 
-29.33333 157.6667 478 0.02690512 -0.8572171 -0.5142518 
-15.5 158 476 0.003972087 -0.8307947 -0.5565649 
-27.5 159 477 0.01192844 -0.872418 -0.488615 
-13.5 161 473 0.05894428 -0.8301347 -0.5544384 
-7.5 162 472 0.02507696 -0.809972 -0.5859323 
-7.5 164 469.5 0.07813356 -0.8563907 -0.5103824 
-29.66667 103.3333 487.3333 0.6775571 0.2990056 -0.6719464 
-30 101.5 486 0.6729678 0.2736988 -0.6871705 
-62 -6.5 481.5 -0.626522 0.4003474 -0.6687244 
-62 -20.66667 467.3333 -0.8409317 -0.3153042 -0.4397924 
-30 154 482 0.008221537 -0.8460023 -0.533116 
6.666667 169.3333 461.6667 0.08475561 -0.8498659 -0.5201389 
-25.5 101 490 0.337715 0.3327165 -0.8804818 
-105.3333 85.66666 585.3333 0.01177034 -0.8470884 -0.5313218 
-122 86 633 -0.3833983 -0.9122974 -0.1439411 
-57.33333 -22.33333 461.3333 -0.7737035 -0.4150166 -0.4786902 
14.5 123.5 535.5 0.04363031 -0.8647395 -0.5003219 
62.5 143.5 507.5 0.07368093 -0.8435691 -0.5319421 
0.3333333 189.6667 459 -0.3754617 4.043616e-05 -0.926838 
-7 183 458 -0.4539142 0.4941693 -0.7414572 
-9 181 458 -0.4301814 0.4832261 -0.7625198 
-11 179 458 -0.4379376 0.4016683 -0.8042843 
-13 177 458 -0.4672462 0.2649349 -0.8434989 
115 194 505 0.1596978 -0.35843 -0.9197959 
12.5 171.5 457.5 0.05074361 -0.8654559 -0.4984086 
-23.66667 97.33334 488 0.09265903 0.361019 -0.9279438 
-83.5 109 552 0.04241496 -0.8423917 -0.5371939 
-83.33334 107.3333 553.3333 0.03005312 -0.8413352 -0.5396777 
-89 105 558 0.08182251 -0.8644095 -0.496086 
-7.666667 91.33334 493.6667 0.7888478 0.2751694 -0.5495461 
-79.5 103 561.5 -0.05802889 -0.8679594 -0.4932333 
-7 90 495 0.7923407 0.28802 -0.537811 
-79.5 101.5 563.5 -0.06694166 -0.8700634 -0.4883733 
-9 88 491 0.741751 0.2655585 -0.6158606 
-103.5 99.5 565.5 0.01311032 -0.8359974 -0.5485768 
-103.5 97.5 567.75 0.02930108 -0.8041165 -0.5937492 
-47 -35 444 -0.8511149 0.216435 -0.4782879 
-47.33333 -44.33333 445.6667 -0.7269689 -0.4419517 -0.5255426 
-47 -46.5 447.5 -0.7621378 -0.4285818 -0.4852459 
-63.5 -22.5 472 -0.7886934 -0.429449 -0.4399277 
-95.33334 69.66666 611.6667 -0.1186897 -0.8717479 -0.4753614 
-95.5 71.5 609.5 -0.07656115 -0.8729885 -0.4816946 
-107 76 609 -0.4850422 -0.8483412 -0.2122532 
-107 77 608 -0.4921544 -0.8418384 -0.2215679 
-99.5 79 598 0.06803437 -0.8430577 -0.5335026 
-27 110 495 0.3977082 0.3859357 -0.8323952 
-29 110 493 0.6117593 0.3858143 -0.690578 
12.5 121 540 0.03773925 -0.8578261 -0.5125526 
-3 125.5 519.5 0.8737688 0.1712536 -0.4551925 
-43 121 500 -0.6831694 0.2289207 -0.6934515 
34.5 131.5 523.5 -0.02781796 -0.8535843 -0.5202114 
-41 127 500 -0.6122447 0.3384691 -0.7145593 
-39 127 498 -0.4940039 0.4133499 -0.7649195 
-21 128 503 0.1815907 0.410833 -0.8934433 
52.5 139 514 0.03728136 -0.8455273 -0.5326291 
60.5 149.5 495.5 0.1386753 -0.8459543 -0.5149083 
60.4 151.6 493.6 0.1630361 -0.7940892 -0.5855267 
-27.5 155.5 481.5 -0.01020339 -0.8223117 -0.5689458 
-15.5 159.5 473.5 0.01857296 -0.8298986 -0.557605 
-4 185.5 459 -0.4836029 0.3987912 -0.7791623 
12 175.5 453 -0.04354286 -0.7513717 -0.6584411 
116 193 507 0.1165956 -0.3718908 -0.920925 
16 117 547 0.06270009 -0.844216 -0.5323232 
0 75.5 501 0.9316751 0.1753737 -0.3181596 
-128 90 616 -0.2913955 -0.9260936 -0.239665 
-96 84 589.5 0.08864015 -0.8657411 -0.4925803 
-60 -21 465 -0.8005915 -0.3820488 -0.461619 
-64 17.5 495 -0.9513883 -0.02687288 -0.3068196 
-64 29.5 491.5 -0.926113 0.1629261 -0.3402496 
-100 76 602 0.02052379 -0.8611275 -0.5079746 
-28 112 494 0.5040473 0.3972644 -0.766888 
-16 123.5 502 0.4612209 0.3686295 -0.8070858 
-40 125.6667 499.3333 -0.600973 0.3115565 -0.7360462 
64 159.5 489.5 0.7972717 -0.07395305 -0.5990733 
-4 85 496 0.8537972 0.2539569 -0.4544626 
-104 75 606 -0.3140704 -0.877522 -0.362374 
-4 127 518 0.840293 0.1664184 -0.5159581 
-20 127 502 0.2481617 0.3915856 -0.8860455 
2.5 7.5 449.5 0.8082294 -0.2104057 -0.5499954 
-29.75 27.75 453.25 -0.4758333 0.3596653 -0.8026354 
-61.5 133 515 0.1336795 -0.863124 -0.4869772 
-61.4 145.2 495.4 0.07054302 -0.8247465 -0.5610855 
-61.33333 147.3333 493.3333 0.08473005 -0.8312266 -0.5494388 
-142 113 543 -0.360019 -0.9011443 -0.2415062 
-14 7.5 434 0.5537404 -0.1438678 -0.8201668 
-13.4 5.6 435.4 0.5366068 -0.1407994 -0.8320028 
-13.5 35.5 461 0.6805022 0.1149299 -0.7236766 
-14 59.5 470 0.5432761 0.3656909 -0.7557257 
-45.66667 27.33333 469 -0.5253696 0.04606422 -0.8496264 
-9 57.5 475 0.7681898 0.2593944 -0.5853196 
-9.4 35.6 465.4 0.7709938 0.03404779 -0.6359319 
-11 35.5 463.5 0.7424074 0.03340434 -0.6691154 
-25.33333 31.66667 453 0.1030274 0.4006625 -0.9104148 
-23 30 453 0.235687 0.5031952 -0.8314122 
-7 23 448 0.3557277 0.8731988 -0.3331392 
-7.333333 22 445.6667 0.3940896 0.8289514 -0.3969043 
-39.4 15.6 455.6 -0.7510323 0.4043601 -0.5219612 
-39.25 13.25 453.75 -0.7499216 0.4718914 -0.4636121 
-41.33333 13 455.6667 -0.7779363 0.4466965 -0.4419019 
-43 13 458 -0.8084 0.4222195 -0.4101466 
3 5.5 451 0.8231938 -0.2562051 -0.5066664 
-11.5 7.5 436 0.5617474 -0.1117786 -0.8197228 
-13 63.5 473 0.5543776 0.3937198 -0.7332464 
-11 63.5 475 0.6577626 0.3394874 -0.6723813 
17 91 628 0.6084991 -0.6290085 -0.4838153 
16.5 93.5 621 0.5671494 -0.7836282 -0.2535123 
39 101 576 -0.07597873 -0.9587958 -0.2737482 
40.5 101.5 573.5 -0.08290732 -0.9179755 -0.3878756 
42.5 103.5 569.5 -0.03007996 -0.8287948 -0.5587437 
34.5 105 568 0.05466258 -0.858798 -0.50939 
36.5 105.5 565.5 0.06311224 -0.8435851 -0.5332738 
32.5 107.5 563.5 0.05557031 -0.8525857 -0.5196245 
30.5 109.5 559.5 0.01905895 -0.8625244 -0.5056564 
-117.5 109.3333 547.3333 0.04326382 -0.8402174 -0.540521 
20.5 112 555.5 0.05820352 -0.8326352 -0.5507549 
-117.5 111.5 545.5 0.03971208 -0.8447243 -0.5337264 
