ply
format ascii 1.0
comment VCGLIB generated
element vertex 946
property float x
property float y
property float z
property float nx
property float ny
property float nz
element face 0
property list uchar int vertex_indices
end_header
-99.5 106 558 0.0184043 -0.9016724 -0.4320281 
-97.5 106 560 0.01267691 -0.9184036 -0.3954419 
-121 96 637 -0.6140074 -0.7825353 -0.1031192 
5 127.5 479.5 0.7141945 0.3490879 -0.6066828 
-2 127.6667 469.6667 0.8709761 0.2431645 -0.4269328 
-3 129 469 0.8282363 0.2911557 -0.4788038 
-2 129.5 471 0.8714098 0.2537573 -0.4198241 
6 135 486 0.751545 0.3461838 -0.5615487 
4.75 137.5 485.5 0.7039093 0.3784271 -0.6010863 
6 137.5 488 0.7552135 0.3613488 -0.5468817 
-7.666667 135 468 0.3654802 0.4756301 -0.8001252 
-9.5 136 469 0.2479111 0.4584535 -0.8534404 
7 143.5 493.5 0.7765861 0.3210124 -0.5420932 
-11.33333 137.5 469 0.1182073 0.4493264 -0.8855128 
7 145.5 495 0.7697359 0.2076542 -0.6036442 
-7 140 471 0.4540863 0.4298739 -0.7803935 
-1 144 485 0.7127243 0.3810996 -0.5888866 
5 146 493 0.7597248 0.3040083 -0.574802 
-6 141 472 0.5901798 0.4280628 -0.6844342 
4.333333 147.6667 492 0.7492775 0.2455043 -0.6150699 
-20 142 473 -0.1498301 0.4681258 -0.8708669 
-6 143 474 0.6219552 0.4935789 -0.6079076 
0.5 147.5 487.75 0.6858817 0.3546585 -0.6354399 
-6 145 476 0.6445812 0.5189044 -0.5614743 
-3 147.5 483.5 0.7277437 0.4223247 -0.540399 
12.5 151.25 495.5 -0.1261081 -0.8520291 -0.508078 
-8 145 474 0.4773586 0.5548354 -0.6813857 
14.5 151.5 493.5 -0.1659691 -0.8768623 -0.4511838 
-6 147 478 0.640328 0.5573257 -0.5285529 
16.8 151.6 491.6 -0.09292529 -0.8453784 -0.5260231 
-9.5 147 474 0.320053 0.6217797 -0.7148119 
-6 149 480 0.6167396 0.5871738 -0.5242701 
-8 149 478 0.4836008 0.6603401 -0.574527 
18 153 491 -0.05626999 -0.8303571 -0.5543833 
19 152 490 -0.04444781 -0.8178229 -0.5737509 
-10 149 476 0.3216362 0.6917461 -0.6465583 
16.5 153.625 489.5 -0.01885788 -0.837536 -0.5460568 
22.5 154 488 -0.01911329 -0.8187872 -0.573779 
24.25 155 487.75 -0.02056042 -0.8404695 -0.5414687 
26.57143 155.7143 485.4286 -0.0552352 -0.8787926 -0.4739965 
22.5 157.5 483.5 -0.07132617 -0.8812853 -0.4671711 
20.5 158 482 -0.0410987 -0.8935522 -0.4470744 
18.66667 159 481 -0.003023417 -0.9070144 -0.421089 
34.5 158 480 -0.01558022 -0.8824663 -0.4701177 
36.5 159 479 -0.007838514 -0.8871363 -0.461441 
38.33333 159.5 477.5 0.001708292 -0.8751342 -0.4838775 
42.6 161 475.4 -0.01198564 -0.8699047 -0.4930742 
40.33333 162 473.8333 -0.04494813 -0.8303203 -0.5554709 
38.75 163.25 473 -0.02607017 -0.8286127 -0.5592151 
32.6 163.6 471.6 0.03802533 -0.8681104 -0.4949127 
34 164 469 0.07120758 -0.8633316 -0.4995881 
30.71428 165.7143 467.4286 0.001836243 -0.8539401 -0.5203681 
32 165 469 0.0401269 -0.8656342 -0.4990664 
24.66667 167 467 -0.02240801 -0.8376256 -0.5457849 
26.5 167 465.5 -0.03174386 -0.8214194 -0.5694405 
-3.5 168 463.5 -0.046777 -0.8582222 -0.5111425 
-3.5 169.5 462 -0.04476483 -0.8803762 -0.4721587 
2.5 169.6667 459.6667 -0.02979286 -0.8961245 -0.4428016 
-1.75 171 458 -0.01934629 -0.9143863 -0.4043804 
8.571428 171.8571 455.4286 0.1307507 -0.8036281 -0.5805911 
11 173 455.5 0.1301642 -0.7726025 -0.6214038 
8.636364 173.4545 453.7273 0.1565934 -0.770144 -0.6183501 
0.6666667 175 451.5 0.04476185 -0.7552595 -0.6538957 
2.5 175.6667 449.6667 0.1003325 -0.663486 -0.7414309 
-11.6 176 447.4 -0.0204691 -0.6841174 -0.7290847 
-11.33333 177.3333 446 -0.01639219 -0.4787244 -0.8778122 
-5.8 179 446 0.09882823 -0.05449376 -0.9936113 
-5.571429 181.2857 447.2857 0.07307642 0.2056998 -0.9758829 
-33.66667 184 446 0.1336646 0.410614 -0.9019589 
-35.8 185.4 446 0.1380456 0.4851637 -0.863458 
-33.6 185.6 447 0.1271068 0.4872001 -0.8639908 
-31.66667 187 448 0.08775798 0.5145061 -0.8529842 
-43.4 189.6 449.6 -0.1222016 0.5582426 -0.8206289 
-47.6 191.4 451.2 -0.1576228 0.6120193 -0.7749757 
-51.33333 193 453 -0.1477299 0.6696512 -0.7278346 
-50 194 455 -0.2228211 0.5956227 -0.7717412 
-45.5 193.5 452 -0.2638637 0.49422 -0.8283252 
-47.66667 196 455 -0.3510942 0.4705565 -0.8095118 
-45.6 195.6 453 -0.3431739 0.4216644 -0.8393037 
-46 198 455 -0.4419974 0.3653505 -0.8192419 
-23.5 196 448 -0.07506876 -0.5694132 -0.8186167 
-21.33333 197 447 -0.05797631 -0.6234677 -0.7796966 
-23.6 198 446 -0.1835233 -0.4762553 -0.859942 
21 213.7143 431.8571 -0.3457581 -0.2291354 -0.9099166 
22.85714 212 431.7143 -0.198703 -0.5373881 -0.8195921 
64.36364 211.7273 433.7273 -0.02605812 -0.81693 -0.576148 
78 215 443 0.7741167 -0.311636 -0.551023 
66.5 211 435 -0.01662117 -0.8116427 -0.5839177 
60.25 210 435.75 0.03885393 -0.8350866 -0.5487447 
66.5 209 437.5 -0.02803692 -0.8518087 -0.5231021 
65 208 437 -0.06186707 -0.8491158 -0.5245711 
64.33334 209 439 -0.04839971 -0.850529 -0.5236965 
66.55556 207.6667 439.6667 -0.007579193 -0.8608754 -0.5087595 
68.4 207 441.6 0.01662616 -0.8565911 -0.515728 
66.33334 206 442 -0.01357055 -0.8549358 -0.5185564 
64.3 205.4 443.5 -0.001549542 -0.8310339 -0.5562198 
62.33333 205 445 -0.01191354 -0.8275775 -0.561225 
60.42857 203.8571 445.5714 0.0005189249 -0.8422924 -0.5390207 
62.66667 203 447 -0.007370616 -0.8424426 -0.5387357 
-153.5 140 536 -0.02736027 -0.8775421 -0.4787184 
-159 140 537 -0.4127879 -0.8672132 -0.2784733 
56.5 135.5 517.5 0.02785745 -0.8785898 -0.4767639 
58.75 135.5 519.25 0.08397231 -0.8868428 -0.454377 
-161 140 544 -0.4971162 -0.8370225 -0.228624 
45 135 521 0.07544932 -0.8766969 -0.4750895 
-157 139 539.5 -0.3553287 -0.8810485 -0.3122422 
72.33334 134 523 0.04567637 -0.8795484 -0.473612 
70.66666 133.3333 525 0.02342978 -0.8942525 -0.4469491 
68.5 133 527 0.02749539 -0.8813194 -0.4717204 
70.6 131.6 527.4 0.02223895 -0.8751398 -0.4833587 
-155 134 559 -0.5372654 -0.8238699 -0.1805113 
-37.375 111.625 463.125 -0.4419282 0.463693 -0.7679116 
-151 132 554 -0.4193289 -0.8632792 -0.2809134 
-150 131 556 -0.4747655 -0.8305061 -0.2913028 
-147 127 562 -0.6248614 -0.7345421 -0.2645678 
-45.71429 103.2857 463.1429 -0.5194855 0.3589319 -0.7754371 
-129.5 118 533.5 -0.2399343 -0.8205419 -0.5187896 
-131.3333 117.6667 535.3333 -0.4286071 -0.7402182 -0.5180474 
-148 126 575 -0.7252673 -0.6226105 -0.2938428 
-117.6667 117.3333 537.6667 0.03617633 -0.8723689 -0.4875077 
-29.33333 98 453 -0.3087457 0.4615847 -0.8316343 
-33.6 99.6 455.4 -0.3231249 0.4595246 -0.8273013 
-117.6 116 539.6 0.04039453 -0.8707182 -0.4901205 
-123.5 115 541 0.09918792 -0.8547468 -0.5094798 
-33 95.5 452 -0.3242712 0.4556419 -0.8289986 
-119.5 113.5 543.5 0.08087125 -0.8777926 -0.4721652 
-21.66667 93.66666 449 -0.2241021 0.4195541 -0.8796321 
-23.5 92 449 -0.2136088 0.4307999 -0.8768026 
-65 57 458 -0.9232846 0.02093637 -0.3835455 
-60 56 449 -0.7486168 0.2131257 -0.6278139 
-101.5 87.5 631.5 0.01855119 -0.8819897 -0.4709034 
-63 63 454 -0.7607704 0.2705582 -0.5899379 
-103.5 88 630 -0.002045432 -0.8662166 -0.4996646 
-101.5 89 629 0.02942543 -0.847083 -0.5306454 
-107.5 89 627.5 -0.08196861 -0.8808849 -0.4661792 
-63 65 456 -0.7859952 0.2841589 -0.5490587 
-61 65 454 -0.6612306 0.3345573 -0.6714504 
-105.5 90 626 0.03050368 -0.8385941 -0.543902 
-103.5 91.5 625.5 0.02481416 -0.8315703 -0.554865 
-155.5 140 534 -0.08254343 -0.8744472 -0.4780467 
52.5 137.3333 515.6667 -0.01153288 -0.8658096 -0.5002407 
58.5 137 517 0.06851329 -0.8798987 -0.470196 
-153.4 141.4 533.4 0.01047806 -0.8549837 -0.518549 
56.5 139 513.5 0.02959736 -0.8463491 -0.5318056 
-162 144 532 -0.4186952 -0.8723977 -0.2522235 
-164 145 532 -0.4102802 -0.8840442 -0.2239107 
62.5 140 512 0.08689392 -0.8253808 -0.5578495 
61 141 511 0.09411677 -0.8264726 -0.5550541 
62.25 141.5 510 0.09416667 -0.8259931 -0.5557591 
72.5 143 509 0.05911304 -0.8528358 -0.5188224 
70.4 143.4 507.6 0.02802741 -0.8514195 -0.5237359 
68.33334 144 505.6667 0.0372618 -0.8756682 -0.4814735 
64.4 145.4 503.6 0.03888464 -0.8814015 -0.4707646 
66.5 146 502 0.07251379 -0.8665673 -0.4937641 
66.6 147.6 499.6 0.06629067 -0.8607585 -0.5046783 
64.5 148 498 0.06284751 -0.8533171 -0.5175908 
20.6 149 495.4 -0.006611322 -0.8594887 -0.511112 
66.5 149.25 497.25 0.06490409 -0.8471915 -0.5273084 
22 150 494 0.04352105 -0.8544366 -0.5177296 
3 153 493 0.5335536 -0.2896219 -0.7946319 
-1.666667 153.6667 489.1667 0.4807841 0.04295362 -0.8757864 
2.285714 155.1429 491.5714 0.2520706 -0.6114144 -0.7500886 
-15.33333 151 478 -0.01487331 0.7175188 -0.6963804 
-13.66667 151.3333 479.3333 0.11603 0.7219775 -0.6821183 
0.25 155.75 490 0.2261062 -0.501949 -0.8348193 
9 154 488 -0.1637686 -0.9217863 -0.3514113 
6.5 156 488 -0.1706136 -0.9272008 -0.3334513 
5 156 485.3333 -0.1470026 -0.9417354 -0.3025303 
10 156 484 0.005596639 -0.8850856 -0.4653946 
8.333333 157 483 -0.002486748 -0.8968658 -0.4422959 
10.5 158 481.5 0.05695012 -0.8837276 -0.4645236 
-19.33333 158 480 0.07015835 -0.8595662 -0.5061855 
-4 159 481 -0.08411621 -0.9715783 -0.2212695 
-5.333333 159 479 -0.05429789 -0.9583769 -0.2802954 
-7.5 159.5 477.5 -0.02217111 -0.9545712 -0.2971569 
-9.5 160 476 0.02760253 -0.9346505 -0.3544948 
-11.66667 161 475 0.05359261 -0.9085389 -0.4143486 
-9.4 161.8 473.6 0.05612683 -0.8680433 -0.493306 
-15.5 161.5 471.5 0.02428213 -0.8572016 -0.5144083 
-19.71428 163.5714 469.5714 0.003119958 -0.8384904 -0.5449075 
-17.4 163.4 471 -0.0005123758 -0.8441871 -0.5360484 
-13.66667 164 467.5 0.0248229 -0.8272144 -0.5613378 
-15.6 165.4 467.6 0.00824353 -0.8264477 -0.5629532 
-13.66667 166 465.5 0.04042443 -0.8292119 -0.5574706 
4.333333 167 465 0.02450316 -0.8747525 -0.4839502 
16.33333 169.3333 463.3333 0.01254934 -0.8766453 -0.4809736 
18.28572 169.7143 461.4286 -0.005924782 -0.8989269 -0.4380586 
12 170 459.3333 0.07921629 -0.8711219 -0.4846353 
18 171 459 -0.03426054 -0.8682127 -0.4950081 
16.5 171.5 457.5 -0.03797594 -0.8263887 -0.561818 
22.57143 171.7143 455.5714 0.08874021 -0.7577423 -0.6464919 
20.33333 173.3333 455 0.005576855 -0.7188454 -0.6951476 
22 173 454 0.06935386 -0.710327 -0.7004468 
18.5 175 455 0.001097205 -0.738702 -0.6740313 
16.66667 176 453.5 0.01257611 -0.7267631 -0.6867731 
14.5 176 452 0.06959998 -0.6867977 -0.7235087 
12.33333 177 451 0.1535515 -0.6154501 -0.7730738 
14.33333 177.3333 449.3333 0.1069819 -0.5086858 -0.8542797 
16.66667 179.4444 449.5555 0.06647517 -0.1581352 -0.9851773 
18.66667 181.5 450 0.08116654 0.1481224 -0.9856327 
74.33334 183.5 455 0.04081753 0.54608 -0.8367381 
72.5 185 456 0.04670943 0.6187653 -0.784186 
64.28571 187.4286 457.4286 0.08645976 0.5747736 -0.8137321 
64.8 189.6 459.4 0.1255462 0.3183539 -0.9396217 
71 191 460 0.06660356 0.1523984 -0.9860724 
72.5 191.6667 461 0.08367194 0.09379681 -0.9920692 
74.42857 193.5714 461.2857 0.1742332 -0.2357017 -0.9560793 
68.33334 194 460 0.05196438 -0.4398171 -0.8965828 
74.375 195.625 460 0.1749503 -0.5732763 -0.8004665 
72.33334 196 457.5 0.1371794 -0.677156 -0.7229396 
74.5 197.625 457.5 0.137774 -0.7525765 -0.6439307 
60.33333 197.6667 455.6667 0.09443734 -0.7973907 -0.5960282 
54.5 199.5 451.5 0.09818912 -0.8072765 -0.5819481 
56.33333 199 453 0.1086456 -0.8208418 -0.5607272 
52.33333 200 450 0.1219413 -0.7965648 -0.5921274 
54.5 201.5 449.5 0.0912099 -0.8020922 -0.590194 
64.25 202 447.75 0.04174432 -0.8496332 -0.5257193 
70.5 213 433.5 0.4384676 -0.6098365 -0.6601862 
74.5 213.5 437.5 0.7312606 -0.3922828 -0.5580072 
68.27273 211.8182 433.4546 0.1874977 -0.7284793 -0.6589102 
73 211 437 0.5762832 -0.5863628 -0.569277 
70.71429 211.1429 435.1429 0.3488776 -0.6907702 -0.6333412 
72 210 436 0.4243371 -0.6658412 -0.6136721 
75 211 439 0.6791843 -0.5051061 -0.5325192 
70.33334 209 437.6667 0.2171365 -0.7828091 -0.583148 
68.33334 208 438 0.03822579 -0.8439912 -0.5349932 
70.57143 207.7143 439.5714 0.1691041 -0.8210028 -0.5453056 
64.66666 207.1667 441.1667 -0.02396795 -0.8573201 -0.5142255 
70.4 205.6 442 0.09669068 -0.8402863 -0.5334511 
68.66666 205.3333 443.6667 0.01531697 -0.8546308 -0.5190103 
74.75 205 445.25 0.3197759 -0.7742376 -0.546168 
71 204 444 0.09206408 -0.8609796 -0.5002382 
72.5 204 445.5 0.1329899 -0.8510334 -0.507992 
74.42857 203.4286 447.5714 0.1769522 -0.8406046 -0.5119295 
-157 140 536 -0.2537344 -0.8850233 -0.3903239 
44.5 136 517.5 0.1002439 -0.8569866 -0.5054949 
46.66667 135.3333 519.6667 0.08923017 -0.8607569 -0.5011343 
-155.5 139 538 -0.1645855 -0.8983287 -0.4073294 
56.5 135 521 0.03235755 -0.8840115 -0.4663439 
-151.5 138 539.5 -0.05770346 -0.8746805 -0.4812529 
66.5 133.5 525.5 0.04003557 -0.8923634 -0.4495386 
60.5 133.25 523.25 0.1155565 -0.8896568 -0.4417663 
-153.3333 137 541.6667 -0.2372528 -0.8923662 -0.383919 
-155 137 543 -0.3234022 -0.8861469 -0.3318956 
64.66666 133 527 0.06238211 -0.8757463 -0.4787243 
-153 136 543 -0.2577892 -0.8872311 -0.382578 
66.33334 132 528 0.0605768 -0.867981 -0.492889 
-149.25 133 549.5 -0.2082421 -0.8984697 -0.3865066 
-151.5 133 551.5 -0.3582079 -0.8827541 -0.304027 
-149.5 132 551.5 -0.3151645 -0.8768225 -0.3631168 
-37.25 109.5 461.5 -0.4144678 0.4513564 -0.7902493 
-39.6 109.6 463.6 -0.4656446 0.4684825 -0.7507992 
-39.5 107.3333 461.5 -0.4403889 0.4581144 -0.7721327 
-39.33333 105.3333 459.6667 -0.4186457 0.4263164 -0.8018667 
-41.6 105.4 462 -0.4649455 0.4370458 -0.7699459 
-43.5 105.75 463.25 -0.4666106 0.4359935 -0.7695351 
-37.66667 103.6667 459 -0.3823897 0.4131146 -0.8265074 
-145 126 562 -0.6663722 -0.6893673 -0.2841142 
-34 102 457 -0.3006067 0.4313365 -0.8506377 
-43.25 103.25 461.75 -0.4988537 0.3839831 -0.7769825 
-119.5 118 536 0.06341959 -0.8753657 -0.4792838 
-25.66667 99.33334 451.7778 -0.2416172 0.4390862 -0.8653464 
-129.5 117 537 -0.1996697 -0.8145579 -0.5446351 
-21.5 97.66666 450 -0.2178265 0.4132761 -0.8841689 
-23.5 97.5 451 -0.2171925 0.413077 -0.8844178 
-131.3333 115.6667 538 -0.3394979 -0.741455 -0.5787795 
-127 115 541 0.0495065 -0.84527 -0.532041 
-129.4 115 539.4 -0.08035221 -0.8336031 -0.5464882 
-23.33333 95.33334 450 -0.2151815 0.4064192 -0.8879868 
-129.5 113.5 541.5 -0.05682076 -0.8408487 -0.5382795 
-131.5 113 543 -0.1636344 -0.8181322 -0.5512563 
-137 113 549 -0.6968687 -0.5306171 -0.4825137 
-35 93 452 -0.3734653 0.4448505 -0.8140219 
-129.6667 111.6667 543.6667 -0.01020834 -0.8609368 -0.5086095 
-135 112 546 -0.4508037 -0.7028678 -0.5502299 
-33.66667 92 451 -0.3469548 0.4263996 -0.8353477 
-134 111 547 -0.2593323 -0.8180234 -0.5134048 
-137 111 551 -0.6447365 -0.635435 -0.4248968 
-30 90 449 -0.2451247 0.4250659 -0.8713397 
-137 110 553 -0.613287 -0.6604433 -0.4332364 
-137 108 555 -0.5763787 -0.702713 -0.4171118 
-133.5 106 554 -0.1819619 -0.8538064 -0.4877547 
-135 106 555.5 -0.4381886 -0.7912912 -0.4264376 
-61.75 55.75 451.5 -0.8396574 0.1127359 -0.5312872 
-61 57.66667 450 -0.7444913 0.2235024 -0.6291101 
-64 61.33333 456 -0.8308018 0.202159 -0.5185558 
-63 60 454 -0.8157943 0.1830762 -0.5486008 
-62 61.66667 453 -0.7287331 0.2854834 -0.6224527 
-64 64 457 -0.8181905 0.2510817 -0.5172256 
-65 65.5 461.5 -0.8499367 0.216194 -0.480487 
-55.66667 63.66667 449.3333 -0.5685592 0.4019103 -0.7177804 
-112 90 627 -0.2872919 -0.8899484 -0.3541966 
-109 90 625.5 -0.06954487 -0.8745353 -0.4799494 
-56 65.5 451 -0.5573438 0.3699064 -0.7433285 
-114 91 627 -0.3296557 -0.88883 -0.3182896 
-53.66667 65.66666 449 -0.5677184 0.3881821 -0.7259549 
-115 92 626 -0.3757128 -0.8760651 -0.3022416 
-64 68 461 -0.8160691 0.2484666 -0.5218196 
-57 67 452 -0.561062 0.3747401 -0.7380918 
-163 143 541.5 -0.5466339 -0.815562 -0.1898681 
-159.5 141.75 535.5 -0.4056087 -0.8605632 -0.3080788 
48.4 137.4 515.6 0.04664496 -0.8568131 -0.5135128 
-157.6667 141.6667 533.3333 -0.2118546 -0.8915697 -0.4002762 
-149.4 143 531.6 0.06220882 -0.8678045 -0.4929964 
44.66667 139 513.6667 0.08158225 -0.8545437 -0.5129322 
-151.4 144 529.6 0.04485064 -0.8502441 -0.5244744 
72.33334 141.5 511.1667 0.0454413 -0.8596174 -0.5089136 
75 142 510 0.09540601 -0.8592023 -0.5026621 
66.5 143.5 507.5 0.02148803 -0.8734458 -0.4864469 
64.33334 144 506 0.03433988 -0.8807729 -0.4722922 
66 145 505 0.04970812 -0.8804375 -0.4715495 
68.5 145.3333 503.6667 0.07023969 -0.8702135 -0.4876422 
70 146 502 0.08838859 -0.8584135 -0.5052859 
74.33334 147 503 0.09716699 -0.8503485 -0.5171711 
72.6 147.6 501.4 0.08925166 -0.8661175 -0.4918076 
70.5 147.5 500 0.08543807 -0.8673956 -0.4902298 
68 148 498 0.04951156 -0.8522409 -0.5208014 
69 149 499 0.0568392 -0.860867 -0.5056455 
70.4 149.4 497 0.06267299 -0.8421219 -0.5356333 
16.6 150 495.4 -0.1723208 -0.8650324 -0.4711948 
18.5 150 493.5 -0.1115719 -0.8415844 -0.5284764 
4.6 151.4 493.6 0.5941694 -0.135355 -0.7928693 
6.142857 151.7143 495.4286 0.5207088 -0.3175343 -0.7924861 
-1.75 151.25 487.75 0.5674012 0.2742326 -0.7764357 
5 153 495 0.4803179 -0.4349102 -0.7616744 
11 152 492 -0.1013441 -0.9099611 -0.4021197 
-4 151.5 485.5 0.6302018 0.4196847 -0.6532308 
6.5 154 493.5 0.05881492 -0.7811561 -0.6215592 
8.666667 153.6667 491.5 -0.1125312 -0.8854324 -0.4509393 
10.5 153.5 489.5 -0.1646046 -0.9184369 -0.3596927 
-9.333333 151.6667 479.6667 0.3840388 0.7049536 -0.5962839 
-3.666667 153.3333 488 0.5000024 0.1812835 -0.8468376 
6.333333 155 491.6667 -0.05444524 -0.8724633 -0.4856373 
4.5 156 489.75 -0.09977707 -0.8824241 -0.4597524 
2.333333 156 487.3333 -0.03519121 -0.8857866 -0.4627568 
0.5 157 487.5 0.02834111 -0.8479287 -0.5293521 
2.5 157 485.5 -0.1143491 -0.9459723 -0.3034152 
-3.5 158 484 -0.01851925 -0.9170327 -0.3983818 
-1.666667 158 482 -0.08739054 -0.9698883 -0.2273316 
-17.5 159 479 0.08231606 -0.9084018 -0.4099151 
-19.5 159.5 477.5 0.0300823 -0.9436964 -0.3294424 
-13.66667 159.6667 476 0.06088111 -0.9433309 -0.3262211 
-15.33333 160 474 0.03448018 -0.9026241 -0.4290463 
-13.5 161 473.5 0.04869934 -0.8908765 -0.4516276 
-11.4 162 471.6 0.06647331 -0.8594005 -0.5069637 
-5.333333 163.5 471 -0.006363386 -0.8454533 -0.5340115 
-7.666667 164 469.5 0.03665001 -0.8397585 -0.5417218 
-11.16667 165.3333 467.5 0.06023386 -0.822659 -0.5653353 
-9.5 166 466 0.06029331 -0.8233996 -0.5642498 
0.6666667 167 465 -0.03257841 -0.8638274 -0.5027334 
22.33333 168 464 0.006414433 -0.8592746 -0.5114745 
22.5 169.5 461.5 0.02992796 -0.8981134 -0.4387444 
25 171 461 0.05608957 -0.8579786 -0.510614 
20.5 171 457.5 0.01598074 -0.8259342 -0.56354 
22.5 171 459 0.07774159 -0.8612688 -0.5021677 
18.33333 172 456 -0.0343731 -0.7741576 -0.6320589 
16.625 173.375 455.25 -0.01384979 -0.743586 -0.6684969 
22.83333 175.1667 455 0.1016893 -0.6890135 -0.7175791 
20.42857 175.8571 453.5714 0.05815987 -0.6820805 -0.7289607 
22.66667 177 453 0.1108523 -0.5906954 -0.7992438 
24.71428 177.5714 451.5714 0.110007 -0.5307341 -0.8403687 
20.4 179.6 450 0.09070536 -0.1560672 -0.9835729 
23 179.5 451 0.1561815 -0.2207991 -0.9627331 
20.66667 181.6667 451 0.059282 0.1846599 -0.9810129 
22.33333 181 450 0.1080827 0.02183802 -0.9939021 
60.2 183.4 454 0.0475405 0.4637849 -0.8846714 
62.5 184 455 0.02520999 0.497312 -0.8672054 
60.5 185.5 455.5 0.03347859 0.5511125 -0.8337591 
74.66666 186 457 0.04683203 0.6510388 -0.7575984 
68.66666 187 457 0.05981391 0.6243305 -0.7788669 
70 188 459 0.0701571 0.5407658 -0.8382425 
68.25 189.25 460 0.1066595 0.389398 -0.9148732 
74.33334 190 461 0.05210561 0.3432778 -0.9377875 
67 191 460 0.1037328 0.04842627 -0.9934256 
64.25 193.75 460 0.112378 -0.4458305 -0.8880351 
62.5 195 459 0.0988238 -0.5666945 -0.81798 
60.66667 195.6667 457.7778 0.08092374 -0.6189712 -0.7812337 
62.5 197 457 0.0878062 -0.7549119 -0.6499217 
72 198 456 0.1214422 -0.7684298 -0.6283053 
50.625 199.25 451.625 0.07570757 -0.8467188 -0.5266266 
48.57143 199.7143 449.2857 0.04383465 -0.792034 -0.6089013 
50.6 201.2 449.6 0.0887947 -0.7815002 -0.6175541 
68.5 202 448 0.07680437 -0.8623479 -0.5004571 
76 215 439 0.7841383 -0.3166949 -0.5336961 
75 214 439 0.7577149 -0.3663675 -0.5400399 
70.16666 212 433.8333 0.3150396 -0.6807466 -0.6613125 
69 211 435 0.2323329 -0.7385592 -0.6328916 
74.4 211.6 437.4 0.6480989 -0.4940632 -0.5795425 
68.33334 209 437.5 0.04697286 -0.8393385 -0.5415758 
71 209 439 0.2636966 -0.7762298 -0.5726531 
70 208 438 0.1409984 -0.8356889 -0.5307952 
68.66666 207.6667 439.6667 0.06047434 -0.8494201 -0.5242409 
66.5 207 441.5 -0.01627415 -0.8578352 -0.5136673 
68.33334 206 442 0.01961461 -0.8556471 -0.5171879 
70.5 205.1667 443.3333 0.09452388 -0.8526518 -0.5138583 
74.5 204 445.5 0.2228843 -0.8195314 -0.527912 
72.625 203.375 447.25 0.1239874 -0.8572353 -0.4997747 
46.33333 136 517.6667 0.09677504 -0.8577912 -0.5048059 
44.33333 135 519 0.09100526 -0.8639894 -0.4952176 
-153.3333 139.5 537 -0.0736391 -0.8872544 -0.4553648 
58.5 135 521 0.07868289 -0.8799561 -0.4684937 
-151.5 138 538 0.006280509 -0.8601779 -0.5099554 
60 134 522 0.1110464 -0.8847526 -0.4526385 
-149.5 138 539.5 0.000399914 -0.8440628 -0.5362441 
62.5 134 523.5 0.1085515 -0.8884821 -0.4458881 
-155.6667 137.3333 541.3333 -0.3359422 -0.8815613 -0.331651 
64.5 133.25 525.75 0.07218127 -0.8830523 -0.4636901 
66.5 133 527 0.04750168 -0.8753586 -0.4811351 
-155 136 544 -0.3514532 -0.8829111 -0.3113658 
64.5 132 528 0.0818399 -0.8575026 -0.5079288 
-151.5 133 549.5 -0.3217864 -0.8972835 -0.3022181 
-38 110 463 -0.4598992 0.466778 -0.7553881 
-38 107.5 461 -0.4102388 0.4516091 -0.7923088 
-40 108 463 -0.4609875 0.4709685 -0.7521165 
-37.5 105.5 459.5 -0.3747736 0.4329449 -0.8198192 
-43 105 462 -0.4836117 0.4184507 -0.7687775 
-24 102 453 -0.2318577 0.4415243 -0.8667747 
-37 103 458 -0.3478109 0.4013738 -0.8473056 
-39.6 103.4 459.6 -0.4317716 0.4060679 -0.8054081 
-41.5 104 461 -0.484128 0.3975204 -0.7794855 
-44 104 463 -0.4939184 0.3965341 -0.7738252 
-25.5 101 452 -0.2503074 0.4492829 -0.8576078 
-145.5 125.5 564 -0.6704043 -0.6992142 -0.2483097 
-35.66667 101.5 457.1667 -0.3241792 0.435837 -0.8396153 
-117.5 117.75 536 0.04237843 -0.8680935 -0.4945886 
-27.5 99 452 -0.2858582 0.4560206 -0.842811 
-131.3333 117.3333 537 -0.4153768 -0.7396817 -0.5294649 
-129.5 116 538 -0.1584091 -0.8215474 -0.5476919 
-23 97.5 450 -0.2106172 0.4156151 -0.884819 
-142 120 561 -0.8845043 -0.3500995 -0.3083545 
-125.5 115 541 0.09240083 -0.8504858 -0.5178185 
-131.5 115 539.25 -0.3188509 -0.7500162 -0.579491 
-21.6 95.4 449.4 -0.2290237 0.4162287 -0.8799442 
-131.6667 113.3333 541.6667 -0.2170474 -0.7896577 -0.5738739 
-129.6667 113 543 -0.03719468 -0.8472305 -0.5299219 
-135 113 545.5 -0.5157381 -0.6737421 -0.5292315 
-33.57143 93.57143 452 -0.3469792 0.4565369 -0.8192555 
-131.6 111.6 544 -0.1491992 -0.8261808 -0.5432909 
-138 113 551 -0.8110628 -0.4252732 -0.4016465 
-133.5 111.25 545.25 -0.3102029 -0.779308 -0.5444752 
-135.5 111.5 547.5 -0.5446324 -0.6937398 -0.4712756 
-33.66667 91 450 -0.3425158 0.4127175 -0.8440067 
-35.5 91.33334 451.3333 -0.376038 0.4221776 -0.8248403 
-31.4 89.6 449.2 -0.3006647 0.3880118 -0.8712334 
-138 110 555 -0.6601729 -0.6274794 -0.4128455 
-137 106 559 -0.4958858 -0.781312 -0.3790102 
-133.5 105.5 555.5 -0.2301555 -0.8664857 -0.4429798 
-61 55.25 449.75 -0.8163337 0.1408902 -0.5601332 
-61.5 57.5 451.5 -0.8033311 0.1445925 -0.577713 
-64 59.5 455.5 -0.8441917 0.1548435 -0.5131899 
-62 59 453 -0.8111617 0.1693955 -0.5597516 
-63 61.5 454 -0.8058875 0.2113529 -0.55306 
-63.75 65.5 457.75 -0.8202006 0.2578331 -0.5106789 
-109.5 89 627.5 -0.1351228 -0.8846521 -0.4462426 
-59.66667 65.33334 453.3333 -0.6392816 0.3494205 -0.6849996 
-111 90 626 -0.1843122 -0.8896825 -0.4177247 
-55.5 65.66666 449.8333 -0.5661248 0.3868074 -0.7279305 
-113 91 626 -0.3011004 -0.8939468 -0.3319605 
-115 93 625 -0.356517 -0.8793931 -0.3155366 
-64 69.5 461.5 -0.8058882 0.2570211 -0.5333709 
-158 141 535 -0.2612122 -0.8883806 -0.3775555 
-157 140 534 -0.1907785 -0.8760199 -0.4429365 
50.6 137.6 515.4 0.00264948 -0.8607323 -0.509051 
-159 142 534 -0.3378136 -0.8757383 -0.3449122 
-151.5 143 531.25 0.0584417 -0.8469693 -0.52842 
46.4 139 513.6 0.07768802 -0.8586017 -0.5067224 
-149.4 144 529.4 0.03176723 -0.8574827 -0.5135311 
72.5 140 512 0.04711832 -0.861244 -0.5060027 
74.4 141.6 511.2 0.09276366 -0.8566111 -0.5075552 
72.5 142 510 0.05304777 -0.8560868 -0.5141025 
62.5 143 509 0.08781479 -0.8498198 -0.5197067 
64.5 143.5 507.5 0.04346869 -0.8732639 -0.4853048 
66.66666 144 505.6667 0.03698698 -0.8809718 -0.4717209 
65 145 505 0.04610386 -0.8821641 -0.4686799 
70.5 145.375 503.625 0.07473589 -0.8613034 -0.5025645 
68.66666 146 502 0.08206248 -0.8626533 -0.4990943 
72.5 147 503 0.09531747 -0.8532348 -0.5127426 
74.4 147.4 501.6 0.1015772 -0.859317 -0.5012547 
68.4 147.4 499.8 0.0706339 -0.8705047 -0.4870651 
70.66666 149 499 0.08289574 -0.8630238 -0.4983155 
18.5 149.25 495.5 -0.1229168 -0.8621756 -0.4914719 
68.5 149 497 0.04158085 -0.8412408 -0.5390594 
6.333333 153.3333 495.1667 0.2681979 -0.6647117 -0.6973007 
4.4 153.6 493.4 0.4294907 -0.4518558 -0.7818978 
-3 151.5 487 0.5774865 0.287512 -0.7640983 
10.5 153 492 -0.1556168 -0.9061068 -0.3933878 
-2 153 488 0.5415215 0.1601219 -0.8252972 
8.75 154 489.25 -0.1630071 -0.9158457 -0.3669544 
-11.66667 151 479 0.228359 0.7697368 -0.5961187 
4.666667 155 491.6667 0.04530117 -0.8261452 -0.5616333 
6.666667 155 489.3333 -0.1395875 -0.9244298 -0.3548873 
0.75 157 485.75 -0.05401348 -0.9081707 -0.4151005 
-1.666667 158 483.3333 -0.04789115 -0.9587013 -0.2803539 
-3 158 482 -0.01700014 -0.9455587 -0.3250074 
10.5 159 481 0.05000919 -0.8918219 -0.4496142 
-19.33333 159 479 0.03414632 -0.9195892 -0.3913946 
-17.66667 159 477 0.04097384 -0.9477178 -0.3164684 
-15.33333 159.5 475.5 0.03355777 -0.9237213 -0.3815927 
-13.5 161 475 0.05322133 -0.9151837 -0.3995076 
-15.33333 161 473 0.02916207 -0.8796369 -0.4747512 
-9.5 162 472 0.06245562 -0.8576648 -0.5104022 
-7.666667 163.5 471 0.03448839 -0.8465425 -0.5312027 
-5.333333 164 469.5 0.01123228 -0.8410313 -0.5408698 
-11.66667 164 467.6667 0.05031796 -0.8286247 -0.5575384 
-9.5 165.6667 467.6667 0.06723835 -0.824511 -0.5618368 
-11.4 166 466 0.04918551 -0.824962 -0.5630439 
2.5 167 465 -0.01501451 -0.8673743 -0.4974299 
20.5 168 463.5 0.008080621 -0.8732551 -0.4871963 
20.625 169.375 461.625 0.01056206 -0.8963878 -0.4431449 
22.33333 169 463 0.02012224 -0.8776305 -0.4789153 
26.6 171 461.4 0.03422567 -0.8730801 -0.4863741 
22.75 171.25 457.5 0.08783679 -0.8234754 -0.5605114 
16.5 172 456 -0.02363452 -0.7839102 -0.6204241 
18.42857 173.2857 455.4286 -0.01045811 -0.7322401 -0.6809663 
20 175 455 0.04443112 -0.7177109 -0.6949223 
22.33333 175.8333 453.6667 0.09940168 -0.6627204 -0.7422406 
26.66667 178 451.5 0.02971229 -0.4338952 -0.9004733 
24 178 450 0.09467554 -0.443199 -0.8914097 
22 179.5 450 0.09309321 -0.219611 -0.9711358 
22.33333 181.5 451 0.1012496 0.1051937 -0.989284 
20.5 181 450 0.06360686 -0.003945865 -0.9979672 
62.25 183.25 454 0.03726296 0.4322791 -0.9009696 
61 184 455 0.02890979 0.4926863 -0.8697267 
62.6 185.4 456 0.0412495 0.554244 -0.8313316 
72.25 186 457 0.04708536 0.6509651 -0.757646 
70.5 187.5 457.5 0.0598163 0.5801595 -0.8123035 
68.33334 188 459 0.09085519 0.5501816 -0.8300877 
70.6 189.4 459.6 0.05985899 0.3623582 -0.9301147 
72.5 190 461 0.08212218 0.2680317 -0.9599036 
64.25 191.25 460 0.138177 0.0487261 -0.9892082 
66.33334 195 461 0.07596192 -0.4859775 -0.8706639 
60.5 195 459 0.1433834 -0.5326998 -0.8340697 
62.4 195.8 458 0.0927019 -0.6766325 -0.7304621 
61 197 457 0.08321328 -0.7468904 -0.6597198 
74.5 198 456 0.1208257 -0.7787464 -0.6155934 
48.33333 199 451 0.05471089 -0.8415349 -0.5374252 
50.25 199.75 450 0.09939079 -0.7978969 -0.5945436 
49 201 449 0.06561259 -0.7732221 -0.6307319 
-30 213.5 453 -0.4501511 0.3444176 -0.8238571 
-31.66667 211.6667 453 -0.4091052 0.3172606 -0.8555576 
-29 209 450 -0.4547987 0.2935144 -0.8408374 
-30 208 451 -0.4512287 0.2924744 -0.84312 
-31.5 209.5 452 -0.4236941 0.3113449 -0.8506161 
-33.375 209.625 453.125 -0.3876083 0.3015545 -0.8711055 
-35.5 207.5 453.5 -0.3804956 0.2934533 -0.8769881 
1 119.4 473 0.6620013 0.2949888 -0.6890109 
-45 117.5 470 -0.393129 0.3897759 -0.832781 
-47.4 117.6 472 -0.4394989 0.3864514 -0.8108612 
-47.66667 115 470 -0.4405403 0.3771093 -0.8146858 
-49 113.5 470 -0.5016477 0.3622528 -0.7855715 
-51 113.5 471.5 -0.5386795 0.3494203 -0.7666353 
-45.33333 111.5 467.3333 -0.4257957 0.4133925 -0.8048632 
-50 112 471 -0.5282436 0.3660276 -0.7661477 
-41.25 110 465 -0.4523169 0.4638367 -0.7617512 
-44 107.4 465 -0.4439488 0.4518785 -0.773767 
-111.75 118 535.5 0.0269572 -0.8586932 -0.5117806 
-105.5 117.5 537.5 0.1236643 -0.8597159 -0.4955761 
-101 117 541 0.09561446 -0.8673422 -0.4884419 
-107 117 540 0.088712 -0.8870952 -0.4529816 
-105.5 116 539.5 0.1087642 -0.8831689 -0.456271 
-103.5 115.5 541.5 0.1012729 -0.8835663 -0.4572248 
-101.3333 115.3333 543.6667 0.06359293 -0.8597963 -0.5066619 
-107.5 114 544 0.05437361 -0.8978995 -0.4368294 
-93.5 114 545.5 -0.01088287 -0.8679784 -0.4964828 
-95.33334 113 547 -0.01369172 -0.8650249 -0.501542 
-93.5 112 548 -0.01803784 -0.8705869 -0.491684 
-99.6 111.4 549.6 0.03486346 -0.8648595 -0.5008021 
-97.5 111 552 0.01897917 -0.8776934 -0.4788468 
-87.75 110 551.5 -0.08760025 -0.8644717 -0.4949899 
-97.4 109.6 553.4 0.02379615 -0.8810061 -0.4725062 
-95.33334 107 557 0.008413138 -0.8822495 -0.4707069 
-94 107 559 -0.01889109 -0.9025003 -0.4302747 
-99.66666 106 559.6667 0.01148769 -0.9170291 -0.3986548 
-84 103 573 -0.03650841 -0.9977844 -0.05561967 
-117 94 629 -0.5531002 -0.8186603 -0.1545174 
-66 70 465 -0.8430077 0.2322602 -0.4851733 
-122 97 637 -0.6163486 -0.7808518 -0.1019062 
2.666667 126 477 0.6811805 0.3414016 -0.6476405 
-1 125.5 473 0.8140586 0.2331613 -0.5319253 
4 127.3333 478 0.6817486 0.3556836 -0.6393029 
4.5 129.25 480 0.6871482 0.3843447 -0.6165278 
-2 127.5 472 0.8604992 0.2426283 -0.4479651 
5 135.5 485.25 0.7160304 0.3728445 -0.5901588 
6.5 136 487.5 0.7672125 0.3407464 -0.5433939 
5 138 487 0.7108583 0.3898691 -0.585391 
-9.5 137.5 469 0.2649006 0.4636146 -0.8455112 
-5.5 139.25 471.5 0.5946473 0.4306946 -0.6788938 
6 145.5 493.5 0.7703793 0.3015884 -0.5617474 
-7.8 139 470 0.4205525 0.4368063 -0.7951955 
-7.666667 141.6667 471.6667 0.4492598 0.4547518 -0.7690035 
-1.333333 145.6667 485.3333 0.7176912 0.3922814 -0.5753561 
-5.25 143.75 475.75 0.695382 0.4805411 -0.5343446 
2 147 488 0.6894568 0.3450184 -0.6368765 
-17 143 472 -0.1702628 0.4752858 -0.8631998 
-7.75 143.5 473.5 0.4835163 0.5222847 -0.7024463 
-2 147 484 0.729632 0.4125601 -0.5453726 
4 149.5 492 0.7013369 0.1205898 -0.7025558 
-7.333333 145.6667 475.3333 0.5280667 0.5779763 -0.6221648 
-4 147.5 481.5 0.7277998 0.4811551 -0.4886689 
0 149.3333 488 0.6476651 0.335174 -0.684243 
14.5 151 495 -0.20951 -0.8609612 -0.4635207 
-5 147.3333 479.6667 0.7114055 0.5048109 -0.4889459 
12.8 151.6 493.6 -0.198392 -0.8840428 -0.4232126 
18.5 151.3333 491.3333 -0.06036625 -0.8333977 -0.5493671 
-7.333333 147.6667 477.3333 0.5479149 0.6073411 -0.5752617 
-3.666667 149.3333 483.6667 0.6759368 0.4900483 -0.5504201 
-11.66667 147 474 0.1397267 0.6391437 -0.7562882 
-9.5 148 475.5 0.3300808 0.6850613 -0.6494133 
-7.5 149.5 479 0.5321172 0.6437872 -0.5498994 
16.66667 153 491 -0.0717204 -0.8464233 -0.5276588 
-11.66667 149 476 0.1652034 0.7188975 -0.6751995 
18.5 153.6667 489.3333 -0.02078425 -0.8035956 -0.5948128 
20.33333 154 488 -0.02397983 -0.804848 -0.5929965 
26.6 155 487.6 -0.02725316 -0.8621042 -0.5059976 
24.6 155.6 485.4 -0.0749548 -0.8737018 -0.4806527 
20.5 157.5 483.5 -0.05538291 -0.8843278 -0.4635699 
22.33333 158 481.6667 -0.05463677 -0.8979003 -0.436795 
16.5 159 481 0.01918784 -0.9029524 -0.4293121 
32.33333 158 480 -0.0314537 -0.8702226 -0.4916537 
38.33333 159 479 0.008464921 -0.8920879 -0.4517826 
36.4 159.6 477.4 -0.01903929 -0.870366 -0.492037 
40.4 161 475.4 -0.01568435 -0.8475631 -0.5304629 
42.66667 162 473.5 -0.03543056 -0.8268816 -0.561259 
36.33333 163 473 0.02259137 -0.8398716 -0.5423148 
34.6 163.8 471.4 0.05540823 -0.8549561 -0.5157326 
32.33333 164 469.5 0.0359422 -0.866984 -0.497038 
34.8 165 469.4 0.0687593 -0.8602964 -0.505136 
28.5 166 467.5 -0.05188891 -0.843908 -0.5339727 
26 167 467 -0.02889135 -0.8377408 -0.5453033 
30.66667 166 466 -0.01223538 -0.8315581 -0.555303 
24.66667 167 465.5 -0.02060316 -0.8277562 -0.5607095 
-1.666667 168 463.5 -0.0497331 -0.8649772 -0.4993407 
-3.5 169 463 -0.03837231 -0.8670509 -0.4967397 
-1.75 169.25 461.5 -0.0534912 -0.8790809 -0.4736618 
0.6666667 169.6667 459.6667 -0.0497094 -0.8981257 -0.4369202 
-1.666667 171 459.3333 -0.0338662 -0.9083893 -0.4167518 
-3.666667 171 458 -0.02552008 -0.9203396 -0.3902868 
10.33333 172 455.6667 0.1248694 -0.7902237 -0.5999618 
10.4 173.4 454 0.1449771 -0.7689344 -0.6226729 
4 173.6667 452 0.1137937 -0.7927649 -0.5988112 
2.5 175 451.5 0.1062708 -0.7516713 -0.65092 
0.6666667 175.6667 449.6667 0.06995859 -0.6710986 -0.7380599 
-9.333333 176 447 0.04016334 -0.6768516 -0.7350231 
-9.333333 177.3333 446 0.06538166 -0.4703477 -0.8800559 
-7.5 179 446 0.07031316 -0.1334771 -0.9885545 
-5 180 447 0.1144213 0.06793498 -0.9911067 
-7.375 181.375 447.375 0.09898192 0.1870178 -0.9773571 
-35.66667 183.5 445 0.1698092 0.2701883 -0.9477147 
-34 185 446 0.1291031 0.4744587 -0.8707591 
-35 186 447 0.1310933 0.5036781 -0.853887 
-29.33333 187 448 0.06714657 0.5105012 -0.8572513 
-41.6 189.4 449.4 -0.04368287 0.5258153 -0.8494763 
-45.66667 191.5 451 -0.199106 0.5577793 -0.8057537 
-49.25 193.25 453.25 -0.2198177 0.6075218 -0.7632807 
-51.66667 194 455 -0.1868832 0.6269573 -0.7563064 
-47.25 195.25 454 -0.3318597 0.4750632 -0.8149749 
-47.33333 197.5 455.1667 -0.3968941 0.4141635 -0.8191116 
-45.33333 197.3333 454 -0.422567 0.3865269 -0.8197768 
-21.66667 196 448 -0.03520644 -0.6158921 -0.7870435 
-23.71428 197.2857 447.4286 -0.1492909 -0.5343413 -0.8319806 
-21.33333 198 446 -0.1201901 -0.5274212 -0.8410596 
-49 213 462 -0.4325408 0.5442389 -0.7188272 
-37 209.6667 454 -0.3861459 0.2979697 -0.8729866 
-45.6 211.6 459.4 -0.4244347 0.4209361 -0.8016658 
-51.5 213 464 -0.4474332 0.5694189 -0.6896127 
-39.33333 209.4444 455.3333 -0.4088022 0.306419 -0.8596442 
-27 205.3333 448 -0.4204841 0.2583658 -0.8697358 
-51 211 462 -0.463593 0.4462715 -0.7654562 
8.333333 127.6667 485.3333 0.8351233 0.2673042 -0.4807469 
-80 123.5 529 -0.1379594 -0.8408355 -0.5234148 
-93.5 118 538 0.016824 -0.8589683 -0.5117525 
-95.5 117 539.5 -0.03341204 -0.8725218 -0.4874316 
-97.5 117 541 -0.007779648 -0.8672094 -0.497883 
-99.5 116 541 0.05535379 -0.8756914 -0.4796881 
-97.5 115.5 543.5 -0.004697443 -0.855325 -0.5180705 
-105.5 114 546 0.04026012 -0.8673494 -0.4960687 
-107.5 113 547 0.02931456 -0.8715163 -0.4894896 
-105.5 112 548 0.0236446 -0.861631 -0.5069842 
-103.5 111.5 549.5 0.03501434 -0.8596709 -0.5096468 
-101.5 109.5 553.5 0.06445567 -0.8820224 -0.4667782 
-115.5 109.25 551.25 0.07874534 -0.8639029 -0.4974645 
-101.6667 107.8333 555.6667 0.04356408 -0.8913084 -0.4512999 
-107.5 107 557 0.03572412 -0.8980548 -0.4384307 
-101.5 106 558 0.02480971 -0.9063891 -0.4217148 
-105.5 107 559 0.02731311 -0.9101509 -0.4133756 
-103.5 106 560 0.02869314 -0.921191 -0.3880515 
-66 73.5 466 -0.8379584 0.23444 -0.4928119 
-66 78 469 -0.8191471 0.2719374 -0.5050229 
7 127.5 483 0.7975771 0.30601 -0.5198353 
9 129.5 487.5 0.8292804 0.2874289 -0.4792481 
6 129 482 0.7480025 0.3460341 -0.5663504 
6.5 133.25 485.5 0.7620334 0.3442298 -0.5484622 
-7.75 131.625 465.75 0.3136458 0.4858979 -0.8158 
-5.2 131.6 467.6 0.6248964 0.4097256 -0.6645522 
-7.571429 133.4286 467 0.3642735 0.4865917 -0.7940614 
40 151 493 -0.03007945 -0.8867821 -0.461208 
38.6 151.6 491.4 -0.0881295 -0.872748 -0.4801503 
-5.5 149.5 481 0.6439598 0.5735905 -0.5062705 
36 153 491 -0.1125199 -0.8635658 -0.4915214 
36.5 152 490 -0.101226 -0.8665425 -0.4887304 
38.66667 153 489 -0.06327581 -0.8491184 -0.5243987 
32 154 488 -0.04949421 -0.8848526 -0.4632344 
30.66667 155 488 -0.02681455 -0.8835186 -0.4676281 
28.5 156 485.5 -0.03039177 -0.8815978 -0.4710221 
34.5 156 484 -0.02862078 -0.867148 -0.4972277 
32.66667 157 483.5 -0.02419751 -0.8686997 -0.4947477 
34.5 158 481.5 -0.008249821 -0.8757195 -0.4827498 
36 159 481 -0.005352526 -0.8782996 -0.4780808 
18.33333 159.5 480 -0.003127928 -0.9116843 -0.4108796 
16.5 160 477.5 0.01682027 -0.9174229 -0.3975579 
12.5 161 475 0.02696338 -0.9081094 -0.4178641 
14.2 162 473.6 0.03342529 -0.8908786 -0.4530102 
22.71428 163.5714 471.4286 0.03089124 -0.8401873 -0.5414159 
20.25 164 469.75 0.02353469 -0.8254073 -0.564047 
22.66667 165 469.6667 0.00683026 -0.8304279 -0.5570843 
24.6 166 467.4 -0.02232251 -0.8275965 -0.5608794 
27 166 466 -0.04319731 -0.832987 -0.5516038 
28.4 167.6 465.6 -0.04895679 -0.8149008 -0.5775293 
-5.4 168 463.6 -0.02241288 -0.8593752 -0.5108541 
-7.5 169 463.5 0.04090717 -0.8554553 -0.5162585 
-5.428571 169.4286 461.8571 -0.0165925 -0.8814381 -0.472008 
-11.5 170 459.5 0.03212625 -0.907764 -0.4182494 
-7.333333 171 457.5 0.01785892 -0.9267099 -0.3753531 
-17.66667 171.5 455.5 -0.03315364 -0.8825409 -0.4690653 
-19.66667 172 453.5 -0.03013547 -0.8322776 -0.5535395 
-15.3 173.4 451.9 -0.04036527 -0.8187972 -0.572662 
-9.333333 175 451.5 0.01837702 -0.8200977 -0.5719284 
-11.71429 175.5714 449.4286 -0.02343722 -0.7725631 -0.6345052 
0.6666667 177.5 447.25 0.1640738 -0.3836678 -0.9087787 
-4 179 446 0.1015879 -0.08951153 -0.9907914 
-1.333333 179.5 447 0.1509308 0.009395384 -0.9884997 
-3.666667 181.3333 447.3333 0.1013967 0.1920849 -0.9761261 
-41.5 183 444 0.05122163 0.232271 -0.9713014 
-39.33333 184 445 0.1042408 0.3620619 -0.9263073 
-37.5 185.5 445.5 0.1143873 0.4886971 -0.8649224 
-41.66667 187.5 447.5 0.01195973 0.5811664 -0.8136968 
-31.66667 188 449 0.06982897 0.4555807 -0.8874515 
-29.66667 189.5 450 0.03801553 0.3563051 -0.933596 
-25.33333 191.3333 451 0.01039247 0.02388109 -0.9996608 
-28 191 450 -0.05630709 0.1445233 -0.9878981 
-27.33333 193 451 -0.07307485 -0.1684355 -0.9830003 
-25.33333 194 450 -0.03756176 -0.3239916 -0.945314 
-23.66667 195.3333 449 -0.05864155 -0.4948852 -0.8669774 
-45.6 199.6 455.6 -0.4549114 0.3416713 -0.8223845 
-23.66667 199.5556 445.5555 -0.2670608 -0.2604073 -0.927829 
-49.6 207.4 459.8 -0.4367443 0.2951303 -0.8497956 
-21.66667 201.6667 445 -0.2966869 -0.1047687 -0.9492105 
-25.66667 203.6667 447 -0.4033293 0.1652935 -0.900002 
64.5 213 433 0.01227084 -0.7990276 -0.601169 
22.6 213.6 431.1 -0.3363046 -0.307731 -0.8900566 
66.4 211.7 433.6 0.04051074 -0.7834125 -0.6201805 
64.4 211 435.4 -0.03769428 -0.8331894 -0.5517015 
62.66667 210 436 -0.03440008 -0.8477125 -0.5293393 
64.375 209.125 437.625 -0.05531589 -0.8360188 -0.5459054 
66.5 208 438 -0.02069699 -0.8522933 -0.5226547 
66 209 439 -0.03358744 -0.8509306 -0.5242032 
64.57143 207.8571 440 -0.03196853 -0.8558049 -0.5163102 
70.33334 207 441.5 0.1197249 -0.8439195 -0.5229396 
64.66666 206 441.6667 -0.01329574 -0.8517233 -0.523823 
66.55556 205.3333 443.6667 -0.00155862 -0.8420159 -0.5394506 
60.25 205 445 0.01623733 -0.8439068 -0.5362442 
62.55556 203.6667 445.7778 -0.00507111 -0.8373379 -0.5466622 
60.6 203 447 0.001461316 -0.8380051 -0.5456605 
-160 141 538 -0.4403556 -0.8575625 -0.2658448 
58.25 135.75 517.75 0.06788868 -0.87857 -0.4727642 
-155.4 139.6 535.4 -0.1105706 -0.8943421 -0.4335049 
-157.5 140 537.5 -0.3294061 -0.8919802 -0.3096174 
-159 140 540 -0.4408453 -0.8546468 -0.2742889 
-161.5 141.5 543.5 -0.5163686 -0.8304138 -0.2092286 
56.5 135 519 0.02916423 -0.8764932 -0.4805301 
46 135 521 0.09031729 -0.8743995 -0.4767267 
74.5 134 524 0.07169951 -0.8801892 -0.4691761 
-157 138 544 -0.4070667 -0.8744752 -0.2637989 
68.66666 133.5 525 0.01553145 -0.8950492 -0.445697 
70.5 132 526 0.02137278 -0.8888951 -0.4576119 
70 133 527 0.0185855 -0.8869576 -0.4614768 
68.5 132 528 0.03491974 -0.8762407 -0.4806067 
-37.5 113 464 -0.453286 0.4538434 -0.7671753 
-155 134 557 -0.4945335 -0.8445182 -0.205489 
-151 133 554 -0.4252436 -0.8622416 -0.2751499 
-37 111 462 -0.4227025 0.4622493 -0.7795179 
-39 111.5 464 -0.4705759 0.4555075 -0.7556927 
-154 133 560 -0.5400901 -0.8204705 -0.1874325 
-149 131.5 553.5 -0.3654572 -0.8448963 -0.3906294 
-149.6667 129.6667 559.6667 -0.5352837 -0.8086012 -0.2442039 
-45.33333 105.3333 463.6667 -0.4877363 0.4146981 -0.7682049 
-146 127 562 -0.6232498 -0.7270541 -0.2880141 
-147 127 564 -0.6228487 -0.7429003 -0.2452728 
-33.2 101.4 456 -0.3117168 0.449488 -0.8371339 
-47 103.6667 464 -0.5461158 0.3498637 -0.7611524 
-129.6667 117 535.6667 -0.1739271 -0.8363076 -0.5199413 
-119.4 117.6 537.4 0.06039404 -0.8711159 -0.4873496 
-35.33333 99.66666 455.8889 -0.3254735 0.4487277 -0.8322923 
-119.5 116 539.5 0.05191204 -0.873435 -0.4841658 
-31.83333 97.83334 453.3333 -0.3196486 0.4812117 -0.8162476 
-121.5 115 541 0.0970964 -0.8613254 -0.4986892 
-119.5 114 542 0.07638242 -0.8647096 -0.4964302 
-117.75 113.75 543.75 0.07546078 -0.8847598 -0.4598976 
-23.33333 93.5 449.1667 -0.2147595 0.419351 -0.8820562 
-138 112 554 -0.7992908 -0.4777436 -0.3645481 
-133.25 109.5 547.75 -0.2218207 -0.8318846 -0.5086882 
-65 56 458 -0.9260502 -0.005911239 -0.3773541 
-65 58 459 -0.9315844 0.0514795 -0.3598618 
-59.6 57.6 449 -0.7011202 0.283578 -0.6542277 
-110 87 638 -0.4269518 -0.8815618 -0.2013979 
-112 88 640 -0.5129573 -0.8464652 -0.1427291 
-103.5 87 632 -0.02439929 -0.9004146 -0.434348 
-63.33333 63.33333 455.3333 -0.7914641 0.261145 -0.5526191 
-61.66667 63.66667 453.6667 -0.6912794 0.3350079 -0.6402362 
-107 88 628 -0.08014396 -0.8777217 -0.4724209 
-103.5 89 629 0.004984601 -0.8561823 -0.5166498 
-114 90 635 -0.5418192 -0.8271078 -0.1494148 
-105.5 89 628 -0.004744218 -0.8553904 -0.517962 
-61.5 65.83334 455.5 -0.7244648 0.3267661 -0.6069389 
-108 90 626 -0.04587991 -0.858152 -0.5113417 
-101.6667 91.33334 625.3333 0.009736627 -0.8341938 -0.5513855 
-154 140 534 -0.01978252 -0.86862 -0.4950837 
-153.5 141 535 -0.006126172 -0.8684586 -0.4957239 
-4 123.5 464 0.7396187 0.3112978 -0.5967059 
54.5 137.3333 515.6667 -0.005126117 -0.8668638 -0.4985186 
56.66667 137 517 0.02481657 -0.8746338 -0.4841487 
-155.75 141.25 533 -0.08126147 -0.870495 -0.4854226 
58.5 139 513 0.07538396 -0.8393922 -0.5382732 
-161.3333 144 530 -0.289086 -0.905598 -0.3103572 
60.33333 140 511.3333 0.1010137 -0.8284962 -0.5508089 
-163.6667 145.3333 529.3333 -0.3713747 -0.8960863 -0.2431261 
60.5 141.5 509.3333 0.1065631 -0.8342509 -0.5409896 
62.66667 141.3333 511 0.08148984 -0.8256685 -0.5582392 
74.66666 143 509.3333 0.08626826 -0.8505396 -0.5187872 
68.75 143.5 507.5 0.02036165 -0.861704 -0.5070027 
70.5 144 505.5 0.05135116 -0.8627729 -0.502977 
66.625 145.375 503.625 0.0552939 -0.87676 -0.477739 
64.66666 146 502 0.04735249 -0.8698195 -0.4910925 
63 147 501 0.04566431 -0.866837 -0.4964962 
64.33334 147.5 499.6667 0.05698518 -0.860948 -0.5054912 
66.5 148 498 0.06026335 -0.8482406 -0.5261714 
67 149 499 0.04880341 -0.8537459 -0.5183976 
22.5 149.5 495.8333 0.06438498 -0.865325 -0.4970585 
64.5 149 498 0.06209645 -0.8517137 -0.5203152 
20.66667 150 493.5 0.001842511 -0.8550913 -0.5184742 
-1.5 152 489 0.5881724 0.1829508 -0.7877704 
-3 154 489 0.4687889 0.1081496 -0.8766645 
1 155.5 491 0.3636656 -0.4901481 -0.7921503 
10.5 154 487 -0.064426 -0.9060563 -0.418224 
-15.5 152 480 0.009457296 0.6134306 -0.789692 
2.4 156 489.6 0.0494912 -0.8215205 -0.568027 
4.75 156 487.5 -0.1283883 -0.9131492 -0.3868786 
0.5 157 489 0.1166983 -0.8114701 -0.5726237 
6.5 156 485.5 -0.1244233 -0.9310511 -0.3430199 
4 157 486 -0.1348872 -0.9435255 -0.3025972 
8.5 156 483.5 -0.02630136 -0.8952271 -0.4448335 
10.5 157.3333 483.5 0.04364567 -0.8755283 -0.4811914 
8.333333 158 481.5 0.02867237 -0.9033188 -0.4280106 
-4 159 483 -0.03595798 -0.9405047 -0.3378726 
-17.5 158 480 0.08526673 -0.8598513 -0.503374 
-7.5 159 479 -0.038536 -0.9666389 -0.2532278 
-5.333333 159.5 477.5 -0.03594222 -0.9477187 -0.3170762 
-11.66667 160 476 0.05773368 -0.9406932 -0.33431 
-9.666667 161 475 0.03842079 -0.8998327 -0.43454 
-11.42857 161.2857 473.5714 0.05311677 -0.8902182 -0.452427 
-13.71429 161.8571 471.5714 0.0467643 -0.8557968 -0.5151942 
-19.33333 163.3333 471 -0.008168605 -0.8389001 -0.5442243 
-17.33333 163.8333 469.5 -0.004395304 -0.830562 -0.5569089 
-15.5 164 468 0.01380953 -0.8248112 -0.5652398 
-13.66667 165 467 0.03110095 -0.8294634 -0.5576946 
-15.33333 166 465.6667 0.007727156 -0.8267353 -0.5625381 
6.666667 167 465 0.05235355 -0.8700534 -0.4901696 
18.57143 169.1429 463.4286 -0.01191296 -0.8774217 -0.4795721 
16.4 170 461.6 -0.0004185422 -0.8915482 -0.4529257 
16.33333 171 459.3333 -0.01565752 -0.8524189 -0.5226251 
18.42857 171.4286 457.4286 -0.02123494 -0.8223148 -0.5686365 
20.33333 171.6667 455.3333 0.001635784 -0.7498852 -0.661566 
22.83333 173.3333 455.1667 0.08816641 -0.7222406 -0.6859995 
20.5 173.25 454 0.03275126 -0.7148247 -0.6985363 
16.66667 175 455 -0.005254662 -0.7466051 -0.6652468 
18.5 176 453.5 0.02212139 -0.7007347 -0.713079 
12.33333 176 452 0.1368372 -0.6833604 -0.7171431 
14.33333 177 451 0.08057553 -0.6314435 -0.7712242 
12.5 177.3333 449.3333 0.1585779 -0.547805 -0.8214394 
18.66667 179.6667 450 0.0966048 -0.0455209 -0.9942814 
16.66667 181.5 450 0.06128357 0.1408195 -0.9881367 
72.66666 183.6667 455 0.0336953 0.538643 -0.8418601 
74.33334 185 456 0.04038968 0.6252369 -0.7793893 
66.6 187.4 457.4 0.07340126 0.5727306 -0.8164508 
66.5 189.5 459.5 0.1392568 0.2826656 -0.9490563 
74.25 191.625 461.125 0.1148901 0.09293649 -0.9890213 
72.5 193.5 461 0.1124104 -0.2259852 -0.9676232 
70.75 194 459.75 0.07233753 -0.3989475 -0.9141161 
72.66666 195.5 459.1667 0.1625299 -0.5812181 -0.7973517 
74.5 197 459 0.1433889 -0.7108353 -0.6885875 
60 196 456 0.1036293 -0.7508776 -0.6522607 
62.66667 197.6667 455.6667 0.07427522 -0.8012719 -0.5936721 
72.4 197.4 457 0.133384 -0.7399688 -0.6592838 
60.5 198 454 0.09473035 -0.8208259 -0.5632682 
52.66667 199.3333 451.6667 0.1145078 -0.8253085 -0.5529501 
58.8 199.4 453 0.101958 -0.8248255 -0.5561184 
54.66667 200 450 0.1088056 -0.7996806 -0.5904848 
52.36364 201.4545 449.4546 0.1129391 -0.7986802 -0.5910622 
66.33334 202 448 0.05180454 -0.857036 -0.5126457 
75 214 433.5 0.700929 -0.3275823 -0.6335522 
72.75 213.25 435 0.662144 -0.4361014 -0.6094103 
68.66666 209.6667 435.6667 0.1237526 -0.8011423 -0.5855393 
74 209.6667 437.6667 0.5726939 -0.5821267 -0.5771917 
72.6 209 439 0.4336855 -0.6681243 -0.6045882 
74 208 440 0.4838053 -0.6398337 -0.5971141 
60.4 207 441.4 0.0438886 -0.8532764 -0.5196088 
72.625 205.375 443.5 0.2305952 -0.8186784 -0.5259197 
70 205 445 0.07371351 -0.8605323 -0.5040341 
68.33334 204 446 0.03938238 -0.8673396 -0.4961564 
70.75 203.25 447.375 0.08335871 -0.8797189 -0.4681304 
50.5 135.5 519.5 0.02019644 -0.869996 -0.4926451 
-151.5 139.5 537 0.03486797 -0.855651 -0.5163774 
52.5 135 521.5 0.007717972 -0.8763662 -0.4815837 
-153.5 138 538 -0.1177866 -0.8933429 -0.4336643 
-155.3333 138 539.3333 -0.2593777 -0.9001551 -0.3499202 
64.33334 134 523.6667 0.07163996 -0.8939868 -0.4423294 
62.5 133 525 0.1233664 -0.8740045 -0.4699968 
-149.5 137 541.25 -0.01036185 -0.8617319 -0.5072582 
60.5 132 525.5 0.1237382 -0.8675129 -0.4817783 
-151 136 542 -0.120725 -0.8945849 -0.430283 
62.33333 131.6667 528 0.1288831 -0.8522416 -0.5070241 
-149.5 135 543.5 -0.09032191 -0.9073219 -0.4106202 
-149.5 134 546 -0.1184457 -0.9152896 -0.3849877 
-151 134 548 -0.2669335 -0.9135719 -0.3068109 
-153 134 549 -0.3442391 -0.9005896 -0.2654011 
-37 107.5 460 -0.3713635 0.431899 -0.82192 
-41.5 107.5 463.25 -0.4637174 0.4626513 -0.7555925 
-40 104 461 -0.4632006 0.4157832 -0.7826683 
-23.2 101.4 452 -0.2194719 0.4353096 -0.8731195 
-25.66667 101.6667 453 -0.2682066 0.4461415 -0.8538284 
-41.5 103 460 -0.4769702 0.3951675 -0.7850745 
-147 126 567 -0.6261256 -0.7453626 -0.2289133 
-21.33333 99.5 451 -0.1993487 0.4304915 -0.8803052 
-27.33333 100 453 -0.2889693 0.4566315 -0.8414181 
-123.5 117.75 535.5 0.08521559 -0.8856283 -0.4565094 
-143 123 562 -0.7716476 -0.5690505 -0.2841503 
-145 124 568 -0.7234032 -0.641277 -0.2558353 
-125.3333 117 537 0.07977138 -0.8685744 -0.4890961 
-127.3333 116 538 -0.01911392 -0.8472623 -0.5308309 
-27.5 97.5 451.75 -0.2625022 0.4366937 -0.86046 
-26 96 451 -0.2148694 0.4170105 -0.8831384 
-125.3333 115.3333 539.6667 0.09103276 -0.845426 -0.5262775 
-138 117.6667 549.6667 -0.908971 -0.2217305 -0.3529975 
-144 121 568 -0.8375736 -0.4627144 -0.290458 
-125.6667 114 541.6667 0.08842566 -0.849117 -0.5207505 
-131 114 540 -0.2069928 -0.7900754 -0.5770051 
