ply
format ascii 1.0
comment PCL generated
element vertex 613
property float x
property float y
property float z
property float nx
property float ny
property float nz
property float curvature
element camera 0
property float view_px
property float view_py
property float view_pz
property float x_axisx
property float x_axisy
property float x_axisz
property float y_axisx
property float y_axisy
property float y_axisz
property float z_axisx
property float z_axisy
property float z_axisz
property float focal
property float scalex
property float scaley
property float centerx
property float centery
property int viewportx
property int viewporty
property float k1
property float k2
end_header
-12.6623 -55.262402 538.50897 -0.0059382152 0.22658721 -0.97397274 0.0088636465
81.070602 -54.4832 626.18799 -0.14233905 -0.84517145 -0.51519394 0.0026627718
89.509903 -55.110001 622.24597 -0.84739244 0.10443022 -0.52059603 0.094989017
87.327202 -56.024101 625.40997 -0.57123822 -0.1849774 -0.79966885 0.065694578
86.697899 -58.645901 623.61298 -0.70085311 0.64598572 -0.30250183 0.019389264
-12.0822 -50.822399 540.245 -0.019132135 0.56369913 -0.82575858 0.005830891
-19.2626 -50.095299 540.40002 -0.050698753 0.41571027 -0.90808284 0.014124367
-15.4642 -48.798401 541.815 0.098751619 0.44988555 -0.88760972 0.012817244
-17.5991 -47.384499 541.12598 0.12142414 0.40009865 -0.90839267 0.010192587
-9.9686098 -45.295502 543.40503 0.21548231 0.51280242 -0.83102411 0.011796962
-25.834801 -46.9576 545.41602 -0.52925116 0.56771576 -0.63054901 0.0082360888
-42.8223 -67.326202 657.70398 -0.054959975 -0.86455947 -0.49951616 0.0022755819
-22.228201 -44.7505 544.95502 -0.41262427 0.67894006 -0.60727388 0.0073042517
-46.5284 -67.402496 658.41699 -0.098241374 -0.84609157 -0.52390611 0.0041784849
-44.6917 -65.537399 655.19299 -0.085592687 -0.82757813 -0.5547868 0
-25.653099 -43.916199 547.96698 -0.51428694 0.65426737 -0.55447549 0.0053233597
-8.6535501 -38.8918 548.72998 0.28015956 0.6386025 -0.71672696 0.0017186139
-39.7868 -53.481701 585.26001 0.93260759 -0.24182212 -0.26789036 0.0061087906
-36.743999 -60.390099 646.57098 -0.048252936 -0.87306106 -0.48521751 0.00054750929
-40.821201 -59.909302 645.76703 -0.030205401 -0.88656241 -0.46162194 0.0010377564
-39.4487 -51.480701 587.22998 0.91911262 -0.28386098 -0.27323058 0.007281878
-25.1465 -41.678101 550.71002 -0.38543531 0.78015858 -0.49273962 0.0066408082
-28.467199 -52.2145 617.55902 0.99230337 0.041591909 -0.11663702 0.015368967
-21.557899 -39.817902 551.50403 -0.35695761 0.63899606 -0.6813702 0.0007003803
-57.7141 -63.0481 651.448 -0.045936067 -0.86606157 -0.49782231 0.0022836966
-39.566002 -48.327 581.00201 0.94695055 -0.25892717 -0.19037151 0.0010957214
-29.4818 -50.1422 614.61401 0.96422088 -0.094526604 -0.247675 0.0093592918
-56.5849 -60.998199 648.56299 -0.084187441 -0.79086405 -0.60617363 0
-24.075399 -37.975399 554.02399 -0.45111504 0.68376893 -0.57354617 0.010393781
-15.9311 -35.7696 552.46198 -0.17531419 0.8269015 -0.53432083 0.0045522433
-55.0285 -59.260601 645.85498 -0.098325565 -0.83559656 -0.54047245 0
-28.8102 -47.818298 619.75201 -0.98950076 -0.10996129 -0.093790933 0.018122865
-7.8504901 -33.403999 555.32703 0.076232433 0.80838805 -0.58369285 0.0042548822
-160.862 -41.219002 622.00897 -0.0035482578 -0.85310936 -0.52171999 0.0026383351
-164.435 -41.1819 621.90802 -0.095150553 -0.85264236 -0.51375812 0.0015727471
-163.38699 -38.959599 618.84302 0.017621608 -0.85129505 -0.52439123 0.0026858309
-164.935 -37.6483 616.03601 0.03217385 -0.87131482 -0.48966867 0.00019027886
-169.119 -37.202999 615.28699 -0.04813645 -0.80975038 -0.58479673 0.0028595938
-49.7976 2.6658299 551.271 -0.030408861 -0.85945547 -0.51030535 0.0031657866
-52.062302 4.8053198 548.26801 -0.024412414 -0.82487619 -0.56478608 0.0041044042
-61.256599 3.25349 549.18903 0.067608804 -0.90683365 -0.41603097 0.016482757
-47.741299 10.088 539.44598 -0.24274994 -0.89900261 -0.36450878 0.014652906
-41.702999 11.4702 531.80298 0.038486432 -0.88338959 -0.46705636 0.00074073143
-45.2094 11.564 531.29498 0.0023275795 -0.91267174 -0.40868676 0.0029424557
-38.969101 14.4168 525.29602 0.0071112365 -0.90074062 -0.43429908 0.0093896547
-43.459599 14.6566 525.823 -0.018821482 -0.87328678 -0.48684299 0.0031339685
-41.341202 16.353001 522.46802 0.043492939 -0.90099138 -0.43165144 0.0046934597
-182.32201 -29.651199 621.19501 -0.93986875 0.15616874 -0.30374035 0.0021040572
-182.715 -26.4965 623.59802 0.95659161 -0.11939577 0.26585171 0.0015497351
-181.18401 -25.7792 619.71301 -0.94085747 0.12863341 -0.31343371 0.00059356267
-73.867302 10.2959 535.87701 -0.010751177 -0.91552174 -0.40212461 0.0052023884
-77.664497 10.231 536.18903 -0.047045927 -0.79415929 -0.60588586 0.00086862419
-76.412697 12.3084 533.10303 0.055109855 -0.90165412 -0.42893216 0.004150176
-85.104797 10.2769 535.38898 0.055526115 -0.88170612 -0.46852008 0.010316851
-71.564003 16.702299 524.50897 0.026541257 -0.90182322 -0.43128926 0.0031531712
-86.006599 13.7467 528.974 0.041365243 -0.88814068 -0.45770624 0.009400703
-89.598999 13.9385 529.396 0.055304289 -0.88716638 -0.45812345 0.010941757
-88.069298 15.5457 525.76099 0.096852154 -0.91129071 -0.40021127 0.0015068207
-181.41701 -16.6859 632.08899 0.93255621 -0.35558182 0.062453121 0.0036330621
-86.908401 17.216499 522.56 0.0056812675 -0.85104477 -0.5250625 0.0027781471
-90.334198 17.267799 522.75702 -0.010538934 -0.84036326 -0.54192102 0.0047486788
-180.08299 -13.2024 632.383 0.87242371 -0.48620743 0.049790327 0.0040640263
-94.252098 17.834101 522.323 -0.14649706 -0.89405262 -0.42333037 0.0094415145
-101.598 17.844 521.39801 0.16415888 -0.88184148 -0.44204915 0.017571595
-100.54 19.311001 518.20398 0.13892405 -0.89324987 -0.42755666 0.0036922691
-92.645798 24.1082 509.439 0.035171956 -0.89065027 -0.45332655 0.00100102
-96.294701 24.1548 509.00299 0.065820649 -0.9197365 -0.38697857 0.00082973187
-89.849701 27.284401 502.05301 -0.00011175137 -0.88531202 -0.4649975 0.0062864656
-93.3339 27.648899 502.91599 -0.019544251 -0.88255566 -0.46980163 0.0066078543
-91.885597 28.6863 499.922 -0.053954501 -0.89455545 -0.44368848 0.003329858
-90.911598 30.8936 495.98999 -0.019718226 -0.929726 -0.36772382 0.003642255
-89.172096 31.878901 492.57599 -0.043173276 -0.87082732 -0.4896895 0.0055546635
-97.524803 30.2491 495.79199 0.084472165 -0.89291918 -0.4422214 0.00084847974
-85.902702 36.705502 484.32101 0.50599086 -0.22833815 -0.83176619 0.069785163
-84.240898 39.1264 485.82199 0.4676888 0.31564355 -0.82561266 0.012330453
-92.306503 36.396099 483.02802 0.21414623 -0.62138271 -0.75367427 0.12658806
-151.08701 23.347099 608.55798 -0.57604688 -0.35045591 -0.7384786 0.027250297
-144.705 26.823 601.90198 -0.62255007 -0.24764274 -0.74236411 0.027724542
-147.672 27.936199 603.31097 -0.30578601 -0.5166223 -0.79974765 0.019726558
-146.01199 29.5651 600.966 -0.35794052 -0.51051891 -0.78182423 0.036603436
-132.134 33.901001 564.133 0.69654125 -0.71718591 0.021786505 0.0039515877
-132.41499 33.694599 554.23901 0.70709759 -0.70695078 0.015283064 0.005153928
-154.944 28.982599 603.49597 -0.0091800084 -0.81150323 -0.58427572 0.0085256845
-130.306 35.697601 544.737 0.69854844 -0.70820516 0.10235029 0.0055125961
-129.92599 36.304901 556.237 0.74943841 -0.65861064 0.067631654 0.0039057762
-127.878 38.1227 537.289 0.71711159 -0.69095093 0.091311492 0.0038426591
-126.093 39.871201 540.78998 0.73994988 -0.67264956 0.0040805596 0.00042746347
-125.707 40.310699 537.23199 0.74603033 -0.66582531 0.010744127 0.0013709752
-114.199 44.098999 497.91101 -0.87552094 0.32995352 -0.35297826 0.0039272346
-123.434 43.481899 543.77301 0.75028932 -0.66055101 0.027169775 0.0074011087
-110.264 46.945599 490.53699 -0.85366154 0.30116358 -0.4249264 0.013270949
-80.711197 57.627201 499.741 0.29632071 0.77593046 -0.55688953 0.0023549572
-106.389 48.227901 483.397 -0.8268134 0.24802393 -0.50484037 0.022753092
-159.923 101.301 523.12 -0.15242194 0.85023099 -0.50386006 0.0031394889
-152.15601 104.108 526.04199 -0.21433952 0.88212889 -0.41941297 0.0045578936
-152.20599 97.902397 517.43402 0.067627035 0.18984491 -0.97948229 0.053022228
-88.837502 123.512 518.47699 -0.45891431 0.79583538 -0.39502364 0.00083778403
-87.590302 122.166 514.29999 -0.48762083 0.78062171 -0.39096758 0.0046370192
-90.441399 120.355 513.83801 -0.47824183 0.75484413 -0.44888216 0.0045442511
-155.097 93.687302 521.13 -0.43612707 -0.67590857 -0.59408832 0.041351594
-160.269 88.592499 529.65698 -0.68328863 -0.35780689 -0.63646758 0.11136797
-161.82401 85.7882 530.742 -0.72233605 -0.013665123 -0.69140714 0.035884891
-160.743 83.008904 524.09802 0.92773795 -0.23944113 0.28630441 0.03509317
-162.043 82.288696 528.41199 0.90089202 0.42799374 -0.072213888 0.036461767
-162.161 82.270203 532.00403 0.93448704 0.34216157 -0.098282456 0.057865877
-144.94 88.155602 536.35199 0.64721483 -0.69601488 -0.3109279 0.020041162
-161.134 80.019897 525.65399 0.87122607 0.47632492 0.11865807 0.054139163
-142.02299 88.888702 537.39099 0.15998091 -0.8567397 -0.49030939 0.007796614
-146.936 86.416702 533.97803 0.76529253 -0.55946344 -0.31832063 0.0046548294
-158.94501 79.383797 526.09399 0.55991358 0.82335472 -0.092648663 0.013461975
-146.5 84.991699 537.54901 0.80186599 -0.50354874 -0.32163596 0.0016429618
-146.263 83.185898 540.86499 0.72963625 -0.59866822 -0.33049545 0.0032022621
-148.705 80.975304 538.45398 0.66666722 -0.72171664 -0.18622546 0.017693048
-89.908096 99.563698 514.56 -0.15383688 -0.87967187 -0.45001292 0.0060677263
-102.602 93.7873 526.66498 -0.15577163 -0.83704466 -0.52449173 0.003565259
-94.183403 94.447899 524.09802 -0.15247375 -0.77742851 -0.61021042 0.013645809
-95.667801 92.2799 526.66803 -0.21819448 -0.72933376 -0.64843142 0.0014022954
-92.288597 92.060097 526.26898 -0.26656634 -0.68853432 -0.67443526 0.0093211764
-108.903 86.770798 538.78802 -0.15062037 -0.83726072 -0.52565008 0.024154657
-105.801 86.445602 539.74701 -0.30607641 -0.71221179 -0.63172114 0.028496884
-100.068 86.518898 534.966 -0.55134863 -0.52927154 -0.64489245 0.0047949115
-101.982 85.352699 537.91699 -0.46793231 -0.50826716 -0.72298265 0.0044399588
-99.027901 83.187103 536.56403 -0.71998161 -0.28089821 -0.63460433 0.0073507079
-105.174 80.470901 543.06799 -0.66062897 -0.36705917 -0.65485644 0.015707642
-93.760696 82.804802 530.888 -0.72392368 0.2372469 -0.64780277 0.012503164
-96.084999 78.931503 532.38702 -0.79941845 0.1478764 -0.58229095 0.0040263515
-40.496101 87.023804 508.664 0.63241106 0.3648546 -0.68332815 0.00035039728
-41.2836 83.894699 506.224 0.62941408 0.35053939 -0.69351286 0.0006632352
-31.9613 79.690201 512.617 0.6284886 0.30490777 -0.71556503 0.0015736009
-35.8787 78.911201 509.005 0.59283102 0.08993493 -0.80028933 0.013864628
44.8134 8.60151 533.78998 0.40087503 0.50039679 -0.76739967 0.0054990225
51.003399 7.78795 536.88898 0.42259896 0.53432542 -0.73205632 0.0016518877
54.798599 7.9661298 539.10199 0.43869483 0.53585505 -0.72139186 0.00084976951
50.469501 4.3235002 534.15503 0.30125338 0.2894907 -0.90853816 0.012256944
49.060398 1.12921 533.32703 0.20179757 -0.24914278 -0.94720936 0.047595859
53.036598 1.42723 533.86401 0.25180945 0.064292505 -0.96563888 0.031420816
45.665901 -4.7439799 541.22803 0.034838669 -0.89434427 -0.44602069 0.0064566382
43.545799 -6.1442199 544.198 -0.0078690136 -0.8483066 -0.5294469 0.0058967327
47.2589 -6.1175399 544.04102 0.014260379 -0.85310209 -0.52154911 0.0014596311
24.9118 -17.0259 570.62903 -0.24478233 -0.87426639 -0.41921332 0.0024352178
51.328999 -6.5486798 544.28802 -0.055146433 -0.85134286 -0.52170324 0.0015434722
60.094002 -5.3714399 541.58801 -0.035046156 -0.79921657 -0.60002053 0.0012935112
34.730499 -16.5303 567.25598 -0.095385112 -0.8854472 -0.45484594 0.0035256941
32.467999 -17.9778 570.29901 -0.077993527 -0.8955797 -0.43801144 0.0025233557
59.041801 -7.55267 544.99902 -0.094793446 -0.85953093 -0.50221592 0.0063603595
57.57 -8.7899799 548.20001 -0.13686305 -0.85344183 -0.50289714 0.0033351425
55.866402 -10.5417 550.60999 -0.091406874 -0.82625794 -0.55582613 0.0022279772
36.708801 -18.0123 569.60602 -0.15087315 -0.88198733 -0.44647008 0.002792021
30.219601 -21.235701 576.02399 -0.091693342 -0.83112639 -0.54847175 0.0036085066
59.722801 -11.0437 550.966 -0.096517317 -0.85769558 -0.50501758 0.0032654405
73.249199 -8.2013397 544.91101 0.056928147 -0.79384005 -0.60545611 0.0067836661
-11.9807 -74.698196 662.94299 0.72502625 0.68312186 0.087644249 0.028447174
-13.2068 -75.520401 668.04901 -0.24859865 -0.89707381 -0.36531815 0.010593107
-15.463 -76.441597 671.06403 -0.056093827 -0.87272567 -0.48497769 0.0043582199
-12.0934 -75 660.22302 0.78976339 0.61339742 0.0041733482 0.0061794035
-16.8284 -78.884102 674.45502 0.16954601 -0.22503555 -0.95948589 0.027486961
-10.75 -77.331497 661.34601 -0.74937433 -0.64543772 -0.14781144 0.030874835
95.538399 -45.674099 589.63397 0.5369007 -0.82097656 -0.19425565 0.0037200041
6.8475199 -77.6138 543.90302 0.3997725 -0.20470545 -0.89346385 0
8.87041 -80.208 546.19098 0.45244959 -0.37380272 -0.80966723 0.00054002425
4.9718299 -81.1194 544.06299 0.44012076 -0.38707179 -0.81022781 0.00012032054
84.847504 -37.6861 594.52197 -0.12684914 -0.89697427 -0.42349324 0.0024555973
-15.4332 -73.273804 665.13397 -0.40874371 -0.84048474 -0.35568804 0.0085159047
80.432098 -37.7355 595.58398 -0.097301416 -0.90475976 -0.41465905 0.0010423642
-18.984301 -72.250397 665.71899 -0.11790732 -0.83849537 -0.53199941 0.0068613244
81.471802 -35.751202 591.44501 -0.12579513 -0.8695513 -0.47755218 0.0056837481
-18.087099 -71.1689 662.43701 -0.17960609 -0.90329474 -0.38961568 0.0042747445
66.926102 -39.2952 601.93903 -0.1289614 -0.90750259 -0.39975989 0.0011375741
62.639198 -38.342499 601.03101 -0.10149212 -0.88655835 -0.45134634 0.0019200518
65.842697 -35.186699 595.58398 -0.2285274 -0.83144975 -0.50642532 0.0042133196
67.002899 -33.651299 591.96399 -0.10075164 -0.89676678 -0.43088108 0.0021414976
58.616901 -34.299999 595.75403 -0.089951053 -0.85404664 -0.51236027 0.00052496488
29.120501 -39.1017 585.22198 0.6667369 0.38507172 -0.63810784 0.0066549918
54.6133 -33.812099 595.09998 -0.04871875 -0.88776612 -0.45770931 0
51.334702 -33.7467 595.59601 -0.075554408 -0.90365577 -0.42154211 0.0011102022
52.876701 -32.363998 592.16803 -0.050364904 -0.90113902 -0.43059474 0.00063888734
22.5163 -35.217701 579.36499 0.70552057 0.48597875 -0.51581532 0.001993859
56.382702 -26.9097 582.37201 -0.04412739 -0.82350582 -0.56558889 0.0061605866
24.3857 -32.968899 583.35901 0.66214186 0.42630601 -0.61630458 0.0049034143
-53.717899 27.924801 497.61301 0.068960957 -0.599603 -0.79732096 0.096030623
-20.5 43.972198 516.47198 0.33172423 -0.29555315 -0.89588356 0.0010103994
-32.646801 41.877201 513.07098 0.33851635 0.044890936 -0.93988901 0.017063651
66.7444 74.318497 546.81201 -0.80652237 -0.57652044 0.13094223 0.083158128
-18.976999 48.4356 516.62598 0.63075227 0.20875132 -0.74737835 0.0028279705
-35.4501 44.457699 511.54099 0.31323457 -0.20890976 -0.92641282 0.020382557
67.665001 77.560898 548.43701 0.6558041 0.64737487 -0.38836434 0.06332434
-22.477501 50.626999 514.62097 0.56110215 0.24653554 -0.79018015 0.0051930151
-33.143398 48.185799 510.302 0.13983707 -0.6281355 -0.7654354 0.0068884096
-29.527901 48.205002 510.677 0.061493356 -0.64461589 -0.76202947 0.010534416
-25.045 50.344601 512.60699 0.64515913 0.22468248 -0.73026532 0.0069926768
-52.307999 43.457901 503.26801 0.44022766 0.30826429 -0.84331053 0.0008385292
-49.318199 44.319401 505.19299 0.40823567 0.26596844 -0.87327224 0.0017569079
-45.4762 45.040298 507.15399 0.45058763 0.17542215 -0.87532729 0.0093293525
-37.7323 47.648201 510.28201 0.082512014 -0.37712222 -0.92248064 0.045293786
-55.9566 42.7649 501.16101 0.38341695 0.30507025 -0.87173599 0
-39.927399 48.631401 509.564 0.19244948 -0.60372376 -0.77361542 0.0088574179
-31.424 51.7323 508.09698 0.50706613 0.042949047 -0.86083639 0.025594577
-24.6852 53.904499 514.716 0.61270964 0.38323656 -0.69117051 0
-47.8162 47.320801 506.33899 0.34420553 -0.010108769 -0.93883991 0.019647723
-39.551601 50.955399 506.55899 0.1703231 -0.78068364 -0.60126781 0.0027979866
-16.524099 61.155998 524.85699 0.59503716 -0.075628556 -0.80013192 0.0054298714
-55.9352 46.563301 503.67999 0.37225145 0.24606828 -0.89491862 0.014787054
-41.325199 52.576698 503.897 0.18625623 -0.69314146 -0.69632149 0.043735299
-44.927502 52.838001 503.539 0.026784513 -0.7520138 -0.65860295 0.0019473151
-43.322899 55.034401 501.03299 0.045106869 -0.53164464 -0.84576547 0.074402355
-45.088501 58.064499 498.46201 0.59465528 -0.1142899 -0.79581589 0.040721845
-42.229 58.974499 501.91901 0.56246054 0.25536329 -0.78640181 0.011204787
-49.5583 56.516701 496.94299 0.012519449 -0.71549094 -0.69850987 0.020877762
-42.205601 61.683399 503.73199 0.66158348 0.33526665 -0.67074841 0.0073271007
-48.500301 60.947601 496.78601 0.45772579 0.26799783 -0.84774065 0.020043397
-61.281399 132.75101 503.349 -0.46834129 0.83310789 -0.29425773 0.003102202
-64.548203 130.407 501.72198 -0.46269524 0.72716612 -0.50709224 0.014035215
-11.9771 138.084 473.229 -0.3330591 0.50513411 -0.79618537 0.010503272
-5.67028 134.879 468.97198 -0.42191949 0.49292371 -0.7609272 0.03545006
0.205173 134.047 464.07101 -0.62747383 -0.30215919 -0.71761858 0.11107748
2.2662899 133.97701 464.39801 -0.57546079 -0.35427392 -0.73711252 0.10072678
1.21973 131.97501 467.017 -0.14258222 -0.76097769 -0.63291651 0.019782102
-33.297699 115.715 491.48599 -0.37514061 -0.17078729 -0.9110989 0.031762946
-35.495899 111.663 491.854 -0.31992754 -0.079551846 -0.94409627 0.035425235
-32.872501 108.413 492.73801 -0.27512053 -0.66606313 -0.69330257 0.035086215
-37.544998 108.06 492.883 -0.081970125 -0.42347062 -0.90219378 0.023327934
-39.600399 105.273 494.71301 -0.0814716 -0.69400984 -0.71534097 0.015300587
-30.3659 107.32 492.772 -0.17856294 -0.83614069 -0.5186367 0.010167968
-31.438299 105.397 495.89301 -0.0048501338 -0.74573839 -0.6662212 0.0023408411
-43.253399 100.258 503.81699 0.058565095 -0.86859524 -0.49204913 0.0063172346
-29.0217 103.021 498.90601 -0.055963937 -0.85856283 -0.50964493 0.0057101473
-25.7857 102.657 497.74799 -0.19167952 -0.83543664 -0.51507723 0.0092357127
-27.1565 101.282 501.21399 -0.046030443 -0.89787883 -0.43782982 0.0039434368
-27.789 99.267097 505.64999 -0.024622206 -0.90105605 -0.4330031 0.0019434564
-23.966801 99.426399 504.397 -0.10857631 -0.8862462 -0.45030972 0.0033128664
-20.9119 98.906403 505.04599 -0.051736459 -0.85145915 -0.52186269 0.0026905411
-91.487801 71.539902 528.26898 -0.72362494 0.46219444 -0.51258498 0.091306001
-91 69.535301 519.867 -0.25231463 0.90061957 -0.35386693 0.013846155
-94.415001 68.983902 526.59601 0.58682603 -0.79853404 0.13408439 0.0011126581
-97.445503 68.426201 534.57098 -0.91112167 0.19114345 -0.36513218 0.057715379
-89.557999 68.7006 516.40601 -0.028979197 0.94577366 -0.32353121 0.0031848093
-101.217 66.336601 541.78699 -0.73998618 0.28139782 -0.61093026 0.067067653
-112.226 54.3102 517.65503 0.71314496 -0.70083606 0.015908919 0.011469163
-114.481 51.621899 517.21899 0.73909366 -0.6616962 0.12608962 0.0027601805
-114.174 52.587502 526.50598 0.70192224 -0.71140409 0.034777954 0.0043716435
-116.74 50.1973 525.65198 0.73309058 -0.67984283 0.019798636 0.00086605089
-107.246 -24.519899 593.69 0.056325231 -0.87997514 -0.4716686 0.0042055864
-118.841 -29.489 601.86902 -0.034745213 -0.82419544 -0.56523848 0.0037064864
-105.303 -26.1535 596.15802 -0.032381661 -0.83883095 -0.54342812 0.0040172967
-101.175 -26.699699 597.01898 -0.065195158 -0.81761211 -0.57206643 0.0010033709
-103.951 -30.810301 602.685 0.13647118 -0.85634482 -0.4980453 0.0052683349
-105.253 -32.2103 605.34601 0.064367943 -0.89946616 -0.4322238 0.0058915787
-134.276 -43.295799 624.63098 0.0033895222 -0.85856724 -0.51268989 0.011427057
-130.283 -44.276798 624.94202 -0.08434587 -0.82031971 -0.56565124 0.0055608745
-131.265 -45.858601 627.73199 -0.09220735 -0.87515873 -0.4749684 0.00094667199
-122.789 -44.739399 625.57599 -0.034282606 -0.83485067 -0.54940784 5.1386101e-05
-125.107 -46.329601 629.18402 -0.094774872 -0.84444362 -0.52719325 0.0015817074
-54.376598 -24.505899 593.86499 -0.032836448 -0.79405004 -0.60696483 0.00068863417
-56.823002 -28.7626 599.62299 0.036035068 -0.85542345 -0.51667416 0.0027544778
-58.156399 -30.4533 603.26099 0.047690541 -0.85742939 -0.5123871 0.0029678445
-56.095901 -32.458099 606.00702 -0.038356844 -0.78128386 -0.62299621 0.003013989
-52.385201 -32.903801 606.11298 -0.031520434 -0.76927269 -0.63814265 0.0013647443
-54.235901 -34.669701 608.224 0.01936497 -0.80701309 -0.59021586 0.005919571
-27.7215 -30.5268 601.242 -0.83200657 -0.24426976 -0.49809352 0.079693452
-34.808399 -34.302502 607.56201 -0.051209096 -0.82100385 -0.56862134 0.00023258079
-30.2826 -34.242599 606.724 -0.40640268 -0.7007094 -0.58638138 0.091995724
-27.922199 -33.596699 598.55701 0.94379586 -0.31191954 -0.10934184 0.0010699076
-28.035 -34.994301 602.026 -0.99414176 0.035321012 -0.10215043 0.044562541
-31.7271 -36.265701 610.04199 -0.1359985 -0.81190401 -0.56772918 0.0096157128
-28.2323 -36.892101 605.00299 -0.99532884 -0.053640701 -0.080269136 0.053143699
-31.585899 -42.046001 599.646 0.88678461 -0.40773785 -0.21763045 0.00308856
-43.910702 -66.493896 577.86603 0.97332835 -0.052480955 -0.22333322 0.0038993782
92.610901 -40.224201 596.17401 -0.13897772 -0.88194674 -0.45039457 0.0068473569
82.5457 -45.042301 610.50897 -0.17670554 -0.83940756 -0.51397473 0.0026012452
86.951599 -45.782299 609.48999 -0.16188696 -0.85934103 -0.48510358 0.0022913062
85.8368 -47.477402 613.09497 -0.07773497 -0.91558492 -0.39453968 0.0031061897
99.178497 -41.577499 596.01501 -0.88187164 -0.40169969 -0.24685968 0.04166276
97.853897 -42.800701 599.51501 -0.65944582 -0.55796343 -0.50379366 0.039983645
-7.7347999 -81.536301 544.29901 -0.22226399 -0.72016615 -0.65723616 0
-10.4628 -83.942703 552.03302 -0.61171287 -0.63589764 -0.47057578 0.010843577
-4.1344199 -82.359299 544.51703 -0.16064885 -0.67563975 -0.7195158 0.0034563283
-5.6563301 -84.749702 546.867 -0.30938298 -0.64446473 -0.69924772 0.0009866528
-7.3135099 -86.471603 549.84802 -0.49385211 -0.62807083 -0.60136276 0.010354513
-9.0928602 -86.933197 553.87097 -0.57952285 -0.19049694 -0.79237878 0.049930543
4.2734299 -91.721802 554.95099 0.24650522 -0.82360119 -0.51079965 0.0056647011
0.38420701 -92.699303 553.56598 0.25730959 -0.75453061 -0.60371792 0.0046163606
-18.667801 -99.635902 573.69397 -0.26400626 -0.93792737 -0.22492883 0.0075359321
-11.347 -93.1567 557.22803 -0.4031789 -0.73491669 -0.54529274 0.0067813848
-10.006 -90.520798 554.48999 -0.28153059 -0.24659173 -0.92732573 0.029902406
-12.6693 -90.426102 554.68201 -0.24895464 -0.39734828 -0.88325304 0.056654323
-31.2099 -84.1092 559.14697 -0.0085172458 -0.73932081 -0.67329949 0.025786841
-26.900299 -83.613297 559.51099 0.10642593 -0.5984984 -0.79402333 0.0067095091
-39.363499 -83.731201 563.83398 -0.55112106 -0.53732586 -0.63839364 0.01522503
-37.697498 -82.130096 559.18103 -0.57059807 -0.75926161 -0.31295308 0.0051124129
-36.681301 -81.201202 556.03302 -0.33667517 -0.76912117 -0.54323339 0.011233509
-39.034698 -81.348701 561.66199 -0.64064437 -0.63756126 -0.42789057 0.012761272
-35.972 -78.6614 553.33099 -0.20046523 -0.75380367 -0.62577456 0.0022696881
-41.070099 -80.172302 561.49298 -0.6359821 -0.63913625 -0.43247157 0.009305072
-38.395699 -78.312599 553.39301 -0.49689299 -0.70016921 -0.51269919 0.019949622
-33.567001 -75.455597 548.64801 -0.26311338 -0.73899829 -0.62020373 0.0047112335
-43.431599 -63.2939 578.59399 0.9643752 -0.10077059 -0.24459314 0.00067667704
-45.967999 -62.150902 569.74701 0.99078625 -0.1131157 -0.074480742 0.010162342
57.844799 -42.583 609.54401 -0.026979621 -0.84578103 -0.5328477 0.003608841
-105.626 -22.5609 590.19598 0.08249554 -0.87183428 -0.48280367 0.0019653605
-109.484 -22.618299 590.23901 -0.018588113 -0.81155926 -0.5839743 0.00015037259
-113.734 -22.1126 589.44 0.023903271 -0.83787888 -0.54533255 0
-110.018 -19.1131 584.57098 0.018497009 -0.86644226 -0.49893469 0.0017267476
-109.186 -16.9531 580.71198 -0.030659717 -0.84163082 -0.53918225 0.0014090495
-111.022 -15.2601 578.534 0.020797873 -0.86980683 -0.49295375 0.0044276989
-104.829 -11.7864 572.92902 0.078741856 -0.85628289 -0.51046973 0.0047342717
-82.653198 -2.7291 559.34399 -0.041941416 -0.76408494 -0.64375085 0.010354318
-80.943398 -0.77798301 556.05298 0.035042088 -0.87997824 -0.47371978 0.0027726709
-90.100502 -2.6335399 557.987 0.048376974 -0.85365474 -0.51858783 0.0033608277
-92.502403 -0.83434701 555.33899 0.089442797 -0.85672361 -0.50796127 0.0055871019
-88.898003 -1.03061 555.64502 -0.062280409 -0.81144029 -0.5811075 0.0006460463
-96.499001 -0.97856498 554.28601 0.042473923 -0.86622179 -0.49785119 0.002485167
-94.280899 0.90165901 552.06897 0.013089337 -0.84343535 -0.53707123 0.0048712464
-93.306198 2.53301 548.72198 0.027688783 -0.87889081 -0.47621885 0.0073777661
-111.066 -0.63209897 553.716 -0.10592215 -0.92388117 -0.36772829 0.0149572
-115.061 0.152978 552.69702 0.071733542 -0.84708172 -0.52659929 0.0054710149
-107.973 2.6957099 547.013 0.0057410938 -0.83445388 -0.55104786 0.0078264056
-126.785 -1.9539599 555.54401 -0.092254207 -0.83061612 -0.54915017 0.0029252758
-125.784 0.29266599 552.07599 -0.069254547 -0.83439159 -0.54680389 0.0045960853
-129.009 0.43503201 551.90503 0.02751017 -0.85745996 -0.51381487 0.00078838755
-112.445 6.7632298 541.21399 0.057128888 -0.88613349 -0.45989531 0.0018539042
-116.432 6.7122898 540.46997 -0.11190417 -0.88661921 -0.44875801 0.0040200828
-120.309 7.40306 540.966 -0.051570613 -0.90713501 -0.41766798 0.01024894
-118.47 8.35991 537.53497 0.024413422 -0.91266376 -0.40798134 0.0089191478
-65.620598 24.8974 505.01401 -0.069692627 -0.969239 -0.2360483 0.012173439
-117.133 10.4283 533.62598 0.12785697 -0.86316222 -0.4884707 0.0068156929
-176.13 -9.3840303 620.21301 0.76953113 -0.62477362 0.13221097 0.0054928809
-75.862801 24.8029 508.39099 -0.081534065 -0.88961065 -0.44938293 0.0048738932
-174.33299 -8.9487896 615.40198 -0.72908056 0.63841301 -0.24671914 0.008019832
-73.4618 25.754801 505.48901 -0.022558255 -0.89152247 -0.45241439 0.0077515445
-77.161598 26.2048 506.17499 -0.04629856 -0.90969682 -0.4126842 0.0044604829
-70.902496 28.617599 499.35101 -0.072680943 -0.89766961 -0.43463412 0.0053816848
-169.996 -5.0761199 620.70697 -0.53418946 0.82843143 -0.16835344 0.0038378737
-74.869301 29.1089 498.771 -0.069477864 -0.89264107 -0.44538152 0.0029497161
-121.029 14.387 527.229 0.12710343 -0.85091799 -0.50968945 0.0089259185
-67.994102 31.648001 492.47501 -0.012179036 -0.75675207 -0.65358853 0.020567032
-130.755 12.891 530.41803 -0.17391883 -0.77117848 -0.61240184 0.012837262
-130.00999 14.8666 528.28302 -0.52844626 -0.65900552 -0.53521615 0.039803632
-128.896 14.2913 526.646 -0.32756448 -0.84452379 -0.4236519 0.0072863954
-132.006 15.3572 528.12799 -0.8017146 -0.42480868 -0.42046568 0.055680268
-157.96899 11.1107 618.10602 0.98646873 0.077982746 0.14421514 0.01201475
-133.36099 21.568701 532.96399 -0.93521488 0.1920826 -0.29745138 0.0026559222
-130.02 22.712 524.94098 -0.94447744 0.14138693 -0.29660073 0.0010180211
-118.774 25.496401 504.392 -0.32802558 -0.75344002 -0.56984854 0.027840428
-135.601 22.3678 539.05103 -0.91162348 0.25476864 -0.32254541 0.0028062926
-134.101 22.426001 535.52002 -0.87903464 0.31987473 -0.35352272 0.0057838517
-118.475 27.6623 502.418 -0.66002542 -0.41605461 -0.62551177 0.034739144
-115.401 30.3832 495.80499 -0.45798066 -0.6493715 -0.60709989 0.039091308
-133.69501 26.206301 538.20898 -0.9143343 0.27595264 -0.29638326 0.0036115802
-165.278 17.0748 621.42401 0.31038865 0.94979995 0.039229777 0.0045939316
-62.004002 53.250198 503.00601 -0.47212696 -0.011650065 -0.88145357 0.076623797
-65.796303 56.151901 505.10901 0.0094110491 0.75903565 -0.65098107 0.018392168
-122.964 39.634102 519.17603 -0.86942172 0.37114558 -0.3261238 0.0045205448
-120.005 45.2029 518.84998 -0.86153811 0.43700385 -0.2584179 0.0026140888
-62.9911 132.18401 504.21799 -0.40566957 0.84598154 -0.34604549 0.0025565915
-62.479099 131.355 500.65799 -0.58655548 0.6729756 -0.45061791 0.015453863
-3.08605 135.386 467.67499 -0.41441533 0.449229 -0.79148805 0.042010758
1.99245 135.164 463.138 -0.21751475 -0.13080709 -0.96725219 0.10253864
0.0049258699 133.53 466.21701 -0.54743755 -0.30526346 -0.77918309 0.05620224
3.56704 132.692 464.87 0.036585107 -0.7543481 -0.65545434 0.014829532
-35.983299 114.791 492.504 -0.32724181 0.01127323 -0.94487339 0.0068836263
-32.685902 112.548 490.73901 -0.40986764 0.16072078 -0.89787388 0.014835408
-40.258701 107.313 493.86899 -0.25965905 -0.30225915 -0.91717857 0.0027329801
-37.316002 105.995 493.92499 -0.018400162 -0.70175916 -0.71217662 0.010031397
-32.808601 106.663 493.793 -0.011850567 -0.75891811 -0.65107822 0.0082764653
-28.9069 106.219 494.793 -0.092877738 -0.77858204 -0.62063181 0.013654134
-45.604301 99.478897 505.01199 0.23255742 -0.73993611 -0.63119853 0.018097086
-26.665199 103.557 496.604 -0.19882955 -0.742823 -0.63928151 0.0090395967
-24.439301 101.437 500.40601 -0.064713404 -0.90814149 -0.41363171 0.0034752535
-30.7558 98.677498 506.66101 -0.10178217 -0.90247631 -0.41854137 0.0028049855
-22.635401 99.956802 502.759 -0.10954004 -0.89320326 -0.43610662 0.0027062984
-23.8627 98.462601 506.45099 -0.11901683 -0.87177956 -0.47522146 0.0028921452
-92.296501 69.209396 519.40503 -0.34481627 0.90711987 -0.24131997 0.0071245455
-92.680199 70.309898 525.12097 -0.60750329 0.75906509 -0.23400842 0.040767014
-93.663498 69.979897 529.414 -0.78571904 0.46531981 -0.40758196 0.078297853
-95.779602 69.820503 533.086 -0.68402725 0.3286919 -0.65120524 0.055737998
-97.684402 68.867798 536.58002 -0.62109196 -0.41247118 -0.66641748 0.047496814
-88.071404 69.878098 519.52301 -0.013713084 0.91649896 -0.39980182 0.0065271761
-112.766 53.866798 515.15302 0.75543863 -0.64755243 0.099941015 0.0086814137
-114.021 52.877899 520.09399 0.69085634 -0.71709031 0.092190556 0.0076111043
-115.712 50.217602 517.33398 0.70973623 -0.68261409 0.17410451 0.0010075099
-115.402 51.321201 523.26599 0.73782676 -0.67485231 -0.013639784 0.0012243367
-116.407 50.520199 528.82001 0.73436028 -0.67859596 -0.014915668 0.0019696134
-104.571 -23.659 592.60999 0.055703916 -0.86047155 -0.50644428 0.0046492927
-121.619 -30.410101 603.28101 -0.05452168 -0.83369142 -0.54953259 0.0036753854
-102.739 -25.303301 594.854 -0.032250192 -0.81072766 -0.58453459 0.001715261
-103.791 -27.484501 598.26501 -0.046433274 -0.80550861 -0.59076214 0.0035402426
-100.155 -28.0077 598.172 -0.058607031 -0.82533157 -0.56159866 0.00074476737
-102.539 -31.362499 604.526 0.17276865 -0.85899037 -0.48196104 0.0014346096
-106.601 -31.9851 603.60797 0.072250731 -0.86738974 -0.49235645 0.006045125
-131.283 -42.797501 623.61102 -0.10615607 -0.82854182 -0.5497722 0.0075673284
-132.936 -44.601898 626.74298 -0.09123423 -0.83018827 -0.54996693 0.0021912225
-129.12801 -45.150002 626.646 -0.04196931 -0.8634119 -0.50275093 0.0027342129
-125.039 -45.4911 627.10303 -0.077110067 -0.85170728 -0.51831335 0.0015675838
-56.8521 -25.4706 595.26898 -0.027324449 -0.79636234 -0.60420233 0
-57.9935 -27.537399 598.57898 -0.017108565 -0.80600548 -0.59166074 0.0027602073
-60.057899 -29.3741 600.79901 0.018396134 -0.84792626 -0.52979499 0.0045778956
-55.687901 -29.7348 602.01099 0.025149394 -0.86015582 -0.50941092 0.0019194235
-53.692299 -31.511499 604.77802 -0.016809398 -0.80845433 -0.58831877 0.0034388837
-54.949799 -33.754002 607.41602 -0.0073907352 -0.76839256 -0.63993609 0.0023884901
-51.229698 -33.777 607.81598 0.043045022 -0.83593112 -0.54714382 0.0037132425
-27.8964 -27.482 597.41803 -0.84881639 -0.43446752 -0.30124536 0.014580737
-27.1707 -31.354799 599.19702 -0.9948464 -0.086575136 -0.052776471 0.030055067
-29.851601 -31.285 602.88501 -0.4346143 -0.57010257 -0.69720393 0.0451154
-30.533899 -32.885502 605.38898 -0.12117114 -0.79015034 -0.60081607 0.0092718564
-33.239498 -34.9347 607.935 -0.055216864 -0.82806271 -0.55790967 0
-27.349199 -33.019699 601.59497 -0.98857939 0.026030198 -0.14843544 0.069139086
-29.3503 -35.5723 608.72699 -0.40227735 -0.7948339 -0.45432594 0.056064371
-30.0923 -40.918201 603.32001 0.89871645 -0.36849371 -0.23774163 0.00044796904
92.820099 -37.2784 592.06299 -0.14490648 -0.88156742 -0.44926712 0.003767862
-44.962799 -67.5793 575.08801 0.9844805 0.044607852 -0.1697299 0.0042853905
90.139603 -40.644901 597.63397 -0.17712067 -0.87451518 -0.45149925 0.0095410468
84.681297 -46.604301 611.39099 -0.19102649 -0.83973432 -0.50828654 0.0068550264
87.252197 -46.9389 611.62799 -0.17802089 -0.86847979 -0.462657 0.0046262871
97.170097 -41.4716 597.55701 -0.55622882 -0.72140467 -0.41253468 0.045240168
91.667702 -52.397999 605.24799 -0.6215415 0.78078383 0.063740022 0.010246706
-31.1152 -86.269798 560.22498 -0.21218055 -0.59933716 -0.77186418 0.015009495
-23.306101 -85.145103 560.78802 -0.34139302 -0.2981962 -0.89136398 0.039536323
-26.294901 -85.985802 560.68799 -0.14081171 -0.4013367 -0.90504199 0.016635654
-5.3243699 -80.833298 543.17102 -0.15803312 -0.70243007 -0.69398683 0.0029094373
-6.9790401 -82.883003 545.94299 -0.27849638 -0.68569058 -0.67250884 0.0043914611
-3.1198299 -84.118401 545.69397 -0.10426667 -0.64267552 -0.75901037 0.0013745327
-8.8786402 -86.339401 551.98401 -0.72842711 -0.52333385 -0.44217148 0.011779144
2.59185 -91.7565 553.922 0.15104309 -0.83891553 -0.52288312 0.01009253
2.2771201 -93.615303 556.117 0.27638814 -0.79460663 -0.54056442 0.0013975073
-19.1374 -99.479797 570.57098 -0.23331931 -0.94970536 -0.20885855 0.010053516
-9.1052799 -92.977798 555.13898 -0.31901604 -0.63982391 -0.69918096 0.015518313
-13.0256 -91.351898 556.336 -0.4595516 -0.57821667 -0.67414975 0.016245993
-11.5748 -89.888603 554.11798 -0.32019988 -0.18466556 -0.9291774 0.037874848
-33.628201 -84.797203 560.55701 -0.36521873 -0.63837498 -0.67756367 0.003880427
-24.5979 -82.783501 559.49902 -0.13233489 -0.60274309 -0.78688514 0.030050108
-37.524799 -83.168999 561.80103 -0.62092507 -0.58904624 -0.51718146 0.023763053
-34.544102 -80.492699 554.94598 -0.1410497 -0.7674008 -0.62546062 0.0046600443
-41.137402 -81.364304 562.88501 -0.70782369 -0.56756133 -0.42054695 0.011913165
-39.624901 -80.253502 559.297 -0.65850979 -0.63670844 -0.40120715 0.0095671788
-38.353001 -79.648102 555.41901 -0.46893039 -0.68728 -0.55475259 0.025729248
-36.686001 -77.745796 552.52399 -0.30121148 -0.70482123 -0.64226061 0.0028046623
-35.129601 -76.008202 549.815 -0.3065365 -0.71130705 -0.63251686 0.0029465402
-44.789001 -64.900703 574.87598 0.97194821 -0.04861439 -0.23011571 0.0051940791
-45.0849 -62.066101 571.53998 0.98191541 -0.12373032 -0.14329305 0.012271806
55.280102 -43.433201 610.84802 0.11812489 -0.78683037 -0.60575944 0.0066992166
-108.446 -23.452499 591.16199 0.011498646 -0.82617408 -0.56329757 0
-106.705 -21.697201 588.82703 0.031008163 -0.83905458 -0.543163 0.00095463422
-116.075 -23.0532 590.797 0.026331576 -0.84965849 -0.52667552 0
-112.572 -19.9624 585.89697 0.0420225 -0.86349154 -0.50260961 0.0010137177
-106.603 -16.101101 579.44598 0.085929185 -0.81375653 -0.57481873 0.0026675984
-108.559 -14.2791 577.11499 0.10863534 -0.8658843 -0.48830616 0.0067012012
-107.229 -12.6048 573.59198 0.10137863 -0.85187763 -0.51383549 0.0061469376
-80.943398 -2.1622801 558.474 -0.077766083 -0.80364406 -0.59000742 0.0018445093
-83.808701 -1.8559099 557.64001 0.077822603 -0.89618075 -0.43681076 0.0006884496
-87.970299 -1.87538 556.34399 0.022312609 -0.85097837 -0.52472657 0.0070035351
-90.821503 -1.66828 556.62299 0.0082894349 -0.79903263 -0.6012305 0.003664573
-89.830399 0.33615601 554.12701 -0.018167654 -0.87435889 -0.48493966 0.0094184969
-98.954201 -1.78952 555.50201 0.022313902 -0.86699963 -0.49780893 0.00069032668
-92.141403 1.59363 551.16803 0.032330759 -0.90157223 -0.43141884 0.011852995
-96.441597 2.0697401 549.72998 0.042733185 -0.88858032 -0.45672619 0.0066567087
-109.422 -1.55346 554.62299 -0.049624283 -0.93793756 -0.34323537 0.011998446
-113.312 -1.19688 554.92798 -0.0065750359 -0.93432081 -0.35637248 0.014517953
-112.092 0.78702199 551.58801 -0.07049381 -0.87653404 -0.47614989 0.0038622916
-110.751 1.77463 548.42603 -0.02816223 -0.88498354 -0.4647699 0.007358091
-124.63 -1.05997 554.12097 -0.093827605 -0.8603031 -0.50107384 0.0079393825
-128.395 -0.56565398 553.323 0.016513674 -0.84807748 -0.52961487 0.0014236289
-127.086 1.0727 550.927 -0.017704763 -0.84735423 -0.53073287 0.0031682372
-115.053 5.7487798 542.22699 -0.0069616041 -0.89050508 -0.45492011 0.0038448342
-113.999 7.6436601 538.96198 0.042369135 -0.86017269 -0.50824004 0.0085878409
-122.733 6.8389702 542.29303 0.10384069 -0.85490364 -0.50828809 0.0098207872
-115.94 8.9657497 536.26001 0.091482513 -0.87943292 -0.46714947 0.00501497
-119.783 9.6484499 534.87299 0.05478948 -0.92211241 -0.38302335 0.0073013543
-72.6511 25.396601 507.617 -0.063237824 -0.86090654 -0.50481772 0.011275937
-175.808 -9.5936699 617.83301 -0.79738444 0.55130118 -0.24544878 0.0057054525
-173.77699 -7.7656202 618.41901 -0.62818587 0.75317061 -0.19523466 0.0021337413
-74.655602 27.074499 504.48099 -0.021468336 -0.88975555 -0.45593223 0.0056793317
-73.118599 28.321699 501.37299 -0.038429245 -0.9357909 -0.35045484 0.0042716423
-72.518303 29.8883 497.57599 -0.074028477 -0.90125448 -0.42691934 0.0031193562
-125.303 12.97 529.40198 -0.10362048 -0.88723731 -0.44952509 0.0088909017
-128.18201 13.4921 528.45203 -0.16334468 -0.90996051 -0.38116983 0.014447691
-132.08 14.6294 529.31403 -0.60282964 -0.29450652 -0.74152702 0.05502262
-130.742 16.138399 525.83099 -0.78222108 -0.50315344 -0.36737826 0.044129211
-157.696 10.1527 618.01703 0.98646736 0.078019343 0.14420488 0.012012721
-130.132 20.3799 524.73499 -0.93246847 0.18568185 -0.30987865 0.0061796741
-117.152 26.054701 503.34399 -0.29938203 -0.78502303 -0.5423184 0.021812452
-134.36501 23.4583 537.336 -0.87513065 0.30692163 -0.37409273 0.0045257248
-120.196 27.4762 504.65601 -0.8200832 -0.36697513 -0.43908182 0.035078097
-118.188 28.5187 500.61301 -0.74715072 -0.42327023 -0.51245308 0.041575991
-128.237 26.233801 522.09003 -0.90229881 0.26370323 -0.34105358 0.00061251206
-63.247898 56.099201 504.48801 -0.42963213 0.39841843 -0.81035727 0.03034674
-121.445 40.9058 517.62402 -0.87391919 0.38657308 -0.29466343 0.0042019319
-65.555801 131.334 505.522 -0.48697516 0.80561852 -0.33739296 0.0037527946
-69.7034 128.52299 504.35101 -0.51318979 0.70904636 -0.48362118 0.027490295
-17.09 136.82899 475.58401 -0.41059977 0.58164853 -0.7022056 0.0049534519
-0.62573302 136.149 466.36499 -0.66531235 0.45788217 -0.58966374 0.046139896
-2.37361 132.748 467.35599 -0.28746629 -0.24805056 -0.92511302 0.011824841
-4.1084299 129.894 469.36801 -0.11698344 -0.75011098 -0.65088284 0.012690717
-39.1436 113.685 493.19699 -0.26766175 0.021858932 -0.963265 0.0054219663
-41.295502 110.21 493.67801 -0.33334148 -0.067569315 -0.94038182 0.0030431899
-32.104 109.651 489.995 -0.4232462 -0.37959257 -0.8226617 0.068959191
-34.971199 105.426 495.25201 0.027939534 -0.83153421 -0.55477041 0.009712318
-36.108002 103.821 498.56601 -0.11901435 -0.8379997 -0.53253365 0.0055332277
-38.124001 101.959 501.20901 -0.051527556 -0.88091511 -0.47046089 0.0049976432
-34.356899 101.571 501.46399 -0.052962847 -0.89192271 -0.44907558 0.0067900368
-32.527401 100.097 504.677 -0.16224806 -0.90011817 -0.4043054 0.0045748148
-24.0466 100.604 502.707 -0.11135793 -0.9022072 -0.4166792 0.0036358754
-26.4125 98.058296 507.89801 -0.04899044 -0.89516753 -0.44302952 0.001692274
-90.309601 71.419197 524.17902 -0.61674488 0.54573441 -0.56727386 0.14955926
-86.308899 72.826897 525.48901 -0.30000353 0.40891114 -0.86185241 0.079166122
-86.241898 70.696999 521.93103 0.034100212 0.90603662 -0.42182305 0.0067796786
-94.738998 67.9795 519.55103 0.46995321 -0.87211084 0.13625936 0.0022359905
-96.627296 67.093597 523.31201 0.56582659 -0.81847543 0.099690832 0.00093343912
-100.056 65.545601 535.117 0.70233977 -0.69691873 0.14499402 0.010276128
-99.544502 68.065399 538.27802 -0.55519795 -0.61029989 -0.56505686 0.053097386
-102.372 64.517998 539.09601 -0.68998021 0.64663219 -0.32526016 0.067091532
-113.88 53.346298 522.97803 0.63899201 -0.76903659 0.016491124 0.0039545214
-116.163 50.856602 520.315 0.72580183 -0.680435 0.10109383 0.00440853
-117.541 48.8507 518.021 0.74536562 -0.62863249 0.22192641 0.0032912323
-118.492 47.9095 522.44 0.7690565 -0.63816279 0.036061585 0.0028294993
-112.523 -26.086399 595.80603 0.0439725 -0.8887701 -0.45623919 0.001646791
-112.856 -27.5051 598.82703 0.02172425 -0.85972059 -0.51030254 0.00233434
-110.433 -27.853901 598.76501 0.021341564 -0.83728808 -0.54634523 0.0026974143
-106.462 -28.3701 599.62299 -0.041654065 -0.78276163 -0.62092614 0.0013980728
-107.849 -30.558399 602.08301 -0.070523255 -0.7777434 -0.62461317 0.0019626601
-98.999802 -28.880899 599.87598 0.015235365 -0.8904801 -0.45476693 0.0068610078
-100.09 -30.6024 603.84198 0.10532285 -0.86646491 -0.48800167 0.0017340261
-133.28 -41.8134 622.95502 -0.051034674 -0.85499895 -0.51611263 0.017055778
-102.246 -32.469398 606.10797 0.11261075 -0.83502948 -0.53855777 0
-128.86301 -42.060299 622.27802 -0.036101259 -0.82940024 -0.55748719 0.0031868254
-125.368 -42.647202 622.44299 -0.043979265 -0.83006036 -0.55593675 0.0010087208
-126.563 -44.299801 625.34198 0.024279026 -0.86722988 -0.49731568 0.0013080613
-127.972 -46.023201 628.349 0.0039298879 -0.87154949 -0.49029183 0.0038763254
-129.161 -47.725399 631.80499 -0.10578632 -0.88048661 -0.46211764 0.0044393227
-48.8568 -22.697599 592.09601 0.083691262 -0.78380758 -0.61533844 0.0032748657
-62.063999 -30.682699 602.328 0.082769223 -0.83864397 -0.53835446 0.0042761369
-63.141701 -32.176201 605.479 0.047098298 -0.87195766 -0.48731038 0.0031668714
-61.370899 -34.102299 608.36401 -0.021170706 -0.81980753 -0.57224768 0.0016344086
-57.3008 -34.533401 608.61102 -0.085247599 -0.77950507 -0.62056798 0.0012923351
-59.070801 -36.341801 611.42902 -0.02498886 -0.85324126 -0.52091736 0.0017626341
-29.679001 -32.6021 604.95398 -0.54266781 -0.74913812 -0.37987325 0.077426568
-32.7948 -32.145802 604.23602 0.022685349 -0.74146229 -0.67061096 0.003678262
-28.645599 -36.037201 600.14502 0.94544005 -0.30413598 -0.11680955 0.00082983216
-28.1353 -37.415798 609.07098 -0.90979725 -0.39752755 -0.11933493 0.10584348
-29.040199 -39.832901 606.09802 0.93685311 -0.28961957 -0.19602726 0.0048987954
-28.880501 -42.188499 609.47803 0.95691812 -0.19510074 -0.21504262 0.0037369591
-45.485699 -63.946301 571.82599 0.98173165 -0.10660821 -0.15759912 0.01031315
90.549797 -38.1003 593.96399 -0.11718991 -0.88900059 -0.44265604 0.0063851229
88.013298 -39.149101 597.495 -0.15488838 -0.87526685 -0.4581677 0.0072686505
93.681297 -38.179901 593.16901 -0.16255526 -0.85488898 -0.49268711 0.0056400248
97.172897 -39.3097 593.54797 -0.2848565 -0.84272236 -0.45681036 0.0024379801
91.059402 -41.412102 600.28601 -0.10512947 -0.94293225 -0.31595334 0.0008669055
-45.834 -67.506599 568.81897 0.9830249 0.018381933 -0.18254918 0.0015110588
94.583099 -41.6497 599.58398 -0.20432727 -0.91804069 -0.33978176 0.0022121486
93.328598 -42.727402 602.85602 -0.16394575 -0.89381295 -0.41739696 0.0010148903
91.211998 -44.265999 606.203 -0.17764676 -0.74881524 -0.63852763 0.00099497184
95.555702 -46.245098 605.69098 -0.82573223 -0.081958435 -0.5580762 0.084727846
97.2761 -47.497601 603.36902 -0.83434576 0.54251593 -0.09769126 0.044668093
91.338997 -51.0429 600.883 0.59658021 -0.78532135 -0.16541611 0.0052087065
-21.382601 -84.5075 559.81 -0.5774374 -0.30914897 -0.7556408 0.034443758
-19.493299 -83.697304 555.61798 -0.44614413 -0.6095624 -0.65527791 0.018539032
1.47284 -79.897102 542.19598 0.16325836 -0.49266329 -0.85476869 0.016568171
-2.8138199 -80.110703 542.00702 -0.031710684 -0.63573366 -0.77125686 0.0065732175
-11.3165 -85.363899 554.89203 -0.42878675 -0.46137995 -0.77670491 0.050449587
-15.2405 -85.4813 555.38 -0.28553569 -0.36810315 -0.88485563 0.038369548
-0.106594 -83.040604 544.51801 -0.015560941 -0.63171941 -0.77504092 0.0097692702
-12.068 -87.605904 554.25299 -0.22376063 0.04538615 -0.9735868 0.0058885566
-8.8223 -94.284302 557.43298 -0.22888041 -0.78983158 -0.56901664 0.0033061069
-6.59268 -92.297501 554.10199 -0.29536727 -0.59347177 -0.74869847 0.015139592
-5.8348598 -89.836899 552.40302 -0.31100589 -0.60675532 -0.73152131 0.0071151857
-7.5399299 -88.7257 552.07501 -0.58424455 -0.43001121 -0.68829405 0.037393946
-22.0919 -81.913803 557.80499 -0.4196299 -0.73009521 -0.53932524 0.025443528
-36.144299 -85.298798 562.47101 -0.33730724 -0.65436631 -0.67677808 0.0085671442
-35.652599 -83.372704 560.09198 -0.52219522 -0.74525917 -0.41460943 0.014075959
-33.173901 -81.878899 556.409 -0.083635688 -0.84046543 -0.53537178 0.0047160443
-39.499599 -79.514603 557.341 -0.69894361 -0.61661083 -0.36231038 0.0035229053
88.079102 -54.5322 606.00098 -0.5657993 0.81754684 0.10718333 0.0053198054
-44.317799 -61.075199 574.46198 0.95851988 -0.16695659 -0.23100889 0.0008595339
62.399502 -41.038399 606.85498 -0.039879728 -0.86198336 -0.50536537 0.0008733428
-43.253201 -58.937302 577.18402 0.97284061 -0.13361111 -0.18902156 0.0024092412
-111.438 -24.444401 592.68298 0.0024132954 -0.8591994 -0.51163536 0
-114.613 -24.3188 592.84698 -0.0094049536 -0.85861385 -0.51253659 0
-108.605 -20.412201 586.83301 -0.00062761741 -0.85906255 -0.51187027 0.0017910971
-115.073 -20.806499 587.328 0.079042643 -0.86994648 -0.48677021 0
-103.589 -15.2493 578.698 -0.012968179 -0.8130073 -0.58210903 0.010020156
-106.017 -13.2176 576.03601 0.14680387 -0.90460312 -0.40017718 0.00048603877
-103.124 -13.2841 576.62201 -0.11517336 -0.85706753 -0.50216568 0.0098664714
-109.742 -13.4249 574.729 0.1123241 -0.86425608 -0.49035177 0.0036321064
-76.194 0.79651397 553.63898 0.010656008 -0.89247358 -0.45097381 0.0032595051
-95.370003 -4.3977699 560.85199 0.093661092 -0.90641999 -0.41186205 0.0040847301
-97.640602 -2.6726699 557.79797 0.068296783 -0.89397806 -0.44287547 0.00026989833
-94.241096 -2.8019099 558.36102 0.02566026 -0.85216779 -0.52263921 0.0034662273
-90.581902 1.0276 550.79797 -0.0082062185 -0.92246646 -0.38598999 0.0074464958
-99.844803 -0.89086598 554.336 -0.0092594149 -0.84851813 -0.52908522 0
-98.278702 0.76932901 551.36603 0.060053241 -0.87402475 -0.48215592 0.003017314
-107.499 -0.91579401 553.64502 0.019374287 -0.91261601 -0.40835842 0.0023998031
-105.876 0.87847602 550.52899 -0.03878101 -0.8276822 -0.55985546 0.0027917088
-109.567 1.3963799 550.51001 -0.018189795 -0.88880736 -0.45791984 0.0077165286
-122.109 -0.41960001 552.26501 -0.051403698 -0.81661952 -0.57488286 0.0046352707
-120.958 1.50121 549.33899 -0.0013998293 -0.7376135 -0.67522174 0.0061302297
-123.88 2.1354899 549.297 -0.025603661 -0.80641991 -0.59078878 0.013390613
-117.602 5.2730799 543.92603 -0.09593302 -0.9091264 -0.40532222 0.0016016224
-120.919 5.62955 543.21002 0.023980729 -0.83770716 -0.54559284 0.0096617909
-114.096 9.1478996 537.45099 0.033326134 -0.86116242 -0.50723618 0.0099705514
-123.586 7.2578502 539.98401 0.1048168 -0.89340866 -0.43684593 0.012250338
-70.000801 26.1572 506.13599 -0.037415311 -0.92491859 -0.37831968 0.012695327
-68.5093 26.8064 502.302 -0.21093313 -0.85877252 -0.46692288 0.0022740182
-122.946 8.8821898 535.68701 -0.052712888 -0.91154462 -0.40780845 0.0083268713
-126.387 8.7727299 537.573 -0.066202097 -0.88820291 -0.4546569 0.0074475012
-174.972 -7.94732 625.15399 0.72196257 -0.68992823 0.052620985 0.0013610508
-169.97701 -6.4390602 612.95203 0.62065512 -0.78251457 0.049579285 0.0044700434
-71.682297 27.497101 503.414 -0.099400885 -0.89468235 -0.43550307 0.014814421
-172.67999 -6.13903 623.93903 0.63280201 -0.77175146 0.062938444 0.0045485324
-169.317 -4.6083202 617.74597 -0.52552247 0.82914793 -0.19063033 0.0037890456
-76.145798 27.940701 501.82599 -0.0048898612 -0.91288537 -0.40818667 0.0024022718
-127.116 12.7467 530.75201 -0.10680148 -0.85890394 -0.50087672 0.0058907485
-125.272 13.6283 526.90002 0.013202166 -0.90972108 -0.41501001 0.0048039034
-124.636 15.8076 523.35999 -0.069272414 -0.82537621 -0.56031728 0.0024090996
-127.915 15.873 523.85602 -0.2778109 -0.77838576 -0.56297129 0.0041384138
