ply
format ascii 1.0
comment PCL generated
element vertex 618
property float x
property float y
property float z
property float nx
property float ny
property float nz
property float curvature
element camera 0
property float view_px
property float view_py
property float view_pz
property float x_axisx
property float x_axisy
property float x_axisz
property float y_axisx
property float y_axisy
property float y_axisz
property float z_axisx
property float z_axisy
property float z_axisz
property float focal
property float scalex
property float scaley
property float centerx
property float centery
property int viewportx
property int viewporty
property float k1
property float k2
end_header
-90.964798 -57.583698 645.37097 0.10516337 -0.81665277 -0.56746709 0.0051117176
-94.137001 -55.938999 642.05603 0.046778128 -0.75496006 -0.6541003 0.0051232623
-97.190102 -61.761902 650.039 -0.11153644 -0.78581327 -0.60832322 0.0035312267
-102.646 -61.341099 659.20801 0.48028976 0.67951244 -0.5546031 0.017591825
-111.643 -58.133999 645.229 -0.015676517 -0.83930475 -0.54343516 0.0063500274
-115.204 -59.943001 646.76202 -0.04896846 -0.85760337 -0.51197529 0.035393856
-115.265 -57.3736 644.53601 0.095465519 -0.77288449 -0.6273244 0.0114173
-120.788 -52.1031 636.34003 0.07369148 -0.76051152 -0.6451292 0.0050957296
-131.159 -55.612999 646.159 0.39444473 0.81607574 -0.42241421 0.018054007
-48.805698 -53.737598 754.10101 -0.054816641 -0.84711182 -0.52857995 0.0051787528
-133.575 -36.651001 612.60602 0.049779654 -0.81343853 -0.57951689 0.0011772627
-52.121101 -53.6684 753.59698 0.0068463809 -0.8684541 -0.49572223 0
-55.028999 -51.919899 750.64099 0.15926397 -0.8621825 -0.480912 0.008035413
-135.666 -37.9231 614.70801 -0.070602827 -0.82190877 -0.56522673 0.00029957961
-138.147 -35.9986 611.94299 -0.092111215 -0.88953102 -0.44749296 0.015681326
-57.434799 -50.921501 747.255 0.14751467 -0.8497889 -0.50606138 0.0071420311
-60.013401 -55.561401 754.65997 -0.0070398506 -0.83213663 -0.55452609 0
-59.547401 -44.311001 736.75098 -0.052020323 -0.84892285 -0.52595049 0.0080874013
-141.149 -41.4175 619.04901 0.086718462 -0.79793096 -0.59647816 0.0026191003
-62.2738 -45.510399 739.14697 -0.10764571 -0.85137326 -0.5133965 0.0025415996
-63.791901 -43.667599 736.487 -0.072399519 -0.81382823 -0.57657778 0.0031086369
-67.190903 -48.167099 743.85101 -0.063165754 -0.83759522 -0.54262722 0.0036865505
-69.626099 -49.750401 747.255 -0.094741523 -0.87295789 -0.47850654 0.0012317193
-72.336502 -50.3554 748.633 0.15444075 -0.86135072 -0.48396575 0.0064470563
-77.175697 -59.386501 759.89301 0.16248943 -0.85921311 -0.48512885 0.018346954
-156.681 -49.7598 633.28601 -0.18898952 -0.97211283 -0.13885105 0.040645596
-80.214203 -59.332802 759.90503 -0.001980185 -0.81101739 -0.58501858 0
-82.714699 -57.9165 757.83801 -0.042080488 -0.80392104 -0.59324551 0.0033230474
-84.949097 -58.762001 759.02899 -0.0039508413 -0.7804274 -0.62523389 0.001710466
-87.794899 -60.543201 761.13702 0.13921818 -0.83447307 -0.53317255 0.003275271
-90.499901 -62.536301 763.78003 0.03841421 -0.89732593 -0.43969369 0.0027860808
-92.446701 -63.162498 766.086 -0.018004997 -0.92552352 -0.37826192 0.0013816855
-95.3517 -61.8964 763.04498 -0.062217481 -0.89759982 -0.43639833 0.0063044778
-96.729401 -69.317497 779.66199 0.65369892 0.74658948 0.12362027 0.042536065
-91.715797 -69.638 788.68597 0.4068206 0.82361948 -0.39515573 0.036446981
-96.914299 -67.825897 782.94702 0.86785036 0.41752458 -0.26927492 0.02305988
-100.063 -66.0252 772.646 -0.32110226 -0.92127365 -0.21942718 0.022066714
-137.295 23.5327 744.11298 -0.94605678 0.10679485 -0.30589452 0.0067451186
-138.589 17.2414 747.297 -0.93336952 0.10306349 -0.34380123 0.0005753903
-135.7 23.056801 740.99402 -0.87062979 0.20201904 -0.44854423 0.0029164918
-148.963 -27.158001 791.138 0.18256718 0.4998588 -0.84664655 0.0043105218
-149.129 -30.521799 790.03003 0.10041831 0.44902208 -0.88786 0.0033408874
-149.50301 31.507401 648.33301 0.71102136 0.01615615 -0.70298481 0.0080884993
-151.373 27.8402 646.73401 0.66997069 -0.0088603431 -0.7423346 0.0020035296
-145.103 28.929701 655.25098 0.87442428 -0.25546423 -0.4124563 0.0073713493
-140.884 29.0142 662.73798 0.78885901 -0.35321066 -0.50293511 0.0088141682
-153.351 23.9018 644.32001 0.6731931 0.073309198 -0.73582387 0.0066671302
-148.11301 27.1938 650.50299 0.82286388 -0.10444276 -0.55855775 0.0081940666
-145.83099 25.3384 657.56403 0.87349409 -0.29621366 -0.38634893 0.011294674
-142.82201 25.067101 661.54797 0.82010597 -0.33671823 -0.46265209 0.004445659
-136.75101 27.216499 669.534 0.79761398 -0.32015064 -0.51119035 0.0046747434
-146.73801 26.022699 652.98798 0.89398086 -0.0088318903 -0.44801816 0.018225946
-138.513 23.820499 668.75 0.80287582 -0.39232242 -0.44885802 0.0055587473
-132.645 25.130199 677.96198 0.74084812 -0.47193319 -0.47793624 0.0055872411
-155.045 20.7857 643.12799 0.66037947 0.090521462 -0.7454561 0.0041878424
-134.123 22.5564 678.401 0.78674197 -0.42296326 -0.44959894 0.0056650769
-132.784 -35.202202 788.56201 0.19302827 -0.11397053 -0.97455156 0.037323505
-127.606 -30.831301 786.05402 0.03790196 -0.79015946 -0.61172825 0.00052856281
-146.33701 18.8729 659.41302 0.89010638 -0.20580328 -0.40663946 0
-156.33 14.2361 640.26501 0.65358603 0.18559 -0.73374492 0.0075077354
-124.216 -36.889599 789.28497 0.11776432 0.15291452 -0.9811976 0.034436002
-159.35899 7.8913999 635.00897 0.84015995 0.30646384 -0.44744965 0.029703224
-115.226 -36.861401 790.099 -0.12354221 -0.010789894 -0.9922806 0.0029567771
-116.404 -39.526001 789.302 0.051655669 0.49756038 -0.86588985 0.014870659
-157.83501 6.6175098 631.03998 -0.8547892 -0.46179479 -0.2368145 0.052004017
-146.48801 25.599001 604.82501 -0.57993788 -0.1071179 -0.80758762 0.050517432
-119.445 -38.095501 764.086 0.76841527 -0.48775333 -0.41428822 0.0038396299
-121.274 -41.7714 763.711 0.78315943 -0.43016988 -0.44901565 0.0054026581
-124.188 -43.9296 761.74902 0.74458379 -0.52999395 -0.40583417 0.0044909683
-121.675 -44.656799 765.95001 0.71121955 -0.51406336 -0.47948483 0.0048537985
-134.209 -56.019501 766.48499 0.78333634 -0.56817913 -0.25210437 0.0043580444
-143.444 25.626101 602.03699 -0.62910205 -0.057610236 -0.77518493 0.023445969
-127.394 -51.397099 767.92798 0.66013169 -0.73934537 -0.13264474 0.0096676908
-138.838 27.745199 596.45398 -0.75825959 0.30446696 -0.57649142 0.034621537
-141.429 23.898001 598.58801 -0.80718774 0.45962065 -0.370401 0.0068328925
-145.289 19.0159 599.49701 -0.6915012 0.67596966 -0.25473711 0.0064316271
-77.786301 124.54 512.11603 -0.69461739 0.44461441 -0.56553048 0.016534904
-81.091003 122.017 513.10199 -0.5527243 0.34006098 -0.76082486 0.0075673279
-140.01601 24.3757 594.56299 0.74288791 -0.64946222 0.16222323 0.019239796
-145.603 18.2985 596.50702 0.64329207 -0.76440912 0.043057639 0.001251337
-71.578903 118.997 507.72101 -0.38364598 -0.015490393 -0.92335033 0.0032096175
-77.694901 110.748 509.61899 -0.34161311 -0.030887879 -0.93933296 0.0093909884
-81.099197 107.558 510.74301 -0.18995301 0.097622208 -0.9769277 0.0038453487
-68.479698 118.385 506.59299 -0.34039003 0.13062762 -0.93116653 0.0040221666
-58.089802 133.75101 491.92899 0.25228226 -0.96748656 0.017983356 0.0064297067
-56.6493 129.33701 499.91101 -0.15004805 -0.55181915 -0.82035428 0.0064668623
-76.780502 106.689 509.74399 -0.23428541 0.011548895 -0.9720993 0.0077639222
-64.774803 117.552 505.065 -0.39446288 -0.067172132 -0.91645342 0.016813507
-4.0329399 -71.377502 759.24701 0.51848203 0.72532761 -0.4528535 0.018200649
-68.260696 2.52068 547.32501 -0.046860397 -0.91595805 -0.39852864 0.0043352898
-66.332901 1.1363699 550.82703 -0.031543281 -0.95386916 -0.29856119 0.003067303
-3.19697 -73.136002 755.73499 0.42567948 0.87361681 -0.23577681 0.0078567639
-0.86370301 -73.110497 758.99402 0.43604964 0.76880968 -0.46775249 0.0071817758
-68.422897 7.12677 535.62 0.079928815 -0.91203707 -0.40224341 0.015543601
2.7623701 -75.780296 758.58398 0.1736051 0.90025347 -0.39925569 0.051192719
-63.413399 5.3123698 542.30499 0.13131283 -0.87438399 -0.46712917 0.0020764037
5.3628898 -75.749397 755.367 0.12399887 -0.96643031 -0.22502604 0.0091322903
-38.716099 -2.4854901 556.16803 -0.074212104 -0.92425179 -0.37450114 0.00019747515
-29.080999 11.505 527.41602 -0.011690412 -0.89081848 -0.45420906 0
-26.2612 13.0012 524.32202 -0.02725412 -0.87153691 -0.48957175 0.0002956613
-23.236401 11.2945 527.63202 0.0058231652 -0.91360062 -0.406571 0.00076714921
-20.879999 5.5149202 538.13397 0.020425757 -0.89898211 -0.43750885 0.0018574727
-18.3302 6.8682499 536.42603 0.090500928 -0.86863321 -0.48712012 0
-8.8316097 10.794 526.25702 -0.23803186 -0.91475183 -0.32645062 0.0074365661
49.528099 -88.489197 684.25098 -0.93390262 -0.083872579 -0.34755027 0.056324359
47.2911 -93.844498 686.328 -0.43689293 0.88672775 -0.15112416 0.025891485
44.4501 -94.814003 687.02698 -0.53889942 0.84225535 0.013904769 0.013228042
-9.4124498 -39.051498 544.38501 -0.23610927 0.63122433 -0.73878837 0.0052356492
-14.4967 -41.172298 543.31097 -0.21488643 0.67333806 -0.70741767 0.0011495843
60.3568 -70.976997 657.06 -0.23558797 -0.71489871 -0.65834498 0.0069935145
51.0485 -88.743896 680.659 -0.96361327 0.13241936 -0.23219511 0.057089351
45.7188 -93.988701 684.745 -0.38713506 0.91606027 -0.10469043 0.011527355
45.549702 -8.2609301 539.737 0.50079101 0.34106463 -0.79553962 0.016446637
48.485401 -9.72087 541.06 0.45221278 0.20773648 -0.86738056 0.0058788932
60.1908 -77.400398 664.08099 -0.94103879 -0.08856824 -0.32649904 0.028061172
51.8801 -86.209198 669.07599 0.62776017 -0.75403816 -0.19324498 0.0011337436
49.7645 -88.592598 670.76202 0.52562857 -0.8140043 -0.24720764 0.010313939
61.5504 -77.336304 660.24402 -0.91854674 0.21125576 -0.33413023 0.062133037
-11.783 -43.378502 541.02802 -0.070816308 0.58625555 -0.80702507 0.00036627904
-17.0674 -78.603798 552.11603 -0.55459672 -0.74559325 -0.36947697 0.031187607
-19.350599 -82.731499 558.39099 -0.66758329 -0.69508994 -0.26680049 0.018759189
-11.4749 -71.5625 535.40997 -0.23528944 -0.44530326 -0.86391199 0.021053391
-7.1221299 -80.246803 541.021 -0.28150895 -0.86318529 -0.41912273 0.012996775
-8.7081699 -78.683899 538.77002 -0.32069296 -0.78926468 -0.52365762 0.014615541
-11.0943 -78.653801 541.45203 -0.39306739 -0.80373168 -0.44666922 0.013219838
-21.422001 -80.172203 556.74103 -0.19947828 -0.83551121 -0.51198584 0.011934922
-24.751699 -81.7463 559.086 -0.04604765 -0.81625217 -0.57585758 0.0044413363
-28.569201 -80.927002 559.01202 -0.0096458057 -0.83924836 -0.54366267 0.0031032707
-31.226101 -79.553497 555.841 0.0026987221 -0.88436276 -0.46679246 0.003345835
-33.1255 -81.394501 559.15802 -0.1462924 -0.821401 -0.55127037 0.00021842962
47.194401 -89.300201 687.58899 -0.52569449 -0.57057381 -0.63094431 0.05638336
45.066101 -86.978401 684.54401 0.0036576164 -0.8425467 -0.53861082 0.001249368
43.792599 -85.009499 680.78699 -0.052375872 -0.84851128 -0.52657896 0.0083340062
41.893101 -86.850502 684.104 -0.11596991 -0.8242234 -0.55426234 0.0043799574
39.549 -81.368202 676.45898 -0.18024918 -0.81869698 -0.5452022 0.0077897361
12.992 -19.7171 558.901 -0.17370304 0.67084795 -0.72096479 0.0038140395
14.7259 -16.6096 561.31702 -0.16974317 0.62741917 -0.75995553 0.0030422371
3.8266301 -17.214899 563.98499 -0.27769044 0.67572612 -0.68284863 0.0057602595
1.31318 -17.4785 564.60999 -0.28178874 0.71535635 -0.63942188 0
-73.321098 0.54293698 552.073 0.079785943 -0.9028576 -0.42247158 0.0012768052
-76.175201 8.3980703 535.20203 -0.1503834 -0.89630342 -0.41716313 0.001343903
-75.996002 -0.83177501 554.60199 -0.063189879 -0.89554942 -0.44045252 0.004617237
-78.677597 5.1916499 543.29498 -0.035291661 -0.84819412 -0.52850854 0.0048455354
-81.309502 6.7948999 540.41699 0.13145113 -0.85615212 -0.49972403 0.0022387749
15.2263 94.250504 498.77499 0.073966041 -0.48412871 -0.87186491 0.002547214
-83.3349 8.15518 537.34198 0.047279909 -0.88401836 -0.46505496 0.0035869996
-8.6983004 -67.003502 757.797 0.71349597 0.24132581 -0.65778822 0.0053133918
-84.7631 9.5097399 533.31299 0.042017873 -0.89864248 -0.4366647 0.0022007455
-86.947601 7.9038801 537.04999 -0.055666342 -0.88731444 -0.45779291 0.0032823267
-88.105698 12.2832 528.29602 0.022840444 -0.89026582 -0.4548682 0.0028538418
8.3379498 96.616898 496.29401 0.17615016 -0.45276147 -0.87405843 0.0057989801
11.4906 99.5495 495.05399 -0.033098999 -0.53263235 -0.84569925 0.0017791275
-90.986397 11.3275 529.854 -0.10377357 -0.91254145 -0.39559951 0.0036601194
-1.506 91.484703 496.853 0.23947391 -0.35422379 -0.90397877 0.0051582106
4.9841499 96.997704 495.59 0.082669199 -0.39930987 -0.91308129 5.4144311e-05
11.0579 103.071 493.17401 -0.056353692 -0.50808918 -0.85945892 0.0061930846
14.1973 108.512 486.655 -0.20773809 -0.855878 -0.47362188 0.014301373
-91.0158 8.7458296 536.64502 -0.10274398 -0.88883847 -0.44655335 0.00087146892
-93.479103 10.2638 533.78003 0.047238827 -0.89958817 -0.43417683 0.0063661113
-3.33656 92.921501 495.698 0.20335063 -0.34511098 -0.91626799 0.0040302477
1.21878 98.5019 494.771 0.085665949 -0.25056142 -0.96430296 0.0079568932
3.6911099 101.183 493.75601 0.0024729043 -0.37475044 -0.92712247 0.0069144079
6.8548799 103.663 493.125 -0.0069988822 -0.51520753 -0.85703695 0.0057657845
9.1378298 105.796 491.29501 0.032207359 -0.64313412 -0.76507592 0.010185643
-98.020401 7.6972699 538.43298 -0.053315513 -0.88596874 -0.46067014 0.0076568201
-3.70385 99.344299 494.53 0.018743193 -0.051742595 -0.99848461 0.0097515713
-100.889 6.4391198 540.76501 -0.16322096 -0.86142874 -0.48093605 0.0036297471
-4.93859 102.714 494.186 -0.093401574 -0.38546628 -0.91798252 0.016776808
-107.988 3.1263499 548.32599 -0.011132449 -0.87510955 -0.48379689 0.0031745317
-110.924 1.88696 550.354 -0.10659052 -0.86375362 -0.49251199 0.0019920818
-13.5449 103.634 493.38501 -0.058621485 -0.454308 -0.88891387 0
-112.679 5.8109598 542.04498 0.0059605823 -0.88829112 -0.45924231 0.0060995556
-113.799 7.8180399 539.56403 -0.052884847 -0.86599141 -0.49725449 0.0042262906
-115.35 9.1684303 536.56097 -0.075624511 -0.93230134 -0.35368797 0.0054152356
-21.675501 105.578 493.366 -0.3808094 -0.17888942 -0.907184 0.01121226
-123.359 -4.8134499 562.04999 -0.12254079 -0.8265962 -0.54929268 0.0024951354
-126.584 -8.7560501 570.01898 0.036061272 -0.87014669 -0.49147147 0.0027250596
-128.703 -7.2936802 567.10901 -0.041840792 -0.8109467 -0.58362222 0.001721379
-36.1763 102.861 495.82401 -0.060668081 -0.028013628 -0.99776477 0.011910088
-29.119499 108.011 496.242 -0.32482785 0.17690283 -0.92908144 0.0078495033
-130.894 -8.7509003 569.41699 -0.14633016 -0.80100912 -0.58049279 0.001731995
-131.597 -3.6903701 561.63397 0.030527122 -0.88525134 -0.46411014 0.0031263425
-136.08099 -1.60878 555.09601 0.13291931 -0.89845365 -0.41846564 0.0046181339
-28.646099 112.085 496.664 -0.31808996 0.14117691 -0.93749022 0.0013739746
-134.533 -5.4398899 564.04602 0.062838361 -0.89152652 -0.44858864 0.0011994751
-137.80701 8.6465302 539.53998 -0.26394609 -0.68951058 -0.67446834 0.026122054
-35.842098 109.186 497.96899 -0.24652669 0.30338889 -0.92042369 0.0040056142
-50.611801 99.882599 498.11499 -0.31962866 0.53048128 -0.78512871 0.0076106931
-141.532 3.7411399 546.84399 -0.17005247 -0.72953451 -0.66246629 0.013091215
-142.968 6.3892798 545.05499 -0.67096031 -0.31677184 -0.67042363 0.040339936
-145.384 4.7729998 547.52197 -0.83576912 -0.17787302 -0.51947206 0.06960883
-140.94901 10.3794 542.92401 -0.85235536 0.1386417 -0.50425082 0.017376445
-49.6791 106.035 501.26001 -0.36274034 0.37754789 -0.85198414 0.0022394424
-142.54201 10.3678 543.87402 -0.88106441 0.20183225 -0.4277724 0.014531565
-134.88 22.330799 534.815 -0.89278191 0.31672794 -0.32034963 0.0063900724
-142.86301 10.9505 546.66699 -0.84237707 0.29402998 -0.45160526 0.016197819
-136.48599 22.5466 538.54102 -0.86623847 0.2601209 -0.42657712 0.0027820792
-134.37399 25.885401 537.508 -0.86581481 0.32168067 -0.38325742 0.0031573728
-50.196602 113.781 501.76001 -0.34943423 -0.45822167 -0.81726897 0.052857146
-144.845 11.2418 550.81799 -0.87564379 0.25574392 -0.40968651 0.010994852
-37.1782 136.83 487.72501 -0.14874208 -0.85785973 -0.49188665 0.0079072891
-38.6688 138.633 484.168 -0.27275765 -0.95347112 -0.12843764 0.021311374
-43.4776 136.576 488.95099 0.044937387 -0.86815864 -0.49424812 0.016179953
-140.478 24.1073 553.62598 -0.80281621 0.53575784 -0.2616289 0.004782605
-46.9744 134.899 490.892 -0.057542432 -0.90074271 -0.43052453 0.019657221
-52.8255 128.213 499.20599 -0.40225053 -0.30042028 -0.86483651 0.010233573
-140.082 17.4688 751.20099 -0.93369222 0.14414987 -0.32777989 0.0036665979
-140.55499 13.7988 751.901 -0.93312269 0.19669761 -0.30098534 0.0053229318
-141.17599 -18.390699 799.659 0.24570662 0.54681289 -0.80038977 0.015736857
-143.33701 -21.674101 797.052 0.22884513 0.61562765 -0.7540772 0.0098392721
-142.298 -24.0919 794.34497 -0.012499084 0.72872353 -0.68469387 0.022971032
-144.70399 -27.965099 791.78198 -0.28257409 0.79782164 -0.53257167 0.023143785
-129.91299 -16.703199 791.26801 0.64679039 -0.7553044 -0.1057233 0.0010315754
-132.32201 -18.0149 786.09601 0.64544046 -0.69552642 -0.31567335 0.020174045
-145.97501 -31.350201 788.76398 -0.3523902 0.33949417 -0.87210375 0.0075929719
-146.742 -34.6385 787.40399 -0.15355076 0.42825726 -0.89051551 0.029028796
-146.657 -37.877602 785.40399 0.05052577 0.48233983 -0.87452585 0.0056921821
-158.401 25.976299 640.62 0.64867157 0.066170543 -0.75818646 0.00062331266
-164.26199 20.462601 635.25897 0.6095987 0.22898135 -0.75891829 0.0087021068
-138.966 26.3538 666.12799 0.75558501 -0.34561941 -0.55645162 0.0032857764
-157.05099 21.671499 641.56702 0.64486313 0.064245097 -0.76159322 0
-158.677 18.835199 639.966 0.6613571 0.11315762 -0.74148649 0.0085804574
-143.215 20.975599 663.57397 0.83698761 -0.30714732 -0.45289323 0.0029977246
-140.166 20.695601 668.78198 0.77955347 -0.37105146 -0.50459605 0.0057368213
-144.519 18.4986 662.88501 0.83269125 -0.26895154 -0.48403546 0
-140.383 17.1553 671.21503 0.80281365 -0.41541648 -0.42769074 0.0044173989
-155.274 17.542601 642.70398 0.63348126 0.17348655 -0.75405824 0.0062335888
-125.767 -22.299999 770.00702 0.010064248 -0.81537998 -0.57883853 0.0069198725
-146.603 14.7434 661.19 0.90762234 -0.20617232 -0.36567003 0.006508904
-142.66499 13.6121 670.85602 0.8376798 -0.34263468 -0.42531633 0.011790366
-110.73 -37.879902 790.14801 -0.00076653797 0.42815021 -0.90370721 0.089431502
-112.112 -39.885101 788.54498 -0.035390813 0.4890154 -0.87155688 0.058374844
-113.419 -42.816502 786.32098 -0.3164658 0.81013519 -0.49348813 0.016498301
-151.459 16.592199 608.85699 -0.78788072 0.26445067 -0.55615622 0.010980366
-129.60899 -46.5667 755.37201 0.78469455 -0.51833314 -0.33997837 0.0098650446
-125.802 -47.063202 763.005 0.77006286 -0.53050321 -0.35435793 0.00099687988
-124.817 -48.546299 766.74103 0.70032001 -0.62411726 -0.34645271 0.0059874561
-146.97 19.019501 604.11401 -0.83364135 0.31563014 -0.45323262 0.01940714
-149.037 16.3479 605.086 -0.75165963 0.45142391 -0.48085779 0.025579885
-148.258 16.2805 600.80103 0.73192537 -0.67567486 0.088027313 0.0030508596
-76.564301 128.57899 506.11401 0.03714662 -0.97059292 0.23784329 0.090952083
-87.303802 113.699 513.71301 -0.47033992 0.12720649 -0.87326902 0.0071535325
-75.504898 124.664 508.65601 -0.69646311 -0.46869621 -0.54338109 0.10266694
-71.2743 129.425 502.67899 0.14478336 -0.93438429 -0.32552099 0.07300435
-73.555298 127.88 499.61099 0.36567453 -0.92993188 -0.038843837 0.0061957478
-84.306 112.315 512.65198 -0.41505489 0.12846687 -0.90068072 0.010949841
-81.317596 114.705 511.97198 -0.40871972 0.15444179 -0.89949757 0.0025582621
-69.595802 125.21 505.94299 -0.26723275 -0.54757607 -0.79293573 0.0093241595
-72.7304 122.712 508.034 -0.43552116 -0.26408064 -0.86057121 0.0094959028
-68.341797 121.956 506.92099 -0.29608533 -0.13416742 -0.94569153 0.0082200384
-59.7118 133.23399 495.58701 0.10011272 -0.94692963 -0.30545336 0.014088678
-56.074402 133.953 488.12 0.38245085 -0.89853859 0.21531324 0.0034635896
-74.251503 109.169 509.285 -0.12598765 -0.076514378 -0.98907673 0.0075142961
-68.076202 114.522 506.05301 -0.27909112 -0.1127452 -0.95362288 0.021678409
-0.21022899 -71.288101 762.39001 0.38908952 0.69680142 -0.60255879 0.0011312385
-72.525101 7.8287802 535.41901 -0.11479951 -0.89833421 -0.42404798 0.0018440663
-69.316399 6.1940999 538.992 0.028418664 -0.9487974 -0.3146044 0.0048425803
-67.672699 5.1183701 542.32098 0.054224513 -0.92113239 -0.38545418 0.0014900224
-65.087402 2.04035 547.21802 0.070633255 -0.88265824 -0.46467766 0.0077369125
0.47182301 -75.716797 755.79999 0.42749712 0.90358222 -0.028024783 0.041969959
2.5462601 -76.322701 756.953 0.39891884 0.91669732 0.023019062 0.046827622
-42.145401 3.44926 544.80701 -0.081937939 -0.88730508 -0.45384571 0.00051399425
-39.113899 4.4092498 542.604 -0.028983906 -0.8797738 -0.47450826 0.0022764776
-35.567902 4.3218002 542.828 -0.045186631 -0.85288566 -0.52013868 0
-29.225 9.1533003 532.51001 -0.071107082 -0.90102381 -0.42790177 0.0016600342
-26.925699 10.1768 529.92297 -0.01647749 -0.89668 -0.44237256 0.0012556768
-23.875401 8.4869003 532.94299 0.00086361327 -0.87792134 -0.47880411 0
-22.7167 7.10044 535.54999 -0.015264571 -0.88161522 -0.47172189 0.0026704597
-21.7575 12.4584 525.00403 -0.0313752 -0.92276651 -0.38408002 0.0019522252
-18.9224 13.2241 522.33002 -0.13104343 -0.91055983 -0.39205658 0.0036934218
-15.958 5.37746 539.46899 -0.060749866 -0.89527625 -0.44134995 0.001020911
-14.0233 6.4470801 536.60797 -0.22114888 -0.85197419 -0.47458735 0.0032781607
-12.2044 4.7181301 539.88599 -0.23874591 -0.8776204 -0.41567147 0.0050850743
-17.0634 14.0745 519.14301 -0.20256181 -0.97837991 -0.041730184 0.025604572
-14.6359 12.9703 522.86798 -0.19125603 -0.95509481 -0.2263075 0.0083375433
-8.5240803 8.1901302 531.62 -0.13825637 -0.85182834 -0.5052461 0.0012666449
-7.9378901 3.70608 539.65698 -0.03428939 -0.89759094 -0.43949363 0.0019845814
-3.6514299 3.27145 540.07202 -0.071268097 -0.87187648 -0.48451248 0.0017616528
34.058998 -7.9090199 535.01099 0.33249748 0.12294669 -0.93505585 0.0012884975
52.960701 -83.497299 677.229 -0.52725005 -0.44209698 -0.72564292 0.092009358
50.2481 -85.169601 679.30298 -0.42707607 -0.50967956 -0.74688202 0.031583518
59.473999 -74.615601 662.37402 -0.57991886 -0.68175954 -0.4459798 0.035681278
42.166698 -95.956596 684.03101 0.53452367 -0.83134675 -0.15214147 0.0017258881
53.026501 -86.228203 675.67603 -0.84723806 0.40323126 -0.34582096 0.10658869
40.3783 -96.643204 680.81598 0.41382486 -0.88097256 -0.22942615 0.0070200572
64.357498 -72.451302 657.32703 -0.5804022 -0.35049558 -0.73504156 0.076661117
61.728298 -74.0821 659.09399 -0.72615951 -0.23479329 -0.64619231 0.11735345
48.383598 -87.599899 665.09601 0.5474757 -0.80034894 -0.24436031 0.0005101359
63.851601 -74.473297 655.61401 -0.70028883 0.55727875 -0.44613454 0.087847456
67.767403 -71.964798 650.58099 -0.85559028 0.41123939 -0.31440014 0.025254097
65.440498 -73.986099 651.96997 -0.69667351 0.69884485 -0.16205534 0.025506791
-24.998501 -74.712898 545.664 -0.19731848 -0.8128069 -0.54809701 0.0083283801
-21.2841 -77.671898 550.21899 -0.24734247 -0.91947234 -0.30560151 0.0045412448
-18.9496 -79.625298 554.315 -0.51596689 -0.64233029 -0.56673634 0.053883933
-12.4331 -68.0784 532.97601 -0.29737693 -0.43425938 -0.85028571 0.039817452
-15.3827 -70.157898 535.37299 -0.35735899 -0.57173121 -0.7385242 0.020127732
-13.5567 -73.6549 537.12701 -0.43632153 -0.49784318 -0.74951702 0.015071207
-23.7197 -78.902702 554.16998 -0.1276605 -0.90707392 -0.40114793 0.0046308194
-27.038099 -78.139603 554.08002 -0.053881779 -0.893722 -0.44537371 0.0022614207
-29.909 -76.945 550.50702 -0.046169043 -0.88154376 -0.46983942 0.0043368288
37.109001 -5.19103 536.15503 0.39476717 0.16780557 -0.90332729 0.0047054994
46.604401 -83.632202 679.34302 -0.079451576 -0.83380044 -0.54631877 0.012332477
44.4716 -82.210602 676.70001 0.083463624 -0.80637795 -0.58548123 0.0031495374
41.853901 -83.843803 678.81702 -0.17746308 -0.83520579 -0.52051717 0.0067915269
39.5882 -84.374901 681.74701 -0.17456251 -0.83227491 -0.52616191 0.0067331861
7.6658502 -24.7836 554.547 -0.13129908 0.71474743 -0.68694735 0.0020830981
8.87185 -23.3295 555.74298 -0.094551288 0.72206658 -0.685332 0
10.1438 -19.4806 559.81299 -0.14321661 0.69868827 -0.70094484 0.0004417148
11.1543 -16.360701 562.52502 -0.16404182 0.56482536 -0.80874139 0.0053415359
12.1473 -13.1388 563.87701 -0.12727296 -0.14120409 -0.98176521 0.062752597
-74.323097 6.7600899 538.66998 -0.16433181 -0.91358173 -0.37197232 0.001304696
13.3895 87.725304 501.035 0.10362815 -0.2216984 -0.96959323 0.004769966
21.902599 96.649902 497.34698 0.1343087 -0.68054444 -0.72029191 0.0055523482
24.3797 98.527397 496.19 0.18070823 -0.71284097 -0.67764467 0.0032597252
-79.598 2.01615 548.91901 -0.012311325 -0.92268741 -0.3853524 0.0027239521
-82.007401 3.6175499 545.64001 0.090307049 -0.86481386 -0.49390441 0.011599582
-85.195 18.992201 515.11499 0.024195677 -0.90719032 -0.42002404 0.0054558986
-86.627899 20.832399 511.397 -0.020958243 -0.90995079 -0.4141863 0.0023060311
-88.475098 19.4286 515.17499 -0.082806379 -0.88360518 -0.46085232 0.0023893148
-86.801102 1.4273 550.836 -0.14977188 -0.89731377 -0.41520649 0.0031317042
-91.601898 18.295 516.98901 -0.046453882 -0.87105727 -0.48897988 0.00044188849
-93.1903 1.19917 551.91199 0.0099196862 -0.87384993 -0.4860945 0.0051864246
-94.342697 2.43699 550.73297 0.081198245 -0.89889729 -0.43057001 0.0064807562
-97.872101 0.91917998 552.16602 0.065677345 -0.89455289 -0.44211048 0.0058722044
-8.7335501 94.802696 494.254 0.089717947 -0.066927217 -0.99371594 0.015227882
-99.479797 5.0300498 543.70398 -0.11848801 -0.92310697 -0.36583337 0.001139593
-7.6901302 98.406502 493.83701 0.027531393 -0.01519601 -0.9995054 0.0095517701
-102.055 1.13632 551.96899 -0.037223812 -0.88590014 -0.46238005 0.00030476047
-103.817 9.691 535.16498 0.04025957 -0.91413969 -0.40339524 0.008336572
-104.082 2.8411801 548.95502 0.0087114358 -0.88234448 -0.47052336 0.0019319039
-15.2634 96.418297 494.276 0.010437149 -0.014200144 -0.99984467 0.0082818987
-106.811 10.8625 531.953 0.077042498 -0.88173938 -0.4654032 0.0035410062
-12.9996 99.064201 494.629 -0.0045384713 -0.083262332 -0.99651736 0.015035764
-9.3590899 102.807 493.51501 -0.049322102 -0.4629949 -0.88498759 0
-109.051 9.4225302 535.33502 -0.093490839 -0.90753049 -0.40944827 0.0014005973
-112.113 8.8215303 537.16699 0.0046542203 -0.9229331 -0.38493231 0.0050424999
-112.459 3.83603 548.07001 0.058569193 -0.84999591 -0.52352321 0.012715356
-113.562 4.9937201 544.76501 0.080665238 -0.92863244 -0.36212552 0.0097290007
-116.773 6.37604 541.927 -0.080554582 -0.87343353 -0.480234 0.0041728066
-118.75 5.3738599 545.01898 -0.036162872 -0.8942889 -0.4460265 0.006841884
-122.709 -1.98709 556.88397 -0.068619423 -0.87381524 -0.48139194 0.0046024662
-124.449 -0.149113 554.96997 -0.12378518 -0.86817503 -0.48057184 0.0046231081
-125.866 1.4026901 552.005 -0.028061667 -0.86178893 -0.50649017 0.0060145133
-37.470798 99.631897 496.45599 0.0087624034 0.00092849589 -0.99996114 0.0093523199
-131.034 -1.16091 556.48602 0.061963823 -0.89625669 -0.43918604 0.0020538147
-40.5495 101.738 496.164 -0.077621341 0.12252565 -0.9894253 0.011212303
-134.465 -2.5552499 558.63098 0.1155411 -0.92886168 -0.35194635 0.0018281122
-137.246 12.0544 534.59302 -0.79666674 -0.3507852 -0.49221131 0.033872325
-47.099899 101.859 497.60501 -0.30809626 0.46462739 -0.83017951 0.0058512194
-139.27 12.8098 538.90302 -0.86935896 0.12134804 -0.47905076 0.016455429
-49.948101 102.096 498.517 -0.36952528 0.4883129 -0.79057044 0.0034784975
-137.16499 16.473499 536.716 -0.91327143 0.30394432 -0.27120668 0.0048037618
-39.4081 114.047 499.27802 -0.20061192 -0.32319903 -0.92482281 0.01644122
-136.633 19.024599 536.54102 0.93907923 -0.2435334 0.24253181 0.0051555363
-53.634899 103.636 501.40601 -0.31812301 0.46096927 -0.82843536 0.0020562187
-43.157902 114.546 499.608 -0.18980311 -0.38850614 -0.90168607 0.017672328
-40.363998 117.33 497.086 -0.1406716 -0.67814112 -0.72134334 0.0035073308
-52.9958 107.514 502.94501 -0.35593551 0.36934888 -0.85842371 0.0037900603
-143.967 14.2923 550.30103 -0.88136899 0.27442876 -0.38454843 0.0025266148
-135.75101 26.5555 540.70898 -0.85581094 0.36641613 -0.36513934 0.0034685833
-143.439 17.711901 552.17999 -0.87275922 0.35779467 -0.33207583 0.0039587538
-134.81 29.0303 540.81201 -0.84321737 0.43755448 -0.3122988 0.0021519982
-43.364899 129.638 495.07599 -0.29494271 -0.1744979 -0.93944633 0.0042460193
-145.349 14.1067 554.53198 -0.88496989 0.38588449 -0.26061767 0.003653171
-65.941299 106.812 507.65302 -0.129785 0.042966086 -0.99061084 0.0098164435
-138.224 26.9429 548.60199 0.90150505 -0.42816672 0.06294325 0.010056818
-133.754 32.3368 543.25201 -0.76138222 0.59103274 -0.26641577 0.0029697635
-47.466801 131.245 495.784 -0.17141637 -0.52222973 -0.83539969 0.0065165465
-44.719601 133.041 493.664 -0.1906538 -0.63135934 -0.75168908 0.0099008167
-133.724 32.936798 546.11499 0.68267417 -0.72652656 0.078199342 0.0012019086
-48.501099 135.94099 487.681 0.18657929 -0.98179841 -0.035497818 0.010505464
-138.774 19.4065 749.11603 -0.94686139 0.11634561 -0.29986194 0.0031014879
-137.63699 20.1476 745.89801 -0.96355802 0.058904514 -0.26093325 0.001934947
-137.07899 19.9746 742.20203 -0.9525438 0.075910822 -0.29478467 0.005509539
-151.289 -22.055 794.24597 0.25670639 0.59048784 -0.76513135 0.010414313
-152.06 -25.2442 791.93402 0.32980263 0.46122369 -0.82371289 0.011043471
-153.049 -27.565901 790.17999 0.42641863 0.42878842 -0.79643428 0.019668998
-154.502 -32.161098 787.19897 0.35452673 0.38540545 -0.85192341 0
-144.205 36.2854 654.32001 0.76635408 -0.17110659 -0.61921239 0.0056555057
-141.58 35.721699 656.81702 0.74260771 -0.23766273 -0.6261391 0.0011339138
-153.38 28.726 645.17297 0.64377677 0.035914548 -0.76437002 0.0045968057
-156.646 25.465599 642.39697 0.63356954 0.078801334 -0.76966214 0.0027348048
-137.478 -34.547901 787.98602 0.094572045 -0.19765493 -0.97569907 0.01002922
-143.116 28.556499 658.995 0.78804243 -0.34074873 -0.5127176 0.0050854143
-149.48801 23.9825 648.68799 0.73886752 0.12761651 -0.66165614 0.0046127047
-145.81599 22.9263 657.138 0.96019042 -0.18939616 -0.20533754 0.013852985
-134.84 25.762199 673.13702 0.79369599 -0.38581771 -0.47030994 0.0027129699
-138.64999 -37.214001 787.39301 0.042683177 0.31492233 -0.94815713 0.00026100321
-144.65199 21.391199 661.17297 0.84036535 -0.28396022 -0.46168453 0.0014841653
-146.364 22.7764 653.27399 0.94965893 0.033547215 -0.31148419 0.015641281
-138.506 19.6164 672.60101 0.81442046 -0.36682585 -0.4496201 0.0062459907
-136.535 19.6481 676.008 0.78673553 -0.43278793 -0.44016114 0.0017677634
-126.737 -27.337 781.55701 -0.024263877 -0.84696209 -0.53109932 0.0044955341
-145.89799 8.1319704 666.56598 0.87915432 -0.29354605 -0.37539104 0.00058482355
-157.95599 11.3998 638.664 0.69370908 0.2077387 -0.68964648 0.0072850683
-119.294 -35.667 790.24103 0.10538303 -0.17631228 -0.97867686 0.004162651
-119.893 -38.140301 789.67102 0.10191636 0.32870635 -0.93891704 0.016593602
-121.19 -41.737598 786.992 0.12298878 0.51330656 -0.84934688 0
-144.64101 29.811199 601.18701 -0.47544771 -0.55536479 -0.68228972 0.027200736
-142.3 31.4599 598.55402 -0.24469298 -0.74368435 -0.62214053 0.016135976
-120.962 -37.662601 759.237 0.75445396 -0.49300838 -0.43329206 0.0063669481
-117.154 -38.159 766.87 0.68892497 -0.53168291 -0.49264157 0.004646631
-123.429 -41.148102 760.10999 0.73899102 -0.50401711 -0.44705597 0.0046843202
-146.19501 22.101101 603.90601 -0.77690929 0.1964328 -0.59818572 0.011430642
-132.442 -54.132401 766.03198 0.66863173 -0.74150485 -0.055697799 0.0097996453
-141.36501 27.678101 600.05798 -0.64893115 -0.19418222 -0.73565042 0.018761378
-141.263 25.0578 600.63397 -0.68910688 0.053770091 -0.72266203 0.066948973
-144.11099 21.8857 602.06598 -0.71501702 0.41293824 -0.56412113 0.016934874
-142.38699 21.471399 598.60303 -0.77432984 0.59716374 -0.2093055 0.012555212
-79.870499 125.327 502.11499 0.38850954 -0.91037649 0.14238986 0.027327752
-142.756 21.470501 595.07397 0.75097883 -0.65820175 -0.052927423 0.0011252172
-122.323 43.756901 580.375 -0.50182116 -0.16082898 -0.84988791 0.053023972
-78.060898 117.941 510.46399 -0.42990378 0.11051978 -0.89608485 0.001392332
-75.170303 120.356 509.58401 -0.45121697 -0.014989261 -0.89228839 0.0071515716
-74.632301 116.387 509.09601 -0.32141966 0.083276883 -0.94326794 0.0027902385
-58.552799 131.495 497.647 -0.012448389 -0.71085322 -0.7032302 0.006116481
-53.168499 134.319 494.35901 -0.25661266 -0.81030601 -0.52683395 0.0099895466
-55.8088 133.493 496.073 0.0823581 -0.83370036 -0.54604119 0.0072574914
-135.549 29.883801 554.73102 0.73238194 -0.6712091 -0.1144332 0.0029946528
-139.105 27.02 556.15503 0.71880901 -0.68259925 0.13180281 0.0088207694
-6.60816 -71.431396 756.33502 0.55208194 0.74581438 -0.37278199 0.019413671
-70.9767 1.89229 548.73798 -0.015824493 -0.92254084 -0.38557482 0.00080775155
-69.225304 0.48559901 552.65302 0.0042895889 -0.91477227 -0.40394711 0.00072181429
-67.108902 -1.39022 556.185 0.035248201 -0.87350959 -0.48552912 0.0012782901
-66.268204 6.5034699 539.22101 0.21472616 -0.90368223 -0.37047425 0.010057355
-62.545399 8.1136303 537.27197 0.070143677 -0.91656464 -0.39368656 0.0049065244
-40.788502 -0.63901198 552.93799 -0.1000083 -0.90214592 -0.41967973 0.001273761
-37.970501 0.23297501 550.63898 -0.02968522 -0.89368761 -0.4477067 0.00013213677
-25.442699 15.7569 519.31097 -0.050861269 -0.93227899 -0.3581467 0.0074321097
-23.207701 14.5811 521.935 -0.088844098 -0.89274472 -0.44171661 0.012942983
-20.7735 8.32971 533.35101 0.033238947 -0.88349599 -0.46725804 0.00071683346
-17.5828 9.5240803 531.27301 -0.06218899 -0.86453587 -0.49870852 0.0034591353
-12.7162 11.5127 526.16498 -0.1305934 -0.93832856 -0.32013276 0.0031490284
-10.8969 10.3859 529.67102 -0.15942609 -0.89481735 -0.41699544 0.0086759413
-10.969 12.1952 522.94702 -0.16380829 -0.93279654 -0.32102564 0.0019637698
-6.8962498 8.9115496 529.93799 -0.25259042 -0.91597486 -0.31175002 0.01085977
-9.3330002 12.005 518.60303 0.20073622 0.77955788 -0.59329116 0.095545307
-6.4110899 11.3989 522.914 -0.40246648 -0.91042405 -0.095649071 0.031417307
-4.5282698 9.5099802 525.84802 -0.20273913 -0.9518398 -0.22999516 0.017206006
-1.99729 8.6765299 529.67401 -0.088528864 -0.94715661 -0.3083131 0.0039515668
3.9423001 -11.0298 564.57001 -0.21517618 -0.74300832 -0.63374901 0.013029518
2.07952 -13.4853 567.06403 -0.51989448 -0.23768549 -0.82049698 0.026918804
-5.4008498 -18.2059 568.50201 -0.4189755 0.7317974 -0.53752404 0.003484674
-1.34217 -16.087999 568.38397 -0.52488774 0.4877305 -0.69757575 0.021803919
43.995998 -4.7957201 540.01703 0.48763719 0.64047629 -0.59329593 0.062035926
46.983601 -5.54421 543.18201 0.31745028 0.94799644 -0.022978017 0.011208703
48.245998 -92.015198 687.73999 -0.74239522 0.070127167 -0.66628182 0.068475671
49.840199 -91.786201 685.71503 -0.90705591 0.41731697 -0.05564259 0.061417118
50.470402 -6.9885201 543.26099 0.48249152 0.73492903 -0.47653049 0.050182853
-4.44347 -35.995899 544.85602 -0.15324824 0.65544558 -0.73953104 0.0043305792
48.924301 -91.928398 681.79498 -0.74369323 0.65387529 0.13916717 0.067427211
56.797699 -82.834801 670.67499 -0.86916023 0.34949297 -0.34987879 0.057200905
53.623299 -85.709198 672.56201 -0.75962418 0.64854926 0.048528232 0.010509087
50.983601 -88.140602 673.72101 -0.66890305 0.73017335 0.13933942 0.0015877422
48.088402 -91.097198 675.49701 0.51108336 -0.84503877 -0.15717247 0.010027888
-21.473 -86.6082 563.64099 -0.14261127 -0.49769166 -0.85554957 0.0068157078
-12.3569 -76.107399 539.31598 -0.40943825 -0.69066608 -0.59610462 0.0034977833
2.1366999 -93.155998 555.73999 0.029142676 -0.85256708 -0.52180463 0.0066469451
-3.7248099 -78.040398 538.815 0.024361724 -0.69894296 -0.71476239 0.0066552479
-7.5145602 -76.932404 537.10901 -0.01194829 -0.57489854 -0.81813753 0.02099744
-10.1709 -75.552597 536.54199 -0.28748971 -0.52670813 -0.79995519 0.025014946
-7.30339 -73.026802 535.65997 -0.15006918 -0.42614383 -0.89212143 0.01708121
-25.4951 -85.4282 563.47498 -0.076146312 -0.59187073 -0.80242807 0.006166928
-22.2029 -83.390999 561.44098 -0.039518464 -0.68609083 -0.7264418 0.0069605256
-29.121401 -84.966599 563.08698 0.0047368784 -0.58538228 -0.81074369 0.0036609499
-31.3116 -83.004601 561.29303 -0.045906078 -0.76800084 -0.63880152 0.010864875
-33.736698 -83.913597 562.83698 -0.24310225 -0.66258043 -0.70844084 0.0072908378
44.481701 -90.519203 689.53699 -0.24449314 -0.65638405 -0.71371078 0.059623037
42.999401 -4.4963498 542.74799 -0.45104706 -0.88121784 -0.14146265 0.0072168168
41.3629 -90.091904 689.13599 -0.13012172 -0.83790696 -0.53007573 0.0015619488
40.363899 -78.009499 671.55402 -0.055934168 -0.85254472 -0.51965261 0.0025272139
3.24139 -20.4618 560.44098 -0.20540904 0.73427552 -0.64702904 0.00027953589
-1.09882 -20.3869 562.21802 -0.28473607 0.74496287 -0.6032874 0
-2.54689 -18.952101 564.99902 -0.34035131 0.76661235 -0.54448736 0.00060368906
5.5697699 -14.0113 565.85699 -0.42050987 -0.12556919 -0.89855647 0.028221171
-71.5755 -0.924025 555.27301 0.050920408 -0.86367261 -0.50147456 0.0018608921
-72.915298 3.0579801 546.76703 -0.055076137 -0.88164526 -0.4686878 0.0037065737
16.3249 90.673203 500.483 0.089559749 -0.35633072 -0.9300577 0.0024768363
-75.787003 1.58631 549.302 0.017283309 -0.9190855 -0.39367902 0.0028942458
-76.495903 6.2002001 540.98401 -0.091949791 -0.9153707 -0.39197153 0.0013915112
18.5453 93.5783 499.17099 0.046590149 -0.48733076 -0.87197363 0.0065220287
-3.6823399 -68.865501 762.24902 0.56259388 0.5747745 -0.59424108 0.019079044
-77.866699 0.61380702 552.22198 -0.083595544 -0.91617101 -0.39197239 0
-79.871803 8.9817696 535.29401 -0.083316542 -0.89632207 -0.43550566 0.0018803631
12.1123 91.506104 499.53799 0.054677226 -0.37468132 -0.92553997 0.0035549784
18.413 96.470901 497.45999 0.062506355 -0.62272626 -0.77993906 0.0027821085
-7.4779301 -67.961403 758.56702 0.72459477 0.38271233 -0.57314366 0.012130022
15.8234 98.829201 494.97501 -0.15133092 -0.6383357 -0.75473601 0.0072097364
-84.020103 4.652 542.64899 0.15735695 -0.86463732 -0.47711757 0.0050382824
10.6566 95.137703 497.70499 0.10749178 -0.48314652 -0.86891598 0.0012048886
13.6262 97.8731 496.40201 -0.027593093 -0.55334282 -0.83249646 0.0043074419
-87.438599 15.3845 523.435 -0.00064511254 -0.89256138 -0.4509255 0.0027536734
-88.6577 5.2592702 541.98901 -0.12018397 -0.88126618 -0.45708385 0.0018262026
-90.876701 13.8917 525.51202 -0.027231613 -0.86371422 -0.50324583 0.001179044
1.3278199 93.660301 496.367 0.18427081 -0.41061401 -0.89299512 0.0021140545
13.3744 105.155 491.315 -0.36743528 -0.65458363 -0.66069031 0.0092512416
-91.797096 5.87954 541.89203 -0.049233917 -0.88656789 -0.45997098 0.003001529
-94.282303 7.4496999 539.10699 0.024282925 -0.87241256 -0.48816672 0.00054840866
-1.11292 95.576103 494.827 0.17390056 -0.30664822 -0.93580204 0.0054977359
11.8235 107.709 488.76999 -0.25103611 -0.77520227 -0.57969159 0.002831904
10.5221 109.39 486.646 -0.14680302 -0.8992517 -0.41206214 0.0081836227
-96.296898 8.9871702 534.70898 0.04653804 -0.90865475 -0.41494676 0.0040484522
-4.8625102 96.675301 494.345 0.072728463 -0.16181141 -0.98413795 0.012266837
6.9416099 107.838 488.659 0.10750974 -0.82793003 -0.5504303 0.0031459713
-97.808502 10.3289 532.92999 -0.066252895 -0.88777065 -0.45549291 0.00034441013
-1.35778 99.857903 494.048 0.052963581 -0.16719191 -0.98450077 0.0092680203
-100.464 9.1587296 535.35797 -0.079273656 -0.92209893 -0.37874693 0.0016199014
0.119861 102.432 493.60901 0.0046906048 -0.4457745 -0.89513302 0.0012214591
-101.838 8.5166101 538.35999 -0.042467132 -0.89180416 -0.45042416 0.0079613309
-105.807 4.1348901 546.01501 -0.04747314 -0.89653534 -0.44042116 0.0053156652
-107.575 6.0003099 543.02301 -0.12473268 -0.91836816 -0.37555525 0.0032685215
-16.916599 100.413 494.29001 0.044914611 -0.088284217 -0.9950822 0.011056196
4.4011402 122.803 480.134 -0.18527229 -0.53623617 -0.82348341 0.020899326
-110.16 4.8594999 545.48297 -0.036605917 -0.89858371 -0.4372727 0.0062618437
-20.6346 100.703 494.48199 -0.030960245 -0.11945361 -0.99235696 0.0068468894
-17.463301 104.342 493.465 -0.020278687 -0.33092266 -0.94344002 0.0012051794
-125.655 -6.0874701 565.07703 -0.079756409 -0.85659069 -0.50979531 0.0035604259
-128.15601 -4.1585798 561.70099 -0.023142999 -0.87090671 -0.49090317 0.0010259894
-47.470001 94.591103 495.319 0.10357805 0.00247042 -0.99461824 0.0038580222
-31.803101 103.983 495.48499 -0.10103951 0.0054347278 -0.99486756 0.010074008
-130.12399 -5.5787902 564.78497 -0.094907723 -0.85762244 -0.50544655 0.00098620518
-133.03101 -6.5253201 566.91602 0.039567728 -0.85428107 -0.5183031 0.0052519278
-135.485 1.37234 549.89697 0.11276959 -0.90612441 -0.40770271 0.0049254475
-135.179 -8.0988598 567.92902 0.018967791 -0.84185767 -0.53936619 0.0070070904
-138.39301 5.0606399 544.72198 -0.11267336 -0.85034806 -0.51401621 0.0084004709
-39.154701 107.149 497.65399 -0.24346109 0.35831904 -0.90129584 0.003660735
-140.575 6.8060398 541.45599 -0.65944982 -0.37471551 -0.65170097 0.075094394
-32.491901 115.172 497.83301 -0.072667204 -0.29062384 -0.95407403 0.027183797
-35.196602 112.206 498.10501 -0.21062081 -0.046651777 -0.97645402 0.01580305
-140.82401 9.8351603 540.53302 -0.72960794 -0.088032864 -0.67817593 0.04349092
-145.146 7.6810498 548.66998 -0.92122257 0.22046295 -0.32053858 0.0076061371
-141.01801 13.2731 542.44702 -0.89597863 0.14574984 -0.41949883 0.010717937
-46.373501 112.553 501.24301 -0.3209343 -0.25994244 -0.91073114 0.011976823
-49.327999 110.046 502.23001 -0.47030047 0.054104459 -0.88084626 0.018871963
-142.235 13.6092 546.14502 -0.90652132 0.25322592 -0.33778051 0.011090521
-144.742 10.6042 548.56403 -0.83036619 0.31332567 -0.46078074 0.010424306
-47.111 115.406 499.54001 -0.079018302 -0.7115075 -0.69822139 0.010391898
-140.688 16.7551 545.06097 -0.91758281 0.26518518 -0.29617327 0.0048923795
-52.658199 111.028 504.18399 -0.36819682 0.00051799382 -0.9297477 0.021752952
-48.939999 117.201 497.52899 -0.15493816 -0.66431957 -0.73121387 0.01407655
-139.674 20.237101 544.07501 -0.90984374 0.30417097 -0.28224882 0.0024496112
-54.2701 114.955 501.55899 -0.19878532 -0.6079753 -0.768668 0.014646869
-51.470798 116.984 498.673 -0.45958367 -0.24890661 -0.85254234 0.0186773
-140.005 20.6423 547.04999 0.91064173 -0.33310837 0.24447991 0.0012165509
-141.194 20.850599 550.81799 -0.85879654 0.41051227 -0.30650958 0.0026291751
-56.91 112.878 504.13199 -0.21000876 -0.53653139 -0.81733125 0.0080580385
-37.789398 134.311 491.40302 -0.18666275 -0.65543753 -0.73181868 0.013575441
-49.570499 124.171 497.94699 -0.39163008 -0.027345264 -0.9197163 0.0088643879
-40.260799 135.847 489.16101 -0.070546955 -0.8136149 -0.57710826 0
-73.795601 101.9 508.79501 -0.35640529 -0.071384355 -0.93160051 0.0064132884
-42.547501 138.99899 484.64801 0.18171082 -0.9674201 -0.17629391 0.027735611
-44.607498 137.19299 483.069 0.42677018 -0.90435648 0.0025500003 0.012617586
-142.674 21.2041 554.57599 -0.82737279 0.44023246 -0.34878302 0.0036242765
-45.879799 136.97099 485.45801 0.35044456 -0.92117113 -0.16921102 0.014403271
-50.161301 128.48 497.58801 -0.30699888 -0.4078497 -0.85988975 0.015732622
-137.825 27.5352 551.521 0.82607156 -0.56298065 0.025662132 0.010904373
-53.236401 125.928 499.61099 -0.42450413 -0.02718221 -0.90501791 0.0055728038
-143.914 21.277201 558.58002 0.87579691 -0.44589448 0.18481851 0.0035360602
-141.714 24.479401 557.34601 0.79049063 -0.5868423 0.17533028 0.0037679938
-51.496399 132.086 495.55399 -0.26659581 -0.64418101 -0.71690834 0.013450316
-48.285 136.483 489.31201 0.067596912 -0.97078657 -0.23022634 0.027054962
-188.713 77.873497 592.62598 -0.41709644 -0.84180248 -0.34263542 0.020199258
-187.49001 76.227699 599.24597 0.87214851 0.30488887 -0.38262218 0.04260372
-187.51601 75.323303 595.56403 -0.59151787 -0.6722908 -0.44511971 0.024299886
-184.735 76.305901 593.02899 -0.14427969 -0.83339524 -0.53351253 0.0068429932
-179.97 74.037697 606.03003 0.54270113 0.65865368 -0.52120125 0.086753473
-177.744 73.091202 609.11603 0.84160638 0.099457368 -0.530855 0.077921368
-178.493 70.700302 607.76202 -0.67904383 -0.72078282 -0.13918202 0.07476791
-176.786 71.748299 605.60303 -0.35635698 -0.90064305 -0.24870025 0.0087797539
-178.58099 86.282303 572.74597 0.77766293 0.59660167 -0.19825959 0.11920784
-177.65401 83.406502 574.19299 0.95602119 0.064215742 -0.2861813 0.051211081
-172.88699 69.854103 606.48199 -0.4237527 -0.86480093 -0.26935685 0.024223803
-186.007 76.287003 556.716 0.13475758 -0.77610707 -0.61603433 0.034747064
-184.63901 75.591599 559.52502 0.247317 -0.86478812 -0.43700767 0.028751954
-171.10201 67.302803 607.784 -0.59884232 -0.68161917 -0.42045581 0.0064085005
-178.14101 72.928902 577.94702 0.79816228 -0.29312223 -0.52632344 0.0085154343
-181.521 74.533997 562.68298 0.34899923 -0.71793318 -0.60230511 0.0037954405
-179.336 70.169502 577.48999 0.8232674 -0.1890496 -0.53524864 0.0007234618
-168.41499 63.393299 612.89398 -0.1000953 -0.83209372 -0.54552817 0.00070441398
-179.34801 72.751297 566.00299 0.29076058 -0.7076968 -0.64391273 0.004821023
-176.564 69.383797 571.47101 0.18191919 -0.72959888 -0.659235 0.0019801487
-162.841 65.204201 607.71997 -0.50587529 -0.78773791 -0.35151008 0.094742343
-173.52 71.642303 569.45599 0.13945575 -0.81607974 -0.56086189 0.0015349491
-172.616 66.692902 577.44897 0.13013092 -0.82534796 -0.54942387 0.0032777139
-170.77901 65.107399 580.03302 -0.00058753154 -0.8313387 -0.55576581 0.00068422954
-169.105 71.6418 562.46002 0.7628656 0.64340866 0.06372834 0.080879062
-168.778 63.0984 582.96503 -0.27052021 -0.74471444 -0.61009777 0.040675625
-165.619 65.244598 578.84302 -0.55781657 -0.47455949 -0.68090677 0.073242418
-165.74001 62.272701 579.23499 -0.5066666 -0.45819202 -0.73030746 0.12570253
-163.011 83.417603 542.94098 0.28696293 -0.8583374 -0.42533419 0.0093984911
-160.519 82.318298 546.11902 0.25325805 -0.83754408 -0.48412842 0
-158.314 81.077499 549.30603 0.27887875 -0.81093675 -0.5144009 0.00024415413
-156.336 79.903099 552.5 0.084309518 -0.85276526 -0.51544476 0.0093903542
-153.894 80.985298 549.97699 -0.059887793 -0.80952698 -0.5840202 0.0038462479
-153.42 29.4335 602.83301 -0.028646752 -0.82230759 -0.56832182 0
-149.795 29.172899 603.25702 0.046279747 -0.77476954 -0.6305477 0.0032034444
-146.92599 30.783501 601.47302 -0.14273846 -0.77117276 -0.62041777 0.015544096
-84.901901 125.041 518.82098 -0.50586212 0.62522495 -0.59430397 0.0080735292
-78.765099 127.445 515.98199 -0.57032967 0.62191409 -0.53660697 0.0030895665
-75.185303 129.701 515.06299 -0.60767978 0.70750737 -0.36077511 0.0075436975
-132.96899 -55.495602 760.62701 -0.8138864 0.54702836 -0.19582866 0.085445203
-131.22501 -62.403301 763.83301 0.10018711 -0.81636363 -0.56878197 0.0039884904
-129.379 -64.657997 766.26501 -0.10332751 -0.83734077 -0.53682768 0.0043146447
-127.33 -63.259399 763.89301 -0.036447488 -0.81744331 -0.57485473 0.0026866433
-124.141 -61.736198 761.97101 0.010634736 -0.8409251 -0.5410471 0
-120.003 -58.6329 757.11603 0.066897392 -0.74743664 -0.66095632 0.0055721034
-117.139 -60.342999 760.24402 0.054909196 -0.85119838 -0.52196395 0.0035511467
-113.681 -60.3535 760.81097 0.09553574 -0.87639511 -0.47202164 0.0062309862
-111.209 -63.365002 768.94598 0.089463331 -0.97514677 -0.20269468 0.001870296
-105.694 -63.157501 777.34497 0.087707184 0.98559511 -0.14460184 0.0084398044
-101.831 -63.076698 781.71198 0.43077648 0.72120339 -0.54249179 0.039378271
-108.677 -62.909 767.23199 0.026461212 -0.96776897 -0.25044566 0.0061309109
-108.48 -60.5774 760.29901 0.046914667 -0.87332398 -0.48487553 0.010893813
-103.686 -63.6017 775.23297 0.27184674 0.95663297 -0.1046556 0.010119095
-51.470299 -77.224098 674.57202 -0.20751649 -0.95170033 -0.22628172 0.020401817
-46.8419 -78.565903 681.151 0.4656395 0.84170783 -0.27332723 0.055736259
-49.694901 -78.2388 677.638 0.26442739 0.95889163 0.10297988 0.0082781371
-45.247002 -79.041801 678.03101 -0.15374091 -0.9428218 -0.29572064 0.0057066274
