ply
format ascii 1.0
comment PCL generated
element vertex 618
property float x
property float y
property float z
property float nx
property float ny
property float nz
property float curvature
element camera 0
property float view_px
property float view_py
property float view_pz
property float x_axisx
property float x_axisy
property float x_axisz
property float y_axisx
property float y_axisy
property float y_axisz
property float z_axisx
property float z_axisy
property float z_axisz
property float focal
property float scalex
property float scaley
property float centerx
property float centery
property int viewportx
property int viewporty
property float k1
property float k2
end_header
-47.8694 0.45533901 553.617 -0.015393035 -0.88036865 -0.47404021 0.00072418299
-45.027401 -0.39593601 554.72498 -0.16798891 -0.90471846 -0.3914898 0.0027398809
-43.671398 0.999587 551.48999 -0.14622873 -0.86725831 -0.47589931 0.0031666984
-56.541 19.486 515.31299 -0.026294367 -0.9405458 -0.33864778 0.0016718034
-52.634701 19.0623 517.11499 0.047778096 -0.91013139 -0.41155553 0.0043884208
-4.2339602 -8.7456703 540.013 -0.64980519 0.67987454 -0.33988777 0.0014349176
-2.8829401 3.56213 527.49597 0.45968118 0.40349257 -0.79113019 0.047361877
-6.9106498 -11.8762 538.005 -0.7218014 0.60240024 -0.34075895 0.010147084
-0.14484701 3.56232 539.71399 -0.33044669 -0.66942346 -0.66533989 0.017582813
-27.4039 -25.676901 555.45599 -0.72462487 0.59647012 -0.34516981 0.00065240246
-31.065201 -28.454 558.85498 -0.72637773 0.62875479 -0.27756575 0.00013969325
-29.097 -24.913 562.49597 -0.82223088 0.54924095 -0.1492337 0.0039030355
-52.386002 20.439301 512.966 0.051128168 -0.98844945 -0.14266582 0.0086329039
-81.918999 -26.0802 600.18402 -0.041550569 -0.88215369 -0.46912521 0.00079946511
-94.329002 -21.008699 590.729 0.018239029 -0.8864277 -0.46250749 0.00095097237
-95.520103 -22.8857 593.74799 0.072395675 -0.88318032 -0.46341273 0.00296858
-96.697098 -26.7507 600.07898 0.1505743 -0.89451379 -0.42091855 0.0036762494
-100.04 -26.160999 597.98901 0.10780085 -0.89565563 -0.43148574 0.0025144236
-96.549698 -28.3377 603.57501 0.092986889 -0.8521499 -0.51496989 0.0035584369
-98.074501 -30.3351 606.479 -0.034050085 -0.88372999 -0.46675679 0.00045780183
-104.027 -27.4986 600.30103 0.096493721 -0.92179132 -0.37548581 0.0014692644
-122.112 -15.1982 578.70502 0.019775024 -0.81771243 -0.5752871 0.00089247414
-103.67 -28.374001 603.37 0.12283658 -0.90013248 -0.41793859 0.0015539917
-107.551 -28.382099 601.58502 0.078402087 -0.85688478 -0.50951129 0.0023752446
-125.197 -16.1008 579.90802 0.026327748 -0.81186897 -0.58324581 0.0034479555
-129.047 -15.4919 578.54602 0.024242381 -0.86053205 -0.50881922 0.00087645598
-112.182 -31.320801 606.362 0.023895813 -0.91032672 -0.41320005 0.0049013323
-113.437 -35.328499 612.45398 0.15979402 -0.8155567 -0.55617714 0.0037377374
-100.811 80.623703 527.18903 0.86002672 -0.46382618 0.21264835 0.0030001374
-117.036 -34.342899 610.98401 -0.023010762 -0.86873245 -0.49474674 0.0028942956
-126.272 -28.719101 600.05499 -0.0118884 -0.8521235 -0.52320576 0.00081501651
-102.896 77.712601 529.77301 0.85617787 -0.4895528 0.16521974 0.0024358223
-125.761 -30.594601 604.07501 0.011373156 -0.88865316 -0.45843872 0.0045137862
-127.178 -32.0798 606.36902 0.11642488 -0.87425953 -0.47129127 0.0020948043
-133.60899 -29.120399 599.914 0.021671772 -0.84728909 -0.53068966 0.0083685368
-101.101 81.947502 531.73401 0.90729541 -0.36420611 0.21016417 0.011903901
-133.535 -30.497801 603.33099 -0.081204526 -0.88694036 -0.45468944 0.0018071545
-136.82001 -29.636 601.927 0.067434356 -0.85027444 -0.52200204 0.0054502282
-129.13 -39.900799 618.58698 -0.011500936 -0.81450921 -0.58003652 0.0053620264
-122.089 80.180702 548.70203 0.11331948 -0.80052733 -0.58848512 0.0065905596
-158.084 -41.297298 618.52301 -0.017345821 -0.81192511 -0.58350384 0.0083020898
-169.66499 -31.860399 603.36401 -0.038911991 -0.8954882 -0.4433811 0.0021362533
-126.143 79.5103 550.48102 -0.1031433 -0.89384598 -0.43634948 0.0017435254
-171.008 -33.1432 606.112 -0.00011346856 -0.8468383 -0.53185046 0.004574921
-129.539 80.512497 549.13 -0.089439742 -0.85796762 -0.50585771 0.00098430482
-173.392 -32.580898 605.54901 -0.054678686 -0.85682875 -0.51269364 0.0047130808
-147.769 25.056601 580.52502 0.81837028 -0.54873073 0.17077665 0.0074100425
-172.35001 -37.7775 613.17603 0.0046213879 -0.85655111 -0.51604158 0.0048546405
-148.33701 24.2279 582.32501 0.84654069 -0.52136564 0.1074556 0.0049136193
-147.755 91.602203 530.85101 -0.13982323 -0.84803629 -0.51115948 0.0022969148
-175.49699 -36.975601 610.84698 0.01517646 -0.86613899 -0.49957278 0.0059674149
-148.177 89.722397 534.05798 -0.021636169 -0.86471742 -0.50179243 0.0064066532
-178.392 -35.890999 610.13397 -0.12887357 -0.77292001 -0.62127787 0.016732518
-147.005 25.849701 584.74298 0.84415442 -0.51292449 0.15592232 0.0063069216
-151.108 90.939499 532.58197 0.080730535 -0.8346805 -0.54478526 0.01113309
-149.394 85.848396 540.224 -0.033411853 -0.85707361 -0.51410937 0.0017864024
-181.118 -32.2239 610.68402 -0.77304554 0.17841373 -0.60874391 0.011908486
-155.56599 88.101601 537.328 0.25092983 -0.85353249 -0.45663607 0.0091662444
-142.82899 38.341702 587.091 -0.50214297 -0.49697402 -0.70772117 0.065073706
-144.08099 35.190102 589.68799 -0.74639463 -0.34590533 -0.56854588 0.064133704
-151.304 79.736504 549.30603 0.036613911 -0.80559385 -0.59133583 0.0037362892
-136.44 -5.9912801 741.75098 -0.07214921 -0.85012305 -0.52161795 0.030931721
-132.94299 -6.0233698 743.89001 0.22958836 -0.8718673 -0.43259287 0.00036510371
-131.48599 -2.4235699 736.95801 0.19202626 -0.90981168 -0.36792463 0.0080703748
-118.948 -8.1851301 750.04901 0.041517086 -0.78993309 -0.61178595 0.0033337837
-130.22301 -0.15430801 733.99402 0.082854845 -0.82047999 -0.56563914 0.0021872595
-117.703 -6.04494 746.90198 -0.060181357 -0.83694184 -0.54397291 0.003065093
-117.726 -4.3713398 743.46198 -0.0066724601 -0.87628108 -0.48175412 0.0083908355
-114.076 -5.1826801 745.22101 -0.28602222 -0.82664752 -0.48460826 0.017803529
-110.986 -7.8249602 745.70398 0.90804285 0.38293624 -0.16975881 0.08894664
-111.327 -5.3819299 742.18402 -0.95881581 -0.15789293 -0.23609754 0.095037334
-123.249 -7.1759501 722.03802 0.75956976 -0.45245662 -0.46726516 0.0013245676
-128.42999 -21.368099 726.83099 0.77847373 -0.43334019 -0.45408693 0.0018393561
-129.43201 -24.0804 727.99701 0.7904954 -0.43754321 -0.42857072 0.0049906997
-124.12 -6.1847301 719.164 0.73285317 -0.47587961 -0.48627657 0.00061360892
-126.098 -10.8801 720.40503 0.73829645 -0.44325793 -0.50837064 0.003470381
-127.264 -38.6562 733.01202 -0.088340268 -0.83920062 -0.53659874 0.004744661
-125.868 -34.022499 727.48901 -0.0998061 -0.76544362 -0.63571602 0.0026703496
-122.447 -35.216801 728.82501 -0.050248101 -0.80764425 -0.58752525 0.002674659
-119.462 -36.499401 730.39301 -0.0174342 -0.80652308 -0.59094548 0
-118.409 -33.591099 727.43201 0.1047473 -0.73942661 -0.66503859 0
-111.491 -8.6376896 711.88397 0.11287042 -0.93815887 -0.32728904 0.14797559
-114.59 -33.125401 726.297 -0.074680164 -0.80629492 -0.58678055 0.0064621009
-117.211 -7.3337598 704.61298 0.39182886 -0.82751465 -0.40210652 0.010894956
-110.31 -7.7875099 709.73199 0.72529727 0.51568663 -0.45608231 0.16881013
-112.594 -28.5998 720.81702 -0.01974931 -0.86978483 -0.49303579 0.009201711
-110.801 -33.8442 726.93201 -0.058339931 -0.7747798 -0.62953365 0.0041239238
-103.015 -6.7729502 713.61401 0.13439389 -0.64656478 -0.75092769 0.19648342
-103.894 -9.2516003 714.41699 0.16502634 -0.57151037 -0.80382973 0.14710401
-104.919 -12.75 715.26001 -0.096642323 -0.016995056 -0.99517399 0.015055263
-110.89 -20.233999 715.29901 0.025157163 0.013983479 -0.99958569 0
-110.074 -29.748501 720.99103 -0.12910758 -0.80890316 -0.57359123 0.011083229
-109.136 -28.2092 718.33899 -0.084389336 -0.81429034 -0.57429063 0.0030694788
-106.665 -20.209101 714.60797 -0.14148501 0.035199422 -0.98931444 0.0098546799
-108.763 -23.981501 714.98602 -0.12284561 -0.22437215 -0.96672952 0.042972419
-104.89 -13.0328 708.19501 -0.093433149 0.55370623 -0.82745373 0.0045600412
-104.106 -33.123901 723.77502 -0.036737468 -0.82474792 -0.5643059 0.0034677107
-99.764801 -19.277 713.41998 -0.22702996 0.029032456 -0.97345489 0
-100.64 -22.9877 713.565 -0.15309286 -0.18040793 -0.97160465 0.015070967
-106.657 -6.97299 698.81598 0.7191214 0.64164543 -0.2667501 0.14569336
-173.265 40.777 605.26599 -0.82836831 0.39900687 -0.39319143 0.0089644156
-104.204 -10.4689 699.013 -0.76202518 -0.4151403 -0.49696693 0.061156556
-170.61099 47.998199 601.09601 0.97845435 0.10337736 0.17871812 0.065935954
-174.52 37.7719 604.32001 -0.7839365 0.26990423 -0.55910218 0.0053777364
-160.423 -5.2142301 637.591 0.42751062 -0.068512358 -0.9014104 0
-167.524 40.769699 596.79797 -0.70731157 0.13934106 -0.69303274 0.0056077549
-168.491 38.018299 598.14301 -0.71422541 0.10269349 -0.69234115 0.0060569467
-161.24699 -12.1681 638.57397 0.37853113 -0.13862546 -0.91514879 0.011836464
-186.48399 -27.923201 628.72101 0.90103561 -0.013754768 -0.43352693 0.033161364
-162.83099 -16.58 639.09802 0.33746046 -0.14609192 -0.9299342 0
-186.32401 -28.229799 625.66699 0.95913315 -0.22404031 0.17282751 0.0019408969
-186.94299 -31.695 626.74701 0.9474079 0.082445286 -0.30922651 0.039389681
-165.772 -25.7507 638.39099 0.36625549 -0.0184338 -0.93033171 0.0051574823
-166.468 -30.212 638.80298 0.42063966 0.18015844 -0.8891598 0.010407312
-177.489 -13.4463 615.91199 -0.87703478 0.40307194 -0.26142532 0.0012658867
-185.34399 -34.811199 627.06702 0.6105541 0.35140434 -0.70974547 0.01898695
-182.181 -34.729099 629.16803 0.48726892 0.3881802 -0.78223085 0.00042727755
-158.27 -25.9422 641.96802 0.35800064 -0.11340088 -0.92680943 0.010482015
-153.099 28.112801 603.026 -0.49141178 -0.53076035 -0.69051278 0.058649808
-170.994 -33.296398 635.133 0.38964793 0.39686388 -0.8310678 0.0077578062
-167.43401 -33.003502 637.47198 0.44002163 0.3619464 -0.82181251 0
-177.821 -14.7067 613.83801 0.88430125 -0.39789695 0.2443141 0.0019625542
-173.17599 -7.7800298 611.45697 0.86401385 -0.47745335 0.15974493 0.0011887138
-178.502 -17.0578 613.92902 0.90302342 -0.35408282 0.24325709 0.0019991335
-182.537 -37.9203 627.09302 0.44940722 0.4992044 -0.74082935 0.0026258884
-158.267 14.9831 604.23798 0.85959256 -0.49472725 0.12784961 0.0021975164
-162.80499 79.140999 551.12201 0.12211795 -0.87110931 -0.47566354 0.010278857
-176.44299 -13.7149 611.32703 -0.88101363 0.33766949 -0.33135214 0.0060907123
-168.11 -36.6782 635.28101 0.45103881 0.34185946 -0.8244369 0
-174.70399 -10.7426 609.56403 -0.86136854 0.42282701 -0.28153446 0.0067249038
-183.638 -41.545898 624.08801 0.43546811 0.62976056 -0.64324892 0.016067244
-161.83099 80.977699 548.10101 0.032647628 -0.79436767 -0.60655928 0.018371742
-154.104 20.8617 600.48199 0.82184887 -0.53346926 0.1999377 0.0079807909
-172.69299 -7.7442398 606.85699 0.87209409 -0.43040088 0.23282394 0.0045579672
-179.73599 -40.742401 626.43103 0.49678206 0.61432415 -0.61303622 0.010021394
-176.56799 -40.720699 629.23999 0.52450788 0.43423811 -0.73234469 0.0043867999
-155.674 77.369904 554.33698 0.14769876 -0.8414408 -0.51977152 0.027817139
-177.48599 -41.9408 626.96002 0.6216771 0.54352206 -0.56400472 0.026482688
-172.545 -40.6488 631.37701 0.44137171 0.38498947 -0.81053942 0.0024381571
-169.134 -40.428001 633.30298 0.4444977 0.36860088 -0.81642824 0.0010097193
-165.41901 -39.929001 635.53998 0.45409682 0.33821705 -0.82426047 0.00029121389
-151.916 22.0168 597.26001 0.85866594 -0.47086814 0.20242494 0.0052519287
-175.12601 -14.4479 607.75299 -0.89953917 0.26973608 -0.34361571 0.0028147488
-161.758 -40.237202 637.57202 0.43432191 0.25499234 -0.86391169 0
-152.937 75.982803 555.46503 0.079315759 -0.85356957 -0.51490593 0.018486904
-184.17999 -41.980202 621.27301 0.44681913 0.88237482 0.14753738 0.030577902
-148.67799 75.372704 556.92297 0.14215584 -0.81039816 -0.56837177 0.0078108646
-140.149 70.165398 568.60699 -0.12394053 -0.87821102 -0.46193513 0.0091502937
-146.325 38.701801 586.70801 -0.03636146 -0.85725194 -0.51361161 0.0090423599
-177.054 -44.089699 626.87097 0.41846612 0.80687875 -0.41693261 0.045520712
-169.95799 -43.202702 631.46503 0.44225374 0.54012316 -0.71601576 0.003107772
-89.061203 -2.7884901 558.88397 -0.046709437 -0.88344961 -0.46619201 0.00198481
-86.1334 -3.97734 561.06702 -0.031556126 -0.84949607 -0.52665043 0.0020677671
-76.604103 -9.9442997 571.60699 0.1191585 -0.83144236 -0.54268301 0
-73.0886 -10.6798 573.41998 0.065096505 -0.88280082 -0.46521509 0.0019711663
-72.808701 -8.3498602 569.789 0.041476391 -0.85468721 -0.51748377 0.0030634271
-71.805 -6.7680001 566.89899 0.029442497 -0.89407873 -0.44694111 0.0040418394
-65.642899 -8.5105801 569.82501 -0.070785537 -0.87772745 -0.47390288 0.0035929198
-61.319199 -9.0687704 571.28101 -0.0056417473 -0.85832578 -0.51307422 0
-58.172298 -10.5196 573.82898 0.027851975 -0.88283271 -0.46886116 0.0028884478
-58.086399 -8.3596296 569.85101 0.0091547128 -0.87897706 -0.4767763 0.0019365231
-52.058998 -11.4124 576.367 0.080951966 -0.89372063 -0.44125986 0.0002529732
-51.274399 -9.5686102 573.112 0.045009635 -0.89396942 -0.44586188 0
-44.548401 -12.9375 580.35199 0.052096881 -0.89257759 -0.44787407 0.0025102736
-46.749599 -8.5644999 571.39203 0.03220465 -0.89544797 -0.44399968 0.0013349504
-43.544601 -7.6094398 569.88098 -0.0096404022 -0.91095769 -0.4123871 0.004709438
-39.533199 -7.36972 567.64697 -0.13233453 -0.90158159 -0.41187143 0.0055217734
-35.891899 -8.1447897 569.01398 0.020064469 -0.88655472 -0.46218845 0
-35.8918 -6.6462998 565.98199 0.018622674 -0.89401406 -0.44765157 0.0007418294
-50.752201 13.3243 527.61401 0.016505888 -0.87376124 -0.48607495 0.00063874322
-53.898899 17.2726 520.01202 -0.099256769 -0.88463646 -0.45559454 0.0032076484
-50.0312 16.3508 521.47998 0.019067213 -0.88889259 -0.45771864 0.0016345369
-1.8832 -6.9321599 538.53497 -0.75927043 0.58154064 -0.29209402 0.0054539279
2.1893599 0.32462201 540.38501 -0.75979382 -0.075252168 -0.64579451 0.053342659
-0.30121601 0.871324 543.18298 -0.63474095 -0.002989759 -0.77271926 0.014427011
-29.3997 14.5067 516.56799 0.54804587 0.42839453 -0.71841753 0.064642154
-31.6425 16.760201 515.87903 0.35716987 0.68015087 -0.6401754 0.058447901
-39.119598 17.7094 511.918 0.466483 0.68861914 -0.55515528 0.071644507
-36.140598 17.5194 513.91901 0.46109644 0.76091188 -0.45651183 0.039444257
-35.000099 17.491301 517.32202 -0.18345666 -0.97706938 -0.10806986 0.0082176877
-39.6562 17.316999 519.716 -0.088958874 -0.90701222 -0.41160062 0.006532548
-42.889099 16.607901 521.146 -0.023113376 -0.91630459 -0.39981443 0.0026414751
-43.7654 15.1582 524.73901 0.036711037 -0.91778129 -0.3953855 0.00093411398
-49.5322 18.4188 518.21503 0.0001005256 -0.86275971 -0.50561428 0.0020450747
-100.548 -5.8441 564.26599 0.048829578 -0.81283498 -0.5804438 0.0011462966
-101.198 -7.9386401 567.09003 0.13721427 -0.80290943 -0.58009362 0.0040346333
-101.934 -10.32 570.10101 0.023677876 -0.83872825 -0.54403514 0.0066311113
-102.248 -12.0565 573.42499 -0.1341079 -0.8404817 -0.5249815 0.00144621
-105.805 -10.6186 571.86603 -0.11936284 -0.87012267 -0.47816229 0.0061654574
-103.675 -15.83 579.51398 -0.098180786 -0.86309487 -0.49540672 0.0031339885
-109.715 -11.6537 574.08502 -0.0049400232 -0.85862029 -0.51258832 0.0040411004
-113.373 -12.4338 575.44598 0.04663834 -0.79897273 -0.59955603 0.0078859795
-117.183 -11.918 573.99402 0.11248467 -0.82218736 -0.55799204 0.0043348642
-120.283 -11.3027 572.18701 0.07072141 -0.84123963 -0.53601706 0.0033615199
-117.479 -16.1542 579.89502 -0.022002427 -0.83768278 -0.54571366 0.0055749756
-108.521 -30.5399 604.49799 0.1667024 -0.87265855 -0.45899594 0.0034411724
-132.80299 -16.344299 580.05103 0.061215069 -0.85586917 -0.51355684 0.0028887326
-96.358299 85.178497 518.88599 0.84545916 -0.53403193 0.0029413747 0.0041013253
-97.1576 84.7248 523.14697 0.85245681 -0.49617028 0.164719 0.0025468997
-128.82401 -25.716299 595.49298 0.044978034 -0.84498936 -0.53288817 0.0047915983
-99.051102 96.436699 514.88599 0.14994958 0.78031725 -0.6071409 0.042917926
-131.79401 -24.987801 593.91803 -0.042409655 -0.87591296 -0.48060161 0.0061209723
-135.11501 -24.0823 592.45203 0.0072417813 -0.85779202 -0.51394594 0.0023198929
-98.564003 96.744698 518.237 -0.13350692 -0.97551763 -0.17476058 0.0096227666
-102.531 96.955498 516.367 -0.10199327 0.94240159 -0.31855407 0.057757359
-135.882 -26.223499 595.48401 0.1045269 -0.80461234 -0.58452815 0
-100.111 93.277702 524.20801 -0.12220605 -0.82849991 -0.54649216 0.0033754422
-106.095 96.907799 518.27502 -0.022948274 -0.99932873 -0.028554153 0.043471158
-139.32201 -27.472 596.99402 0.044978093 -0.86160439 -0.50558364 0.0016013884
-157.474 -8.0776901 569.427 -0.79960442 -0.067087583 -0.59676802 0.068341091
-109.907 96.596001 520.14203 -0.099215917 -0.95477206 -0.28029722 0.0083047254
-113.58 96.838997 518.41199 0.020079562 -0.99973202 0.011522249 0.016131405
-117.1 96.464798 516.49103 -0.12064529 0.92196006 -0.36801383 0.1096472
-120.588 95.506897 514.26801 0.05689631 0.88018632 -0.47120577 0.098197401
-155.045 -18.649599 583.65997 -0.14914051 -0.86681682 -0.47580016 0.0031528012
-160.93201 -14.0658 577.73602 -0.52549136 -0.43898779 -0.72879946 0.027988296
-113.362 96.177101 521.914 0.019030195 -0.93425381 -0.35610065 0.0050612353
-125.162 95.437599 513.40198 -0.019567644 -0.875763 -0.48234445 0.083336607
-114.741 94.014503 525.297 0.0943335 -0.87965435 -0.46616453 0.0047329781
-161.25 -17.3626 581.46002 -0.16948494 -0.6352244 -0.75350165 0.0069669695
-128.224 95.302101 514.45697 -0.27448115 -0.69335687 -0.66627043 0.064691581
-163.452 -14.63 580.63397 -0.77099907 -0.23648369 -0.59130025 0.030178057
-129.964 93.5383 516.289 0.032121237 0.87972093 -0.47440419 0.074759029
-127.923 96.545197 518.19897 -0.17400184 0.94178003 -0.2877042 0.031147534
-131.815 95.677803 516.19598 0.48987561 0.87061399 -0.045313243 0.088909067
-122.137 92.166298 528.40698 -0.043116182 -0.85687304 -0.51372129 0.00051308231
-127.771 95.808601 522.27301 -0.011122228 -0.92598838 -0.37738809 0.0055061658
-128.99899 94.239197 525.11102 -0.0872164 -0.89956224 -0.42799655 0.00074910338
-163.086 -6.9598699 583.72498 -0.82564354 0.33047321 -0.45727471 0.00094388815
-131.933 95.484596 524.341 -0.013986065 -0.87271237 -0.48803431 0.010672962
-154.571 10.2519 578.43597 -0.89853567 0.31385037 -0.3068088 0.0018222285
-152.967 13.787 576.47302 -0.85976034 0.40477157 -0.31140363 0.0061479984
-144.765 27.4984 574.54199 0.85822427 -0.50369442 0.098707072 0.0025738336
-130 88.882797 534.875 0.11498855 -0.88849419 -0.44424736 0.0047460576
-166.66499 -32.203602 605.20801 0.021331789 -0.89166236 -0.45219839 0.0053335046
-131.188 87.172401 538.19397 -0.041388854 -0.88467771 -0.46436229 0.0042339931
-161.823 -40.257401 617.40399 -0.093415089 -0.83198816 -0.54687232 0.012698842
-153.276 14.306 580.22498 0.8547231 -0.49153155 0.16686891 0.0060253525
-150.91299 19.3696 580.38599 0.85879105 -0.49007741 0.14933938 0.0043443567
-132.093 83.559097 544.633 -0.071129642 -0.83008164 -0.55308688 0.0015706299
-162.201 -42.0681 620.896 -0.063959286 -0.83995318 -0.53887653 0.014170917
-165.239 -41.331299 619.02502 0.098774441 -0.78917164 -0.60617793 0.0010066067
-152.26601 17.945801 582.914 0.85124266 -0.49453837 0.17554991 0.007647831
-135.80299 84.124603 542.47198 0.16307282 -0.88028973 -0.44553024 0.015803561
-154.52 14.4329 585.16803 0.86870044 -0.47213897 0.14981419 0.0048819864
-130.203 66.630898 564.21399 -0.63507712 -0.12037093 -0.76301229 0.01969018
-128.825 70.183197 562.284 -0.40850687 -0.33333486 -0.84971166 0.028689675
-169.662 -40.836899 617.92603 0.01615734 -0.85426295 -0.5195899 0.00032359574
-150.76199 20.1413 584.95599 0.83549625 -0.524481 0.16390769 0.003608014
-155.651 12.7188 587.35498 0.85643524 -0.50016016 0.1279005 0.0030575825
-138.326 42.0326 578.823 -0.73286432 -0.40901378 -0.54370737 0.075336896
-169.79201 -42.189499 620.45599 0.006558564 -0.8517108 -0.52397108 0.0023013698
-132.938 70.065804 564.34802 -0.28783256 -0.59857661 -0.74756831 0.0051796082
-170.728 -44.372101 623.901 -0.038708609 -0.89248395 -0.44941524 0.0072490973
-139.41 39.483002 581.75098 -0.88310671 0.092329063 -0.45999756 0.042024728
-160.258 7.42063 591.79401 0.87723327 -0.4327029 0.20791836 0.0095853079
-141.23 41.4911 581.54498 -0.38505992 -0.8193537 -0.42472139 0.009577007
-135.353 72.248901 563.11798 -0.18547937 -0.77590996 -0.60296029 0.0060826773
-144.235 42.805 580.18298 -0.19765924 -0.89705259 -0.39525628 0.0010281344
-136.026 66.066704 568.67102 -0.68488485 -0.18809254 -0.70395589 0.010605161
-136.263 69.837799 566.04199 -0.35055441 -0.77398676 -0.52731031 0.013149614
-175.974 -18.0905 606.19702 -0.90915012 0.2583679 -0.32663745 0.0016253731
-156.95599 13.8227 595.09003 0.80029732 -0.59329593 0.086741649 0.0021870884
-144.498 41.376701 583.42401 -0.13214751 -0.83477271 -0.53450125 0.014006509
-162.56 -43.404999 636.12299 0.43460956 0.40789539 -0.80295444 0.0075318278
-137.452 69.479301 569.23602 -0.56476986 -0.57220966 -0.59465212 0.029054694
-149.11301 77.116997 552.95898 0.20407416 -0.85891789 -0.46969545 0.012737821
-149.325 -13.2787 764.63501 -0.94722486 0.16258338 -0.27628204 0.0037159489
-148.459 -13.683 760.69098 -0.91687626 0.15577449 -0.36752179 0.0048459158
-149.252 -16.8269 762.65399 -0.86257422 -0.25275782 -0.4382683 0.016751708
-147.23599 -19.902599 762.98798 -0.44117314 -0.77209884 -0.4574163 0.030719774
-143.85001 -20.785 764.16199 -0.049107015 -0.86927098 -0.4918907 0.0037441265
-143.49001 -18.946899 760.78101 0.11544012 -0.83882457 -0.53202152 0.00086949579
-75.631699 -20.266399 816.88098 0.15269834 0.56095499 -0.81364167 0.0027496882
-130.862 28.4174 732.966 -0.935036 0.13259046 -0.3288275 0.0091854483
-72.450302 -21.053801 816.69 0.14497569 0.5488866 -0.82322878 0
-131.416 27.447201 731.23297 -0.93745053 0.16215184 -0.30804756 0.0096393768
-128.11 35.384701 728.09802 -0.87351239 0.12302771 -0.4709993 0.0015731053
-131.19299 24.641199 731.04303 -0.94226825 0.090095982 -0.32251063 0.004903215
-129.86099 28.033701 729.18103 -0.89922106 0.19244833 -0.39289334 0.0084820688
-128.412 31.546301 726.771 -0.88891572 0.15690635 -0.43035945 0.0016936496
-126.657 34.893398 724.82098 -0.9035666 0.13336262 -0.40716299 0.0026950447
-128.16499 27.986601 725.56299 -0.9056803 0.13209292 -0.40285799 0.0019081245
-128.55499 -5.9707198 745.25 0.061492365 -0.84841871 -0.52574176 0.0068536992
-124.77 -6.41292 746.77002 0.058188628 -0.87352479 -0.48328921 0.0038452379
-125.445 -5.2658501 743.89001 0.030698791 -0.81794333 -0.5744791 0.0063808141
-124.284 -2.6482501 741.10101 -0.037471458 -0.82183492 -0.56849205 0.021853244
-127.073 0.96954203 732.71503 0.11256511 -0.83706939 -0.53539151 0.00042218674
-122.794 0.69357198 734.05798 0.16898201 -0.85855174 -0.48408058 0.0038078683
-118.819 0.58542699 735.89899 -0.090542734 -0.85755873 -0.50635457 0.005898844
-116.56 -1.38604 737.58002 -0.25462559 -0.85717416 -0.44768092 0.003023244
-116.057 -26.3365 753.26501 0.73777753 -0.48144737 -0.47317296 0.0033610568
-119.171 -28.9431 750.526 0.74852502 -0.47178963 -0.46596655 0.004324649
-115.885 0.58873898 734.14203 -0.38368794 -0.84940428 -0.36234784 0.0093153706
-114.434 -18.9291 748.021 0.74333549 -0.50354594 -0.44033375 0.0037376175
-123.781 -26.7206 740.51001 0.72649461 -0.4904159 -0.48135006 0.00090413255
-120.91 7.7711 721.66699 -0.2352661 -0.80579066 -0.5434624 0.0073048552
-125.773 -27.528299 737.703 0.76077646 -0.49475536 -0.42004326 0.0049792933
-130.19701 -28.619699 731.35999 0.80797875 -0.41912287 -0.4141334 0.0025447619
-120.021 7.8087001 715.78998 0.93250054 0.13325614 -0.33568671 0.023186224
-119.637 1.06748 720.30701 0.77728122 -0.37882301 -0.50232166 0.0029732406
-122.408 -0.39184901 716.81598 0.71525007 -0.44821486 -0.53620964 0.0030904037
-129.616 -20.794701 723.61798 0.76114368 -0.42295057 -0.49170431 0.0034698709
-131.39301 -27.263901 727.23102 0.86730778 -0.36101308 -0.34270501 0.025653059
-123.716 1.12328 713.211 0.79263234 -0.41207495 -0.44936419 0.0060613523
-125.528 -2.94187 715.48999 0.72932309 -0.47452432 -0.49286366 0.0043297657
-133.203 -28.289801 724.729 0.99267882 -0.11904486 -0.02042238 0.089745395
-131.20799 -14.2661 715.56598 0.75624675 -0.44081822 -0.48349792 0.005036484
-132.511 -21.2934 720.20599 0.72937411 -0.46489015 -0.50188702 0.0030261988
-132.222 -31.1031 725.31702 -0.45866296 -0.63400209 -0.62263125 0.069049664
-131.162 -29.320601 722.53802 -0.65985805 -0.34760895 -0.66614974 0.14961641
-134.34801 -27.119101 717.12903 -0.14021328 -0.89443517 -0.42464799 0.013612733
-131.13699 -27.874701 718.883 -0.15194772 -0.90067893 -0.40704945 0.066873677
-126.935 -28.0977 719.85303 -0.039762881 -0.75959694 -0.64917755 0.0022432089
-124.589 -30.5238 721.97601 -0.017340964 -0.8419497 -0.53927726 0.011546482
-120.823 -16.9536 712.88599 0.5566954 -0.64961487 -0.51777494 0.0083626378
-128.03101 -18.251301 707.836 0.49453601 -0.62598789 -0.60297036 0.0045045824
-123.49 -27.840799 718.81097 -0.088779353 -0.75951976 -0.64439732 0.0048866342
-126.588 -14.833 704.40302 0.57526147 -0.66357338 -0.47827256 0.0059015248
-120.096 -26.9431 717.09198 -0.13753222 -0.65020984 -0.74720287 0.013444439
-113.855 -20.810801 714.83801 -0.089453451 0.056245182 -0.99440163 0
-116.17 -27.9587 717.94598 -0.027383832 -0.81185877 -0.58321136 0.011100684
-108.892 -26.4741 715.55701 -0.17841887 -0.57824159 -0.79611772 0.017804706
-105.455 -27.282101 716.28198 -0.075983435 -0.67923218 -0.72997952 0.020316787
-102.576 -28.462099 716.961 0.014637764 -0.9166438 -0.39943695 0.023437835
-101.581 -28.0441 718.71698 -0.039604612 -0.9205125 -0.38870075 0.023356128
-174.31799 15.0419 626.815 0.75411212 0.636985 -0.15989076 0.048006933
-101.536 -26.3633 714.87598 -0.010665916 -0.59903479 -0.80065203 0.0024320097
-169.619 48.4445 603.55902 0.88628268 -0.44258896 -0.13644807 0.023599325
-95.323196 -30.2232 720.24597 -0.029640574 -0.8535285 -0.52020246 0
-174.662 14.4902 623.40601 0.51739264 0.85082698 0.091642678 0.036167197
-176.849 20.610701 612.711 0.062625378 -0.82357097 -0.56374532 0.0029941509
-168.084 7.2606802 627.85999 0.95785183 -0.27010426 0.097793885 0.013450497
-172.89 20.019899 613.883 0.066724196 -0.80946583 -0.58336341 0.0014130786
-173.7 34.2813 602.69397 -0.75727862 0.17398265 -0.62949115 0.0028609727
-170.097 3.28776 625.534 0.85524207 -0.51785672 -0.019633401 0.007440662
-166.938 18.1196 617.02698 -0.020839224 -0.75913405 -0.65060061 0.00170503
-164.66299 48.8409 595.98199 -0.67877835 -0.21488759 -0.70219898 0.017497672
-164.936 45.514702 595.91101 -0.71908599 0.10946567 -0.6862452 0.00032310837
-165.849 20.824499 614.11603 -0.020786971 -0.75010961 -0.66098684 0.0043606171
-170.50999 28.66 602.224 -0.083460487 -0.88958299 -0.44908386 0.036014061
-161.927 57.398102 584.83301 -0.023646887 -0.84486407 -0.53445804 0.00090504036
-161.80701 21.677099 612.68402 -0.21361755 -0.6419251 -0.73640996 0.0098818149
-175.019 -6.8037901 619.19501 0.81065053 -0.55170888 0.19611986 0.003058827
-158.033 21.7988 610.94202 -0.62370324 -0.47948155 -0.61732632 0.062237833
-159.286 18.1688 612.95203 -0.71443325 0.017199062 -0.69949222 0.055938292
-176.476 -9.8348198 617.89502 -0.86033601 0.44178155 -0.25426587 0.00081007951
-156.532 27.2875 605.45099 -0.33756834 -0.77267873 -0.53760135 0.0093098711
-157.12199 25.2043 608.14398 -0.49684393 -0.51242298 -0.70040613 0.03562304
-174.338 -6.69484 616.12598 0.84558415 -0.49161577 0.20808952 0.0033780851
-155.603 21.795601 607.86902 -0.89031953 0.096706577 -0.44494835 0.038129617
-154.871 48.563099 585.216 -0.76338369 0.17800966 -0.62093312 0.0046404977
-163.41701 -32.8806 639.39398 0.44753206 0.30770445 -0.83966243 0.0068639559
-160.45599 -32.858601 641.05701 0.35450876 0.25612998 -0.89928907 0.0066188807
-159.714 74.040398 558.935 0.022131002 -0.82337153 -0.56707102 0.0023798672
-157.278 73.155998 559.80603 -0.05228886 -0.86275554 -0.5029102 0
-160.877 -36.123001 639.65198 0.43472397 0.34597656 -0.83145368 0
-156.05 74.725403 556.96899 0.068427794 -0.88145465 -0.46728513 0.010639444
-185.631 -35.23 618.51898 -0.90238494 0.24718681 -0.35298735 0.015536304
-155.79201 75.904099 554.04102 0.14081676 -0.85863435 -0.49286681 0.02410355
-150.32001 71.7724 563.31097 0.027125988 -0.82953864 -0.55779016 0.0090915449
-178.67999 -20.938101 611.25299 -0.88486958 0.2422833 -0.39787516 0.0018909213
-157.778 82.1493 546.70599 -0.046067815 -0.79222983 -0.60848141 0.018687248
-153.84399 81.265297 547.81897 -0.039413195 -0.81686467 -0.57548124 0
-71.009102 -15.0273 581.03302 -0.069491699 -0.88151753 -0.46700943 0.0037809054
-67.777496 -15.8053 582.91803 0.041628055 -0.88011187 -0.47293776 0.0026022631
-66.470596 -12.0587 576.33301 -0.033416659 -0.87250459 -0.48746184 0.00043002254
-65.946503 -10.4227 573.08502 -0.054763433 -0.86378175 -0.50088125 0.0018204125
-67.527 -4.0072498 562.20697 0.0095891235 -0.83105654 -0.55610532 0.0015292171
-64.205399 -4.9127002 563.672 0.016035918 -0.81252301 -0.58270854 0.00069765508
-63.304501 -2.73488 560.758 -0.012653084 -0.8547557 -0.51887637 0.0022789415
-57.301701 -6.51583 566.59601 -0.011095376 -0.88861805 -0.45851377 0.0010568579
-65.111702 3.0669899 549.59998 -0.17707412 -0.89087975 -0.41830367 0.0037561699
-62.1091 1.63142 550.68103 -0.11570051 -0.87368667 -0.47253048 0.003693701
-49.702099 -4.6605201 563.36798 0.016831875 -0.88618761 -0.46302062 0.0021820255
-61.0639 3.6830399 547.41803 -0.058106154 -0.79814267 -0.59965998 0.0031856576
-48.9175 -2.81672 560.11298 0.014195224 -0.87376696 -0.4861376 0.00031483753
-49.2668 -1.40991 557.22498 0.0015263968 -0.89382458 -0.44841409 0.00048471478
-44.5508 -1.67055 558.31598 -0.15013781 -0.911448 -0.38304216 0.0030336026
-41.396801 -1.69075 556.13599 -0.064233549 -0.90932405 -0.41110083 0.0060038539
4.2811399 -0.33068499 535.466 -0.85837907 0.40184805 -0.31890997 0.0048701996
-8.8233099 -14.2136 540.21301 -0.77149087 0.53757989 -0.34030822 0.0038004969
2.9072299 -1.1734999 530.89398 0.68650198 -0.49226952 -0.53515023 0.042445976
2.04842 -4.0416498 532.77399 0.76219165 -0.64616799 -0.039124835 0.030438161
-7.8103299 -10.6021 542.19598 -0.77053934 0.5170095 -0.37278718 0.010702671
-10.5046 -13.5628 544.42603 -0.75738335 0.4882201 -0.43360305 0.0032596444
-27.8514 -28.4314 552.38 -0.69007534 0.61319286 -0.38443533 0.0011725186
-12.5177 -14.1725 546.565 -0.63158762 0.64150339 -0.43539694 0.0013096163
-2.5388601 8.0726299 531.20898 0.42493328 0.82574224 -0.37091982 0.067774422
-6.8032198 -6.93399 545.59198 -0.64715153 0.5544095 -0.52328283 0.00013707165
-2.8793399 6.7694101 535.27002 -0.07444144 -0.93460345 -0.34781432 0.0051037855
-30.6115 -29.1287 555.81702 -0.71033323 0.6202876 -0.33267102 0.0013959842
-25.6064 -21.470301 556.711 -0.79527414 0.53967345 -0.27620953 0.011537812
-41.607201 19.4765 511.483 0.22613288 0.72758293 -0.6476782 0.085949905
-27.521999 -23.779499 559.62598 -0.8341642 0.49670136 -0.23970336 0.004541222
-31.006701 -27.2787 563.99799 -0.73674601 0.67439705 -0.048927393 0.00285972
-26.287001 -20.4582 561.26703 -0.77163839 0.58842003 -0.24152869 0.0082975635
-35.000801 -32.5555 568.08502 0.85443038 -0.4770048 -0.20594947 0.0017888559
-33.360401 -29.063999 566.18201 0.74172187 -0.662633 -0.10375984 0.0082884347
-48.747601 20.2626 514.96002 -0.059579141 -0.94409555 -0.32424346 0.0073561245
-55.8409 20.468399 511.14801 -0.20236441 -0.97084624 -0.12847656 0.010562968
-58.9226 21.907301 510.60599 -0.16392608 -0.9370755 -0.30824962 0.0066866293
-84.760902 -23.355801 595.28601 0.12619565 -0.85180485 -0.50843197 0.0019257781
-88.559196 -23.0488 594.02002 0.019794423 -0.86721331 -0.49754316 0.0019463317
-97.1679 -18.937 586.38898 0.010302066 -0.92330301 -0.38393411 0.0012977502
-98.041298 -20.4149 589.27502 -0.00019311934 -0.90117788 -0.43344957 0.0028160617
-99.929901 -27.459801 601.50897 0.076211154 -0.90757793 -0.41290957 0.0015151572
-124.378 -12.1237 573.88397 0.01278227 -0.85935736 -0.51121575 0.0048843729
-101.057 -30.7829 608.289 0.047407094 -0.90662599 -0.41926336 0.0058980235
-127.356 -13.3302 575.17102 0.059285466 -0.83167833 -0.55208361 0.0010202212
-104.975 -30.6334 606.64001 0.20711978 -0.87732291 -0.43290406 0
-126.265 -18.929001 583.08301 0.0013629415 -0.8053968 -0.5927344 0.0023694725
-108.313 -31.878401 608.091 0.12653649 -0.92308933 -0.36317313 0.0003393431
-109.472 -33.132198 610.96698 0.11349791 -0.90971214 -0.39942706 0.0044116597
-115.979 -30.0252 604.09302 0.0035913803 -0.87042105 -0.49229512 0.0029971064
-112.356 -32.750599 610.23199 0.17579605 -0.84985447 -0.49683306 0.0093789073
-115.713 -32.371498 607.72601 0.10871638 -0.85561275 -0.50607067 0.0044973856
-119.964 -31.895901 606.51001 0.042276975 -0.86224598 -0.50472224 0.0074963127
-122.877 -30.9762 604.81 -0.026142722 -0.91159564 -0.410256 0.0026934494
-117.282 -36.059101 614.23602 -0.013858093 -0.86157042 -0.50744873 0.002962362
-128.908 -29.143801 601.52698 0.068914399 -0.84692574 -0.52722633 0.0045199795
-99.448799 84.077103 529.53302 -0.89003026 0.31557831 -0.32902345 0.016405052
-130.618 -31.4552 604.08899 0.056313135 -0.86517566 -0.49829718 0.0051911902
-130.194 -33.235901 608.125 0.045288801 -0.87610185 -0.47999415 0.0030329188
-134.561 -32.482498 606.63 0.10856958 -0.84178424 -0.52878344 0.0015305736
-131.51601 -37.437099 614.94 0.099879861 -0.86063308 -0.49933425 0.0023898666
-112.653 76.151001 548.19501 -0.71260113 -0.080998294 -0.69687796 0.020670358
-116.602 77.176399 550.61401 -0.49097103 -0.34632304 -0.79937959 0.013878454
-150.908 15.9498 574.508 -0.8608374 0.43296289 -0.2673988 0.0038312532
-124.847 83.046402 544.02698 0.011568624 -0.79504365 -0.60644192 0.0092209335
-160.933 -37.8778 614.12799 0.00067547656 -0.84505862 -0.53467327 0.0085134767
-149.895 19.5613 576.48999 -0.86145842 0.43390629 -0.26384592 0.001472112
-167.436 -34.867599 608.43701 0.038735922 -0.82908928 -0.55777276 0.0034814496
-125.619 81.146301 547.23401 -0.20214498 -0.84299797 -0.49848947 0
-128.737 82.762703 545.88202 -0.10247942 -0.84399217 -0.52647424 0.00051163149
-170.991 -35.563 609.646 -0.019288229 -0.83599776 -0.54839379 0.0012151113
-126.886 78.1362 553.36401 -0.072979957 -0.86931258 -0.48884508 0.0018040272
-174.743 -34.620399 608.35699 0.095492862 -0.78293782 -0.61472714 0.0032358051
-127.156 76.347298 556.76099 -0.067116171 -0.77333379 -0.63043654 0.0055214847
-145.48 27.847099 581.83801 0.84560108 -0.50689948 0.16736732 0.0092315851
-128.009 73.534698 559.29303 -0.1743678 -0.59508121 -0.78452176 0.02310648
-145.034 89.250603 535.771 -0.0031244024 -0.89954638 -0.43681425 0.0054123304
-177.75999 -34.268799 607.073 -0.27892929 -0.67240751 -0.68561417 0.030551827
-174.911 -38.381199 614.62097 -0.0035404081 -0.8639527 -0.50356066 0.005597129
-148.349 87.900101 536.961 0.030039743 -0.82625777 -0.56249058 0.0016231333
-152.153 88.887901 535.84399 -0.025973951 -0.83439189 -0.55055922 0.0015177665
-143.17999 35.027699 586.75 -0.90558171 0.16046983 -0.39264646 0.033005822
-156.342 89.507599 533.32501 0.42676997 -0.85994416 -0.27993482 0.0085092923
-153.117 85.122101 541.93597 -0.010896424 -0.8446244 -0.53524834 0.0031705364
-177.20599 -21.567699 607.86401 -0.90500289 0.19818458 -0.37642062 0.0010972845
-178.93201 -24.4804 609.89001 -0.84522879 0.25316814 -0.47063157 0.0041487413
-153.93201 82.879898 544.92401 -0.042754132 -0.82146299 -0.5686568 0
-150.153 -15.262 764.888 -0.95101452 0.072214857 -0.30059338 0.0068556261
-148.791 -12.2415 762.47198 -0.92266011 0.21324757 -0.32128462 0.0064395308
-148.786 -15.1418 762.30499 -0.90133333 -0.013473501 -0.43291646 0.011852084
-146.341 -21.635 765.21802 -0.17610857 -0.9324007 -0.31561792 0.026898766
-145.5 -19.5905 762.073 -0.12471149 -0.82324827 -0.55381346 0.0022308503
-142.069 -20.6269 763.72101 0.11400461 -0.81826496 -0.56342292 0.003627588
-75.694199 -22.652599 815.20697 0.13375796 0.5430674 -0.82896721 0
-131.72701 26.4902 733.47198 -0.96463794 0.064757653 -0.25549954 0.0085858898
-70.640503 -21.7094 816.95898 0.12956527 0.58306062 -0.80203068 0.005190223
-129.224 33.185902 729.24298 -0.88136637 0.11396323 -0.45848188 0
-130.373 29.7435 731.05701 -0.92547631 0.15464652 -0.34580058 0.007901147
-127.453 36.7813 727.33698 -0.92249149 0.027570453 -0.38503146 0.0019872745
-130.612 25.9853 729.703 -0.90782499 0.13549481 -0.39685646 0.0056512537
-127.247 33.269299 726.06299 -0.87945044 0.19081748 -0.43606824 0.0016630134
-127.659 -7.1596799 747.96698 0.097340532 -0.84040302 -0.53314865 0
-126.366 -5.2838702 744.77197 -0.013228322 -0.84445429 -0.53546423 0.010176443
-123.568 -5.95224 745.69501 0.10721705 -0.84836274 -0.51844501 0.0023930667
-127.64 26.083099 722.71002 -0.9334299 0.21531591 -0.28696278 0.0029363686
-125.663 -1.36049 738.77899 -0.097736157 -0.91701829 -0.38668501 0.0097838957
-121.963 -1.73829 740.22498 0.06008894 -0.89248174 -0.44706339 0.017555555
-125.507 -0.41495299 735.086 0.10939351 -0.90532303 -0.41039404 0.0063843396
-123.94 2.0522101 731.80902 0.11233984 -0.83344167 -0.54106808 0.0044992254
-118.253 -1.18275 738.39899 -0.11744377 -0.84862447 -0.5157941 0.0082983831
-117.984 0.316634 735.20599 -0.16654159 -0.86556381 -0.47229576 0.0016246132
-117.146 -25.083401 750.026 0.75442028 -0.49919972 -0.42620382 0.0051961038
-118.052 -27.1159 751.16498 0.75741029 -0.42953017 -0.49176562 0.0027948588
-114.441 -0.87905401 736.33002 -0.41791365 -0.81423324 -0.40295464 0.017927205
-116.554 -21.117701 747.039 0.78701925 -0.41590056 -0.45566151 0.00090767181
-119.704 -26.7481 748.31299 0.76290625 -0.48211929 -0.43073785 0.0042615049
-115.526 -17.6476 745.48901 0.72671938 -0.49526021 -0.47602117 0.0013651937
-117.596 -20.7001 744.54102 0.78831083 -0.41730297 -0.45213306 0.0010493473
-122.26 9.2771502 719.55499 -0.18421867 -0.84471005 -0.50252205 0.0091400156
-124.701 -24.865499 737.60101 0.74359488 -0.50594836 -0.43713045 0.0033591015
-125.901 -28.909201 739.52698 0.76680768 -0.47323936 -0.43364799 0.0073238211
-126.987 -27.684299 735.58197 0.7890836 -0.48791975 -0.37320423 0.0037203871
-129.714 -29.950899 733.53802 0.77999938 -0.45651588 -0.42801192 0.00317804
-118.487 5.97505 718.34698 0.95385396 -0.011562372 -0.3000482 0.034353282
-118.666 -1.65148 723.25098 0.80022395 -0.37098527 -0.47118109 0.0027263486
-123.379 2.3271101 713.87201 0.80219924 -0.3711386 -0.46768847 0.010784439
-125.013 -1.22098 714.36102 0.73773062 -0.4357588 -0.51562363 0.0061351401
-129.436 -15.5568 719.28101 0.76575541 -0.42201409 -0.48530692 0.0034752656
-131.146 -18.9893 720.35498 0.75762242 -0.4323824 -0.48893112 0.005779821
-132.34599 -23.033001 722.28101 0.76534164 -0.36847565 -0.52771008 0.0082700439
-131.763 -26.0919 724.52899 0.96247262 -0.13145451 -0.23741554 0.067159005
-133.36501 -30.257601 726.883 0.92250878 -0.25007239 -0.29400927 0.033455234
-128.886 -8.42346 713.57202 0.75482804 -0.42048606 -0.50341445 0.0053038779
-133.371 -29.495001 723.05298 0.93570876 0.31910363 -0.15040629 0.20703633
-130.17599 -30.499399 724.18103 -0.3917968 -0.8369748 -0.3820582 0.037237372
-132.339 -26.460899 716.20099 0.10811239 -0.82814914 -0.54998255 0.010502364
-126.077 -30.2523 722.242 7.6972574e-05 -0.82622176 -0.5633449 0.010418534
-125.843 -28.0891 719.09003 -0.042390265 -0.75812149 -0.65073407 0
-129.048 -17.085501 704.71899 0.41869009 -0.75024074 -0.51170057 0.0065006549
-124.962 -15.9491 707.875 0.55530941 -0.62395012 -0.54983425 0.0039552199
-121.525 -15.3605 710.34198 0.50843292 -0.65745801 -0.55609798 0
-118.526 -14.2479 712.07898 0.5576368 -0.65222895 -0.51345736 0.0019624045
-122.121 -29.062201 720.474 0.010719713 -0.83938265 -0.54343522 0.0056707235
-116.644 -22.100401 715.586 -0.15658484 -0.016687525 -0.98752356 0.0073717143
-118.951 -28.561701 719.17999 -0.068836905 -0.84978789 -0.52261084 0.0037361947
-117.263 -25.5172 716.07397 -0.12633003 -0.30686846 -0.94333053 0.0049436288
-103.935 -28.580601 718.375 0.044062462 -0.90242797 -0.42858174 0.017944559
-103.772 -25.424601 715.065 -0.15881173 -0.50890374 -0.84604716 0.01445956
-103.379 -27.5016 715.62097 -0.04972307 -0.8210029 -0.56875467 0.050517488
-175.659 16.4937 625.336 0.7472294 0.4808031 -0.45877722 0.010332707
-100.22 -27.953899 716.59601 -0.01752848 -0.85075229 -0.5252744 0.021780655
-173.52699 13.612 625.755 0.75339824 0.63741964 -0.16151574 0.048611082
-97.137901 -28.832199 717.883 -0.021857996 -0.84917814 -0.52765411 0.0020602413
-175.75301 19.3456 614.992 0.00086573104 -0.84649551 -0.53239518 0.0021356863
-174.14999 21.5261 611.78302 0.086118288 -0.80967385 -0.58052737 0.0029878824
-175.448 -8.6208496 632.18103 0.70582712 -0.43280602 -0.56079131 0.016597148
-172.532 -7.8234301 633.39899 0.50304574 -0.27942887 -0.81784135 0.0116358
-165.496 50.471298 595.23901 -0.4138431 -0.65763724 -0.62948167 0.015115991
-172.812 33.120399 601.32898 -0.75343603 0.1077518 -0.64863223 0.0042084749
-168.11099 6.0251398 625.96301 0.89912301 -0.43762532 0.0078663705 0.012838644
-166.08501 46.467899 597.284 -0.64306134 0.036949322 -0.76492274 0.0086965906
-168.009 19.5557 615.07202 0.024546864 -0.75268817 -0.65791941 0.0063152253
-164.37 18.771299 616.09198 -0.20788361 -0.70026553 -0.68294394 0.0078265667
-171.664 29.2369 600.25 -0.29680514 -0.48355541 -0.82345665 0.085681148
-163.293 46.6082 594.341 -0.74028111 0.00665709 -0.67226452 0.00578574
-162.804 58.4459 583.37201 0.11812241 -0.8617093 -0.49346149 0.0067142323
-161.146 19.3489 614.401 -0.3900001 -0.57877576 -0.71618325 0.013997407
-159.717 22.8223 611.27802 -0.23084058 -0.63498187 -0.73723173 0.016175497
-173.45 -5.6136398 617.73798 0.83547324 -0.51197511 0.19966468 0.0073105618
-176.144 -8.5744104 619.96802 0.85375619 -0.48131204 0.19859298 0.00049828587
-158.47099 26.8563 606.16803 0.053403549 -0.84722835 -0.52853775 0.002963467
-157.899 20.132999 611.81799 -0.76075917 -0.024433004 -0.64857423 0.026356664
-155.65401 26.228399 606.63 -0.42322841 -0.66215926 -0.61840338 0.028629826
-175.278 -9.2726202 615.75403 -0.85539669 0.44848555 -0.25914711 0.0013946081
-161.703 -31.0972 640.604 0.38342261 0.14591539 -0.91197348 0.0059092287
-187.257 -36.568001 623.57098 0.96927476 0.12871799 -0.20961447 0.047157064
-184.825 -29.788099 619.54303 -0.89262038 0.20914678 -0.39935762 0.0046713152
-158.446 72.598198 560.987 -0.013529475 -0.84386736 -0.53638119 0.0037210879
-158.483 74.596703 557.79797 -0.14415231 -0.86000556 -0.48950046 0.0020604443
-184.339 -32.8433 618.42902 -0.8898738 0.26553905 -0.3709631 0.013313076
-163.008 -35.3036 638.64398 0.47237542 0.3581101 -0.80536866 0
-159.104 -34.996601 640.62903 0.33875269 0.34411722 -0.87568825 0.0076373355
-153.42799 46.676601 582.99701 -0.69218045 0.093498953 -0.71564251 0.0014034262
-155.313 73.352501 559.453 0.072838791 -0.8381905 -0.54049158 0.0041900771
-157.106 77.4758 551.84998 0.11732293 -0.79757357 -0.59170228 0.04107381
-151.537 73.334602 561.08698 0.04888669 -0.8322835 -0.55219048 0.0063841203
-180.009 -23.2369 612.55298 -0.86658472 0.31670007 -0.38565776 0.0035627703
-178.058 -19.880501 610.27002 -0.89263564 0.21746331 -0.39485613 0.001534318
-178.183 -22.410801 609.89899 -0.88772756 0.22337151 -0.40254799 0.0018817157
-156.724 80.369904 548.90503 -0.056829482 -0.80307591 -0.59316069 0.022557758
-185.327 -36.886799 616.46399 -0.8588599 -0.0361665 -0.51093227 0.023308812
-155.26801 82.968002 545.44501 -0.06576708 -0.82754439 -0.55753481 0.00020559793
-70.132896 -16.0751 582.49402 -0.020092491 -0.88739657 -0.46056885 0.0023668103
-69.000397 -14.3752 579.95398 0.054952674 -0.84220612 -0.53634793 0.00063402619
-68.269997 -10.6824 574.09698 -0.039323822 -0.86131966 -0.5065394 0.00025774303
-64.371597 -11.7866 575.27002 -0.039440427 -0.86156529 -0.50611228 0.0026869348
-66.212601 -5.5789499 564.39801 -0.016019339 -0.85430026 -0.51953298 0.0022875578
-65.7388 -3.0790501 561.11499 0.021169901 -0.83425373 -0.55097419 0.00074007461
-61.5854 -4.2250099 562.59399 -0.020197883 -0.83192432 -0.55452138 0.0025715788
-58.438499 -5.6757998 565.14203 -0.028790142 -0.87037939 -0.4915393 0.0025503458
-64.626701 -0.204937 554.70697 -0.021531468 -0.89660692 -0.44230354 0.0059281141
-64.0047 1.37586 551.862 -0.16519171 -0.83911318 -0.51826715 0
-63.532902 3.33409 548.30701 -0.054957159 -0.83799583 -0.54290199 0.0059277345
-51.537601 -3.50441 561.19098 0.016181607 -0.87627798 -0.48153397 0.0020791644
-60.010101 1.90352 549.617 -0.010391884 -0.87873471 -0.47719732 0.0046319356
-47.0821 -3.9728301 562.28998 -0.015385702 -0.87804902 -0.47832337 0.0012490776
-50.228802 -0.024540899 554.68799 -0.0046650926 -0.89450073 -0.44704229 0.00025154004
-44.462101 -3.28514 561.21198 -0.068425573 -0.86841887 -0.49108708 0.0017649863
-40.654999 -3.0525701 559.09497 -0.1249129 -0.87479311 -0.46811718 0.0050325799
3.9464099 -1.5628099 534.09802 0.86111641 -0.50728327 -0.033796936 0.027094709
-10.9492 -16.3456 540.64398 -0.64771318 0.65871996 -0.38282576 0.0010675645
-12.4055 -16.013399 543.80902 -0.62716287 0.66140151 -0.41135713 0.00053042278
-5.4654298 -8.7319803 542.13098 -0.62581545 0.61675322 -0.47746256 0.0018823723
-30.59 -30.5849 553.16302 -0.69217992 0.6118356 -0.38281068 0.0010043713
-10.3919 -12.0405 546.13501 -0.77260041 0.45168236 -0.44617438 0.0041867634
-8.7041397 -9.3845396 544.974 -0.72518432 0.48370203 -0.49004084 0.0054860595
-4.0279198 7.8502598 532.62701 -0.18377458 -0.95083767 -0.2492682 0.0062837494
-28.7481 -27.1856 555.86499 -0.71310085 0.61457253 -0.33732444 0.0015765131
-27.0721 -24.4165 557.53003 -0.78493977 0.5128597 -0.34762678 0.0058766091
-28.1436 -23.716101 562.09802 -0.83395779 0.52935612 -0.15587334 0.0030276233
-26.0592 -20.805 559.513 -0.78473902 0.5593769 -0.26698723 0.0086868033
-57.9459 21.4561 505.17899 0.48491323 0.64605314 -0.58946967 0.061987679
-33.674301 -30.749399 567.90002 0.79064941 -0.5705002 -0.22226806 0.0048514861
-29.884501 -25.479799 563.92999 -0.80314404 0.5927642 -0.059918217 0.003586421
-50.272202 20.7626 512.81097 0.036389984 -0.98761803 -0.15259884 0.0064525395
-53.9314 20.464199 510.68399 -0.083397463 -0.98665744 -0.13982843 0.0090194764
-57.193802 21.542101 508.62299 -0.36498526 -0.92866695 -0.066056661 0.016979201
-58.2654 21.121401 511.702 -0.14391086 -0.93867153 -0.31334549 0.0070199729
-85.8367 -22.011299 592.85699 0.080708489 -0.90750802 -0.4122079 0.0068059452
-86.853996 -24.308901 596.20001 0.034138057 -0.89675927 -0.44119993 0.0028905906
-95.551498 -19.8311 588.20001 -0.0020881337 -0.92460036 -0.38093281 0.002075108
-99.432999 -19.4624 586.98999 0.03916306 -0.9265033 -0.37424305 0.0009590041
-95.2855 -27.1724 601.94098 0.11094107 -0.8381471 -0.5340426 0.0066364524
-97.730904 -27.314699 601.93701 0.14227599 -0.89268583 -0.42763251 0.0046095923
-101.36 -26.703899 599.34998 0.099072173 -0.91894007 -0.38175097 0.0006848328
-123.024 -13.5045 576.086 0.0456797 -0.85582793 -0.51523978 0.0019008792
-102.185 -29.6105 605.97302 0.017043445 -0.88786489 -0.45978844 0.0035651072
-126.471 -14.7462 577.53601 0.06691999 -0.84574598 -0.52937281 0.00080078049
-103.565 -31.5158 609.03998 0.14362311 -0.89062047 -0.43147129 0.002678805
-127.874 -16.9891 580.87598 -0.052852899 -0.83007228 -0.55514556 0.0071811411
-107.296 -32.883701 610.91602 0.15550311 -0.92493367 -0.34686652 0.00019399145
-111.217 -32.360699 608.68799 0.1039618 -0.9066416 -0.4088923 0.0046160365
-111.261 -34.060398 612.05798 0.23738322 -0.82722127 -0.50926834 0.0081563359
-117.164 -30.7843 605.43201 0.097830735 -0.85358876 -0.51167881 0.0055602174
-118.594 -33.266998 608.81201 0.012027013 -0.8707034 -0.49166137 0.0019866116
-124.349 -30.2153 602.47302 0.0080295922 -0.89982831 -0.43617037 0.0029290384
-99.076103 82.444 526.76898 -0.8483476 0.47005147 -0.24363482 0.0033225317
-118.159 -35.011299 612.77502 -0.031977456 -0.87704599 -0.47934088 0.0025486422
-130.61301 -27.883801 599.34601 0.043853782 -0.83938879 -0.54175937 0.007000383
-98.285103 86.345802 529.09302 -0.90138566 0.17904703 -0.39426646 0.039673932
-132.13499 -31.7826 605.33398 -0.012626816 -0.89001143 -0.45576322 0.0028490871
-133.209 -33.920399 608.89502 0.081674933 -0.85596681 -0.51053888 0.00031635186
-114.642 75.161797 549.5 -0.63460827 0.028223038 -0.77231836 0.0079776393
