ply
format ascii 1.0
comment PCL generated
element vertex 615
property float x
property float y
property float z
property float nx
property float ny
property float nz
property float curvature
element camera 0
property float view_px
property float view_py
property float view_pz
property float x_axisx
property float x_axisy
property float x_axisz
property float y_axisx
property float y_axisy
property float y_axisz
property float z_axisx
property float z_axisy
property float z_axisz
property float focal
property float scalex
property float scaley
property float centerx
property float centery
property int viewportx
property int viewporty
property float k1
property float k2
end_header
-155.209 31.1448 639.51599 0.57168525 -0.074220248 -0.81710911 0.0032480028
-137.375 5.3404799 656.34198 0.6685105 0.4393343 -0.60006601 0.020177659
-148.84801 13.7908 659.97699 -0.69855118 -0.53390884 -0.47641119 0.0029175635
-149.65601 11.3248 663.91602 -0.69173908 -0.54540378 -0.47332001 0.0018934823
-141.424 2.7930601 670.30701 0.0025969215 -0.8167541 -0.57697999 0.0062180455
-102.71 -15.2974 683.789 0.6802963 0.55378705 -0.48012185 0.0036667183
-3.0171499 -34.707901 787.53998 -0.19596624 0.09776435 -0.975725 0
-10.0173 -43.113899 788.289 -0.31466413 0.53357309 -0.78503901 0.0056724087
-6.6059699 -41.146301 787.513 -0.39957005 0.37210396 -0.83778429 0.012084715
-2.70559 -39.125301 787.15997 -0.39415228 0.40933374 -0.82285476 0.0065378291
0.69757801 -36.979599 786.16901 -0.35867041 0.4876169 -0.79598069 0.018964687
-38.926998 -58.744202 786.198 -0.10958091 -0.94486833 -0.3085708 0.02255897
-3.826 -42.118999 785.81299 -0.44067094 0.74098563 -0.50670451 0.022558454
-41.016499 -57.1446 783.82599 -0.12099334 -0.92385125 -0.3631247 0.027272694
-31.8785 -56.309101 783.15997 0.026608031 -0.85203105 -0.52281457 0.0010872472
104.704 21.6248 771.40698 0.33543715 -0.87630552 -0.34578964 0.029601136
108.406 22.487301 771.18298 0.24533981 -0.62978607 -0.73700607 0.011352029
-34.9715 -55.367001 781.203 0.095091142 -0.88451242 -0.4567225 0.0060938518
-31.5371 -54.172798 779.91302 0.13463825 -0.85446554 -0.50175816 0.0088741416
-27.8029 -52.616798 778.797 0.11739638 -0.87220538 -0.47484311 0.017413182
117.923 28.5408 766.51703 -0.41804287 -0.73857099 -0.5289169 0.054793335
-30.5201 -52.458199 776.19897 0.10285659 -0.93478543 -0.33999506 0.0053937519
119.313 25.6639 765.76202 -0.80902785 -0.16952163 -0.56279325 0.02133901
-32.1255 -51.247898 774.008 0.18362851 -0.9764936 -0.11287519 0.067254148
-59.290699 -63.856998 774.25098 -0.40841496 0.70271242 -0.58257407 0.059924178
-11.9418 -49.6418 775.50702 0.29838851 -0.94561321 -0.12953784 0.027078182
120.705 23.511 762.98602 -0.97031313 0.091512829 -0.22387029 0.01385898
-52.1311 -61.555302 772.258 -0.2835131 0.78867513 -0.54553825 0.069643542
-30.135201 -50.572399 772.29999 -0.30952695 0.95058155 -0.02424621 0.055272963
-11.1779 -48.299198 772.19598 0.023014266 -0.92633194 -0.37600449 0.0026960622
-28.721701 -50.534901 769.01703 -0.53032786 0.60532504 -0.59357733 0.039101262
110.833 26.2311 757.98901 0.43673524 -0.89653665 -0.074056715 0.0022558845
-49.567799 -61.672699 769.80603 0.035525348 0.99694651 0.069537461 0.020439588
107.916 25.285999 754.65802 0.41704184 -0.89374393 -0.16522117 0.00082639337
112.122 26.9118 753.64398 0.52305919 -0.8150906 -0.24907091 0.0083783139
-58.0583 -61.5854 766.53302 0.020473463 -0.96486354 -0.26195252 0.010505806
8.3338404 -43.9258 767.01801 -0.15375015 0.65861803 -0.73660249 0.025056919
15.7041 -40.1847 766.33099 -0.43224669 0.44601381 -0.7837311 0.0047388747
-20.697701 -56.650101 765.73499 -0.21016431 0.13741842 -0.96796036 0.017584436
5.2070799 -45.290699 764.40002 0.34527588 0.67066562 -0.65649998 0.090958215
-18.938101 -59.129902 765.17798 -0.14082339 0.32133678 -0.93643546 0
15.012 -47.8452 763.33899 -0.54778129 0.14982393 -0.82309693 0.0039145197
-21.1127 -61.290298 763.88702 -0.13064413 0.94882679 -0.28750625 0.05864324
-50.022099 -54.8288 756.83398 -0.036209792 -0.82204974 -0.56826311 0.00027914264
-40.399799 -54.0924 754.91699 -0.079916053 -0.88379443 -0.46099979 0.0045263576
-43.153301 -53.3465 753.29602 -0.082473107 -0.92393726 -0.37354794 0
27.823999 -46.134602 756.59802 -0.14625363 0.010879194 -0.9891873 3.6725469e-05
-39.731201 -52.9627 751.55798 -0.13252392 -0.95048892 -0.28108406 0.0053468342
-37.660702 -53.106899 750.13 -0.042282 -0.93677253 -0.34737509 0.0059779161
-39.245998 -51.715599 747.97803 -0.11529314 -0.91436863 -0.38812062 0.0062226825
-42.201599 -49.236698 745.78198 -0.30970833 -0.82361257 -0.47512445 0.0140727
-40.8507 -50.764999 745.48297 -0.24225602 -0.84013492 -0.48526835 0.018391088
-38.452499 -49.494701 743.87903 -0.045285039 -0.73915726 -0.67200869 0
32.795799 -57.3988 748.14398 -0.48578373 0.7446472 -0.45772773 0.0066998196
39.602798 -52.755402 746.72302 -0.50227267 0.86467093 0.0081432527 0.038095616
34.479698 -57.702702 745.04102 -0.59297526 0.51860374 -0.61597937 0.0065232399
37.6049 -54.854301 744.26599 -0.66025031 0.58461052 -0.4714871 0.023318557
40.5989 -52.088001 742.79303 -0.66937381 0.72705245 -0.15275253 0.034143813
37.417999 -58.4828 742.23602 -0.64874899 0.3921383 -0.65219039 0.0094043361
37.198898 -63.395699 741.27301 -0.68258828 0.21170193 -0.69946808 0.010590869
38.8722 -59.972599 739.69702 -0.74725825 0.21803305 -0.62774742 0.0028388407
-109.461 -16.320999 708.41901 -0.13151124 -0.41619438 -0.89971495 0.0085548265
-101.898 -11.8522 705.53302 -0.1432016 -0.80647999 -0.57365775 0.17101069
-112.034 -12.7202 704.30701 -0.27050126 0.73236728 -0.62487382 0.1389633
-107.692 -14.0321 703.31897 -0.086798817 0.98959172 -0.11477853 0.10102282
-104.765 -13.0546 702.62701 0.061084647 0.93652827 -0.34522948 0.14275783
-103.482 -10.0719 694.45398 0.50208217 0.81190848 -0.29785597 0.0082552973
-95.691399 -14.9633 696.79797 -0.49568093 -0.84916884 -0.18224347 0.022139041
-105.983 -10.5744 691.19897 0.34429273 0.92477584 -0.16202526 0.028400756
-109.716 -8.4788303 689.75201 -0.1843414 -0.97202212 -0.14557198 0.030181212
-105.684 -9.7403803 687.81201 -0.53858495 -0.83312303 -0.1258264 0.013801542
-79.0886 -35.7607 612.60999 -0.013253866 -0.81861234 -0.57419354 0.0024896779
-69.399399 -34.9939 611.07898 -0.0066989567 -0.77576983 -0.63098037 0.0032510657
-68.638901 -32.091202 608.039 0.048656438 -0.7803418 -0.62345743 0.0015002035
-65.486099 -31.0065 606.28601 0.026315065 -0.80217463 -0.59650928 0.00022448588
-61.951199 -30.215401 605.25299 0.0015891672 -0.92487204 -0.38027516 0.0055856532
-70.586502 -28.5499 602.875 0.048987206 -0.90965611 -0.41246322 0.009999265
-49.503601 -29.118 602.70502 0.080690578 -0.78632981 -0.61251497 0
-48.576 -26.4638 599.68298 -0.031682387 -0.7979334 -0.60191232 0.0008327578
-56.848202 -24.3757 596.45001 0.15020438 -0.82487524 -0.54499495 0.0028123402
-53.203201 -23.0383 595.547 0.071042851 -0.86292893 -0.50030643 0.0037765221
-53.035801 -21.612801 591.52301 0.0074536642 -0.92607766 -0.37725934 0.0027734167
-55.910999 -20.725599 589.38202 0.015634209 -0.85601103 -0.51672113 0.0017803216
-52.060799 -19.3953 587.60303 0.075781867 -0.8342697 -0.54612368 0.00298506
-47.923801 -18.125299 586.758 0.10204933 -0.86846393 -0.48513523 0.0057490724
-51.904999 -17.5406 584.59399 0.035820622 -0.87401319 -0.48457998 9.0316273e-05
-51.054699 -15.3895 580.36499 0.042217024 -0.84426236 -0.53426474 0.00057290512
-97.453003 -8.8222799 569.60303 -0.083127916 -0.864425 -0.49584177 0.0061470745
-99.693001 -8.03267 567.98798 -0.11323277 -0.90179586 -0.41706422 0.00060611672
-96.940201 -7.7659502 566.51898 -0.11620257 -0.93095481 -0.34615025 0
-94.606102 -7.2809 564.55103 0.027525932 -0.86467075 -0.50158435 0.016359381
-96.353401 -5.0816302 562.55499 0.037976108 -0.73928893 -0.67231667 0.0047849342
-98.741302 -3.92278 560.474 0.029229462 -0.90412432 -0.4262687 0.005375688
-80.270699 -3.4457099 559.547 -0.034029309 -0.85293955 -0.5208993 0.004989895
-76.615898 -1.24375 557 -0.0034717422 -0.84537077 -0.53416866 0.005655223
-39.544998 -67.6194 578.97998 0.78686482 0.19649191 -0.58500832 0.010374447
-44.686401 4.7431002 526.27698 0.99951094 0.030437965 -0.0071721706 0.00093474379
-43.460499 -0.81948799 535.16803 0.98941857 -0.091976441 -0.11221064 0.00068917155
-43.135899 -2.3124199 539.25 0.97919601 -0.1296459 -0.15609978 0.00077822426
-38.1119 -59.398499 581.51599 0.84141582 0.028071748 -0.53965861 0.0017336386
-106.092 11.148 537.17499 -0.05207159 -0.85790128 -0.51116914 0.001857969
-100.801 8.5445805 540.94702 -0.052238699 -0.80228448 -0.59465182 0.0017587136
-98.3563 6.2051501 543.32599 -0.053197686 -0.9108609 -0.40927067 0.0068603577
-107.044 7.0381298 544.68903 0.0087637659 -0.88883656 -0.45814052 0.0097830463
-87.075302 2.7865601 549.20099 -0.017482692 -0.81441355 -0.58002138 0.0017137374
-91.594002 2.13029 550.117 -0.029848607 -0.82145381 -0.56949341 0.0011914975
-87.935699 0.84206802 552.04901 -0.078338303 -0.89342153 -0.44233605 0.005193959
-97.287697 0.85292101 553.776 0.090864502 -0.85984886 -0.50239778 0.0078217518
-78.703201 -44.1259 626.23901 0.030005142 -0.8223272 -0.5682233 0.0010372052
-81.854698 -45.205502 627.07397 0.040115695 -0.8244949 -0.56444561 0.0036928649
-79.180298 -46.359001 628.88898 -0.0071757096 -0.80671412 -0.59089839 0.0053843698
-88.754601 -47.407001 629.56097 0.015068769 -0.77238399 -0.63497704 0.0038047805
-86.155098 -49.717201 632.38 -0.043669611 -0.79547435 -0.60441172 0
-71.616501 -52.191299 635.46301 -0.036532298 -0.80565447 -0.59125823 0.00043800726
-86.574799 -51.653801 634.88898 -0.076538756 -0.81756634 -0.57072514 0.0025344607
-89.618896 -52.517399 636.89801 -0.057442453 -0.81868088 -0.57136852 0.0012846531
-88.043297 -54.129101 638.87799 -0.084759958 -0.8232258 -0.56135112 0.0033982068
-85.0467 -56.056099 641.36401 -0.032166455 -0.80655861 -0.59027845 0
-83.4161 -57.5546 643.013 0.041851033 -0.82412702 -0.56485665 0.00011654861
-91.507004 -56.929298 643.396 0.061064798 -0.82203823 -0.56614858 0.0002644528
-50.780399 -63.284199 652.53101 0.096904732 -0.85303289 -0.51278096 0.0026430271
-88.066299 -66.017197 655.23102 -0.092432909 -0.84472293 -0.52716142 0.0039597768
-79.294998 -67.942802 658.29999 0.076807782 -0.83972448 -0.53755307 0.0011475548
-82.884697 -68.847 659.66302 -0.07193514 -0.91670614 -0.39303327 0.0020067522
-80.262703 -69.930298 661.99799 0.011382653 -0.90131396 -0.43301696 0.002498687
-80.814697 -71.245399 665.112 0.12686281 0.97815943 -0.16465117 0.097396567
-84.104698 -69.750702 666.71698 0.31032994 0.51569742 -0.7985934 0.027265808
-179.786 11.8067 623.13 0.36562142 -0.17131102 -0.91486251 0.0077559538
-182.62601 15.3914 621.23798 0.60594428 0.024657574 -0.79512483 0.011592789
-92.585999 -61.337299 664.40503 0.52056515 0.37420344 -0.76745278 0.010295722
-181.455 20.460699 622.91699 0.70231932 0.64566088 -0.29978257 0.047691863
-179.528 20.4219 625.74597 0.37436095 0.75654876 -0.53617889 0.025775243
-82.659897 -58.234798 671.65802 0.46751812 0.22663249 -0.85443813 0
-181.526 27.5453 625.96198 0.59456813 -0.15936048 -0.78809446 0.011395867
-178.24001 27.284 627.93298 0.51906168 0.0060705859 -0.85471517 0
-79.432999 -57.010399 674.12799 0.46509501 0.16649185 -0.86946368 0.0042928034
-82.691704 -54.281502 672.62903 0.50768441 0.090932161 -0.85673094 0.0050398684
-146.86501 0.99466598 645.70898 0.54525435 0.73106337 -0.41017556 0.084363192
-152.05901 7.27876 643.21399 0.82529801 0.29436824 -0.48190305 0.0096216267
-157.004 13.1791 639.62097 0.67352837 0.080756076 -0.73473662 0.0076912385
-162.259 19.0728 636.479 0.45875812 0.016995728 -0.88839865 0.0010025629
-170.412 23.1525 634.25 0.46911982 -0.06296327 -0.88088721 0.029003408
-167.718 24.368099 634.35797 0.198443 -0.0033110406 -0.98010689 0.018891716
-146.51601 8.8457003 648.96002 0.72565365 0.035887137 -0.6871236 0.00527984
-136.093 4.8436198 658.65503 0.74786961 0.5517683 -0.36911064 0.013737893
-142.427 8.05762 659.20697 -0.27112985 -0.94524878 -0.1816408 0.031283088
-145.903 10.9685 657.60797 -0.76870173 -0.51910079 -0.37367356 0.0053562126
-140.077 7.0430298 661.77197 -0.062881112 -0.92754966 -0.36837164 0.0032936418
-143.144 6.4029799 663.31299 -0.13126341 -0.87509304 -0.46581328 0.011047028
-145.748 6.2593799 665.09998 -0.49312037 -0.76298529 -0.41795415 0.0072741318
-143.97501 4.1553702 667.70099 -0.18744719 -0.86188787 -0.47118241 0.010995909
-1.66624 -36.236198 787.242 -0.24093898 0.19645175 -0.95044994 0.011809479
-8.8954096 -41.251202 788.40698 -0.36852959 0.42836463 -0.82503921 0.012444444
-41.470402 -58.578499 785.98297 -0.34606484 -0.88447934 -0.31294644 0.02803177
-3.7193 -43.101601 783.79199 -0.42722753 0.88642108 -0.17814144 0.017900907
-38.269699 -57.336899 784.43597 0.016699295 -0.80318493 -0.59549564 0.0014213424
-34.6991 -56.531502 783.11902 0.011811865 -0.85240859 -0.52274281 0
-41.465302 -56.948101 781.85199 -0.25939012 -0.94599432 -0.19445148 0.030070575
-31.8472 -55.526199 781.66803 0.031799093 -0.82340443 -0.56656337 0.0016745107
-4.9279399 -42.883499 781.396 -0.36476332 0.9233278 -0.12005585 0.013635605
105.46 23.709499 769.599 0.39485449 -0.8469674 -0.35600013 0.053115029
-33.945099 -54.015099 779.26398 0.20298451 -0.85742295 -0.47288805 0.0041481541
-24.432899 -52.165298 778.75598 0.16821112 -0.81109297 -0.56020814 0.015494307
118.03 22.858999 767.61499 -0.6402024 -0.099643126 -0.76171654 0.0018992351
-33.452599 -52.354698 775.34198 0.1675642 -0.91177636 -0.37494814 0.0084135579
-29.7391 -51.306099 774.38501 0.065921843 -0.90582258 -0.41849676 0.0011355533
120.845 25.936899 764.59698 -0.85497808 -0.27534202 -0.43954429 0.029953206
120.203 21.9424 765.39203 -0.87011242 0.10579087 -0.48136532 0.021910297
-14.5811 -49.7687 775.02399 0.10472661 -0.88939744 -0.44497705 0.0019936988
-10.9215 -48.673801 773.87598 0.17332 -0.97283357 -0.15347627 0.024062127
-53.0807 -62.2911 772.98297 -0.28863519 0.81157088 -0.50797874 0.071735762
-32.7705 -51.112202 771.90399 0.31719223 -0.94651425 -0.059159137 0.061918546
-49.591702 -61.045601 772.08099 -0.055129234 0.85505897 -0.51559186 0.053732149
-14.2028 -47.865398 771.64001 0.075719342 -0.90349197 -0.42186347 0.0031757732
-52.361801 -61.727001 769.73602 0.061247531 -0.99222624 -0.10833193 0.015510349
110.46 26.191299 755.39099 0.41031626 -0.90618193 -0.10234716 0.0014524716
-55.287899 -61.622398 766.69702 0.03835462 -0.96372801 -0.26411575 0.017915837
5.2223601 -44.2938 767.11798 -0.19587521 0.96038377 -0.19823205 0.028731091
7.9886899 -45.937199 765.47302 0.10035396 0.49000639 -0.86592311 0.031706829
-21.483999 -59.237701 765.09601 -0.058894977 0.3956542 -0.91650921 0.013480651
-17.6332 -57.267399 764.89801 -0.22801998 0.10698885 -0.96776044 0.018392781
-17.832899 -61.010899 763.823 -0.050007407 0.7578094 -0.65055674 0.071786731
-47.182598 -55.1562 757.302 -0.041646399 -0.8195343 -0.57151479 0
21.9142 -49.098099 758.005 -0.48735178 0.13685821 -0.86241412 0.0054055718
-43.550999 -53.895599 754.93298 -0.069377184 -0.88738447 -0.45578021 0.0012817472
25.5553 -45.944599 756.664 -0.36595014 0.0041945493 -0.93062496 0.020645563
-39.955601 -53.7845 753.67798 -0.087315455 -0.92252314 -0.37593499 5.0733117e-05
-42.7295 -52.295502 750.95203 -0.12876995 -0.91551608 -0.38111505 0.0025770401
-32.8274 -54.225399 750.92902 -0.25332138 -0.85982555 -0.44331506 0.0081367576
-42.178398 -51.041599 747.77399 -0.27394193 -0.85159808 -0.44691896 0.010002737
-38.8829 -51.0345 745.71802 -0.071512535 -0.87000823 -0.48782337 0.013084355
-41.466202 -49.069698 744.07001 -0.27834722 -0.81430733 -0.50933915 0.018595161
30.9312 -57.9935 748.89099 -0.65335125 0.53618151 -0.53445452 0.015637603
34.337399 -56.392601 747.73602 -0.64120305 0.64765507 -0.41158417 0.0026942191
37.543499 -53.859901 746.48798 -0.53516668 0.81244212 -0.23137496 0.0310637
41.028702 -51.186298 745.33502 0.43613169 -0.87367547 -0.21559258 0.01658831
33.182301 -59.015301 745.88898 -0.68569916 0.3882792 -0.61567521 0.0089378394
39.324501 -54.231201 742.49597 -0.7215457 0.57859659 -0.38026029 0.02011665
35.862999 -60.767601 742.70801 -0.6589483 0.1879245 -0.72833472 0.0015956663
37.668499 -60.2906 740.901 -0.68952382 0.23078357 -0.68650997 0.014957005
38.4025 -63.077702 740.06897 -0.7074337 0.18057393 -0.6833232 0.0055134064
-107.788 -12.8979 706.84399 -0.30479503 -0.69307578 -0.65325803 0.09696801
-104.654 -10.7768 704.30798 -0.055152874 0.95244062 -0.29969174 0.12443375
-101.506 -10.51 703.78802 0.27833116 0.73019207 -0.62398022 0.061794087
-111.514 -13.6651 703.12402 -0.2482636 0.95517379 -0.16127099 0.088826388
-101.851 -13.6564 703.073 0.36732319 0.62348336 -0.69017547 0.073086321
-103.656 -10.0578 696.776 -0.40534455 -0.76221275 -0.50470537 0.016437208
-98.811203 -15.2866 699.57397 -0.39601812 -0.82813704 -0.39668468 0.014733557
-100.787 -11.4832 694.94897 0.51227963 0.85565579 0.073639594 0.017812604
-98.024002 -13.6298 696.58301 -0.54360455 -0.78830653 -0.28821325 0.023795847
-95.511703 -16.612101 698.72198 -0.49402729 -0.79944128 -0.34180492 0.022233911
-108.545 -9.6653004 690.88501 0.21432859 0.97635037 -0.028342174 0.04030706
-104.947 -11.0664 689.40601 0.39025217 0.91901785 0.055762004 0.019713193
-108.354 -8.7067299 687.66199 -0.30734217 -0.8937515 -0.32672471 0.0050717071
-75.890999 -36.198601 612.992 -0.040946323 -0.80962706 -0.58551455 0.0017167421
-72.379799 -34.7379 610.797 -0.018869231 -0.81586248 -0.57793802 0.0011920738
-71.820297 -32.872898 608.25098 0.044681694 -0.79302931 -0.60754263 0.0014493708
-62.171001 -30.6681 606.57501 0.019589834 -0.78652805 -0.61724389 0.0060197893
-64.411003 -29.8785 604.96002 -0.060626127 -0.92878711 -0.3656213 0.00882685
-67.634804 -28.954201 603.22699 -0.10256687 -0.8999182 -0.42382455 0.011046996
-52.2882 -28.962299 602.37097 -0.012011454 -0.8145619 -0.5799523 0.0051980526
-47.9842 -27.9408 601.54498 0.07632982 -0.81365234 -0.57631892 0.0034461888
-51.527699 -26.059601 599.33099 0.008224966 -0.76354074 -0.64570731 0.0014650468
-54.669899 -24.072399 596.71399 0.069854237 -0.7974118 -0.59937865 0.0017165263
-35.592899 -24.054399 595.85797 -0.033072639 -0.90784633 -0.41799662 0.00292664
-53.007 -21.013201 589.84198 0.042918168 -0.84029996 -0.54042023 0.00030886452
-54.964802 -19.1078 587.14301 0.0049786633 -0.84658098 -0.53223658 0.0020180747
-45.956001 -18.3948 586.99298 0.018043038 -0.8069135 -0.59039396 0.0006518382
-54.5439 -17.166 583.716 0.0050333575 -0.87630618 -0.48172832 0.00072547048
-50.708099 -16.2955 582.38202 0.030679926 -0.89888972 -0.4370997 0.00034495161
-53.8508 -15.293 580.05902 0.058476511 -0.87221497 -0.48561466 0.0010503732
-100.405 -8.4180098 569.25 -0.049301017 -0.85046619 -0.52371424 0.0016633641
-97.2332 -8.3695602 568.28101 -0.12760562 -0.92372125 -0.36118665 0.00044554085
-100.015 -6.8077898 565.70502 -0.16343027 -0.88368011 -0.43863434 0.0019626317
-99.349899 -5.17239 562.71899 -0.1039481 -0.85744578 -0.5039658 0.0042903312
-95.289299 -3.4825201 560.44202 0.0046673617 -0.87350553 -0.48679191 0.0067355079
-98.793701 -2.94995 557.77197 -0.017291125 -0.81091708 -0.58490556 0.013401117
-77.290298 -3.70173 559.82898 0.018556377 -0.85490423 -0.51845396 0.0051745414
-79.682503 -1.43246 556.92999 -0.028554384 -0.82351708 -0.56657237 0.002215175
-43.6479 -2.8087399 534.45502 0.98676676 -0.11968962 -0.10938796 0.00029420358
-38.8092 -69.715599 578.92499 0.67856896 0.31330243 -0.66436869 0.0003056257
-44.549198 1.26092 529.646 0.98919767 -0.0011334795 -0.14658357 0.0036750732
-39.012501 -66.114502 580.50299 0.72241682 0.075270601 -0.68734872 0.011809418
-43.1007 2.0592101 535.45697 0.97800916 0.12394338 -0.16773801 0.015791524
-42.216801 0.62588203 543.43597 0.98607051 0.14967412 -0.072544001 0.019622643
-103.362 10.5055 537.409 -0.062238373 -0.85762793 -0.51049066 0.0018089199
-97.964104 7.5473199 541.58099 -0.058289543 -0.81489748 -0.57666671 0.0016686998
-101.193 7.2024102 542.69098 -0.095902905 -0.88573855 -0.45416942 0.010306578
-104.584 6.70123 544.98199 -0.086534254 -0.90025496 -0.4266763 0.0068986709
-90.081902 3.0776501 549.17902 -0.037939418 -0.81541944 -0.57762605 0.0022447498
-88.150398 1.65863 550.52802 0.013077855 -0.83708352 -0.54691887 0.0030195829
-90.829903 1.5427999 551.55603 -0.052761439 -0.89798397 -0.43685359 0.0065455311
-94.2211 1.04163 553.84698 -0.023176195 -0.91097194 -0.41181681 0.0062959343
-81.649902 -43.923801 625.12598 0.04757259 -0.82914591 -0.55700433 0.0020833455
-82.246902 -46.547699 628.81897 0.051046766 -0.76101846 -0.64671886 0.0031938853
-85.763 -48.375099 630.63501 -0.010438243 -0.74240112 -0.66987437 0.0027141829
-89.106796 -49.313 632.02802 -0.037249133 -0.80516976 -0.59187335 0.00037966872
-68.289597 -51.9622 635.52802 0.068667151 -0.79524559 -0.60238624 0.0019423706
-89.796501 -50.959301 634.70001 -0.05108694 -0.82894766 -0.55698818 0.001085227
-87.216599 -53.150799 637.33301 -0.086129203 -0.82485801 -0.55874056 0.0012230834
-90.502998 -53.792198 638.58398 -0.019444596 -0.81221867 -0.58302897 0.00080907223
-81.862297 -56.199402 641.76898 0.07157743 -0.82527632 -0.56017464 0.002583425
-85.383904 -57.285099 642.77899 -0.041233826 -0.82998943 -0.55625302 0.0048164111
-88.8013 -57.299801 643.71899 -0.048097733 -0.82590806 -0.5617494 0.002414475
-47.991001 -63.8447 654.06403 0.14011468 -0.84074569 -0.52298629 0.0012912563
-51.282398 -64.852699 654.93701 0.071707219 -0.85952902 -0.50603163 0.0010353349
-85.028503 -65.9767 655.37097 0.021650126 -0.80646968 -0.5908789 0.00085180684
-82.607498 -68.097801 658.20001 0.0019261513 -0.80026823 -0.59963918 0.0006090636
-79.933098 -69.251297 660.01501 0.020279054 -0.88243794 -0.46999171 0.0019995887
-83.300598 -69.970802 661.85699 -0.078904688 -0.92081279 -0.38193944 0.00082241039
-84.008698 -70.789001 664.72198 0.18878037 0.89328992 -0.40791559 0.10089172
-80.672897 -70.113197 667.35199 0.31106064 0.56627452 -0.76326561 0.040592875
-94.443901 -60.8414 663.50897 0.44293988 0.4536097 -0.77333212 0.0072630495
-180.362 15.3682 622.11102 0.53651881 -0.042930145 -0.84279573 0.01295475
-78.861702 -68.695297 668.70697 0.5510093 0.23307428 -0.8012898 0.019544303
-179.222 18.498501 623.24701 0.54816717 0.34455726 -0.76209784 0.015616646
-182.215 21.9965 621.10999 0.70893353 0.58830458 -0.38898706 0.045631856
-182.11301 20.6416 625.39203 0.58056867 0.63422263 -0.51058954 0.041773424
-80.488602 -58.746601 672.93701 0.52446085 0.31689525 -0.79026467 0.0046966863
-82.8479 -55.939201 672.03497 0.51719278 0.22994949 -0.82439971 0.0031541164
-179.754 26.6047 627.07001 0.4504042 -0.014624895 -0.89270502 0.0050567766
-79.606796 -54.506401 674.20001 0.43060464 0.016818032 -0.90238392 0
-164.424 19.8346 635.62299 0.32418218 0.091490872 -0.94156003 0.016390147
-168.187 21.2631 634.72998 0.1420732 0.042426784 -0.98894656 0.019732965
-170.521 25.880199 634.03198 0.42580828 -0.04109329 -0.90387976 0.0050450326
-172.80701 30.0606 632.435 0.57417583 -0.144706 -0.80584258 0.009353376
-166.48399 26.8857 635.42603 0.27164024 0.03049873 -0.96191543 0.0074162376
-171.698 31.252001 633.02802 0.31876406 -0.15436864 -0.935179 0.0010751837
-141.918 7.9281301 657.229 0.53311956 0.84524006 -0.036780588 0.067214876
-144.545 10.5308 655.66602 -0.74878967 -0.6377672 -0.18046346 0.02659836
-136.517 6.4522901 661.78302 0.45815054 0.88811648 -0.036703564 0.033729292
-145.12399 9.5519896 659.67401 -0.57076466 -0.67499387 -0.46755844 0.013699127
-155.341 31.3827 649.41199 -0.35268968 -0.69515091 -0.62639862 0.0076619289
-146.224 7.6172099 662.83801 -0.49803719 -0.74053085 -0.45119065 0.0079804193
-143.588 5.1309199 665.578 -0.16326885 -0.87396038 -0.45775169 0.015072034
-146.955 6.0033102 667.53601 -0.53250557 -0.71235085 -0.45715863 0.010037852
57.186699 -10.6925 779.04401 0.17870058 -0.71782845 -0.67289555 0.027354859
55.506199 -8.9405298 778.10303 0.32907754 -0.78214669 -0.52910727 0.027125197
101.52 -32.509102 740.22803 -0.24581678 0.17674412 -0.95306647 0.004776034
103.386 -34.3232 739.539 -0.36523539 0.22337362 -0.90371859 0
102.105 -36.403999 739.37 -0.31974795 0.43904668 -0.83964235 0.055502418
98.328903 -37.581402 734.177 0.094078414 -0.86081028 -0.50015485 0.0037321791
95.847198 -36.302101 732.31097 0.0029758699 -0.81376141 -0.58119142 0
99.191002 -35.3643 730.91803 0.010180519 -0.85921282 -0.51151717 0.01116439
102.535 -34.426399 729.526 0.27119121 -0.77929574 -0.56493682 0.019288233
106.152 -31.054501 728.63397 0.45840284 -0.64260566 -0.61394197 0.00095857203
-179.957 -39.317299 614.85901 0.11123887 -0.92422885 -0.36527655 0.0097151725
-98.078102 -38.514999 617.39899 0.0057902015 -0.80204463 -0.59723604 0.0039192927
-91.543503 -37.088001 615.38098 -0.074885234 -0.9336257 -0.35033584 0.011837862
-175.28999 -37.676201 609.57599 0.28280097 -0.87852472 -0.38499078 0.015665332
-171.72701 -33.707901 604.71802 0.030943813 -0.99803579 -0.054470435 0.049263839
-158.605 -22.297899 589.62299 0.40750867 -0.81972229 -0.40248236 0.0075351596
-131.66499 -20.152399 587.776 0.01364677 -0.78122485 -0.62410057 0.0023544689
-134.282 -18.7024 585.82001 0.065990768 -0.78821325 -0.61185384 0.003467577
-139.411 -15.9427 580.86798 0.079416513 -0.84030968 -0.53625798 0
-132.724 -14.0669 578.08301 -0.029818581 -0.94267762 -0.33237001 0.0045661465
-41.874802 -75.691803 572.20697 0.86064237 0.27526486 -0.428397 0.0038543283
-39.4165 -78.982803 573.38 0.77473986 0.41108519 -0.48040307 0.0018757905
-40.8829 -78.621803 571.17902 0.81038451 0.43972537 -0.38719314 0.0051551634
-95.561699 -40.483799 619.60199 0.036807898 -0.76483989 -0.64316797 0.00083971536
-168.931 -42.409801 621.11798 -0.049526058 -0.9147684 -0.40093127 0.0017084428
-169.797 -44.098202 624.30499 -0.066800855 -0.92318416 -0.3785086 0.0075198011
-172.84 -42.357201 621.99902 -0.050608236 -0.88938624 -0.45434681 0.0029651241
-178.92 -42.339802 626.12299 0.24335936 0.69080263 -0.68085831 0.044819057
-175.76199 -40.368801 628.53198 0.43860951 0.48006004 -0.75971317 0.0055348943
-144.99699 -52.530998 636.76398 -0.27886683 -0.93241215 -0.22987153 0.011210254
-178.61501 -38.267799 628.24103 0.30111167 0.49995285 -0.81202149 0.0084550222
-148.2 -51.199402 638.72998 0.34124213 0.87424809 -0.34531733 0.0085937297
-181.673 -36.297401 629.71899 0.20576648 0.71470815 -0.66847026 0.0061362074
-150.38699 -49.256802 640.26801 0.52991468 0.58520955 -0.61377543 0.012875046
-183.974 -34.299999 630.85303 0.39190301 0.33478394 -0.85693163 0.018838877
-150.62 -45.422501 642.15503 0.49955636 0.36357024 -0.78629512 0.0040323571
-147.351 -44.495499 644.42102 0.43524793 0.376481 -0.81781501 0
-150.756 -41.576 643.65698 0.48899522 0.39766502 -0.77636725 0.0050344113
-150.252 -37.758301 645.58502 0.44485337 0.15965174 -0.88125861 0.0030946524
-142.07899 -41.777699 648.49902 0.44885424 0.1712655 -0.87703925 0.00095504778
-155.618 -31.625099 643.29401 0.34990218 -0.10723574 -0.93062824 0
-147.09399 -36.4711 647.21301 0.37833482 0.017683258 -0.92549986 0.0088392384
-149.701 -34.287998 646.01398 0.34199524 -0.057356387 -0.9379496 0.0017841716
-152.151 -31.069799 644.69098 0.36981151 -0.13821353 -0.918769 0
-154.10201 -27.991699 643.27698 0.33636892 -0.20544875 -0.91904664 0
-158.161 -25.8248 641.453 0.28935125 -0.22136642 -0.93127483 4.0285478e-05
-160.59599 -22.752199 639.83099 0.3052105 -0.2581957 -0.91661417 0
-144.701 -27.290701 646.216 0.25394329 -0.23622814 -0.93792808 0
-141.858 -24.9673 646.349 0.28455284 -0.2590178 -0.92300564 0
-139.101 -23.088499 646.69501 0.28689113 -0.24775781 -0.92536998 0
-132.689 -19.910601 647.71503 0.29700392 -0.25609905 -0.91989237 0.00063215045
-135.702 -17.2153 646.245 0.29351443 -0.25336289 -0.92176813 0.0045366711
-127.347 -17.042601 648.82898 0.34087467 -0.25030693 -0.90617371 0
-132.38901 -11.7868 646.008 0.30900717 -0.22501227 -0.92405844 0.0014447619
-36.057301 -59.137299 786.54102 0.13211314 -0.92472321 -0.35697788 0.01955051
-32.275902 -57.602798 785.005 0.058922887 -0.97806424 -0.19979629 0.031692717
-41.173 -54.1964 778.30298 -0.044163838 -0.87358862 -0.48465699 0.0060281307
-37.702999 -55.798801 780.60101 0.15590693 -0.90404689 -0.39798525 0.0029517512
-43.213699 -53.1889 775.87701 0.063576192 0.99699229 0.044319753 0.075417407
24.0054 -30.0369 773.70898 -0.55485636 0.674128 -0.48753047 0.014006635
-39.338402 -52.381302 774.59497 0.0085361758 -0.98421878 -0.1767498 0.043279648
25.9382 -29.657801 772.14301 -0.51847476 0.54968733 -0.65500212 0
27.3867 -27.505501 773.12097 -0.55122918 0.67856395 -0.48548675 0.021202611
-45.706699 -54.5984 773.25 0.047956649 0.50283474 -0.86305118 0.028079638
-44.012501 -57.301899 772.98401 -0.22209403 0.23733568 -0.94569874 0.0051664216
-36.5937 -52.866001 772.33197 -0.38591412 0.68677503 -0.61596292 0.022431988
79.614197 7.6599598 759.80298 -0.5489887 0.83578944 -0.0082093645 0.018480629
83.083 9.9240198 758.88599 -0.58394849 0.80294472 -0.11951569 0.014548613
-49.238098 -60.993599 767.82397 0.031055097 -0.98965687 -0.14005326 0.013566794
21.9272 -34.202702 766.47198 -0.46358466 0.78646845 -0.4081136 0.041364402
29.738899 -30.4508 764.93701 -0.45412558 0.843328 -0.28734609 0.02749438
17.6 -40.025902 765.38898 -0.51258546 0.37064248 -0.77451932 0.0039549652
80.733299 7.5978398 756.034 -0.57427573 0.70737588 -0.41210046 0.013038199
21.5471 -37.8032 764.461 -0.40301722 0.50276417 -0.76472557 0.0089694792
-57.448898 -60.199501 764.08197 0.10668963 -0.86695915 -0.48682564 0.011840385
32.276001 -31.336901 762.53302 -0.44031152 0.58426756 -0.68173093 0.017083444
36.086899 -29.535999 761.76599 -0.40095136 0.7113567 -0.57724315 0.02478642
20.452499 -41.1059 762.39099 -0.49935925 0.52676344 -0.68786669 0.0077945967
-56.944302 -58.222 761.06 0.037952404 -0.70571417 -0.70747948 0.010206941
35.315701 -33.212799 760.05402 -0.43076622 0.50496429 -0.74796498 0.0047299354
-47.727699 -56.947102 759.81403 -0.019813767 -0.74631739 -0.6652953 0.0030100893
16.8661 -48.968399 762.12799 -0.58697331 0.078432776 -0.80579811 0.0039001754
78.897499 -10.4112 755.00702 -0.35147041 0.013925501 -0.93609542 0.00076765241
81.788101 -8.5245199 754.242 -0.35045943 0.20518507 -0.91382563 0.0067839148
-20.7787 -61.270302 761.112 -0.00013779728 -0.98024482 -0.1977881 0.013989838
30.825899 -38.323299 758.96198 -0.32182032 0.64721036 -0.69105023 0.017872389
34.540001 -36.4767 757.94202 -0.48396555 0.50663686 -0.71350998 0.0034770048
93.350502 -0.97763097 751.18402 -0.30560926 0.054393928 -0.95060211 0.00073390955
95.921501 1.8659101 749.93701 -0.28400689 0.030035282 -0.95835167 0.003141663
38.140301 -34.925701 757.53699 -0.2680279 0.47357455 -0.83898044 0.01110983
42.274799 -32.964802 757.08099 -0.34221768 0.50508362 -0.79232413 0.0040497291
82.397202 -12.6378 752.935 -0.51355875 0.40778211 -0.75496435 0.01340047
-17.4349 -60.332401 759.71899 -0.14351732 -0.91507655 -0.37687883 0.010008013
25.3337 -42.3251 757.56403 -0.39513204 0.39292735 -0.83034861 0.008995696
-19.728901 -59.293999 757.42401 -0.26757321 -0.89576751 -0.354972 0.0051274425
34.432499 -40.808498 756.30603 -0.22187759 0.043109383 -0.97412103 0.0097728493
41.5998 -35.545799 755.51703 -0.28193066 0.37426323 -0.88342631 0.0097576473
-22.6283 -57.393398 755.51202 -0.30077463 -0.93735802 -0.17576867 0.020497685
-12.3645 -63.634602 756.02698 0.63901168 0.59268051 -0.49029973 0.018753294
-27.994101 -55.343899 751.72803 -0.17971902 -0.84437072 -0.50471699 0.002219056
-13.4496 -65.044296 754.98499 0.71501058 0.45751023 -0.52862489 0.0088090803
-25.500601 -54.263302 749.10797 -0.57600296 -0.79473335 -0.19136219 0.047381956
-14.5208 -64.392197 752.54401 0.76675743 0.4580051 -0.4497937 0.0077148303
-11.5142 -67.6558 754.22302 0.67262948 0.4957729 -0.54934394 0.0029154187
-20.109699 -65.212402 742.46997 0.72366148 0.68243414 -0.10294518 0.027620312
-15.7833 -66.460602 738.85303 -0.1156283 -0.87588561 -0.46845967 0.0020898783
-129.325 -12.661 704.47803 0.9441638 -0.27121204 -0.1870797 0.0027002427
-129.158 -11.2354 700.45502 0.92220318 -0.27935061 -0.2674033 0.012324228
-128.815 -3.01227 694.24902 -0.47061613 0.38880843 -0.79205328 0.053668074
-136.901 -11.6646 692.46301 0.19562484 -0.81582505 -0.5442062 0.0072533353
-126.87 -8.02069 689.242 0.28567097 -0.95276529 -0.10310405 0.022574838
-123.373 -6.4386501 687.297 0.19590804 -0.87274301 -0.44714615 0.0016258255
-126.396 -6.6921301 685.72998 0.23864961 -0.86115545 -0.44884017 0.0046220873
-54.717201 -36.726799 613.81 0.010659209 -0.79994082 -0.59998417 0
-50.914398 -34.8941 611.72803 0.13030623 -0.79301369 -0.59510463 0.00048337583
-54.372398 -34.0452 609.742 0.025817534 -0.8088811 -0.58740515 0.0045029162
-56.690201 -32.3424 608.12299 -0.057082422 -0.77347434 -0.63125193 0.0030914296
-58.942101 -30.3232 605.46503 -0.0055290991 -0.87683868 -0.48075292 0.0065946165
-49.260399 -30.557699 604.97699 0.011915002 -0.8859207 -0.46368381 0.0054539656
-70.146896 -27.6444 600.23102 0.054596916 -0.91775537 -0.39337543 0.0044602863
-67.092201 -26.895201 598.91498 -0.0076747774 -0.83303112 -0.55317295 0.0010598415
-69.338997 -25.178499 596.29199 0.051532649 -0.81473655 -0.57753676 0
-60.115501 -24.8307 596.05402 0.065062925 -0.82025254 -0.56828928 0.0020777376
-80.701103 -21.837999 591.00702 0.036547847 -0.81754762 -0.5747 0.0036751139
-77.166298 -21.0469 589.97498 -0.059144527 -0.89442343 -0.44329315 0.0047040679
-80.063797 -19.9888 587.08099 0.023326891 -0.9056285 -0.42342976 0.005286803
-58.7244 -20.7181 589.11798 0.023485728 -0.81752759 -0.57541037 0.0037601748
-61.174 -18.7453 586.35999 0.035774864 -0.84030336 -0.5409348 0.00045910125
-64.111298 -17.815599 584.362 0.082727969 -0.82209551 -0.56330717 0
-60.447201 -16.3575 583.01202 0.0086277546 -0.91268182 -0.40857971 0.011903716
-59.787899 -14.9993 579.047 -0.015283722 -0.80299765 -0.59578615 0.001528634
-106.365 -7.90593 568.68701 0.072140597 -0.8486923 -0.52394384 0.0006939731
-105.559 -6.2846699 565.492 0.048411127 -0.89521712 -0.44299284 0.0015990064
-108.873 -5.32692 562.84802 -0.0012262996 -0.86311799 -0.50500083 0.0058763484
-105.089 -4.3863001 562.034 -0.050351944 -0.81862384 -0.57211858 0.0059319558
-101.693 -3.5185001 560.12201 -0.1175522 -0.88026041 -0.45969877 0.0050932257
-118.079 1.08737 553.67798 0.020218678 -0.82013196 -0.57181704 0.0030160269
-34.4347 -33.972 579.034 0.80255049 -0.20696394 -0.55953443 0.0015387844
-44.0005 -12.6678 543.12598 0.98082161 -0.075141467 -0.17984113 0.0019909276
-61.981499 14.9828 525.39502 0.054818645 -0.9156788 -0.39815468 0.0026036857
-42.692001 -14.2955 547.32501 0.95599341 -0.099963926 -0.27583304 0.0025133467
-58.805099 14.4951 528.026 0.021134809 -0.88351989 -0.46791655 0.0038232075
-62.206299 13.2608 529.56 -0.013368729 -0.83171898 -0.55503589 0
-42.957699 -33.1082 562.02301 0.93020946 -0.050318662 -0.36356348 0.0082420576
-63.089401 11.5177 533.255 -0.066838108 -0.89789897 -0.43509778 0.0025509351
-65.492699 12.6193 530.81097 -0.00052273698 -0.90125972 -0.43327895 0.00097750663
-41.678101 -12.2306 549.71503 0.93887568 -0.13026582 -0.31865853 0.0012638784
-63.838402 9.5483999 536.84399 -0.048078571 -0.86708033 -0.49584296 0.00016603537
-40.368 -32.654999 566.39203 0.90825528 -0.1359482 -0.39571506 0.0064885546
-88.482101 10.1319 537.48602 -0.020471234 -0.86024857 -0.50946373 0.0032700354
-85.3731 8.6145697 539.50098 -0.010332907 -0.84222448 -0.53902805 0.0015108261
-93.693901 8.0539999 540.44702 -0.022124782 -0.84122503 -0.54023236 0.001343236
-91.9459 7.3317599 542.00403 0.010148971 -0.83415443 -0.5514375 0.0028735306
-40.068001 -24.5312 564.685 0.89150608 -0.27136591 -0.36273617 0.0018948509
-94.797699 6.3264799 543.45502 0.0099692484 -0.89059389 -0.45469022 0.0062997397
-38.500999 -24.824699 568.25 0.80668294 -0.25723532 -0.5320645 0.0022716711
-86.874199 4.2756 547.09601 -0.020810513 -0.83094639 -0.5559631 0.0014069306
-108.248 5.2431202 546.33301 0.028259357 -0.7935642 -0.60782993 0
-38.045601 -32.2178 572.98102 0.82128304 -0.28832707 -0.49230245 0.0035069399
-36.814701 -35.608398 575.80701 0.81242514 -0.20357482 -0.54637235 0
-105.369 4.01689 548.47198 -0.097251482 -0.82741648 -0.5531041 0.0054882294
-35.7547 -36.934399 578.17798 0.81561542 -0.24712536 -0.52316403 0.0016064949
-100.722 1.03211 552.95099 -0.0027950667 -0.87186772 -0.48973358 0.0022933544
-108.268 3.4483399 550.82202 -0.10633234 -0.86355275 -0.49292001 0.0041205771
-51.8783 -46.8764 629.46899 0.16654699 -0.81332248 -0.55746627 0.00045372898
-48.901699 -47.376499 631.20502 0.19541539 -0.76707876 -0.61106706 0.0047288327
-52.605099 -49.264301 632.81799 0.01241395 -0.83467257 -0.55060655 0.0061913272
-62.555401 -51.999901 636.40503 0.062619224 -0.82649928 -0.55944419 0.0023628448
-46.033199 -55.791698 642.646 0.11281802 -0.80291665 -0.58531785 0.0011136665
-49.102001 -57.689098 644.89001 0.036342144 -0.80012357 -0.59873319 0.0019829734
-49.718899 -59.850601 647.578 0.052263703 -0.79677522 -0.60201144 0.0018979305
-92.0952 -58.942501 646.013 0.054204293 -0.80626017 -0.58907253 0
-48.138199 -61.095699 649.93701 0.1400446 -0.8364774 -0.52980483 0.0022281345
-92.738297 -61.068901 648.961 0.032745581 -0.80320013 -0.59480864 0.0024632271
-84.6744 -64.039001 652.5 0.072563812 -0.8025313 -0.59218073 0.0016182992
-48.631599 -65.787804 657.20099 0.048145704 -0.83051682 -0.55490887 0.00029782238
-58.047699 -66.818802 657.20502 0.017130958 -0.82420808 -0.56602794 0.00061948725
-55.902401 -68.4076 659.76001 0.072952971 -0.83572221 -0.544285 7.2643474e-05
-58.508301 -69.446503 661.24103 0.012926521 -0.81964219 -0.57272989 0.00023294882
-62.098099 -70.3507 662.604 -0.032313537 -0.81741673 -0.57513988 0.0032468564
-65.614197 -72.178101 664.41998 0.076220319 -0.77132171 -0.63186496 0.0042945896
-66.389999 -74.508003 667.18201 -0.019740071 -0.82885361 -0.5591172 0.0079078935
-63.666599 -75.719398 669.58398 -0.063617609 -0.93573272 -0.34692508 0.009388932
-66.653801 -75.438904 671.51599 0.31288108 0.89899927 -0.30644056 0.024242124
-59.071098 -76.131302 675.31403 0.47741538 0.7742523 -0.41546106 0.080349475
-60.962299 -73.277603 676.49103 0.32361367 0.41742629 -0.84913456 0.010302268
-59.001598 -71.573196 677.83301 0.51796758 0.36267924 -0.77470857 0.01088769
-52.498199 -74.074303 681.30103 0.49284568 0.33211383 -0.80424094 0.011601464
-55.150799 -70.5056 680.85699 0.39276248 0.38523149 -0.83506554 0.0022531843
-52.394199 -69.816803 683.03302 0.53283823 0.44030347 -0.72264534 0.0057402616
-60.536201 -65.661102 680.44397 0.4697338 0.4354718 -0.76792872 0.0047687655
-152.99899 9.1129198 642.552 0.69974881 0.29913509 -0.64874482 0.020514885
-155.371 12.8486 641.16699 0.6741305 -0.012782848 -0.73850161 0.0032752873
-94.030197 -27.2945 664.47699 0.56286907 0.020861287 -0.82628268 0.00015856077
-96.464798 -24.221901 662.854 0.41196659 0.12061063 -0.90318137 0.0035660644
-152.145 12.7302 643.80603 0.64045513 -0.022707282 -0.76765978 0.0016463036
-93.3116 -23.5065 665.64203 0.66791433 0.30363044 -0.67948431 0.010119877
-148.72099 14.0889 646.48102 0.80127603 -0.031050554 -0.59748846 0.0040122285
-150.64 16.875799 644.46802 0.74768877 -0.013048864 -0.66392106 0.010429207
-146.42 11.0083 649.21301 0.80545217 0.073908806 -0.58803427 0.0031618308
-146.755 15.3255 649.87903 0.88880008 0.21000159 -0.40734956 0.017707627
-149.813 26.595699 648.69202 0.93849128 0.34147006 -0.051304478 0.014183449
-107.632 -16.6796 671.40002 -0.35225457 -0.91421306 -0.20032749 0.032065015
-150.995 29.672501 649.35999 -0.79064721 -0.49378633 -0.36201108 0.015152566
-105.936 -17.331699 673.47601 -0.22681457 -0.96612954 -0.12308092 0.030106718
-109.812 -12.3935 677.54999 0.67697483 0.56072265 -0.47675493 0.033140417
-46.566898 -53.892601 782.48199 0.49804795 0.86494106 0.061848234 0.0073867324
-43.863701 -55.0186 779.77502 -0.27349362 -0.8140111 -0.51243275 0.024692107
99.1838 18.765499 770.94702 0.54822904 -0.79295462 -0.26583427 0.016756449
-46.239399 -52.596901 777.57599 -0.26254371 -0.92490911 -0.27497986 0.028193152
-37.299801 -54.0294 777.01001 0.091296278 -0.87235671 -0.48026937 0.0063406699
-41.4501 -53.140202 773.32202 -0.16081373 0.91701454 -0.3649976 0.098214231
22.4695 -31.9219 773.06 -0.50117958 0.66835284 -0.5496577 0.0030923379
29.4069 -27.393801 771.22498 -0.49916935 0.51227498 -0.69885927 0.0042771259
-40.0518 -55.105202 772.125 -0.13199162 0.50069016 -0.85550427 0.0091153756
24.783899 -32.592602 769.15698 -0.31730598 0.91600561 -0.24546041 0.016104363
28.3323 -31.1898 768.422 -0.40886608 0.87078822 -0.27305031 0.028585469
74.9702 5.1441398 758.92603 -0.50635201 0.86124539 -0.043173771 0.021238167
26.0242 -32.681198 765.82501 -0.55135661 0.77438986 -0.31036472 0.036441457
77.545998 5.1395302 757.20898 -0.37579012 0.61790758 -0.69063169 0.04089465
82.908897 6.9011798 754.03802 -0.32398269 0.17220998 -0.93025756 0.0058515929
84.458298 10.278 755.15002 -0.68694925 0.52443331 -0.50306106 0.049887415
-51.6012 -60.9398 765.04199 0.041584805 -0.96276319 -0.26712853 0.026137605
80.865997 3.0810499 755.41602 -0.4073002 0.097062476 -0.90812194 0
17.365801 -43.6637 764.02802 -0.52543861 0.4101572 -0.74544305 0.0065168808
-51.275101 -59.105999 761.51099 -0.021503929 -0.74870938 -0.66254956 0.010576875
24.112301 -38.988701 761.83301 -0.46659625 0.69237477 -0.55036813 0.0058345506
31.7735 -35.014 760.90198 -0.33666214 0.47791705 -0.81132841 0.0094257593
39.150902 -30.6866 759.612 -0.35844886 0.4942244 -0.79199529 0.0031206133
85.875099 -2.04758 752.979 -0.32882997 0.05972635 -0.94249862 0.00034634143
-53.596699 -56.471199 759.35199 -0.041383103 -0.72677094 -0.68563217 0.0011536507
22.773701 -40.9147 760.19397 -0.55310804 0.54767162 -0.62779558 0.0055941823
-56.331001 -53.473 757.11401 -0.1010212 -0.79978549 -0.5917244 0.01707489
-14.9486 -61.7883 761.216 0.21394455 0.97256684 -0.091331631 0.022309344
21.820801 -45.270599 758.922 -0.55325097 0.23212576 -0.80001938 0.0054363194
23.1954 -47.0172 758.17401 -0.44088742 0.10209326 -0.89173722 0
-32.225601 -55.691299 756.12598 -0.2827822 -0.88165748 -0.37777549 0.0057621067
37.8894 -38.435299 755.61298 -0.22358021 0.23488541 -0.94596016 0.01575987
-11.0811 -63.6478 758.88397 0.60480314 0.65081179 -0.45897418 0.025365049
-31.7353 -54.8578 752.40698 -0.24377684 -0.91764468 -0.31384885 0.0062883878
-28.562901 -56.916401 754.68799 -0.2269682 -0.8981697 -0.37653252 0.0052922643
-14.4792 -61.6703 757.65698 0.48538348 0.86892182 -0.096839361 0.01313878
-30.357599 -52.926399 748.758 -0.10142292 -0.90149307 -0.42074183 0.0062508541
-22.1805 -56.699699 751.78302 0.62698317 0.76551759 -0.14448166 0.031753033
-18.740999 -62.440899 751.21399 0.6056655 0.55223387 -0.57289356 0.019218788
-24.1492 -56.538799 747.948 0.71261132 0.57615697 -0.40028524 0.018914176
-21.4529 -59.6661 749.44299 0.67865753 0.55269754 -0.48368314 0.0055646244
-29.7593 -51.694 745.15997 0.5051896 0.85316664 -0.12996203 0.043292116
-27.201099 -53.977699 746.65302 0.69819325 0.60577655 -0.38152453 0.021249643
-19.832001 -62.669102 747.927 0.76316231 0.53267312 -0.36584505 0.0063419109
-10.1536 -67.498596 740.37 -0.049569286 -0.93100476 -0.3616257 0.0022271376
-131.12199 -18.8062 707.37097 0.50999588 -0.74325812 -0.43297985 0.022269586
-130.617 -17.444401 704.138 0.48073214 -0.73630917 -0.47617778 0.013909609
-129.145 -3.69136 696.23102 -0.8257817 0.53147221 -0.18873768 0.052709348
-129.95 -8.41644 695.42499 0.85021806 -0.52418035 0.048621632 0.056858368
-131.69099 -11.2134 694.745 0.55509967 -0.70270503 -0.44505051 0.020413289
-133.313 -9.9180403 692.08099 0.24097392 -0.86236584 -0.44526026 0.010677664
-120.832 -7.6001101 690.22198 0.11693441 0.95229447 -0.28188932 0.07017234
-117.51 -7.0054498 688.62402 -0.17989644 -0.91018105 -0.37310544 0.0033833883
-60.706699 -36.362999 613.31702 0.06632816 -0.7756843 -0.627626 0.0024583971
-57.109402 -34.4575 610.91101 -0.048525397 -0.79836184 -0.60021973 0.00081798655
-60.7677 -33.1693 608.97803 0.0057371715 -0.76279896 -0.64661026 0.003456573
-50.761902 -32.8857 608.92297 0.13493656 -0.80400103 -0.57911527 0.00033874216
-52.923901 -30.538799 605.88702 -0.02889348 -0.84344763 -0.53643394 0.005760483
-64.243599 -28.452999 600.93597 -0.032351349 -0.86064994 -0.50816828 0.0045980085
-63.459301 -25.7686 597.44598 0.036170844 -0.81225383 -0.58218169 0.0032410009
-78.934402 -23.5965 593.34698 0.018606422 -0.82212061 -0.56900918 0.00023174987
-74.716599 -23.019699 592.73297 -0.049201876 -0.8356204 -0.54709941 0.00025634226
-72.246803 -21.720699 590.56201 -0.030758189 -0.90456134 -0.42523256 0.003274458
-74.075996 -20.625299 587.98499 -0.061784156 -0.89515424 -0.44145396 0.0021612784
-64.766296 -19.8328 587.534 0.073939562 -0.82071072 -0.56653941 0.0035746715
-57.395699 -18.171301 585.16803 -0.012147659 -0.84055048 -0.54159701 0.00016530337
-63.623699 -15.8698 580.38098 -0.02874461 -0.92026496 -0.39023843 0.0095766727
-65.6101 -14.1126 577.75201 0.054917041 -0.82157046 -0.56745595 0.0031015736
-109.155 -7.3454499 567.15399 0.049737215 -0.84011883 -0.54011708 0.0033908219
-111.772 -5.8954701 565.198 -0.077219963 -0.88541418 -0.45834357 0.0044197263
-110.883 -3.3513899 560.66803 0.0013911588 -0.75577348 -0.65483153 0.0010438818
-107.424 -1.82051 558.99402 0.005667056 -0.87105554 -0.49115187 0.0061251638
-111.092 -1.26548 556.30402 0.0066946768 -0.90951133 -0.41562527 0.0061375736
-112.668 0.346205 554.32397 -0.019404553 -0.76065522 -0.648866 0.0025972184
-43.830898 -17.686501 544.461 0.96571946 -0.08011613 -0.24691553 0.0019078238
-44.027802 -8.95926 539.09497 0.98208261 -0.13137691 -0.13510662 0.00012680225
-43.382198 -8.4549398 542.78003 0.97626609 -0.13755296 -0.16728322 0.00067352026
-67.392899 15.7239 524.74902 -0.074103281 -0.90493959 -0.41903812 0.0003000944
-64.388802 14.3468 527.80298 -0.047006819 -0.90177977 -0.4296321 0.0036981788
-68.224602 13.4763 529.13702 -0.026582854 -0.8717643 -0.48920369 0.001461982
-59.589298 11.8108 531.51599 -0.048922677 -0.88584507 -0.46139479 0.0020782666
-68.702599 11.7386 532.85101 0.019647228 -0.90063494 -0.4341321 0.0045816121
-42.143299 -28.224199 560.80499 0.95325983 -0.1989864 -0.2273767 0.00045723229
-69.495796 10.3233 536.16901 0.011966547 -0.89382285 -0.44826064 0.0040928968
-41.474098 -27.938299 564.03998 0.91482967 -0.16089419 -0.37040499 0.0060219755
-91.530701 9.1535997 538.914 -0.015081939 -0.83548397 -0.5493077 0.0010760044
-39.996101 -34.584599 569.57599 0.92694575 -0.23115154 -0.29553443 0.0010971981
-86.0662 6.74157 543.15698 -0.0023799185 -0.87111527 -0.49107271 0.0031209541
-90.370201 5.7200699 543.98297 0.02621563 -0.87208462 -0.48865232 0.0031029326
-38.59 -31.177601 570.21997 0.8637948 -0.29081768 -0.41144076 0.0036297003
-92.777496 5.0841398 546.39203 -0.049673777 -0.89872676 -0.43568644 0.0053720055
-36.273102 -42.556801 580.32703 0.80832189 -0.18849005 -0.55775195 0.0012957253
-102.025 4.9547901 547.08002 -0.043235678 -0.78625101 -0.61639273 0
-99.465202 3.2083499 549.177 -0.031358104 -0.79587078 -0.60465389 0
-103.793 2.40521 550.45203 -0.069217749 -0.84749079 -0.52627766 0.004266798
-34.867001 -39.1497 580.97101 0.82337296 -0.27356935 -0.4972091 0.001348162
-106.2 1.76928 552.85999 -0.12433264 -0.80242139 -0.58366197 0.0037480516
-43.0518 -48.188301 632.354 -0.077837147 -0.80463588 -0.58864462 0.0037288608
-46.952099 -49.3801 634.28601 0.17201972 -0.76823056 -0.61662871 0.0025473509
-50.537498 -50.943298 634.85602 0.079822205 -0.81156641 -0.57878172 0.0030274247
-58.308899 -51.274799 635.71997 0.056951158 -0.85459876 -0.51615638 0.0035974781
-56.560799 -51.997101 637.27698 0.060720883 -0.79611135 -0.6020962 0.0012580249
-54.173599 -54.632999 639.797 0.044248186 -0.83132052 -0.55402911 0.0038805001
-51.551601 -55.716301 642.13202 0.024552546 -0.83891064 -0.54371512 0.0032972896
-54.895401 -56.654202 643.52502 0.040878844 -0.84996635 -0.52524871 0.0020186328
-46.042099 -58.591 646.60303 0.11343104 -0.81678891 -0.56567585 0
-55.357498 -58.786598 646.65198 0.053993646 -0.80305028 -0.5934602 0.00055627729
-86.191803 -59.751099 646.71802 -0.018558718 -0.8211754 -0.57037401 0.0036892304
-53.344898 -61.904301 650.05499 -0.03190862 -0.80906737 -0.58684921 0.0048106979
-55.417599 -61.494598 650.85999 0.0074456893 -0.80413723 -0.59439701 0.004734003
-86.779999 -61.764301 649.33502 0.0016616849 -0.78951532 -0.61372858 0.00094907661
-90.319901 -63.373299 651.59998 -0.069516569 -0.80873239 -0.58405423 0.0028996915
-54.134201 -65.858002 656.388 0.064476326 -0.82248074 -0.56512666 0
