ply
format ascii 1.0
comment PCL generated
element vertex 622
property float x
property float y
property float z
property float nx
property float ny
property float nz
property float curvature
element camera 0
property float view_px
property float view_py
property float view_pz
property float x_axisx
property float x_axisy
property float x_axisz
property float y_axisx
property float y_axisy
property float y_axisz
property float z_axisx
property float z_axisy
property float z_axisz
property float focal
property float scalex
property float scaley
property float centerx
property float centery
property int viewportx
property int viewporty
property float k1
property float k2
end_header
96.767899 -47.527 613.10901 -0.14772548 -0.8367964 -0.52720875 0.004340006
106.592 -43.160599 600.17902 -0.040561739 -0.93111843 -0.36245441 0.006025264
103.316 -46.302799 608.203 -0.19232416 -0.84755075 -0.49464041 0.00011905726
-30.8106 -55.451 782.52301 -0.30557355 0.8753919 -0.37458482 0.0071952688
106.612 -46.896702 608.42798 -0.26848441 -0.84518671 -0.4621425 0.0015756816
109.841 -46.929699 605.90198 -0.3002544 -0.83675832 -0.45791128 0.0018682699
26.795601 -73.7528 747.98102 -0.50435537 0.30091432 -0.80936784 0.0070508523
24.161699 -73.210999 750.159 -0.54551744 0.27852803 -0.79046369 0.0036008707
19.9545 -72.361801 752.63702 -0.55442894 0.47786754 -0.68135983 0.0076879207
16.679701 -72.446999 755.37903 -0.63685197 0.38172162 -0.66985679 0.011057254
108.157 -59.369999 632.604 -0.89384115 0.38940036 -0.22229579 0.026081417
87.763397 -66.728699 669.987 -0.87671578 0.39248356 -0.27807584 0.0069583356
85.758598 -67.143303 673.36401 -0.81949955 0.37118962 -0.43662196 0.0034412832
25.795401 -69.822899 749.75403 -0.58538365 0.15108642 -0.79655439 0.0021719269
20.071899 -69.658302 754.53302 -0.56623274 0.34252623 -0.749704 0.0025795819
-7.1655002 -58.233002 774.388 -0.25432333 0.40348414 -0.87893128 0.014613574
83.0765 -66.8629 676.75403 -0.86101168 0.28560048 -0.42082211 0.019931277
25.1166 -65.953003 751.25098 -0.72718054 0.27130127 -0.63055855 0.0017304709
22.311501 -66.022903 754.06201 -0.60083568 0.27598962 -0.7502175 0.0096392939
-2.2552299 -57.683998 772.24701 -0.42567989 0.11000662 -0.89816207 0.010900069
89.634598 -63.243698 668.93903 -0.89411193 0.27074146 -0.35673931 0.0037508849
85.189796 -65.829002 676.02802 -0.72762656 0.42937014 -0.53497738 0.011457498
-4.44134 -54.0877 773.75897 -0.48304144 0.034244437 -0.87492758 0.0024104831
85.642097 -63.434601 676.27802 -0.75352311 0.46078783 -0.46891105 0.014640859
24.445601 -62.612301 753.13702 -0.65155274 0.19170928 -0.73398 0.0051840418
89.438698 -59.999802 670.84399 -0.87098986 0.28721672 -0.39860159 0.016390972
87.510498 -59.697601 674.24902 -0.8089112 0.51588732 -0.28199816 0.033861157
26.746401 -58.9561 751.95697 -0.71888477 0.15193532 -0.67832166 0.0064321435
23.6984 -58.370998 754.53497 -0.59411395 0.1937218 -0.78070509 0.0015652679
20.059999 -58.383701 757.23999 -0.5936752 0.075807489 -0.80112612 0.0028629838
34.405998 -59.357899 741.94501 -0.76464754 0.15369338 -0.62585336 0.0035503143
31.797199 -59.2192 745.33801 -0.74620223 0.33094543 -0.57763082 0.0065729334
29.051901 -58.987499 748.75299 -0.74706501 0.27732399 -0.6041401 0.0023128805
90.395897 -57.923401 674.89398 -0.66018218 0.71886581 -0.21769573 0.03117566
28.7075 -55.507801 750.81097 -0.59274292 0.4680489 -0.65542805 0.0023811301
23.2106 -55.7337 755.49298 -0.57778823 0.12776253 -0.80612499 0.00374448
113.251 43.417599 630.94299 -0.87957722 -0.46731788 0.089206703 0.0013224668
110.037 48.619701 626.93298 -0.87296981 -0.48574874 0.044405624 0.0019788411
112.322 40.887901 620.84998 0.7810297 -0.33298934 -0.52830935 0.046524629
111.196 38.671398 621.71503 0.37783936 -0.72483486 -0.57606578 0.017009672
109.875 40.446499 618.92999 0.59673685 -0.56102961 -0.57371664 0.015135244
106.582 29.2022 633.44202 0.57892495 -0.45340109 -0.67769712 0.03118778
103.505 33.486801 627.68597 0.23988302 -0.73931414 -0.62918258 0.0026815841
105.303 25.340599 633.45502 0.72703832 0.12594092 -0.67494756 0.028480755
103.092 28.2111 631.40601 0.6634326 -0.16779472 -0.72917902 0.026789211
101.528 31.160999 629.03699 0.38291314 -0.48490271 -0.78628677 0.015017902
99.414803 33.117699 626.61902 0.21144003 -0.68401533 -0.69815195 0.0042211376
101.01 27.008801 628.24298 0.69260997 0.24134701 -0.67973745 0.01049484
96.975098 40.210499 616.242 0.17048711 -0.89523172 -0.41169679 0.00058079924
94.0979 38.961899 618.263 0.37141293 -0.78566349 -0.49475774 0.024158927
101.151 23.228001 626.19702 0.72455549 0.42375785 -0.54355198 0.0034623255
92.599899 39.6702 614.85498 0.64708835 -0.69224834 -0.3194823 0.0085409377
107.973 -27.414801 677.56702 -0.64498603 0.48519152 -0.59040856 0.010278628
15.1607 -19.5445 779.46198 -0.27701595 0.4162066 -0.86604512 0.0041519604
109.377 -36.114799 670.883 -0.71310562 0.33466494 -0.61601919 0.0091145607
112.08 -35.965099 667.35901 -0.72117466 0.27032405 -0.63783383 0
9.5279102 -24.409 780.242 -0.37108827 0.37188584 -0.85087872 0.0047362493
16.8064 -26.983 775.72601 -0.35517654 0.40865025 -0.84074652 0.0028801244
109.573 -39.753601 668.578 -0.77475351 0.25569221 -0.5782547 0.014209739
12.5316 -26.614 777.92603 -0.32471484 0.3987982 -0.85762483 0
17.357 -31.0429 773.61298 -0.27152705 0.6117909 -0.74295694 0.0034342567
10.3528 -29.7087 777.50702 -0.26954228 0.3869651 -0.88181913 0
17.0707 -34.054298 770.97101 -0.25127611 0.69908923 -0.66942865 0.0012569908
20.364201 -34.986099 768.60303 -0.13342173 0.65224528 -0.74617338 0.0074051856
16.284 -42.730598 763.48901 -0.20549394 0.56274766 -0.80067933 0.010459145
36.1395 -51.151001 748.21002 -0.51163977 0.85004056 -0.12512307 0.021814177
33.622799 -53.5457 749.03198 -0.57569414 0.73381317 -0.36068627 0.014909271
19.869301 -49.443501 758.62701 -0.36624548 0.32280359 -0.87273258 0.013911617
23.9349 -68.440903 655.85303 -0.081215031 -0.8329826 -0.54730618 0
21.2066 -69.425201 658.21698 -0.04724694 -0.84492868 -0.5327881 5.3839347e-05
18.615499 -71.029404 660.27002 -0.015231981 -0.77476132 -0.63207024 0.00063600024
10.0245 -69.907997 659.07098 -0.016559983 -0.8375839 -0.54605764 0.0031012364
10.0002 -65.051399 651.45599 -0.024621526 -0.81930816 -0.57282448 0.00040756751
6.79844 -66.079697 653.23999 -0.064889349 -0.85212922 -0.51929289 0.0011929292
4.93504 -64.8162 651.50897 -0.05226168 -0.80901444 -0.5854609 0
-0.61415201 -75.085098 667.90302 -0.12098692 -0.8150683 -0.56659132 0.0017512916
-1.1575201 -70.3908 659.92401 -0.056371763 -0.84312713 -0.53475112 0.0044459682
-4.5674 -71.4366 662.10999 -0.062687352 -0.85058767 -0.52208328 0.0012995391
-9.1052198 -74.045998 666.91199 -0.017466018 -0.83956039 -0.54298556 0.0039704954
-6.0606399 -51.544201 630.94897 -0.053115897 -0.75312686 -0.65572762 0.002351203
-11.2503 -71.829498 663.96301 -0.020707227 -0.82923096 -0.55852228 0.0029345825
-8.5158796 -48.604 628.56403 0.033138636 -0.72021633 -0.69295764 0.005309735
-14.2465 -59.872898 645.53101 -0.098358862 -0.79476088 -0.59889954 0
-15.0628 -54.9925 637.59601 0.10804002 -0.8122074 -0.573277 0.0057145697
-17.0623 -57.175499 639.45599 0.23728044 -0.84151411 -0.48533696 0.015067886
-18.6756 -55.1605 636.74103 0.034703784 -0.69064224 -0.72236341 0.0070935031
-20.6763 -52.117699 634.21802 -0.090514176 -0.7491011 -0.65624285 0.0026313427
-23.2432 -48.774502 628.84003 -0.077183083 -0.81795448 -0.57008165 0.0018533535
-27.0625 -49.541199 631.09302 0.0091501269 -0.83031011 -0.5572266 0.002944282
-27.879 -38.2314 616.24597 0.16396371 -0.84539288 -0.50835693 0.013559984
-28.972 -51.0839 633.323 0.031704392 -0.88772869 -0.45927402 0.0035475497
-30.333 -40.455502 617.98798 0.17383778 -0.79824191 -0.57670647 0.0039202566
-31.786699 -38.127201 614.31799 0.14189073 -0.85691041 -0.49555194 0.012862219
-30.444 -49.3405 630.48901 0.072498314 -0.8127442 -0.5780924 0.0014294586
-37.159302 -66.5802 657.89203 -0.0076327873 -0.89363223 -0.44873497 0.00094533613
-86.216904 23.9617 512.76801 -0.017389882 -0.91286808 -0.40788418 0.006172352
-89.762497 22.482 514.68701 0.1783873 -0.8769809 -0.44618675 0
-10.6189 -74.873398 589.66498 -0.61225712 0.21924108 -0.75965416 0.0029096971
-7.6873598 -75.958298 587.03601 -0.53528476 0.40049589 -0.743689 0.0052037016
-90.579498 23.7787 511.746 0.34431177 -0.86944604 -0.35427815 0.026107417
-23.9235 -74.316704 596.69 -0.17851581 0.41582739 -0.89175093 0.0079183402
-91.850899 24.2614 509.422 -0.58477741 0.78132319 -0.21810418 0.16715503
-10.049 -78.6437 587.52899 -0.67000461 0.32342628 -0.66819853 0.01126085
-84.569801 15.4695 508.453 -0.44543135 -0.56249064 -0.69655949 0.0057339668
-15.3674 -81.218803 590.64697 -0.4047586 0.53768224 -0.73964065 0.0079397243
-94.6045 15.5229 514.09698 -0.57729006 -0.37329945 -0.72621185 0.049526598
-87.205803 12.7722 511.056 -0.45514244 -0.49068469 -0.74301678 0.00442026
-12.4215 -81.997498 587.94202 -0.57065195 0.4482272 -0.68807614 0.0038090514
-9.2076702 -82.418297 585.25702 -0.5628379 0.4381063 -0.7009111 0.007629524
-92.754501 12.5165 515.54498 -0.49132925 -0.50415069 -0.71023059 0.002449465
-6.2346802 -82.799301 582.427 -0.60098672 0.38523015 -0.70029473 0.0049763746
-16.996401 -90.552299 552.30701 -0.019090753 -0.79271036 -0.60929942 0.0074274479
-19.058001 -86.955902 549.591 -0.055824686 -0.7129513 -0.69898784 0.0034002673
-21.7854 -99.007004 563.28198 0.098340988 -0.92425901 -0.36888263 0.02204177
-16.011801 -88.279297 550.08899 -0.094260111 -0.68625987 -0.72122288 0.0025999816
-23.087999 -86.833397 588.25403 -0.043276083 0.47929227 -0.87658775 0.0033166085
-8.8273897 -85.627098 583.034 -0.45693308 0.55478054 -0.6952917 0.0082884245
-84.3106 17.598499 523.599 -0.037450608 -0.89247125 -0.44954696 0.0032803051
-80.8563 17.0495 524.60797 -0.054222342 -0.88152403 -0.46901521 0.0049662269
-76.446098 17.825701 522.19501 0.026463028 -0.81522661 -0.57853717 0.0097446507
-72.036102 20.920601 517.57397 -0.0098796226 -0.89651316 -0.44290695 0.0042423103
-70.218201 19.538799 519.52002 -0.128812 -0.85640955 -0.49997023 0.00039741013
-88.428802 -43.9105 628.18298 0.059995342 -0.8517946 -0.52042925 0.0040610605
-65.727097 18.3141 520.724 -0.11756955 -0.85264534 -0.50909066 0
-83.247398 -44.2859 629.07098 -0.18388869 -0.82543623 -0.5337041 0
-83.5214 -49.475498 636.60602 -0.046053752 -0.782956 -0.62036997 0.0038798812
-71.129204 -38.702599 617.00299 -0.028486401 -0.87467504 -0.48387191 0.0029512835
-60.327 -39.263 608.82599 -0.04161581 0.44184333 -0.89612645 0.012008083
-67.696701 -37.821499 615.02197 0.053932894 -0.95331466 -0.29712337 0.019441606
-63.697102 -37.767899 615.60602 -0.0079885107 -0.88970137 -0.4564732 0.0039937627
-59.879002 -38.714298 616.763 -0.11195029 -0.83473396 -0.53915334 0.0015096121
26.2523 -70.234398 658.83899 -0.090036161 -0.8401047 -0.53489959 0.0017139856
27.570299 -72.548401 661.617 0.017133566 -0.79942703 -0.6005187 0
29.1159 -70.6082 659.23798 -0.06368909 -0.8585723 -0.50872129 0.0047704796
29.796499 -75.922401 666.90601 0.0051933564 -0.83075041 -0.55662084 0.0014584003
33.206299 -74.876503 664.71997 0.0069129639 -0.86869311 -0.4953025 0.0042151986
35.4613 -73.120003 662.216 -0.057442203 -0.85110748 -0.52183944 0.004609203
-73.403397 -54.260399 754.16602 -0.083870433 -0.96189451 -0.26023972 0.0087846508
-71.424797 -54.002499 752.11499 -0.12040457 -0.96409804 -0.2366806 0.0054140585
39.790798 -69.341698 654.99597 -0.14203413 -0.79120612 -0.594827 0.0045669819
-74.340797 -60.362701 768.31097 0.29640931 -0.8148244 -0.49819943 0.019754728
41.299999 -72.160103 658.06 -0.0050436165 -0.81330341 -0.58181787 0.0035138666
-73.523804 -61.659302 771.25201 0.018221807 -0.86245304 -0.50580895 0.00094680709
43.436298 -69.947098 655.66498 -0.053756565 -0.78069043 -0.62260151 0.0047336612
-71.068398 -60.488899 768.93298 0.027976958 -0.85224253 -0.52239823 0.0021758876
-68.204399 -59.070801 766.836 -0.054086141 -0.86420923 -0.5002172 0.0011919802
46.527699 -68.833397 653.73901 -0.070721604 -0.84282625 -0.53351873 0.0020459292
50.075199 -64.560204 646.39301 0.020106498 -0.83983666 -0.54246664 0.0018072835
-56.9701 -57.6334 756.07501 0.24562444 0.96726853 0.063719511 0.00081030396
-65.342201 -62.501598 772.51801 -0.044464491 -0.89685315 -0.44008788 0.00029947332
52.042 -65.982597 648.88702 0.10240883 -0.84444648 -0.52575904 0.0027099089
-55.062199 -58.374802 758.39203 0.17664847 0.98223978 0.063248888 0.0023203953
54.301601 -64.995598 647.91699 -0.030945199 -0.87610304 -0.48112977 0.0069299401
54.811699 -69.745499 654.98798 -0.10955834 -0.80015945 -0.58969641 0.0034638222
-51.063 -58.8922 760.11298 -0.19403672 -0.97658414 -0.092914358 0.0061933594
-53.4058 -59.262199 762.89502 -0.13627698 -0.94729477 -0.28993306 0.0035320884
58.301899 -69.131401 652.29199 -0.12271684 -0.83611161 -0.53465688 0.001565455
-46.971901 -59.576801 760.60101 0.095687836 0.99344444 0.06254565 0.0018773996
59.523998 -83.9888 675.71802 -0.013781807 -0.79844964 -0.60190386 0
-38.693199 -62.481998 756.11401 0.25144246 0.90914226 -0.3320196 0.0033047055
63.3894 -79.968002 668.88098 -0.10448749 -0.82945114 -0.54871964 0.0034460071
-39.6059 -60.948898 759.08301 0.22559041 0.95802748 -0.17689578 0.0060721473
-43.4272 -60.135101 762.20398 0.15716973 0.98715025 0.028846808 0.0055090101
-45.611 -60.438099 765.05701 0.03570218 -0.99549031 -0.087887973 0.0044726841
65.070702 -81.704697 671.47302 -0.23935473 -0.81840259 -0.52242368 0.0040080613
67.435699 -80.849701 668.67102 -0.18608522 -0.79589367 -0.57612985 0.00025328132
-6.6404901 112.4 491.11801 -0.20399818 -0.55750686 -0.80471784 0.004392012
-36.5187 -61.233002 764.21997 0.20802327 0.95739275 -0.20031349 0.0081203943
-6.3685498 115.059 489.155 -0.1902031 -0.59043765 -0.78435081 0
-36.6147 -58.677799 767.92297 -0.11460035 0.73466128 -0.6686849 0.0050466512
87.136101 -38.769402 597.32001 -0.35160726 -0.86407351 -0.36020714 0.015048356
88.152603 -40.378399 601.29199 -0.28135088 -0.83376652 -0.47505283 0.0039093252
-40.668499 -59.3265 779.47302 -0.23265125 0.62738329 -0.74314433 0.14391941
91.655296 -39.6563 598.78198 -0.16896133 -0.89946562 -0.40300581 0.00091905706
-41.2603 -57.201801 778.19397 -0.3902123 -0.37338448 -0.84161657 0.19323026
-30.7073 -57.371799 768.72803 0.16590409 0.94713056 -0.27462634 0.051498502
-41.8092 -56.514198 781.93597 -0.033248223 0.95675915 -0.28897467 0.15707065
93.207001 -45.6861 609.67603 -0.033811774 -0.92060184 -0.389036 0.0070414403
89.4478 -49.128201 617.35498 0.0063598603 -0.8499977 -0.52674794 0.0037561567
-38.3517 -56.482498 778.04303 -0.2626507 -0.5100351 -0.81907195 0.059379596
-31.802099 -56.311901 772.55902 0.3493861 0.93596596 0.04355517 0.0056815315
-35.350498 -55.684299 775.63501 -0.36392823 -0.79030263 -0.49292794 0.037576191
-33.897499 -57.485699 779.59399 -0.22053595 0.7589702 -0.61264032 0.012429276
94.858803 -47.277802 612.84302 0.018666713 -0.85990179 -0.51011807 0.0025162208
-20.2495 -61.942799 769.58801 0.27318698 0.94746566 -0.16636647 0.011296705
97.040901 -45.710499 610.68402 -0.0592517 -0.89504302 -0.44202644 0.008581074
100.293 -45.368301 608.22302 -0.25200757 -0.84686744 -0.46830308 0.0012909423
-30.0809 -55.897598 779.88 -0.25168306 0.84209895 -0.4769958 0.013229101
-33.4086 -55.329399 783.20099 -0.21502818 0.94356751 -0.25187922 0.0057343156
103.817 -45.001499 605.83301 -0.20340453 -0.87122846 -0.44675222 0.00069728045
106.317 -45.504601 605.79498 -0.25799197 -0.84677619 -0.46519905 0.0028190124
109.318 -48.290199 608.38 -0.25397652 -0.86294931 -0.43682304 0.003204708
18.4522 -71.443802 754.56403 -0.55789185 0.38255021 -0.73648626 0.0017357048
84.464897 -67.9142 675.31 -0.84709048 0.34722871 -0.40233064 0.026267966
27.7145 -71.285797 748.29199 -0.66168481 0.13820611 -0.73693436 0
24.318199 -70.913696 750.87299 -0.54196686 0.23412991 -0.80712771 0.0044875792
88.923401 -65.701401 667.60498 -0.88024372 0.43451273 -0.19070852 0.0017986009
-3.80056 -58.280201 772.75299 -0.34652898 0.27826291 -0.89581668 0.012141219
23.495399 -67.194397 752.74103 -0.6759935 0.31813526 -0.66469741 0.0033518369
88.677803 -64.822502 670.74298 -0.87767065 0.34690857 -0.33067915 0.0083664758
86.564796 -64.576103 674.54102 -0.79480779 0.42088157 -0.43719476 0.0050150864
84.414703 -64.694298 677.763 -0.76381636 0.53147465 -0.36622292 0.0090701478
-0.75600398 -56.231201 771.62 -0.6028893 0.054923858 -0.79593199 0.0072167385
-5.1678901 -55.242401 774.13202 -0.42756903 0.075007118 -0.9008655 0.0098862415
23.947599 -64.800102 752.99103 -0.70315826 0.26530981 -0.65968114 0.0068129902
25.674999 -63.730598 751.62299 -0.71086937 0.26886991 -0.64990276 0.0051889918
22.672501 -63.475201 754.60901 -0.62580496 0.14853331 -0.76570624 0
88.329201 -61.173698 673.31702 -0.88987249 0.25573021 -0.37779501 0.015102256
27.8547 -60.2668 750.50403 -0.77158886 0.200293 -0.60376602 0
15.479 -55.923199 761.297 -0.61552107 0.067491673 -0.78522521 0.0043445015
33.380901 -58.146599 743.69897 -0.72924 0.28012389 -0.62429124 0
21.6353 -57.058701 756.36603 -0.60778993 0.10312887 -0.78737277 0.0050182459
90.548698 -57.335499 672.54102 -0.64734411 0.75542343 -0.10139543 0.019759079
88.840401 -58.3293 675.37299 -0.67191941 0.70901465 -0.21406212 0.031427275
28.398001 -57.635799 750.323 -0.74691498 0.27769738 -0.60415417 0.0021368002
132.62199 15.4459 731.83002 -0.85206091 -0.52261323 -0.029453227 0.0054802736
134.67101 12.4695 730.62903 -0.82446337 -0.56202865 0.066210479 0.0039677285
132.351 15.8434 728.51001 -0.87037259 -0.45435816 -0.18976383 0.021214386
138.267 13.5156 722.10101 -0.57951862 0.0018559179 -0.81495684 0.0073929643
135.289 2.1971099 735.56097 -0.54565656 0.83494604 -0.071581759 0.05278571
131.718 2.54161 739.05701 -0.22129276 0.61716664 -0.75507277 0.0097927582
133.08501 0.66310799 736.57397 -0.30166534 0.93468726 -0.18803681 0.071703091
131.35899 1.63167 734.41998 0.16136658 -0.89921927 -0.40665141 0.0036411618
129.86 2.54182 731.41302 0.14896426 -0.93461901 -0.3229503 0.0072394265
127.024 1.50253 733.34497 0.18964067 -0.89632267 -0.40080184 0.0044814316
143.19901 -6.0082302 714.164 -0.20674628 0.95844287 -0.19657885 0.08339227
124.62 -1.27028 735.547 0.83813256 -0.42298576 -0.34440809 0.043157376
123.303 1.08995 732 0.75027585 -0.63380408 -0.18809208 0.074632742
122.289 34.649799 670.57898 -0.81000221 -0.58417964 0.051289465 0.0041140513
123.383 33.59 666.74799 -0.82510698 -0.55352676 0.11316576 0.0047348365
127.294 -7.42975 710.95203 0.2409967 -0.93920743 -0.24456069 0.0075246929
132.30499 20.1513 665.315 -0.84699613 -0.50681096 0.16043752 0.0017878683
126.025 -7.7684202 706.08899 -0.28882721 0.94301397 -0.16523761 0.0010406022
127.213 26.454399 660.15802 -0.78168046 -0.61353475 0.11202997 0.0037138013
133.692 16.676201 662.888 0.94255263 0.18972501 -0.2749525 0.023119736
131.94501 20.031601 661.112 -0.85993099 -0.50919253 0.035236057 0.0028300493
129.76199 23.435499 658.45898 -0.82427645 -0.55748206 0.098904528 0.0055786464
127.467 25.5909 655.96698 0.86302805 0.4674046 -0.19161314 0.0069705644
125.625 28.1912 654.39502 -0.85632819 -0.49073645 0.16087212 0.0039493903
123.124 31.461 651.60199 -0.83394235 -0.53406411 0.13898101 0.0076746996
130.293 19.1064 656.51703 0.7737425 0.10660366 -0.62446636 0.018105835
120.395 35.114101 649.54999 -0.83919096 -0.53907019 0.071846716 0.0039226953
130.31599 15.8455 656.14899 0.58923942 -0.14609566 -0.79464024 0.002053228
128.37601 18.9844 653.59601 0.63891244 -0.27728185 -0.71756929 0.035951514
122.309 31.1772 647.79303 -0.85023785 -0.51835191 0.091688894 0.0084708035
124.35 27.813801 645.914 0.85498643 0.14720082 -0.49732289 0.020398011
122.101 30.6789 643.60797 0.94958222 0.22399758 -0.21936008 0.01696058
121.527 -13.2074 674.30798 -0.57490683 0.42397061 -0.69980782 0.0042956509
118.249 -13.3025 677.81702 -0.63802963 0.3161878 -0.70209938 0.011219234
41.908298 -3.61638 774.521 -0.3293789 0.27386841 -0.90360695 0
40.066299 -10.2695 773.573 -0.35405827 0.22560892 -0.90760309 0
43.614399 -11.7931 771.745 -0.43802989 0.35963729 -0.82388765 0.0091779102
41.2985 -14.2679 771.638 -0.44407353 0.30142084 -0.84376782 0.0164048
118.987 -21.230499 670.02899 -0.58293945 0.52387351 -0.62107831 0.010251282
113.287 -21.0905 676.216 -0.68745202 0.4500435 -0.56997412 0.010954306
93.476997 24.662001 614.34198 -0.83644831 -0.54227859 0.079297446 0.016164767
96.195602 24.2822 606.39301 -0.79555285 -0.50923818 -0.32828674 0.002490374
63.8745 118.428 523.82599 0.57553184 -0.81774491 -0.0075131375 0.059144717
63.241001 123.255 514.73999 0.37983724 -0.75401771 -0.53589267 0.045544334
60.9133 121.847 516.84003 0.65715009 -0.39900589 -0.6394906 0.11321101
61.063099 118.088 515.50403 0.91221118 0.31787589 -0.25850639 0.024298068
59.577 121.144 513.58099 0.95288491 -0.16994004 -0.25125813 0.023409329
62.264801 115.038 493.19901 -0.93545127 -0.32338178 -0.1426719 0.0068515162
61.1721 118.628 491.45901 -0.86408406 -0.46438056 -0.19418937 0.0020163695
-87.883904 -61.1987 766.151 0.12314004 0.87222528 -0.47334921 0.011296938
-91.427101 -51.030899 751.84198 0.011551197 -0.87787795 -0.47874501 0.0079284152
-90.882004 -62.312302 764.90601 0.19560589 0.94032115 -0.27845031 0.094933189
-84.059898 -64.119797 761.87402 -0.44043201 0.75800133 -0.48109633 0.12924504
-93.062897 -49.1759 749.034 -0.14039819 -0.89527196 -0.42281967 0.0049781161
17.830999 9.0627098 526.56702 0.035893127 -0.7368511 -0.67510146 0.0096614221
14.9666 7.90802 528.80798 -0.11323026 -0.86902606 -0.48163527 0.00097443676
13.3308 9.7630196 526.00098 0.0072373762 -0.85542917 -0.51786917 0.00088944944
9.7823601 6.2800498 533.78101 0.006131507 -0.86539006 -0.5010612 0.0043681236
4.8723998 3.4123199 538.13 -0.016864499 -0.87133259 -0.490403 0.0011922739
7.7832699 7.5577402 531.159 0.1212168 -0.87647265 -0.46594229 0.00087815779
3.1474099 8.2722702 529.70203 -0.10427807 -0.86804581 -0.48540962 0.00073997822
-0.489171 8.60009 529.57001 -0.035378795 -0.86796683 -0.49536037 0.00064662151
-2.7611899 10.5232 526.49902 -0.017809551 -0.87720579 -0.47978422 0.0014807598
-4.7614899 9.6397896 527.91199 -0.10289922 -0.86850131 -0.48488888 0.0020561377
-7.28548 8.3312998 531.01099 -0.10069821 -0.85050619 -0.51623547 0.0011227962
-15.0434 -3.44647 554.52197 0.090931401 -0.88597012 -0.4547399 0.0023793657
-19.042601 -3.44207 553.44702 0.021480128 -0.84463733 -0.53490788 0.0034473392
-107.701 -39.853699 622.85797 -0.0040711421 -0.80590773 -0.59202713 0.0014465143
-107.881 -35.3549 615.42902 -0.012222314 -0.92510688 -0.37951005 0.0034746653
-110.609 -36.339298 617.79199 -0.13267964 -0.85469168 -0.50189465 0
-5.5398102 -46.0746 538.92603 0.49359217 0.43360096 -0.75389451 0.00068058778
-111.881 -34.4338 614.50897 -0.055705156 -0.92544556 -0.37476319 0.0028286302
-115.7 -39.3111 621.466 0.048527658 -0.83155739 -0.55331486 0.0066744057
-132.157 -41.289299 626.18597 0.072207831 -0.68048936 -0.72919154 0.013333905
-7.1946201 -62.045399 530.30499 0.6383912 -0.17189704 -0.75027204 0.010687928
-155.285 -31.536301 604.61102 -0.80890721 0.28602991 -0.51366931 0.090581067
-149.23801 -30.6387 601.73999 -0.22164485 0.63849032 -0.73702359 0.019817062
-3.9912701 -60.9627 532.04602 0.66875291 -0.098291546 -0.7369588 0.012623502
-1.73599 -64.686401 534.297 0.5339157 -0.15365419 -0.83145916 0
-144.481 -30.3263 602.14301 0.22423118 0.80006421 -0.5564329 0.067789301
-5.55618 -58.496899 529.927 0.61425269 0.09934818 -0.78283048 0.021107413
-147.97 -29.383301 606.758 0.15295865 -0.9631303 -0.22132228 0.0026897637
-6.3629098 -54.845501 531.61603 0.62856871 0.50830048 -0.5886696 0.0028009738
-139.79201 -41.3461 624.54199 0.29757127 -0.29564697 -0.90776885 0.072313368
-136.24699 -41.658401 625.11902 0.36111516 -0.12680106 -0.92386001 0.065733343
-7.8499498 -50.972 534.00897 0.58567607 0.39971867 -0.7051301 0.0074841487
-103.975 -43.522598 628.59198 -0.031730648 -0.87822443 -0.47719505 0.0048064748
-99.700798 -39.2542 621.97699 0.017890025 -0.81863683 -0.57403272 0.0062675541
-96.1549 -39.8088 622.073 -0.027204262 -0.88143259 -0.47152567 0.0038556084
-92.2463 -39.8283 622.65601 -0.027602078 -0.84875286 -0.5280689 0.0039492738
-90.064598 -42.0555 625.375 -0.17904612 -0.8233822 -0.5385018 0.00049462169
-59.5863 7.1121802 539.30701 0.11438604 -0.74434435 -0.6579265 0.011968683
-55.5858 7.9829402 537.72998 -0.039287321 -0.82096142 -0.56963044 0.0030966816
-41.223202 4.5191102 542.92297 0.042403866 -0.84413093 -0.53445745 0.0053357254
-88.245399 -49.601799 750.39801 0.069972515 -0.92620188 -0.370478 0.0048898552
-83.972504 -60.537701 762.409 0.2600874 -0.033549707 -0.96500212 0.098450065
-90.705704 -59.416401 768.854 0.33968556 0.9122383 -0.2289869 0.057567079
-83.202003 -61.162399 766 0.36917737 -0.87691194 -0.30778822 0.042999968
-81.430397 -62.583599 769.07397 -0.1212294 -0.92601281 -0.35749641 0.0047492776
-79.066101 -61.649799 767.18597 0.1178432 -0.8388983 -0.53137803 0.0036444673
68.300598 -12.244 550.66803 -0.016136546 -0.82131314 -0.57024932 0.0025408934
71.782501 -6.49616 547.98401 0.44766346 0.089820743 -0.88967955 0.029437767
76.637802 -12.9258 551.28101 -0.14026026 -0.66503435 -0.73352337 0.011254424
90.962196 -29.3932 576.591 -0.13213216 -0.91521937 -0.38067648 0.002943604
94.189102 -31.6315 579.52399 -0.21358687 -0.89087892 -0.40089327 0.0083700931
96.432999 -34.731701 585.026 -0.14345537 -0.90956837 -0.39000762 0.0014475287
5.4519401 115.249 485.95499 -0.21550356 -0.55297232 -0.80484772 0
7.8624601 112.112 487.642 -0.15873218 -0.60226095 -0.78235918 0
8.5437803 114.492 485.612 -0.22549219 -0.59635532 -0.77039838 0.0011360671
100.377 -34.570999 582.86401 -0.14316885 -0.88812995 -0.43672404 0.0019812626
98.581398 -37.669899 591.22498 -0.17238151 -0.89454383 -0.41240281 0.0021902451
13.363 114.804 483.901 -0.19271721 -0.58638126 -0.78677642 0.0032246877
103.598 -35.027901 583.12799 -0.14530686 -0.88665831 -0.43900222 0.0019888545
109.856 -34.087799 577.77301 -0.13241655 -0.88438481 -0.44758168 0.0062705879
106.098 -36.871399 585.83398 -0.13955936 -0.89446306 -0.42480472 0.0020663117
16.9077 119.129 480.064 -0.2126694 -0.59888941 -0.7720772 0.0011591833
20.7279 112.94 484.43399 -0.12539035 -0.64246011 -0.75599092 0.0036985339
110.406 -35.236 580.80499 -0.16974543 -0.8998155 -0.40189379 0.0028907745
23.243099 115.568 481.38 -0.10677546 -0.6020093 -0.79131776 0.0081782825
113.983 -34.646198 578.45398 -0.11685932 -0.89697003 -0.42636666 0.0082724569
19.7859 122.211 477.336 -0.12659012 -0.51662117 -0.84680432 0.0035713883
119.84 -29.2439 569.315 0.21825175 -0.31477258 -0.92373389 0.027114969
113.901 -38.330399 587.35797 -0.1535807 -0.91923708 -0.3625136 0.0043982277
121.857 -31.817699 571.47302 0.15427843 -0.67077214 -0.72543985 0.030907135
26.899 81.594002 533.49799 -0.13949035 -0.83643109 -0.53002399 0.00087000546
30.097 80.665001 533.27698 -0.21934775 -0.84086895 -0.49479896 0.0042469613
123.838 -33.926998 574.25098 -0.071291737 -0.83337164 -0.54809606 0.011120733
34.847301 80.611801 530.92499 -0.20213337 -0.84554952 -0.49415395 0
125.088 -35.632801 577.28003 -0.041978054 -0.87881029 -0.47532123 4.392476e-05
37.0849 81.688904 528.16101 -0.13879438 -0.90433389 -0.40362886 0.003992246
128.26801 -34.185101 574.995 0.16033883 -0.68160278 -0.71393925 0.012405231
36.445599 77.502403 536.74902 -0.19156878 -0.91700703 -0.34985641 0.0011934036
136.94299 19.226999 723.797 -0.6261636 -0.010268806 -0.77962399 0.0053766845
137.084 8.1208897 729.91101 0.92723852 0.1999768 -0.31660387 0.017614599
133.442 17.9445 726.414 -0.70930898 0.018970907 -0.7046423 0.0077949599
135.174 11.2156 727.72601 -0.88120067 -0.44708863 -0.15361324 0.011010906
135.11301 14.1495 725.07001 -0.81038666 -0.27193722 -0.51896405 0.019832669
136.72301 4.8037801 730.33398 0.67123628 -0.44387409 -0.59364766 0.065695174
133.996 3.0292201 732.26398 0.19802934 -0.88294291 -0.42567137 0.0025977436
132.57899 4.52458 729.30499 0.34102762 -0.89369905 -0.29155129 0.013926657
128.502 -0.67406303 736.52899 0.33971751 -0.91852319 -0.20225529 0.0509688
128.605 3.18699 728.505 0.3234196 -0.94281232 -0.08065097 0.0086370669
125.832 2.1285901 729.65802 0.34533846 -0.9366414 -0.058688194 0.016104655
120.918 38.5299 675.90002 -0.84116036 -0.53775829 0.057142671 0.0049563879
127.198 -9.2451401 719.448 -0.44644868 0.8539834 -0.26720029 0.032139305
125.838 31.1766 669.422 -0.81561559 -0.56844413 0.10790038 0.0087743038
126.292 -9.64254 715.55798 0.24822488 -0.9525122 -0.17636554 0.017846426
127.024 28.0347 667.367 -0.83553761 -0.53982604 0.10229731 0.0053004064
122.11 35.653099 665.29102 -0.82265383 -0.56261802 0.081863903 0.0053817793
125.432 30.6136 665.54602 -0.81904018 -0.55159497 0.15784886 0.0047052857
122.841 33.6469 663.18402 -0.80783713 -0.579597 0.10708154 0.0071838703
129.942 22.8013 662.21002 -0.87181574 -0.48458076 0.071546331 0.0042219395
120.386 36.0602 660.51001 -0.82813376 -0.55312371 0.090822197 0.0075395391
120.207 36.694401 656.75897 -0.8069703 -0.5846585 0.083506592 0.0051317397
121.393 33.552399 654.70502 -0.80704993 -0.58396351 0.087504447 0.0036574432
132.636 15.6458 658.95599 0.81356776 -0.22954221 -0.53424513 0.011201652
128.239 22.191999 654.32202 0.86237842 0.22438504 -0.45382243 0.032237712
124.673 28.650299 650.38599 -0.83230364 -0.54366094 0.10818277 0.0060336855
130.953 12.4952 659.08502 0.77449453 -0.10793588 -0.62330413 0.014587102
120.399 34.271999 645.60797 -0.82305056 -0.56500357 0.057954896 0.0032898183
126.588 18.0033 654.22601 0.51204771 -0.43179333 -0.74253726 0.022294192
42.882599 -7.8372202 773.18298 -0.29043448 0.25550371 -0.9221527 0.0053812466
36.152699 -7.7427301 776.45398 -0.42388028 0.25367168 -0.86946887 0
118.751 -17.852301 672.216 -0.58376592 0.50389069 -0.63664079 0.005847075
115.747 -18.109301 675.71301 -0.64625448 0.51090157 -0.56686383 0.0042904434
115.926 -21.040701 673.46503 -0.68803501 0.4721815 -0.55104667 0.0051347348
94.285896 29.687201 620.75201 0.84031028 0.34094906 -0.42146441 0.005791516
95.124802 25.1556 618.63501 0.78849745 0.43979809 -0.42994118 0.0073595117
93.031799 29.0769 616.86499 0.82040417 0.37719634 -0.42972076 0.0022858016
96.295898 22.035801 616.396 0.78968108 0.48653504 -0.37374792 0.0051259692
91.066498 27.7994 612.65399 -0.87002224 -0.49277741 0.015222247 0.010574743
91.250298 29.010799 608.71802 -0.81518841 -0.5028708 -0.28738281 0.0084877471
97.2733 18.1443 614.698 0.83458298 0.48538986 -0.26051483 0.012291208
94.958504 21.432501 612.591 -0.86711681 -0.49109262 0.083285771 0.014504136
93.889099 24.7174 610.39801 -0.79957116 -0.52848643 -0.2852858 0.010638824
64.239899 121.536 518.06799 0.23375893 -0.75733483 -0.60975468 0.0087949345
62.591499 118.742 519.99799 0.67352742 -0.49237818 -0.55129361 0.050903969
-89.701401 -58.025002 761.70801 0.092777312 -0.3367396 -0.93701595 0.0069510322
-90.882599 -57.674801 760.49103 0.11663018 -0.35161069 -0.92885274 0.025993241
-91.791801 -54.665199 757.31097 0.11413898 -0.76718783 -0.63118553 0.002270859
-86.833397 -63.878502 762.58099 0.20863703 -0.13099484 -0.96918052 0.067184031
-89.0606 -62.217499 760.70203 -0.01829893 -0.096997581 -0.99511641 0.029880915
-94.837402 -52.261398 754.79602 -0.059713196 -0.77547437 -0.62854892 0.003499748
-96.700996 -49.838501 751.96198 0.018535525 -0.88586491 -0.46357286 0.0071062464
23.9643 12.7253 526.39301 0.30872691 0.10475358 -0.94536459 0.025255749
16.897699 5.9654799 531.91998 -0.16813186 -0.8765747 -0.45094177 0
13.0554 5.6270499 534.11401 -0.14105266 -0.86912626 -0.47405028 4.367765e-05
10.0567 9.1509304 528.45398 -0.037971299 -0.89749962 -0.43937749 0.0072422205
8.9667397 10.6337 525.55701 0.014716398 -0.90862072 -0.41736293 0.0059609637
3.0679801 0.43259001 543.26801 0.0078196265 -0.88722306 -0.46127447 0.0032299669
3.8079901 10.8442 524.87299 -0.14062653 -0.90530336 -0.40081167 0.0011912799
0.64868599 11.569 524.31299 -0.11048751 -0.88802409 -0.4463248 0.001657915
-3.5806701 7.4976902 531.62598 -0.052332744 -0.85595864 -0.51438916 0.00068772672
-3.85113 12.0059 523.60303 -0.00051084108 -0.8777867 -0.47905135 0.00016117971
-6.57938 11.0216 525.966 -0.13581923 -0.88131106 -0.45259687 0.0016240324
-18.681499 -8.2196903 562.15399 0.45387918 -0.67964584 -0.57625967 0.018623965
-15.9434 -5.6844602 559.91901 0.119873 -0.88465959 -0.45056391 0.0059479801
-20.299101 -6.31738 559.26001 0.51099014 -0.61999148 -0.59539872 0.057368081
-22.044201 -4.7463102 556.96997 0.21692419 -0.70445746 -0.67578363 0.072816975
-105.61 -36.291901 618.29401 -0.039287381 -0.88219321 -0.46924585 0.004283715
-108.882 -37.9576 620.16901 -0.024660327 -0.83787262 -0.54530853 0.00051628746
-6.4507999 -43.8032 538.82001 0.47887105 0.43628061 -0.7618016 0.0028449474
-110.792 -39.500301 622.39899 -0.085258037 -0.79962105 -0.5944218 0.0015858359
-113.155 -36.850399 619.29401 0.047829632 -0.81965399 -0.57085872 0.0059581711
-132.61099 -37.992599 622.099 -0.040168501 -0.74811703 -0.66234994 0.0057004024
-5.69912 -66.251404 532.45502 0.63325316 -0.19527487 -0.74890465 0.013967602
-151.37199 -34.432201 603.26703 -0.53420359 -0.29985529 -0.79038811 0.05740127
-5.6069102 -67.964401 532.69501 0.58235461 -0.31454659 -0.74961561 0.0147377
-7.2427201 -66.109398 529.88702 0.58905292 -0.33393446 -0.73586988 0.027433397
-7.93679 -71.980301 532.70502 0.52167612 -0.27160704 -0.80875438 0.016419461
-11.5258 -79.2341 534.539 0.21243094 -0.54555416 -0.81070572 0.025205886
-13.1427 -81.431702 535.31097 0.069450967 -0.68080413 -0.72916549 0.025611367
-22.2372 -84.063004 542.96698 0.075255617 -0.90926373 -0.40936068 0.0069227898
-23.9662 -84.9748 546.16199 0.056722306 -0.8668139 -0.49539497 0.0068934257
-11.9044 -73.333603 531.51001 0.34822735 -0.26530176 -0.89908433 0.013775956
-9.1639795 -76.224503 533.44098 0.46547097 -0.46207055 -0.75486922 0.0091732899
-148.144 -33.490398 600.40601 -0.46394303 -0.087102264 -0.88157248 0.01393414
-145.23599 -42.784302 612.15997 0.51138198 0.85888737 -0.028300537 0.0057978053
-151.817 -29.7712 604.76599 0.35833275 -0.93302625 -0.032554738 0.027257236
-149.423 -29.004601 603.75897 -0.30087924 0.90265948 -0.30769706 0.065495916
-143.243 -42.008499 621.12799 0.59504235 0.29389325 -0.74803162 0.055000119
-138.425 -44.383999 623.16302 0.22643647 -0.14111654 -0.96374929 0.059389953
-144.246 -38.0242 620.784 0.31290004 -0.46931791 -0.82573253 0.044649392
-136.28999 -44.331902 624.802 0.42791972 0.34364605 -0.83593786 0.0056129955
-143.065 -38.374401 622.00098 0.23856372 -0.23006627 -0.94348133 0.076842465
-3.07126 -57.2323 533.32202 0.69818777 0.32284081 -0.63898957 0.015985705
-140.701 -38.336498 621.36102 0.15333703 -0.24872787 -0.95635885 0.055957194
-136.15601 -37.680302 621.521 0.056996685 -0.75522482 -0.65298289 0.0029471673
-99.336098 -35.6199 616.508 0.0025001294 -0.90043312 -0.43498737 0.010756109
-94.857903 -36.682201 616.58099 -0.06816224 -0.88385242 -0.46277294 0.0072879777
-91.244698 -36.329601 616.66699 -0.087583713 -0.9080469 -0.40960938 0.0050921133
-88.745499 -38.993801 620.66302 -0.10871632 -0.87564319 -0.47056323 0.0077794357
-64.767403 9.2794704 535.922 0.059426859 -0.58665484 -0.80765373 0.019981649
-63.676102 6.7430902 538.24103 0.33122271 -0.32867929 -0.88445538 0.010504788
-89.246803 -52.204498 755.138 0.050305523 -0.85280186 -0.51980603 0.0031631661
-86.383003 -57.400398 760.72198 0.023366505 -0.59558618 -0.80295151 0.020358579
-82.353104 -57.654301 761.53101 0.12121416 -0.64080155 -0.75807691 0.016572082
-86.204498 -60.907001 768.98602 -0.33295009 -0.93108767 -0.14906381 0.022428714
-80.865097 -59.9254 763.92401 0.25352696 -0.78381675 -0.56688201 0.020754002
-77.997498 -57.499699 762.00403 0.10061381 -0.81770515 -0.56677604 0.0058394126
70.808403 -10.1847 548.07397 0.30696106 -0.4617714 -0.83219111 0.039487652
72.577499 -12.1205 550.70001 0.13125789 -0.78165495 -0.6097433 0.0059212786
75.147903 -9.7896299 549.44 0.32513332 -0.20987971 -0.92208397 0.039319064
67.320099 0.82881898 549.90302 0.53108436 0.47293797 -0.70304978 0.0012505236
72.683296 -0.86525202 552.42603 0.47674009 0.43781736 -0.76225644 0.0045859804
90.377899 -31.905701 582.513 -0.27758452 -0.87084985 -0.40566897 0.0042106649
0.72374499 115.173 487.23499 -0.20890416 -0.52802235 -0.82313502 0
3.63468 111.993 488.42401 -0.1955269 -0.57738018 -0.7927177 0
6.1814699 107.867 491.33801 -0.115381 -0.63451499 -0.76424998 0.0014507151
96.236397 -31.2355 576.69397 -0.18197195 -0.89326346 -0.41105533 0.014748849
92.960197 -34.377701 584.71802 -0.22536084 -0.86142462 -0.45514831 0.008436502
97.0681 -32.290798 579.96399 -0.12118983 -0.91614079 -0.38209826 0.0056766639
100.574 -31.7222 577.50897 -0.23633727 -0.88093698 -0.40999359 0.0032684556
97.4869 -40.322899 596.13898 -0.26946846 -0.87682611 -0.39819926 0.0020480957
104.57 -33.106098 578.20099 -0.13179438 -0.93908805 -0.31740177 0.0028890804
16.408701 114.904 483.439 -0.12889737 -0.58259094 -0.80247939 0.0011326658
106.846 -34.227402 580.44098 -0.19578268 -0.91441476 -0.35428059 0.00067286362
15.1803 118.06 481.43201 -0.18241632 -0.57221669 -0.79955757 0.0011917154
108.618 -37.702702 586.45801 -0.17057469 -0.8938337 -0.4146874 0.0031338048
22.2726 118.174 479.51199 -0.065130286 -0.54492086 -0.83595419 0.0044826991
113.054 -37.180199 583.77802 -0.14345747 -0.90859467 -0.39226994 0.0030975132
118.007 -31.145901 570.73401 0.0063256836 -0.84073538 -0.54140925 0.010662588
25.242599 86.143997 524.91498 -0.15685105 -0.91828561 -0.36352363 0.0015733414
118.694 -32.588501 574.02399 -0.11810958 -0.89908057 -0.42154974 0.00093264785
27.9739 84.1437 527.93201 -0.22252227 -0.89103353 -0.39565536 0.0051525747
121.179 -34.7211 576.95502 -0.19112349 -0.84625942 -0.49730965 0.0024029051
31.674601 82.974297 528.30402 -0.24694049 -0.88136232 -0.40276659 0.0049817013
33.4454 77.969299 536.37201 -0.20470935 -0.90364856 -0.37618271 0.0038333817
126.195 -31.9638 572.47101 0.21668801 -0.40189323 -0.88967866 0.051240306
35.9925 78.849503 533.33197 -0.14886594 -0.88096881 -0.44914696 0.00072712603
38.3568 79.783401 531.44397 -0.1040929 -0.86197484 -0.49614918 0
135.16901 19.014 725.04498 -0.64054567 0.037648771 -0.76699656 0.0027991598
136.537 15.9761 723.66602 -0.60370421 0.040623825 -0.79617268 0.0065128719
133.216 16.747299 726.289 -0.74419886 -0.16255017 -0.64787781 0.011689281
136.283 9.8963203 729.55603 -0.9004876 -0.40940648 0.14665723 0.015054848
130.80701 3.65359 740.05499 -0.29631138 0.57202268 -0.76484615 0.0082755852
136.14799 3.4781599 732.82001 0.27404797 -0.88738513 -0.37073621 0.018829839
134.54201 4.4488802 729.67798 0.32730573 -0.84034771 -0.43207261 0.015639996
131.905 3.0513301 731.83502 0.18527915 -0.87245482 -0.45221037 0.0022896028
129.36 1.24046 733.78302 0.2089348 -0.87280005 -0.44109675 0.011109681
127.887 2.66347 731.104 0.1864524 -0.92869526 -0.32056275 0.006469606
126.918 2.22491 726.95203 -0.38697821 0.86529273 -0.31861612 0.020979669
123.62 1.83515 729.80402 -0.53950626 0.8345136 -0.1118927 0.050893065
121.188 38.132301 679.21997 -0.86462039 -0.49796191 0.06682536 0.003850207
119.096 40.999901 676.87201 -0.85023284 -0.51796168 0.093913339 0.0020909102
121.468 36.788601 671.58002 -0.84503853 -0.51579094 0.14095929 0.0094237011
127.568 28.346901 669.39398 -0.83407784 -0.5367102 0.12750003 0.0043928074
126.657 -8.6961002 713.83502 0.27346089 -0.90872949 -0.31532502 0.010717263
124.839 32 667.34198 -0.82031256 -0.55176562 0.15047246 0.0052027046
126.663 28.195601 664.479 -0.79766232 -0.60052615 0.055704959 0.0053824293
120.929 36.0033 664.07397 -0.80963874 -0.57267576 0.1285598 0.0062949215
130.69701 22.6467 664.992 -0.83803964 -0.53935409 0.082381785 0.0038098509
129.21201 25.176701 662.78003 -0.82606995 -0.53925818 0.16373454 0.0082584405
122.66 33.9119 660.97101 -0.79205859 -0.59976274 0.11370057 0.0030895346
130.39799 22.0348 660.72498 -0.87247628 -0.48432267 0.064936459 0.0043268134
131.371 20.4133 658.49298 0.84946686 0.41042295 -0.33160079 0.0098523321
122.255 33.3489 657.09497 -0.81635988 -0.5665127 0.11233872 0.0053611863
119.026 37.4137 654.00403 -0.80977392 -0.58150727 0.078201383 0.012668359
127.401 24.504999 654.487 0.87265229 0.4416624 -0.20835602 0.0070270863
132.58701 14.5394 660.55298 0.87209672 -0.1354598 -0.47021061 0.01816258
124.672 28.1581 652.43597 -0.85780263 -0.49326694 0.14443789 0.0028315627
121.212 33.817501 652.492 -0.7989279 -0.59803975 0.063738674 0.0067552188
121.943 31.811199 650.38397 -0.82841086 -0.55351132 0.085794427 0.0060454574
121.488 33.316002 648.79401 -0.85055649 -0.52309096 0.054125335 0.0069406722
118.419 36.9384 646.65399 -0.84599638 -0.52948576 0.062729709 0.0022905676
130.203 14.026 657.44702 0.69712168 -0.25079462 -0.67165726 0.01793666
126.992 19.757401 652.69598 0.66771013 -0.4490163 -0.59375709 0.043577611
45.521 -9.0390797 771.91998 -0.40596107 0.37221915 -0.83465475 0.0032345473
117.06 -18.584801 673.89301 -0.6779983 0.50680375 -0.5324173 0
38.3377 -9.38937 774.271 -0.43615472 0.20321891 -0.87662482 0.0021153672
114.788 -20.335699 674.77197 -0.66288543 0.48368156 -0.57151991 0
117.442 -20.681 671.276 -0.60764807 0.48820686 -0.62643266 0.0061835507
95.697304 27.373301 620.35999 0.81517339 0.33524919 -0.47233495 0.0049445773
94.039597 27.7069 618.16199 0.85312074 0.32637113 -0.40702194 0.003389973
97.887497 20.616199 617.11298 0.7672922 0.46598849 -0.44058764 0.0042958157
96.071602 20.4175 614.29999 0.85695475 0.46068737 -0.2310749 0.01961281
92.0233 26.990299 610.672 -0.8130694 -0.57054019 -0.11576751 0.010573326
94.617599 25.0644 608.422 -0.74719894 -0.56826788 -0.34462354 0.0036310367
62.8536 117.73 522.35699 0.62945014 -0.70972723 -0.31635389 0.087832525
61.7286 117.293 517.91498 0.89916843 0.26314744 -0.34964192 0.015575643
60.764099 119.522 488.96301 0.86644971 0.43544793 -0.24423341 0.010040954
-84.244698 -62.485699 763.89301 -0.46205467 0.76423806 -0.44993958 0.13072865
-87.245102 -59.7001 761.30798 0.092912517 -0.087903894 -0.9917863 0.037683539
-92.0644 -52.687199 754.85797 0.092774771 -0.85021305 -0.51819944 0.011169177
-91.366203 -59.744301 761.18597 -0.050243083 -0.16371635 -0.98522717 0.026752582
-94.792 -54.198399 756.93298 -0.06446673 -0.74683243 -0.66188014 0
-95.427002 -49.213799 749.67401 -0.084043719 -0.89409792 -0.43991539 0.0045724385
22.102699 11.0644 525.66803 0.2253191 -0.46979392 -0.85353684 0.01869796
16.464899 4.88099 534.42401 -0.14567003 -0.88287538 -0.44644293 0.00011000984
13.8518 7.0254302 531.27899 -0.16921717 -0.88486052 -0.4340362 0.0007542338
4.0532699 2.1787701 540.76001 0.0095090261 -0.87784243 -0.47885504 0.0032386782
8.5115604 9.4506197 527.71198 0.056714486 -0.90512681 -0.42134181 0.0037498877
11.0582 10.1463 525.44098 -0.11407508 -0.89041054 -0.4406313 0.0031036427
3.6933701 9.5811901 527.578 -0.11064111 -0.86816001 -0.48379415 0.0019846775
-0.033960499 10.2424 526.92102 -0.060670264 -0.87188947 -0.48593 0.00067444739
-3.3074 9.1034899 529.08502 -0.079360053 -0.86270881 -0.49943516 0.0029324931
-4.3973498 10.5862 526.18799 -0.077678218 -0.88171816 -0.46533778 0.003334641
-16.2672 -7.0759001 562.54602 0.24358146 -0.84361506 -0.47852042 0.01663905
-6.5420699 12.4867 523.06598 -0.12347373 -0.8681379 -0.48071906 0.00024472142
-21.1584 -7.5122499 560.85901 0.73279029 -0.22612879 -0.64178205 0.052843504
-21.4069 -3.09004 553.953 -0.083922073 -0.85306889 -0.51500523 0.001316409
-109.246 -38.904099 621.89301 -0.026093239 -0.81176805 -0.58339685 0
-104.881 -35.373798 615.18201 -0.063248925 -0.9110828 -0.4073422 0.005307239
-111.064 -37.522301 619.94702 -0.088264748 -0.83132452 -0.54873395 0.0026446425
-112.974 -39.064999 622.177 0.048588313 -0.82309341 -0.56582367 0.005553911
-132.52 -39.547901 624.164 0.021474967 -0.7291947 -0.68396926 0.011562515
-3.84497 -66.611099 533.34601 0.53430021 -0.19562621 -0.82234651 0.0035900304
-5.6092601 -64.065201 531.354 0.62938768 -0.12928303 -0.7662617 0.01220086
-147.41499 -36.235001 601.37299 -0.42326072 -0.17211327 -0.88950968 0.0058610677
-7.0971699 -67.733498 531.578 0.55174136 -0.4487882 -0.70297271 0.016624162
-9.46733 -70.666397 531.55603 0.2442878 -0.18943864 -0.95101875 0.010701533
-7.14851 -73.513496 533.96301 0.62053365 -0.23191188 -0.74910271 0.011096536
-14.6904 -78.128799 534.47699 0.072057128 -0.4872942 -0.87025982 0.014748394
-11.5982 -81.204597 536.34198 0.43795985 -0.60997838 -0.66039193 0.00048617492
-23.3291 -84.214401 544.39301 0.047300786 -0.85785049 -0.51171803 0.00671684
-9.2379704 -72.999199 531.48401 0.36009383 -0.25172925 -0.89831221 0.018469645
-150.782 -32.288601 601.66901 -0.45826629 0.36061579 -0.81237209 0.07270775
-7.2464499 -61.156601 529.125 0.64113283 -0.1078368 -0.75981563 0.013243507
-150.785 -30.181299 602.82501 -0.36086628 0.81867081 -0.44671425 0.042739145
-147.51199 -41.374298 614.77399 0.65106827 0.72270966 -0.23195022 0.015562945
-154.05901 -30.7934 605.27802 -0.35289413 0.91187632 -0.20963617 0.015132569
-150.28799 -29.908501 605.97998 0.19959497 -0.97916692 -0.03733721 0.01916082
-143.91299 -39.5984 621.92401 0.35568252 -0.15000935 -0.92248958 0.051755514
-142.44701 -37.060699 620.30103 0.1496556 -0.75912386 -0.63350946 0.013412681
-140.73199 -39.311298 622.75299 0.14272028 -0.53178847 -0.8347646 0.022120349
-137.564 -42.637901 624.883 0.33203566 -0.12983201 -0.93428904 0.078910902
-136.133 -39.7159 623.30902 0.096166112 -0.62358367 -0.77581918 0.0078535862
-104.43 -44.7057 630.74701 0.012461547 -0.8142032 -0.5804463 0.0012539094
-99.609398 -37.2257 619.04901 -0.01219887 -0.8653546 -0.50101173 0.0085110543
-97.245102 -36.291801 617.16101 -0.1469689 -0.85657537 -0.49465007 0.0016957297
-95.699501 -38.014301 618.862 -0.077292167 -0.86429149 -0.49701738 0.0071608215
-91.973 -38.2225 620.11499 -0.032108013 -0.87202287 -0.48841101 0.0033475091
-88.698898 -37.610401 617.66199 -0.18205717 -0.87769026 -0.44330022 0.0025425565
-62.736698 7.7999501 537.086 0.26427266 -0.59962314 -0.75538868 0.01700158
-42.131802 2.8912699 544.15802 0.13834007 -0.72534269 -0.67434412 0.0043034041
-89.702003 -53.3876 757.29303 0.11011647 -0.79179394 -0.60078001 0.0049092756
-88.792801 -56.397202 760.474 0.043417513 -0.56339252 -0.82504773 0.021470558
-82.541702 -59.934399 763.04303 0.91526479 -0.322142 -0.24189879 0.16706996
-89.342499 -59.2934 769.20898 0.43369403 0.89484489 0.10565136 0.019608242
-78.538597 -59.497601 764.41803 0.18597928 -0.79523522 -0.57707256 0.00042331949
70.058098 -11.9916 550.40399 0.013941631 -0.81314325 -0.58189666 0.0025153272
73.376297 -10.6556 548.93799 0.13016868 -0.46613479 -0.87508547 0.043817349
72.691498 -7.1870499 548.95697 0.54022175 0.18826342 -0.82019341 0.026608329
90.759003 -32.967602 584.79498 -0.285595 -0.85654235 -0.42984951 0.0085469447
93.532402 -32.890499 582.00897 -0.23705505 -0.87782198 -0.41621318 0.0053239367
5.9383202 110.328 489.543 -0.12756772 -0.61942375 -0.77462298 0
95.872299 -32.1819 578.41803 -0.18733932 -0.8901428 -0.41539121 0.011025449
2.0866899 117.615 485.383 -0.22757162 -0.5418089 -0.80910707 0
97.645203 -30.994101 576.83398 -0.12140559 -0.89924717 -0.4202562 0.012155741
94.323502 -34.2547 585.07397 -0.19774576 -0.87366563 -0.44452783 0.0082440469
100.758 -33.009998 580.01001 -0.21304956 -0.89048702 -0.40204808 0.0070851655
98.087196 -38.954399 593.565 -0.21589085 -0.86142498 -0.45971516 0.0020057627
96.137299 -39.8009 596.914 -0.26595309 -0.87608403 -0.40217632 0.0028542166
107.484 -33.4067 577.71198 -0.11133333 -0.92625672 -0.36007416 0.0028468838
103.472 -33.7794 580.77002 -0.11377896 -0.93274325 -0.34211734 0.0058253976
14.2716 116.432 482.66699 -0.1707941 -0.57214653 -0.80217052 0.0012096964
18.181101 117.066 481.51999 -0.16560636 -0.61529821 -0.77070278 0.0022593776
109.008 -36.0858 583.54498 -0.18040021 -0.87711883 -0.44510484 0.00027928504
112.066 -38.2132 586.31702 -0.095880538 -0.93302125 -0.34681168 0.0027323188
22.3624 120.36 478.41101 -0.052664652 -0.5439316 -0.83747524 0
24.454599 117.738 479.73401 0.093592934 -0.49067977 -0.86629891 0.014654093
117.877 -29.948 569.21002 -0.0321365 -0.5528307 -0.83267367 0.030040191
26.175301 86.553398 523.30603 -0.14841568 -0.90998363 -0.38717258 0.0024184515
117.784 -33.610699 576.461 -0.1219302 -0.86855745 -0.48035517 0.010369028
27.718201 82.827499 530.86798 -0.21230777 -0.85878628 -0.46627399 0.0008625756
121.377 -33.066399 573.74799 -0.14493211 -0.85589677 -0.49642262 0.0024540115
30.8554 81.740799 530.93402 -0.25447786 -0.85202724 -0.45748281 0.00041276094
