ply
format ascii 1.0
comment PCL generated
element vertex 621
property float x
property float y
property float z
property float nx
property float ny
property float nz
property float curvature
element camera 0
property float view_px
property float view_py
property float view_pz
property float x_axisx
property float x_axisy
property float x_axisz
property float y_axisx
property float y_axisy
property float y_axisz
property float z_axisx
property float z_axisy
property float z_axisz
property float focal
property float scalex
property float scaley
property float centerx
property float centery
property int viewportx
property int viewporty
property float k1
property float k2
end_header
56.610001 -17.708599 761.37201 -0.37827504 0.41641292 -0.82674563 0.0034824982
94.108498 -24.573799 712.15601 0.19328767 -0.88458407 -0.42444187 0.0013405008
92.564598 -23.483 708.948 0.30854917 -0.87693077 -0.36849675 0.0042166766
88.383698 -24.088499 708.31201 0.23957148 -0.95540762 -0.17263195 0.021205731
91.404297 -23.025101 705.80499 -0.42154646 0.90601158 0.037967775 0.012936044
75.533302 94.5718 547.79303 -0.82627165 -0.55447447 0.09916278 0.0011975821
68.000298 106.578 538.77502 0.93951994 0.28486112 -0.19014841 0.010188158
114.347 -5.9226098 619.35199 0.80401361 0.39660445 -0.44302043 0.018393131
126.272 -4.96596 598.612 -0.64221722 -0.46641603 -0.6082871 0.0020059005
114.261 -2.96926 610.22302 -0.723548 -0.54172659 -0.42779741 0.00093636755
131.218 -14.0863 599.677 -0.65715241 -0.41419014 -0.62975961 0.0041082352
120.116 -13.2286 612.88501 -0.7665633 -0.46850547 -0.43918496 0.0050039436
128.821 -14.9414 603.53497 -0.67936748 -0.44304702 -0.58495229 0.0039492715
138.45 -18.387899 593.11902 -0.88065457 -0.31782946 -0.35132894 0.0039759888
134.00999 -21.038099 600.93597 -0.69989234 -0.25352716 -0.66773844 0.001392812
138.98599 -21.6511 594.07098 -0.84805548 -0.077384546 -0.52422667 0.0047037094
71.495598 91.561203 531.26801 0.92083693 0.18208387 -0.34482566 0.015558127
136.68201 -28.7262 597.047 -0.89643776 0.065296404 -0.43833277 0.0067766355
70.772202 84.115601 529.88599 0.82061857 -0.39575782 -0.4122631 0.01557855
50.794102 134.16499 482.70401 -0.81878519 -0.56309783 0.11185516 0.0014689863
132.38699 -35.695599 599.854 -0.88098055 0.20777959 -0.4250893 0.0046501281
136.41 -35.640499 592.84497 -0.89742798 0.25465372 -0.36024237 0.0025997239
141.05701 -33.4622 584.77502 -0.8993299 0.20598158 -0.38571662 0.0062970272
66.623398 89.570099 514.93298 0.83847827 -0.35098177 -0.41685244 0.0072602895
137.395 -36.594299 589.39697 -0.88577121 0.22322926 -0.40691277 0.003853173
66.261101 83.529701 519.66101 0.56777567 -0.69844985 -0.43565884 0.032683387
-5.9805999 50.561298 514.14099 0.62331563 0.24110577 -0.74387205 0.019696008
1.47888 36.127899 522.875 0.44463775 0.027972618 -0.89527363 0.018381404
-5.0381598 44.100399 516.98102 0.29160067 -0.57278937 -0.76608181 0.0077617648
-6.61414 46.9035 514.31897 0.3616724 -0.42074063 -0.83196783 0.03116747
26.5422 -5.3798499 551.62299 -0.17464633 -0.87642908 -0.44874349 0.00086858607
10.3845 -17.1583 583.09601 -0.047865402 -0.85507888 -0.51628375 0.002185612
24.491199 -3.77795 548.75403 -0.16326953 -0.91121942 -0.37818283 0.0018869587
-8.6132002 44.091702 516.06598 0.17166799 -0.55348718 -0.81497359 0.0022249897
8.9306202 -15.7259 580.67499 -0.068156719 -0.88632458 -0.45802116 0.0013036549
19.7356 -5.6230602 553.698 -0.1312356 -0.86697096 -0.48076865 0.001011493
6.3618102 -17.231501 583.07599 0.08599811 -0.84642202 -0.52552265 0.00066713127
15.8966 -6.1881499 556.05701 -0.2064935 -0.90396476 -0.37444365 0.0018976789
2.9307899 -19.429399 584.33502 0.1801794 -0.81854063 -0.54546005 0.0045013041
-10.8608 40.5746 516.61798 0.48666298 -0.02792345 -0.87314343 0.020088455
-13.0845 43.562099 514.83002 0.33148107 -0.39089432 -0.85867453 0.015213956
-15.4696 46.825001 512.23999 0.1802689 -0.6495623 -0.73862833 0.0093885008
1.84026 -17.419701 581.72699 0.0046550059 -0.78790176 -0.61578333 0
-17.201799 44.244701 512.94299 0.34756675 -0.28504819 -0.89327765 0.0085192956
-1.9779 -16.921 581.19397 -0.007196215 -0.77557236 -0.6312176 0.00023675369
-11.1972 36.408199 515.13 0.48871961 0.26277411 -0.83192724 0.006640004
-3.10306 -12.0541 573.41901 -0.039618041 -0.90564466 -0.42218247 0.0027302809
-10.0581 33.753502 514.49298 0.50070119 0.41308355 -0.76069719 0.0017679222
-6.5036998 -17.518801 579.90997 0.51738459 -0.52516657 -0.67565769 0.044561438
-8.2041302 -14.7422 577.59399 0.29230919 -0.56257045 -0.77334964 0.054652087
-8.8843603 -17.4032 578.31 0.69003356 -0.15403537 -0.70719641 0.04884069
-9.5057802 28.113199 511.513 0.51922756 0.32779214 -0.78927499 0.0014759359
-5.1357398 20.182301 511.56201 0.36458239 -0.58255178 -0.72643864 0.016130917
-15.0506 7.2000299 532.505 0.039794456 -0.91979492 -0.39037639 0.013774456
-9.2035599 21.334801 509.88501 0.43167216 -0.38577983 -0.815373 0.035382029
-3.4149301 -26.866699 569.04901 -0.76032358 -0.64718986 -0.055256426 0.0013116142
-20.0172 3.7365899 539.99597 -0.025741696 -0.8837716 -0.46721002 0.0028567319
-0.499531 -30.519699 564.758 0.68807578 0.70272648 -0.18090673 0.0097511597
3.1149001 -33.276299 566.61902 0.7554726 0.65491021 0.018810762 0.0072112619
-25.1439 3.9697199 539.04102 -0.03507039 -0.86934948 -0.49295181 0.0056183105
-23.2295 14.684 520.96399 -0.070388414 -0.89623129 -0.43796685 0.0022163619
2.3454299 -33.441601 562.59497 0.84208822 0.48988152 -0.22561835 0.0040840223
-10.319 -21.603701 557.13702 0.68624085 0.68774581 -0.23681045 0.010109277
-29.4676 12.7363 525.30499 -0.021004558 -0.86724925 -0.49743089 0.0013501551
-30.8659 15.6813 519.89801 -0.16687115 -0.88931066 -0.42577055 0.00046651121
8.1676798 -55.835201 551.52899 0.98944348 0.13181652 -0.060217332 0.0056409547
8.3919201 -55.450199 555.03699 0.96751648 0.18510103 -0.17219049 0.0079766084
7.3450298 -52.115898 553.39801 0.96718925 0.15229672 -0.20334873 0.0013087641
6.7073302 -49.134701 551.99902 0.97048336 0.15970415 -0.18071149 0.0017936915
-55.407799 24.8508 505.82401 0.02857987 -0.89506167 -0.4450258 0.0033968622
-54.538101 20.564899 514.09698 -0.10535197 -0.91840374 -0.38136008 0.014282033
-52.227501 20.903799 511.871 -0.19360845 -0.8496154 -0.49058071 0.0029707793
7.1708398 -47.9758 558.72803 0.95045835 0.30679095 -0.050083268 0.009144715
-45.130699 28.8447 495.97601 -0.03837217 -0.89329594 -0.44782808 0.00056319759
-50.773701 19.4713 514.29199 -0.20081317 -0.88954782 -0.41033992 0.001373483
-42.6768 27.405899 498.315 0.031875186 -0.91747338 -0.39651826 0.0029925329
5.8818202 -44.204201 556.27197 0.96954244 0.23372349 -0.07321804 0.00082442013
9.7901697 -53.5839 567.03101 -0.94523335 -0.24410361 -0.21667333 0.017227165
7.7874699 -53.394699 570.29797 -0.81283569 -0.10869396 -0.57226205 0.012160452
-42.860699 26.1943 502.25201 -0.071501464 -0.92910683 -0.36283338 0.01016033
-44.2257 25.332899 504.97101 0.03229887 -0.89643276 -0.44200107 0.0086777629
7.6291299 -47.2663 562.93701 0.9692468 0.22459172 -0.10059436 0.010771123
-38.5634 26.3717 499.776 -0.21815529 -0.84380716 -0.49030375 0
-0.123912 -34.418098 553.41498 0.7272464 0.5742625 -0.3759459 0.0026907201
-35.9487 26.5728 498.11899 0.10160556 -0.79612237 -0.59654462 0.016000045
-33.586399 25.8722 500.55399 0.19472052 -0.837098 -0.51122499 0.0092433915
-6.94626 -27.9727 552.03198 0.58272475 0.63172901 -0.51122445 0.0028122561
7.8751898 -46.379799 567.10101 -0.98523676 -0.080207177 -0.15124552 0.0042422353
-1.40157 -30.985901 556.19 0.70230436 0.65692574 -0.27425748 0.0007146452
7.5290699 -43.495098 564.89899 0.97710198 0.16362555 -0.13600937 0.004732735
-4.58394 -28.6733 554.46698 0.64278913 0.64461863 -0.41387066 0.0065199872
1.46287 -34.205502 558.508 0.83598924 0.4980309 -0.23040663 0.0031763709
3.34975 -36.8722 560.633 0.86082232 0.46443111 -0.20805915 0.0013524581
5.2916999 -40.1768 562.76801 0.91401571 0.37777907 -0.14784522 0.0059800674
-33.8671 14.8831 522.30603 -0.19511399 -0.86819696 -0.45625058 0.0020748319
-6.4438601 58.0186 517.55798 0.6510343 0.25671142 -0.71432036 0.010381556
40.962299 -16.0919 569.54797 -0.19797523 -0.91043383 -0.36320239 0.0026755931
-23.177401 82.418602 500.15399 0.79243529 0.044909582 -0.60830057 0.0074362224
42.849899 -16.070601 567.92798 -0.20872307 -0.86084336 -0.46409416 0.0021038351
47.830101 -14.1185 562.22101 -0.2077205 -0.91817421 -0.33735493 0
44.121899 -17.0802 569.96301 -0.15526789 -0.90843701 -0.38811615 0.00073460065
54.219501 -12.9 556.98798 -0.072800979 -0.90733415 -0.41405872 0.0029319399
50.783901 -15.7844 564.83099 -0.24158552 -0.90545708 -0.34897545 0.0032474548
53.907398 -17.130899 565.27301 -0.37520057 -0.80180502 -0.46511638 0.0042662546
57.218601 -16.951 562.35901 -0.25691295 -0.83569604 -0.48539451 0.0058982349
60.489399 -20.1346 568.263 -0.11387585 -0.91899055 -0.37747663 0.0022824062
62.6702 -21.835199 571.271 -0.17821604 -0.91945958 -0.3504757 0.00063178432
64.028297 -26.2463 583.05902 -0.14042501 -0.87063694 -0.47145751 0.0011640363
71.617996 -24.9076 574.789 -0.22126175 -0.88427198 -0.4112255 0.0014945304
66.574501 -25.735201 581.55701 -0.28824478 -0.86445099 -0.41187295 0.0064560133
67.8022 -27.9168 583.229 -0.29531118 -0.83515471 -0.46401295 0.0073476522
74.8694 -26.9884 577.74799 -0.15116455 -0.92132986 -0.35819077 0.0018302009
85.709 -16.305201 554.617 0.18307407 -0.52405798 -0.83177352 0.03363901
86.663696 -21.395 562.49402 -0.20864533 -0.84637171 -0.49002263 0.0038744812
89.451302 -20.988701 559.70099 -0.27662727 -0.82169557 -0.49829084 0.0024918793
-3.8694201 87.146896 522.92798 0.47126967 -0.37540913 -0.79810584 0.020200027
91.086998 -22.843901 562.508 -0.044421989 -0.85905319 -0.50995505 0.0023453396
1.93757 90.512497 519.18701 -0.023090256 -0.85536999 -0.51750273 0
3.70858 87.299004 524.758 -0.026010981 -0.8270511 -0.56152469 0.0032643594
5.52671 81.279503 531.11798 0.45666289 -0.40223134 -0.79351681 0.016255567
7.7076502 82.793602 530.66998 0.24056634 -0.73001552 -0.63969147 0.011108264
9.5474901 81.773598 533.10901 0.24781692 -0.71107554 -0.65799564 0.022126913
92.760696 -10.9335 560.40997 0.54165292 0.39737427 -0.7407468 0.0030106979
20.174101 102.49 494.80899 -0.13862155 -0.6825127 -0.71760744 0
22.265499 99.622002 497.15701 -0.13835707 -0.73325431 -0.66572934 0.0016164145
25.5385 98.968803 497.48999 -0.096320391 -0.77802449 -0.62080616 0.001769607
28.448 100.057 495.802 -0.18112077 -0.6897065 -0.70107079 0.0038459008
30.0791 91.533699 511.48001 -0.34735221 -0.84938407 -0.39735767 0.0069842045
31.2609 89.049202 514.13702 -0.30285141 -0.86020005 -0.4102886 0.0073090103
44.900799 90.913399 507.60001 0.040755406 -0.88602054 -0.46185124 0.00031683972
40.293098 112.269 487.41299 -0.061332159 -0.54410386 -0.83677316 0.0091988705
47.327099 87.919601 513.59601 0.0017901293 -0.89646518 -0.44311056 0.0019107179
51.172798 88.527901 511.09601 -0.18810533 -0.89839721 -0.3968612 0.011352095
133.358 -38.481602 580.77899 -0.13424924 -0.86024183 -0.49189556 0.0055413111
131.129 -38.9501 583.29901 -0.061117224 -0.87527221 -0.47975329 0.0094026616
54.926498 87.536697 511.51099 -0.14560054 -0.88187557 -0.44843718 0.0092409607
134.492 -42.423801 588.48297 0.36798212 -0.87992638 -0.30053058 0.013059244
58.539001 92.0392 504.138 0.15421607 -0.87206453 -0.46445775 0.0010335103
136.15601 -40.2229 587.14301 -0.62986428 0.76665705 0.12453084 0.045637581
59.082001 87.344498 512.117 0.022097236 -0.87612474 -0.48157766 0.004051812
61.673199 88.9487 510.065 0.24255794 -0.85438508 -0.45955598 0.0066894847
63.353901 88.1866 512.32202 0.44756603 -0.76182997 -0.46829459 0.022689674
65.1455 85.637802 515.776 0.52585679 -0.62118101 -0.5810411 0.029734978
140.87199 -37.103298 582.89099 -0.94901395 0.25833738 -0.18064983 0.027655127
139.103 -37.2826 585.89899 -0.79284704 0.43933523 -0.42234823 0.0126437
143.347 10.9909 718.88202 -0.72856373 -0.078452304 -0.68047059 0.018683888
144.96899 10.4706 714.53003 -0.95099175 -0.30728659 0.034490429 0.0054632123
147.45 3.91538 711.22302 -0.8747164 -0.4693563 -0.12073071 0.0082875788
144.539 10.4333 706.065 -0.87201083 -0.48928785 -0.013949563 0.0028956262
125.523 35.977699 699.83002 -0.85187066 -0.5127365 0.10685352 0.00055255985
127.481 32.764702 699.05902 -0.82065678 -0.5530057 0.1438995 0.0023757657
125.209 35.651501 695.52301 -0.85100687 -0.50527418 0.14312704 0.00057990279
130.17101 28.2838 693.10699 -0.82639939 -0.56115305 0.046596732 0.0025728443
124.681 35.423 691.99902 -0.82992333 -0.55087614 0.088105366 0.0013815415
110.062 60.264 683.21301 -0.83773595 -0.54285502 0.059219714 0.0033227408
112.43 57.1409 680.83801 -0.77871144 -0.6231752 0.072533958 0.0015306536
113.979 54.576302 678.59698 -0.85637826 -0.48878103 0.16646154 0.0072833491
109.976 59.554501 678.164 -0.79661554 -0.58348429 0.15795483 0.004132729
115.106 50.099899 676.76398 0.91991937 0.34694359 -0.18269801 0.0014001897
112.892 53.952 674.54401 0.8685627 0.44509006 -0.21793027 0.0062022796
109.661 59.228298 673.85797 -0.76950264 -0.62339723 0.13871421 0.001503777
110.982 57.046902 672.35901 -0.8457666 -0.51202714 0.15002379 0.0057136063
108.89 59.668598 671.03601 -0.8186897 -0.56683689 0.091886535 0.0010090768
141.47501 5.8765202 676.396 0.88382882 -0.23590194 -0.40397647 0.035810575
140.021 3.35637 678.02002 0.35988948 -0.86092997 -0.35955423 0.016221615
138.868 4.73173 674.935 0.38094616 -0.78056669 -0.49557611 0.010736087
134.11 1.54872 683.03003 -0.040282756 -0.91913021 -0.39188901 0.0043238071
134.44701 4.9909501 674.453 -0.13239378 -0.83803838 -0.52930498 2.1817656e-05
131.56799 3.8584599 676.51001 0.070192344 -0.88690621 -0.45658553 0.00058702141
124.168 -3.4862199 691.79797 -0.16488256 -0.91585565 -0.36609045 0.0089263767
130.19901 4.9056401 672.95801 -0.43155634 0.90020704 -0.058193903 0.084259361
122.29 -1.93382 688.77301 0.12130529 -0.92250842 -0.36641949 0.0057011712
109.022 -17.6588 722.58398 -0.98664981 -0.15653521 -0.044931933 0.0069434955
109.825 -18.6959 719.86401 -0.96544027 -0.26024154 -0.014119876 0.0029300407
110.054 -21.213301 720.56 -0.97420222 -0.22055174 -0.047821939 0.0021463668
110.068 -25.369101 718.80298 0.83877349 -0.4237051 -0.34195468 0.012176889
108.65 -18.976 711.34003 0.96886051 -0.13833733 -0.20535825 0.017036732
108.652 -24.6672 715.177 0.58596075 -0.60728401 -0.53652221 0.025130946
107.198 -23.055599 712.50598 0.55096358 -0.6851728 -0.47642136 0.030868091
130.298 0.45581001 647.39801 0.76613277 0.43389538 -0.47410479 0.0037762697
64.4263 -14.3335 760.23602 -0.36806262 0.51051831 -0.77711064 0.0039079878
62.336498 -15.611 760.25299 -0.29824945 0.49848962 -0.81397504 0.00058399723
131.537 -3.0355 645.26001 0.73772949 0.53807598 -0.4077124 0.00083211652
104.337 -20.470699 706.12799 0.43989354 -0.84463674 -0.30509421 0.0025807435
129.233 -0.596735 643.40503 0.7302286 0.53155565 -0.42920247 0.0022390217
57.766399 -15.1543 762.14899 -0.32030836 0.4625043 -0.82673591 0
102.385 -20.066601 702.45599 0.21892425 -0.88512594 -0.41063881 0.004663704
126.599 -0.236803 640.72498 0.68842739 0.47226086 -0.55048835 0.0024769201
99.199402 -23.095501 710.56201 0.025888568 -0.91889095 -0.39366138 0.0030503334
58.861801 -18.348301 759.75702 -0.33605552 0.48974547 -0.80449736 0.002973485
93.5951 -25.735001 714.46802 0.21505956 -0.90934289 -0.35615274 0.00060118514
92.928802 -22.5366 707.224 0.21861286 -0.96905506 -0.11463234 0.0073186173
99.848099 -21.5233 692.99902 -0.61774588 0.52505207 -0.58541465 0
90.590202 -23.7505 708.17297 0.32670248 -0.89049762 -0.31666949 0.018631455
74.589104 96.640404 551.82397 -0.8510316 -0.51794368 0.086484969 0.0022962382
114.799 -3.89747 621.13898 0.70612329 0.37907267 -0.59807515 0
75.505096 94.581398 545.086 -0.89866775 -0.43064415 0.083317913 0.0022571441
68.956596 104.425 538.66498 -0.88752455 -0.45000535 0.098971337 0.0022630412
67.0467 107.52 536.47998 -0.93315256 -0.34749255 0.092060909 0.0025982424
115.349 -7.9573798 619.026 0.74508774 0.41599068 -0.52134043 0.0033025292
128.842 -6.64819 597.07098 -0.64797145 -0.46999449 -0.59936488 0.0015464372
113.623 -3.65081 612.90503 -0.79971844 -0.51802325 -0.30348366 0.015801966
116.172 -11.6766 617.15802 -0.84425789 -0.5305593 0.075732857 0.043819241
128.68401 -12.0027 601.63898 -0.71370083 -0.40807712 -0.56930155 0.004391477
119.243 -14.3762 615.45502 -0.77382565 -0.54813266 -0.31740266 0.011564163
130.506 -16.5455 601.84998 -0.7321251 -0.35806233 -0.57946891 0.0066732713
132.235 -19.375299 601.82202 -0.7116226 -0.30145067 -0.63460279 0.0050733699
135.34399 -19.8027 598.95697 -0.76666069 -0.21430458 -0.60523129 0.0029321662
137.502 -19.7596 595.47302 -0.83475041 -0.22320142 -0.50336152 0.0015280739
72.151199 94.421501 532.68701 0.92402679 0.090887792 -0.37136775 0.025779678
140.075 -20.810499 591.56299 -0.90904653 -0.267279 -0.31968167 0.012589278
139.091 -23.6556 593.61102 -0.84920835 -0.014099048 -0.5278697 0.0030845734
72.247299 89.547699 531.19098 0.94761932 0.14584658 -0.28415897 0.0084831044
70.337303 92.642601 529.00702 0.93256307 0.26021796 -0.25022537 0.0050686132
137.202 -27.584999 595.46301 -0.85509014 0.020396542 -0.51807803 0.0063870088
72.136002 86.116997 531.75 0.9293288 -0.069298245 -0.3626923 0.0046424037
69.889198 82.449898 531.43701 0.79136837 -0.36822739 -0.48800066 0.015683951
51.611099 132.868 485.64499 -0.79790056 -0.59743637 0.080152594 0.0036932842
135.09599 -33.588902 597.17499 -0.84529328 0.22698626 -0.48369053 0.0016681681
69.436798 80.055496 531.18701 0.68631959 -0.54050142 -0.48664543 0.010967913
68.257004 91.614197 516.40002 0.89432257 -0.10563623 -0.43477359 0.005896111
135.84399 -34.768002 594.71301 -0.88244563 0.18579125 -0.43217048 0
137.925 -34.6768 590.383 -0.86285168 0.27952567 -0.42113221 0.003248252
139.668 -34.4743 586.98102 -0.86360914 0.25337341 -0.43586838 0.0059381635
66.260597 90.486099 513.039 0.82180583 -0.32340518 -0.46908867 0.030873271
140.41701 -35.969501 584.34601 -0.87908578 0.32467958 -0.34898618 0.0062421504
-5.0686898 46.340302 514.91699 0.45651799 -0.27559805 -0.84595323 0.031029806
4.93611 32.048698 523.68597 0.49833062 0.26716295 -0.82479727 0.0020927237
-6.9773598 45.166801 515.60999 0.20825687 -0.60356748 -0.76963329 0
27.2414 -4.4871101 549.23602 -0.17814764 -0.91096687 -0.37202528 0.00094248366
-8.8862104 46.312099 514.09497 0.18957123 -0.56789064 -0.80097622 0.003871328
10.6576 -16.4485 581.80298 -0.069963552 -0.88888043 -0.45276564 0.0025472715
23.399099 -4.8253999 551.42902 -0.13307126 -0.88833767 -0.43948618 0.001388781
8.6572504 -17.3318 583.216 0.011725136 -0.84457785 -0.53530449 0.0032706587
22.7642 -3.0553701 547.62598 -0.15641227 -0.90785676 -0.38901317 0.00083883543
7.2944598 -15.6627 580.36401 0.10028069 -0.86374742 -0.49384633 0.00072987675
19.1243 -6.8488998 556.14398 -0.15991056 -0.89905041 -0.40759897 0.00053127063
0.119537 32.844101 520.78497 0.50848174 0.28265649 -0.81335831 0.0067031626
16.3067 -4.9387598 553.349 -0.1504259 -0.86479717 -0.47905952 0.0012207164
2.8388801 -20.808201 587.039 0.22150514 -0.85066986 -0.47675598 0.00045744536
-14.9757 44.533199 514.15198 0.29414758 -0.38887686 -0.87307036 0.014492906
1.84078 -15.6277 579.23102 -0.028849099 -0.85020006 -0.52566868 0.00039393464
-11.5174 38.504398 515.633 0.46696734 0.19526343 -0.86244637 0.006384233
-1.15933 -15.1606 578.85303 -0.03537662 -0.82323891 -0.56659168 0.0020512389
-15.5185 41.3755 514.04401 0.4487814 0.11045396 -0.88678926 0.0059674233
-3.80793 -13.2162 575.88 0.016578179 -0.88443595 -0.46636707 0.0032819943
-6.1588998 -15.2077 578.35101 0.26291829 -0.73098147 -0.62971431 0.02307611
-8.0675802 -16.381201 579.04401 0.55971605 -0.24273692 -0.79233634 0.025302086
-11.2354 30.943001 511.54099 0.54269791 0.42202723 -0.72620386 0.0047907499
-8.2160501 -19.409599 578.31702 0.78740036 0.019933376 -0.61611956 0.020536242
-10.0655 -17.0529 577.09302 0.68031734 0.070083894 -0.72955924 0.031964574
-12.9429 -16.551001 574.82703 0.81474632 0.27422595 -0.51087052 0.034202334
-7.5019698 24.043699 510.862 0.46397725 0.25267327 -0.84904724 0.0072350129
-7.1806302 19.997801 511.02899 0.15024976 -0.35871303 -0.92127627 0.033190627
-16.688499 6.5248199 535.26898 0.038708862 -0.87587863 -0.4809764 0.014102237
-19.6891 5.1998801 537.388 -0.018151434 -0.85683072 -0.51527834 0.0013451468
-22.689699 3.8749299 539.50702 0.00039642374 -0.87583292 -0.48261422 0.0033357276
0.62092298 -31.0277 566.263 0.68104893 0.73171473 -0.027673993 0.009567949
-23.6437 5.7915902 536.87799 -0.055701222 -0.85064954 -0.52277404 0.0030928468
1.95669 -32.194901 564.35699 0.71820408 0.68385738 -0.12853751 0.0049447133
-24.594601 13.8226 523.68298 -0.054262135 -0.90190887 -0.42850429 0.0024859393
0.45721301 -31.328699 562.776 0.6810801 0.72098875 -0.12769167 0.0041416367
-29.535101 10.8761 528.17603 -0.030999564 -0.85016704 -0.52559966 0.0026318848
-31.685101 14.4477 522.52802 -0.15721954 -0.88461518 -0.43901941 0.0014356072
7.8034801 -56.781601 553.25299 0.98273998 0.11100982 -0.14798284 0.010920176
7.8020701 -54.182201 552.35999 0.9788661 0.18790281 -0.080707215 0.0052275429
5.2547202 -47.8283 548.117 0.8563723 0.23656994 -0.45897835 0.0054062982
-55.954102 23.431 508.41 -0.041209038 -0.87620169 -0.48017949 0.0035559968
-55.137199 22.134199 511.35101 -0.10502306 -0.87012541 -0.4815101 0.0063780267
6.7111702 -46.735802 556.21802 0.95411873 0.29358473 -0.05886827 0.0021657229
-52.500702 20.193899 513.164 -0.21909308 -0.87379378 -0.43414587 0.001311598
-45.622601 27.2243 498.98499 -0.013182253 -0.89798319 -0.43983227 0.0022354857
-49.954498 20.704901 511.66199 -0.11595253 -0.85508597 -0.50535446 0.0013154966
-42.403599 28.115801 497.022 0.082693592 -0.8673377 -0.49080259 0.008042926
9.3349104 -54.766998 569.18597 -0.86593294 -0.081931978 -0.49340388 0.017040795
-42.5662 24.5781 505.19699 -0.1380059 -0.88169658 -0.45118225 0.0083649382
8.5493498 -51.834202 568.01898 -0.92322659 -0.2982626 -0.24226469 0.01143256
-37.694401 27.8487 497.05801 0.087261386 -0.6475147 -0.75704038 0.032249965
8.0599604 -48.6199 565.62 -0.98280102 -0.15358034 -0.10254414 0.0074440897
-36.130798 26.099501 498.98099 0.12552452 -0.8023873 -0.58345389 0.015662761
-4.3998799 -29.7805 552.73798 0.57727718 0.68146724 -0.44983712 0.0073923329
-33.677299 28.0774 498.26501 0.28951788 -0.66811353 -0.68542236 0.01863623
4.9531898 -39.506302 559.81598 0.87285465 0.47319013 -0.11923054 0.0030734071
7.6640201 -45.438301 564.86603 0.98573351 0.14508586 -0.085320577 0.0025375162
0.145495 -32.866199 556.065 0.7809279 0.56272352 -0.27109754 0.0024369189
-34.4118 16.520599 519.60901 -0.09545698 -0.90782279 -0.4083451 0.008182277
-0.129618 -31.9956 558.22498 0.72139949 0.67225742 -0.16629089 0.007311448
6.21629 -44.710602 570.91602 -0.84140718 -0.10495783 -0.53011125 0.0011704522
41.258801 -14.9143 567.06702 -0.18498908 -0.86568093 -0.46516183 0.0019851543
45.214001 -16.032801 567.28802 -0.15185687 -0.88091016 -0.44825974 0.0014085845
-5.1742501 60.012199 519.50098 0.65861529 0.1169796 -0.74333155 0.0045671118
50.835201 -14.8081 562.18701 -0.20201449 -0.92030722 -0.33499962 0.00073908363
48.215199 -15.2346 564.88 -0.17649145 -0.89907056 -0.40065306 0.0019125111
53.673199 -14.3197 559.57397 -0.086841024 -0.89766556 -0.43203613 0.0053608869
54.535702 -15.4982 562.29999 -0.25061277 -0.85549599 -0.45312235 0.0086335521
56.7934 -18.178301 564.88202 -0.2230757 -0.87376451 -0.43217239 0.001571833
58.580299 -19.8853 567.99701 -0.12775755 -0.92345512 -0.36181301 0.0025419383
59.305901 -21.0287 571.23499 -0.17571688 -0.9273445 -0.33038732 0.00039800329
63.016701 -20.7146 568.711 -0.15758823 -0.88410228 -0.43991947 0.001626726
64.983902 -25.1057 580.40601 -0.24191423 -0.89775574 -0.36811966 0.0024591845
68.430496 -26.284201 580.255 -0.31467161 -0.85092813 -0.42059848 0.0056432961
66.210297 -26.6817 583.28101 -0.29405516 -0.83469886 -0.46562806 0.0073933685
71.6689 -26.2936 577.68597 -0.23591691 -0.90108806 -0.36384538 0.00095973315
75.215897 -25.867701 575.18799 -0.15897816 -0.8920604 -0.42302972 0.00040967646
84.723801 -18.376301 557.23602 0.0079679042 -0.81698114 -0.57660937 0.0021489325
86.963203 -20.128099 560.10303 -0.20635882 -0.84499305 -0.49335861 0.0068301572
88.859398 -22.5268 562.50201 -0.25015461 -0.82532251 -0.50622666 0.0042190924
91.5877 -21.5425 560.138 0.014376077 -0.85466951 -0.51897341 0.0016629359
91.8564 -13.9302 557.41302 0.56295025 0.34370121 -0.75163585 0.0073101069
1.39126 89.092697 521.77197 -0.031808857 -0.86451221 -0.50160426 0
3.7081101 85.507004 527.25403 0.13288683 -0.72205579 -0.67895246 0.013563928
5.5563002 83.431 529.79199 0.29763693 -0.59722501 -0.74480504 0.014919696
7.3808398 80.919701 532.00897 0.45113266 -0.48906627 -0.74652094 0.032676805
95.038803 -16.2428 559.13599 0.46020213 0.11260767 -0.88064384 0.0096636238
94.809502 -13.91 559.20801 0.52376193 0.39865121 -0.75282848 0.0065415371
9.7071199 83.307701 530.79498 0.13323067 -0.80325723 -0.58054066 0.010218533
19.674101 100.337 497.00201 -0.12319605 -0.72328335 -0.67947316 0.0037661472
21.9447 96.711403 503.61301 -0.17465483 -0.93841785 -0.29810679 0.00090673473
25.811199 101.101 495.23801 -0.11320541 -0.69337028 -0.71163344 0.00082688453
28.811501 98.315598 497.823 -0.20737751 -0.68238205 -0.70096308 0.011400341
30.0844 100.89 494.86401 -0.20058142 -0.69900876 -0.68640649 0.0027695051
29.6234 90.166 514.40399 -0.29934499 -0.87805319 -0.37338331 0.0074787275
32.6259 89.9105 511.41699 -0.35469678 -0.85001594 -0.38943955 0.009081156
27.9865 134.498 468.78601 -0.31006718 -0.38456622 -0.8694638 0.0036709921
44.367401 89.474701 510.34399 -0.0049532126 -0.9109394 -0.41251051 0.0011264945
46.931801 86.726097 516.02698 -0.015252993 -0.85236633 -0.52272278 0.0015389201
41.3078 115.27 484.828 -0.13193342 -0.63229352 -0.76341236 0.00085020525
43.900299 111.447 486.75699 -0.16497311 -0.54615432 -0.82127917 0.00086463039
44.899799 113.575 485.23599 -0.18959759 -0.59154958 -0.78365928 0.0013492575
51.719101 89.947701 508.51001 -0.15941007 -0.90855485 -0.38615626 0.0072095692
131.858 -37.057098 579.85199 -0.067268379 -0.88055915 -0.46913806 0.010449297
51.535198 88.736 512.44702 -0.1885715 -0.89831704 -0.39682144 0.011177119
133.16 -39.750401 583.289 -0.10042299 -0.90025312 -0.42362669 0.0034070201
55.401501 89.015297 508.776 -0.038721211 -0.85853076 -0.511298 0.0036860278
48.718498 114.868 483.272 -0.017818443 -0.49216878 -0.8703174 0.0039761649
135.129 -40.767502 585.46698 0.23414607 -0.91085845 -0.33987126 0.019227969
57.992699 90.6194 506.724 0.1095629 -0.85906553 -0.50000226 0.0025424403
135.354 -41.468102 589.77002 -0.77080035 0.63704449 0.0064088027 0.047336508
59.6283 88.764198 509.53201 0.068916351 -0.84766233 -0.52604103 0.003004167
61.612099 86.998901 512.849 0.1312703 -0.83003986 -0.54203504 0.0025599669
63.718102 89.133102 510.59799 0.32621819 -0.7903716 -0.51855022 0.0046899458
64.416496 83.865898 518.17999 0.24926656 -0.79249841 -0.55660802 0.057224844
136.175 -38.481602 591.68103 -0.89852637 0.2996704 -0.32069913 0.010446778
108.542 124.223 554.41803 -0.013804919 0.57561779 -0.81760234 0.013281939
105.824 125.461 555.974 -0.27717915 0.56444168 -0.77754563 0.0033312549
111.063 113.69 548.39398 0.39172313 0.59004956 -0.7059707 0.0049038855
111.672 111.369 546.86102 0.32405347 0.56960911 -0.75533748 0.0062685022
99.658997 114.603 560.02197 -0.95368147 0.13372545 -0.26946074 0.0017544919
97.8424 110.715 562.14398 -0.85220891 0.297429 -0.43043697 0.0075002876
99.663101 111.337 558.229 -0.94524556 0.18976289 -0.26552013 0.0012818405
100.402 59.636101 596.711 0.88968259 0.38092715 -0.25171289 0.0035387757
98.083199 63.010201 594.59302 -0.87634408 -0.45284328 0.16417718 0.00073518825
136.735 -15.8084 638.18402 0.70435959 0.43972251 -0.55724472 0.0031979636
134.157 -13.4296 637.39899 0.68755198 0.47099453 -0.55266309 0.00016964049
124.422 -2.2237899 635.69397 0.72098047 0.58413148 -0.37279704 0.0057102898
94.826797 108.586 537.59802 -0.33874077 -0.91916239 0.20098563 0.01538673
99.205299 59.897598 592.77301 0.97415406 0.1100565 -0.19725952 0.0307377
88.3517 108.552 544.034 -0.20946394 -0.87520665 -0.43604848 3.8807575e-05
86.859001 110.395 541.08398 -0.15333635 -0.8755874 -0.45807719 0.0025644186
92.9562 108.171 535.35101 0.36087996 0.86025947 -0.36016563 0.0057556396
121.028 0.432708 633.72803 0.71149218 0.5368607 -0.45338657 0.0052970806
82.581703 107.338 550.104 -0.2394353 -0.85125571 -0.4669416 0.023537828
84.130699 109.411 543.448 -0.1096868 -0.87276334 -0.47566065 0.0028759572
135.162 -16.860201 635.43701 0.68623435 0.39015377 -0.6138913 0.0043570935
97.862701 59.390598 589.659 0.75694132 -0.22885025 -0.61210084 0.033260349
96.555801 62.465401 586.57501 0.96480656 0.038077787 -0.26018927 0.030815935
81.401802 108.878 546.06 -0.093624763 -0.89169562 -0.44284686 0.0090745343
96.120903 -24.0028 695.49103 -0.72909248 0.52711022 -0.43655345 0.0045336643
135.073 -28.1371 644.59998 -0.71794438 0.41366032 -0.55985796 0.0053493702
121.972 -2.97103 631.28497 0.68754023 0.54166138 -0.48362321 0.0079968087
77.855301 108.001 548.31 -0.028351732 -0.89172328 -0.45169219 0.01089157
90.479599 -24.3374 702.237 -0.61736125 0.68467933 -0.38740072 0.01076639
78.130997 112.137 540.19702 -0.10265961 -0.82922459 -0.54940659 0
94.774101 58.673199 587.45203 0.54247171 -0.66085118 -0.51865226 0.021448458
132.80099 -29.8878 645.479 -0.74704325 0.38515285 -0.54183358 0.0083745755
135.65199 -29.641701 641.96198 -0.70647442 0.35446984 -0.61257255 0.0057803905
123.34 -7.0625401 629.328 0.70235759 0.39130259 -0.59462267 0
121.188 -4.5985899 628.29199 0.72350442 0.40998766 -0.55538404 0.0044597653
91.032402 -28.185699 696.76001 -0.66395718 0.54575175 -0.51119053 0.0059587588
118.338 -1.78755 626.526 0.69113654 0.38589844 -0.61107504 0.0019048373
72.582901 102.606 553.51501 0.59147924 -0.44667411 -0.67129326 0.037511751
123.822 -10.5491 627.51501 0.68944412 0.38396597 -0.61419612 0.0014733428
118.752 -5.2275801 624.72498 0.70084316 0.39208207 -0.59589475 0.0013625855
126.624 -18.4634 627.242 0.6815213 0.25858769 -0.68458831 0.016899833
124.485 -14.4584 626.08899 0.65439159 0.29598451 -0.69581962 0.0013791414
88.434898 -31.757299 697.26703 -0.6440689 0.61298376 -0.45763096 0.0045121526
90.815399 -31.783899 693.836 -0.64386976 0.56942129 -0.51106852 0.0059098662
-3.68957 -12.0892 790.005 -0.40796018 0.29938179 -0.86251903 0.0012433995
96.320503 -35.434502 684.61499 -0.71725118 0.26172754 -0.64579368 0.0078838691
124.989 -18.5578 625.10498 0.72939229 0.38303369 -0.56680864 0.010388404
90.878403 -34.5849 691.125 -0.59661579 0.52121896 -0.61022985 0.0073797456
-4.9607201 -13.9252 789.88898 -0.37206 0.3834888 -0.84528559 0.00086305803
80.099998 -34.8554 704.42102 -0.66049421 0.58073771 -0.47591078 0.0018669338
84.945801 -34.715599 697.97998 -0.65719813 0.51967049 -0.54592407 0.0091660079
-2.7758601 -15.5719 787.70599 -0.32257599 0.38280264 -0.86568296 0.011282058
94.140602 -38.8983 685.73401 -0.73677337 0.18348081 -0.65076852 0
125.797 -40.1413 647.909 -0.6224221 0.66842735 -0.4071801 0.044849981
128.131 -24.8783 624.61902 0.67463183 0.23996866 -0.69805938 0.0047519333
91.1381 -38.642799 688.71997 -0.6178599 0.29631761 -0.72831655 0.0039658239
125.661 -22.425301 622.92999 0.74705428 0.33777335 -0.57255489 0.003455617
123.129 -19.4802 621.30499 0.72364837 0.42365015 -0.54484272 0.0022776406
-8.5959702 -15.7989 790.41199 -0.42518741 0.32378429 -0.84520972 0.010601331
79.854301 -37.661098 701.95801 -0.7316184 0.45776364 -0.50516027 0
82.697998 -37.623299 698.229 -0.69233 0.44144523 -0.57079357 0.0056758951
85.041901 -38.3685 695.12402 -0.73987293 0.24870245 -0.62508816 0.0027746442
92.413101 -39.967701 687.10199 -0.63675147 0.24156676 -0.73225206 0
77.4795 -37.998699 704.86798 -0.69249141 0.51997477 -0.50008202 0.0084036849
122.544 -42.3102 648.83197 0.34233797 -0.92042053 -0.18876097 0.023820298
120.661 -18.7307 619.26099 0.8545059 0.47593164 -0.20810749 0.018646495
91.960701 -42.362099 686.85199 -0.64812934 0.30854449 -0.69622457 0.0014094505
125.871 -26.0758 621.51099 0.79862803 0.039161257 -0.6005494 0.051904321
121.543 -19.692699 616.21198 -0.84836721 -0.44204175 -0.29132831 0.0078512309
80.344299 -41.456902 699.20398 -0.71091157 0.18670741 -0.67804509 0.00018914539
119.241 -42.888401 648.52802 0.075559668 -0.9112429 -0.40487927 0.015895739
1.42064 -27.609699 781.40302 -0.29468539 0.44726133 -0.84446299 0.0045870119
81.182198 -45.523201 697.63202 -0.72804147 0.16103651 -0.66635042 0.0019508516
116.976 -40.5924 645.63599 -0.017461549 -0.91140997 -0.41112885 0.0064404272
-0.85135299 -29.3605 782.28198 -0.37382615 0.43534324 -0.81898129 0.0040162895
78.484802 -45.181198 700.52301 -0.71653187 0.16396445 -0.67801011 0.0039648456
3.33429 -31.5467 779.64502 -0.34458002 0.47194496 -0.81150025 0.0086992718
112.627 -43.617199 649.92102 -0.042398456 -0.86688983 -0.49669334 0.0033748369
109.308 -44.400101 651.98102 0.06362284 -0.89912593 -0.4330413 0.0017531835
-5.0311298 -31.9156 782.31598 -0.30473217 0.42321599 -0.85324472 0
126.266 -33.731499 612.51801 -0.83465284 0.27305454 -0.4783262 0.0020216419
-19.3605 -27.519501 792.14502 -0.58454299 0.50629765 -0.63401276 0.0023990481
109.534 -41.4142 643.22601 -0.66556275 0.74541587 -0.037167273 0.053626291
127.306 -34.691002 609.427 -0.83845472 0.24417998 -0.48720628 0.015493055
-21.822201 -29.835199 791.97699 -0.47377244 0.61707491 -0.62829781 0.0097435638
-18.5835 -30.197701 789.388 -0.48942921 0.42446119 -0.76176882 0
107.359 -44.899502 644.62402 -0.88702279 0.35007608 -0.30106029 0.013192442
108.972 -44.080898 641.104 -0.86418891 0.40263173 -0.30177009 0.0056898668
-25.765301 -32.312698 791.64001 -0.49247491 0.55265045 -0.67234367 0.014511492
113.642 -42.986301 629.59802 -0.88311428 0.36314541 -0.29704276 0.0077175489
117.648 -42.983601 622.32501 -0.87590659 0.30645975 -0.37265277 0.0093756737
12.9231 -38.889702 614.62799 -0.014235936 -0.8024509 -0.59654844 0.00045397726
13.2853 -48.326 626.34698 -0.017869731 -0.80162168 -0.59756452 0
11.6687 -36.4837 611.85602 -0.03570988 -0.71879703 -0.6943022 0.0010604119
6.74054 -39.324799 615.98401 -0.084782168 -0.83349633 -0.54598147 0.0016243922
2.6489699 -40.431999 617.992 -0.009091422 -0.83119655 -0.55590433 0.0057892981
4.3797898 -28.426001 600.875 -0.098035693 -0.83299637 -0.54452378 0.0012011681
0.83262801 -33.674099 608.55603 0.085053958 -0.81444836 -0.57396847 0.0047354079
0.060672499 -31.284201 605.065 0.10950566 -0.85704261 -0.50347441 0.0018378819
-2.0745399 -29.0172 601.21698 0.1182884 -0.82477278 -0.55295372 0.0010913097
-3.6194401 -27.8214 599.22699 0.14123528 -0.89279902 -0.42774099 0.0041252715
-6.5548902 -29.180599 601.17499 0.22909947 -0.92195386 -0.31227303 0.012779751
-5.9786401 -27.436001 593.13898 -0.71573228 0.69170457 -0.096291251 0.026893998
-10.4597 -29.984501 600.65503 0.24873143 -0.95707041 -0.1488252 0.021346357
-8.0672398 -30.5709 593.44202 -0.84453893 0.47255459 -0.25188512 0.043191489
-6.4568501 -29.5056 590.625 -0.87110829 0.4433336 -0.21124792 0.043181367
-5.5166101 -30.625 586.84497 -0.91556478 -0.16627161 -0.36618966 0.026351364
-16.889 -32.584301 600.19 -0.3225632 0.77775377 -0.53949243 0.023197344
-5.7873902 -34.3381 588.22998 -0.81626183 -0.15852523 -0.55550557 0.0026909951
-17.066299 -35.849201 597.77899 -0.40867963 0.45953467 -0.78854853 0.0049352464
-6.8775802 -36.9659 590.03699 -0.73576015 -0.096343778 -0.67035425 0.0010712496
-3.8566599 -37.1003 586.65698 -0.77817547 -0.25429419 -0.5742625 0.00070023135
-36.1008 -53.4935 637.20801 0.093450636 -0.81136292 -0.57702434 0.0078390511
-2.3477399 -41.3074 585.41998 -0.81302935 -0.12184372 -0.56933069 0.0057289852
-39.7645 -53.114498 636.87402 -0.0920045 -0.82427424 -0.55866539 0.0039543072
-42.901501 -54.346401 639.01599 -0.15063357 -0.80050033 -0.5800938 0.001753499
-2.18698 -44.489799 586.60699 -0.80982 -0.056270167 -0.58397365 0.0049938061
2.40751 -41.606098 579.00897 -0.92069238 -0.10899827 -0.37475988 0.0037181454
-45.083099 -52.1189 636.297 -0.080191962 -0.86296797 -0.4988541 0.0012718288
-21.698299 -43.117401 599.771 -0.42622462 -0.068833068 -0.90199482 0.00092082226
-1.32084 -45.350899 584.28699 -0.80454546 -0.004647465 -0.59387279 0.0083656162
1.86379 -45.133099 580.43799 -0.90293932 0.017655106 -0.42940527 0.0089427056
-47.173199 -50.304699 633.37097 -0.047176406 -0.86023718 -0.507707 0
-27.701599 -41.868099 602.66901 -0.35706353 -0.056086056 -0.9323948 0.0021240443
3.02563 -45.317501 577.10199 -0.93139648 -0.096804395 -0.35089821 0.006298292
-49.853001 -47.173199 627.56299 -0.066774882 -0.84590721 -0.52913338 0.0028674849
4.0554399 -67.073799 576.10602 -0.87586647 0.20524646 -0.43672854 0.012658603
-24.589399 -65.262802 599.763 -0.10598958 0.21066415 -0.97179568 0.0040471386
-37.688499 -58.4011 603.08398 -0.14175737 0.24864458 -0.95816523 0.0025777747
-20.6506 -64.146301 599.27502 -0.27179661 0.23589179 -0.93299603 0.0025817088
7.4839702 -60.256001 570.30603 -0.84040189 0.015050117 -0.54175472 0.0026770674
4.9723101 -60.483299 573.82703 -0.93236661 -0.068251669 -0.35501283 0.0061449925
-38.056801 -53.867901 604.33502 -0.051009595 0.085002244 -0.99507421 0.012291883
-26.324301 -57.445702 601.36902 -0.18136509 0.095889762 -0.97872967 0.0043588416
-76.8815 -54.031799 642.16101 -0.098588847 -0.74571419 -0.65893155 0.0016183072
6.5613399 -56.356899 571.93201 -0.82055032 0.0035852974 -0.57156301 0.0011732333
1.90966 -59.0131 579.78802 -0.85932827 0.028621435 -0.51062286 0.010293787
-23.1415 -57.966301 600.59497 -0.20419133 0.12337696 -0.97112513 0.00058423023
-16.366501 -58.1273 597.87701 -0.45127377 0.10377599 -0.88633096 0.0017015412
-73.176804 -54.8657 642.776 0.061576184 -0.76888108 -0.63641977 0.0032559205
-71.268204 -56.907001 645.539 0.072723754 -0.82476056 -0.56078619 0.0019796994
-2.94803 -59.092499 586.84003 -0.61471915 0.13821334 -0.77654201 0.014607745
-23.993601 -53.956699 601.07001 -0.16461757 0.032118909 -0.98583436 0.0049316976
-1.31161 -58.259701 585.90302 -0.72411782 -0.031370137 -0.68896252 0.0035169395
-8.9530897 -58.5816 592.81299 -0.70186037 0.10835309 -0.70402527 0.0077581657
-66.472099 -53.847698 641.56097 -0.1674106 -0.79680747 -0.58057863 0.00046180887
-63.084599 -52.9006 639.026 -0.15851511 -0.79605931 -0.58409119 0.0024612031
-0.106609 -52.271702 583.229 -0.78542066 -0.097552948 -0.61122644 0.008441912
-61.174999 -51.357899 636.79602 -0.0019258956 -0.79273623 -0.60956168 0.0050614267
-58.8353 -53.053101 640.13 0.006498341 -0.84489793 -0.53488815 0.0059577213
-53.261501 -42.842899 622.25897 -0.096329115 -0.82620484 -0.55507332 0.0014601685
-53.4151 -47.963501 630.24402 -0.17373902 -0.87433869 -0.45315197 0
27.216299 -51.8736 631.11298 -0.030872039 -0.80160892 -0.59705102 0.0017952767
30.057699 -50.290699 628.81201 -0.022430161 -0.83750379 -0.54597104 0.0012319204
-32.955898 95.588501 493.71701 0.61697096 0.36336291 -0.69807893 0.0086606629
35.558701 -47.475201 624.55902 -0.074477658 -0.72985333 -0.67953461 0.0040544472
38.028801 -50.051201 626.76001 -0.16397843 -0.79610389 -0.58252013 0.0039232741
40.468399 -51.160301 627.633 -0.17523187 -0.82490891 -0.5374189 0.00066130923
-23.132099 90.684097 503.31 0.77414048 0.13345191 -0.61878675 0.0021635054
39.196301 -44.617001 619.935 -0.17079769 -0.78758532 -0.59206212 0
-27.234301 97.262901 499.32599 0.72500521 0.14334714 -0.67366081 0.0013164543
44.651001 -49.816399 625.19397 -0.028042285 -0.71501148 -0.69855005 0
44.740398 -55.851799 633.50201 -0.03368663 -0.79557008 -0.60492426 0.0039981515
47.468201 -53.8927 630.80298 -0.032538448 -0.83053434 -0.55601615 0.00077634456
49.649502 -55.7952 633.40997 -0.023770301 -0.77948928 -0.6259644 0
-21.774799 97.867104 504.06 0.48743019 -0.4846999 -0.72627664 0.030974239
52.651001 -50.731701 626.15002 0.052698933 -0.76941413 -0.63657272 0
62.362099 -35.401402 601.75403 -0.22305697 -0.86622697 -0.4470979 0.0011161334
63.747601 -37.235298 604.81097 -0.12057588 -0.868177 -0.48138362 0.00014810212
64.673401 -56.380299 632.492 -0.017351566 -0.78159785 -0.62354118 0
69.350502 -49.0508 621.16498 -0.030410646 -0.83688819 -0.54652846 0.0062172357
71.3451 -47.287201 618.53198 -0.19031966 -0.76801598 -0.61149806 0.0097428728
73.4272 -49.853802 620.81201 -0.21248336 -0.792319 -0.57191032 0.0039488827
76.290298 -52.019798 623.70801 -0.025505461 -0.8295632 -0.55783004 0.0058669345
78.040802 -50.2192 621.29602 -0.055865474 -0.81220394 -0.58069265 0.0015610965
75.054604 -73.424599 656.94299 -0.081552505 -0.81118238 -0.57907891 0.0039304062
81.2005 -49.152199 619.35901 -0.23654352 -0.77616745 -0.58447522 0.0034159501
78.476097 -72.592903 654.78699 -0.14981185 -0.84915519 -0.5064503 0.002851625
80.875099 -71.8535 652.36401 -0.11070816 -0.88899308 -0.4443365 0.0016745405
83.648903 -70.7509 649.78497 -0.065705664 -0.89401358 -0.44319573 0.00062798389
85.435501 -72.323303 653.16602 -0.10237413 -0.89971316 -0.42430627 0.0042477329
89.924301 -69.340797 644.92297 -0.033415288 -0.87139839 -0.48943672 0.008652376
89.336098 -73.068802 653.69098 0.13536181 -0.93942654 -0.31488886 0.020032762
92.659203 -71.651604 650.54901 0.24600372 -0.9330613 -0.26244757 0.014031067
4.4762001 -72.855202 757.20599 0.18746884 0.93985808 -0.28552073 0.0035980181
92.754997 -71.855202 654.815 -0.60879767 0.76248151 -0.21905991 0.043662407
12.023 -74.246803 756.87598 -0.25408444 0.75428122 -0.60539311 0.0090368455
11.2925 -72.240501 758.98297 -0.37193754 0.55902022 -0.74105251 0.023659321
92.456596 -67.411301 659.85999 -0.77815574 0.36065689 -0.51419872 0.0065628407
110.378 -53.6875 629.99402 -0.86061865 0.34765825 -0.37211463 0.016065069
126.211 -47.643799 604.46198 -0.62525094 0.72116208 -0.29830629 0.0680416
109.415 -52.678101 633.18103 -0.86128849 0.26232621 -0.43516317 0.0019925141
118.194 -47.018299 617.40698 -0.83459675 0.32038769 -0.44810718 0.0042987945
127.937 -45.051701 602.711 -0.79284167 0.49968046 -0.34888601 0.049257074
-30.3083 -37.763802 794.06897 -0.88389248 0.31762549 -0.34329024 0.0048884475
115.453 -46.934799 624.13898 -0.87330395 0.2328873 -0.42790627 0.0053643985
113.483 -46.381302 627.46899 -0.85303909 0.2690109 -0.44716609 0.0089141568
111.564 -46.217098 631.30103 -0.90528512 0.2026801 -0.3733359 0.010359492
109.134 -45.929298 637.57703 -0.89897937 0.31072795 -0.30868158 0.009001188
99.1409 132.22301 573.23401 -0.90297377 0.19636127 -0.38220486 0.0084863286
100.364 132.26401 569.86798 -0.94948679 0.1406121 -0.28054082 0.0031422542
99.229103 129.31599 571.48999 -0.90624774 0.23850293 -0.34904358 0.012021357
95.364998 125.137 576.50098 -0.87618279 0.20573379 -0.43586391 0.0098259514
97.858902 125.075 572.58502 -0.92181289 0.20453449 -0.32928213 0.0047200844
98.8256 124.854 568.95502 -0.94952404 0.14082029 -0.28030998 0.0011946848
95.975403 121.762 574.39001 -0.86298865 0.23939253 -0.44490647 0.0042504114
99.6483 121.135 567.086 -0.9171589 0.24915813 -0.31103021 0.010463468
99.932899 124.001 565.40601 -0.93301332 0.062690049 -0.35433888 0.0044998131
101.981 122.998 558.62402 -0.89320743 0.28763682 -0.34560907 0.010909011
100.497 109.301 553.54901 -0.92839491 0.22621864 -0.29480153 0.0022671688
101.399 108.123 549.87 -0.90901732 0.29840142 -0.2909365 0.012052781
99.404701 106.363 545.00201 0.012916559 -0.93910754 -0.34338057 0.005723625
101.974 106.63 542.79102 0.10640086 -0.98735762 0.11748935 0.082085811
98.330498 107.683 541.63202 -0.29471403 -0.94220632 -0.15934525 0.030234363
94.251297 104.287 549.54102 -0.062894635 -0.86139834 -0.50402099 0.014205822
91.493599 106.808 547.05499 -0.17990421 -0.84851646 -0.49764872 0.0060115056
89.333199 101.439 554.383 -0.17169042 -0.81959051 -0.54662025 0.0069215926
127.954 -22.2957 657.82202 -0.70053351 0.47545728 -0.53215897 0.0045827567
125.155 -22.490601 661.26801 -0.67914134 0.49423265 -0.54267949 0.0010510379
125.105 -25.5965 658.97198 -0.71280181 0.48128659 -0.51017326 0.0020070784
83.656601 -26.113701 710.26202 -0.43511394 0.89954042 -0.038766313 0.022930594
102.84 -26.218901 684.55603 -0.61953914 0.57232451 -0.53722996 0.0022373111
125.519 -28.7904 656.14502 -0.71930313 0.36671728 -0.59001809 0.0074646263
128.24899 -29.386499 652.914 -0.74432313 0.27509865 -0.60852587 0.0055833044
120.14 -28.4298 662.42603 -0.60889065 0.535083 -0.58560938 0.0054994132
122.335 -28.823601 659.22498 -0.70920271 0.38610938 -0.58987373 0.0069703176
120.517 -29.945 660.25598 -0.6894412 0.39466503 -0.60737985 0.0086798342
81.475502 -27.9265 711.12598 0.71584344 -0.68462884 -0.13730055 0.0064908047
105.729 -28.2089 678.388 -0.56966913 0.57649326 -0.5857752 0.0059054401
125.909 -30.8274 653.94897 -0.66247219 0.34958759 -0.6625098 0.0034430826
102.966 -28.009501 681.47803 -0.65568376 0.53096741 -0.53679824 0.0043817302
120.064 -32.339401 660.005 -0.66181058 0.29827046 -0.68778014 0.0050614681
75.892899 115.93 530.591 -0.2979967 -0.95069617 -0.085876957 0.02317591
139.455 -32.379299 633.91498 0.96617854 -0.0094575593 -0.25770074 0.029297546
73.727203 116.449 528.87097 -0.26126996 -0.96110713 0.089505114 0.0019171068
69.904602 114.329 536.76099 0.24535404 -0.80526358 -0.53977019 0.015624982
103.23 -31.156799 679.14203 -0.66745621 0.39141169 -0.63348168 0.0007853338
97.357399 -30.857599 685.44897 -0.61029106 0.50914186 -0.60689336 0.0090059498
12.3225 -18.827801 781.56702 -0.30971017 0.40342966 -0.86100179 0.0091024628
137.2 -36.334702 635.76202 -0.64464682 0.69299489 -0.32278267 0.033852343
133.948 -29.035101 630.237 0.67792284 0.14492226 -0.7207067 0.010149421
131.459 -26.2561 628.62598 0.76738274 0.22943008 -0.59873664 0.00080973614
134.043 -32.916901 629.57599 0.39897683 -0.20177861 -0.8944847 0.050643653
8.1427002 -21.382799 781.60101 -0.29326764 0.28897363 -0.91131133 0
131.452 -33.7481 630.89203 -0.11100426 -0.7899 -0.60310525 0.012607248
-21.1029 -9.0892801 803.98401 -0.9077571 0.25012338 -0.33677199 0.0079710288
-20.1845 -10.2658 801.05701 -0.81747919 0.33870447 -0.46584022 0.0025789598
128.957 -35.275902 633.75299 -0.12816814 -0.85747111 -0.4983134 0.0057226536
127.023 -33.4977 630.508 -0.16276184 -0.84611201 -0.50754619 0.0040676054
123.176 -36.9375 638.414 -0.10128797 -0.82113183 -0.56167901 0.0054867561
-23.7101 -16.493601 806.41602 -0.98148006 0.15648493 -0.11049565 0.0047274013
-22.695999 -16.054501 802.37598 -0.9372716 0.096743353 -0.33490682 0.0037108748
-19.5271 -17.243 796.82397 -0.78976887 0.23222858 -0.56774563 0.0029863534
122.422 -33.034599 629.95599 0.31682223 -0.87080467 -0.37592953 0.0080801509
-24.1611 -19.493601 804.96399 -0.98442161 0.13590451 -0.11155274 0.0049735419
119.88 -34.1978 632.427 0.31290048 -0.91295058 -0.26194385 0.008375139
83.368698 -47.683201 693.862 -0.77207476 0.34784648 -0.5318867 0.00649588
85.871201 -47.711498 690.60498 -0.75900644 0.45836812 -0.46239364 0.0053914883
119.28 -34.216599 628.73999 -0.56027985 0.82612073 0.060092434 0.01390252
118.989 -34.5177 625.10199 -0.88591009 0.39820299 -0.23790263 0.013249242
41.5592 -48.983299 742.47101 -0.56364095 0.79614782 -0.22013059 0.019336771
83.5895 -51.500599 691.52301 -0.79342586 0.3191148 -0.51830614 0.0092292968
120.693 -34.620602 621.46899 -0.82481641 0.41343856 -0.38567659 0.0040892633
39.1255 -49.914799 745.79602 -0.58210737 0.81306571 0.0086716609 0.020254433
78.7136 -54.523102 695.79401 -0.82765889 0.28382313 -0.48417467 0.010098667
81.673401 -54.594601 692.40002 -0.67898792 0.41331786 -0.60674852 0.0015280751
84.181198 -54.914101 689.14502 -0.77212131 0.32143611 -0.54818565 0.0049068658
118.416 -38.101898 622.84698 -0.86592299 0.38184518 -0.323066 0.010676983
38.6521 -51.467499 742.52301 -0.72345001 0.56970626 -0.38994211 0.0071272319
84.941803 -56.191601 686.67102 -0.80797499 0.33232918 -0.4865528 0.0012198112
-15.9369 -37.536701 783.88702 -0.2795206 0.38544858 -0.87937337 0.0032648768
78.568298 -58.248001 693.63098 -0.82410902 0.29054171 -0.48624051 0.00094194122
-27.447201 77.677299 501.29001 0.43749306 -0.3788282 -0.81552988 0.022271786
13.0185 -22.525101 591.72803 0.014304194 -0.85622352 -0.51640743 0.00085779408
10.4273 -24.1292 593.78003 0.0737786 -0.85413694 -0.51478803 0.002462541
-1.44261 -41.539299 620 -0.11991751 -0.86087376 -0.49448571 0.0010894975
-4.2164402 -42.6418 622.58002 -0.10383187 -0.82440722 -0.5563916 0.0051783868
-5.7610798 -40.549999 619.341 0.16818638 -0.85223264 -0.4953917 0.0080567747
