ply
format ascii 1.0
comment PCL generated
element vertex 620
property float x
property float y
property float z
property float nx
property float ny
property float nz
property float curvature
element camera 0
property float view_px
property float view_py
property float view_pz
property float x_axisx
property float x_axisy
property float x_axisz
property float y_axisx
property float y_axisy
property float y_axisz
property float z_axisx
property float z_axisy
property float z_axisz
property float focal
property float scalex
property float scaley
property float centerx
property float centery
property int viewportx
property int viewporty
property float k1
property float k2
end_header
10.4132 49.4865 531.88898 0.76566637 0.12748818 -0.63047737 0.011642105
-67.553802 98.727303 503.91599 -0.43351471 -0.45043683 -0.78049445 0.0052285143
9.0867395 52.7616 529.52802 0.66041654 0.041543093 -0.74974942 0.010158073
-67.653198 102.024 501.896 -0.21999206 -0.454059 -0.8633852 0.0088399108
-64.173103 99.691902 501.66101 -0.39758489 -0.27001575 -0.87693661 0.013987208
-61.1516 97.263802 500.61899 -0.52868629 -0.13786906 -0.83754587 0.0079511888
14.9821 52.466599 535.45203 0.46647015 0.02741169 -0.88411218 0.0081809266
14.5356 56.055401 535.15802 0.72262144 0.024501111 -0.69080967 0.0063941958
17.6425 53.0989 536.43799 0.54383469 0.060027927 -0.83704269 0.0058827791
-53.419102 101.759 498.17001 -0.19466658 0.3306964 -0.92344183 0.005812706
6.9795499 64.920197 527.87402 0.58854151 -0.0030764744 -0.80846113 0.0099312598
-48.3881 100.74 496.26001 -0.13752517 0.49038655 -0.86058581 0.0050595081
89.287598 103.888 576.58099 -0.90081143 0.18346117 -0.39354879 0.0034443813
86.175697 101.279 582.995 -0.90012443 0.24574718 -0.35970035 0.0020489506
86.239403 97.9496 579.797 -0.88035744 0.39332733 -0.26507422 0.0021240539
84.480003 84.598297 586.42401 -0.82433599 -0.56381577 0.050813355 0.00016049064
85.169701 83.194199 605.82703 -0.77833742 -0.62547845 -0.054475661 0.0048958207
84.887199 82.569504 603.58398 -0.76640421 -0.64040673 -0.050039098 0.0058755833
86.994698 80.437698 603.46698 -0.75366682 -0.65725654 0.00040686253 0.0061964765
89.687103 77.906998 604.05499 -0.77186912 -0.63224465 0.066968635 0.004501116
92.431801 75.013199 620.67902 -0.74917072 -0.65959001 0.060698364 0.0026735936
92.167198 73.191597 597.922 -0.78650421 -0.61743826 0.013457699 0.0067215781
92.862 72.295601 589.76099 -0.83256429 -0.55392599 -0.0016745799 0.001908605
95.696602 69.150101 598.38098 -0.85723722 -0.51150417 0.059226897 0.0034078625
96.819801 66.561501 595.70502 -0.80446637 -0.59074032 0.062126368 0.0047427001
96.8993 66.6408 591.71997 -0.83406591 -0.54976964 0.045688592 0.0024236997
98.533203 64.109901 593.185 -0.84306908 -0.5361861 0.041701701 0.0021305764
136.94099 37.344601 740.71399 -0.49523744 0.49765182 -0.71209729 0.0020707482
100.402 60.955502 593.159 -0.92523909 -0.37412405 0.062958673 0.0047376212
136.36 34.512199 739.12402 -0.43583903 0.66997182 -0.60098433 0.0073995646
100.103 60.3013 591.15002 0.91955382 0.11218319 -0.37661082 0.023116536
134.65601 34.243599 738.96802 -0.45000136 0.6585499 -0.6031673 0.0070641302
98.2686 60.484402 586.84302 0.40995783 -0.45207733 -0.79218727 0.027643496
98.914902 57.290001 589.01703 0.29609856 -0.71980429 -0.62785941 0.024522014
95.32 58.212399 588.13898 -0.069282897 -0.81119549 -0.58065623 0.014604297
130.834 31.1684 734.73199 0.34437817 0.83713579 -0.42497927 0.029664205
127.457 33.921299 734.83698 0.78161556 0.5933252 -0.19246386 0.021419168
99.058701 51.265499 598.06201 -0.10600357 -0.90207225 -0.41836467 0.005786404
98.955902 50.1297 601.93103 0.015222053 -0.85390812 -0.52020109 0.0018530872
95.871902 50.697102 600.76001 -0.088309228 -0.88350248 -0.46002713 0.0044455072
59.033001 75.024101 538.89502 -0.086184241 -0.87780601 -0.47119942 0.0089217508
91.656601 51.1362 600.04901 0.17484646 -0.81587267 -0.55116296 0.0064235157
58.260799 73.323097 542.71503 -0.16515137 -0.80288351 -0.57280296 0.019137233
58.647099 71.976601 546.41302 0.1052226 -0.94474673 -0.31045425 0.026637485
58.021801 71.462997 544.51703 -0.049478471 -0.86959076 -0.49128786 0.053817801
149.83099 6.8538399 716.59497 -0.46112236 -0.81101483 -0.36002946 0.12115098
54.860802 72.443298 544.50299 -0.1820191 -0.81446171 -0.55092758 0.017692829
44.734501 78.984001 535.698 -0.15017165 -0.81315053 -0.56234753 0
151.65601 2.5437901 716.89697 -0.75114 0.31241351 -0.58153796 0.097952113
145.561 7.0064802 718.09399 -0.95888698 0.26548344 0.10027122 0.13700649
147.61 5.03054 718.349 -0.63634098 -0.77136487 0.0081421202 0.16668063
40.0023 79.772102 535.815 -0.1195429 -0.83282697 -0.54047096 0.0021294018
44.6315 75.014702 542.03802 -0.073056407 -0.86021101 -0.50467807 0.0024128312
37.4025 78.874603 537.61902 -0.1257526 -0.82013571 -0.55817884 0.0022218977
36.380199 77.024002 540.56702 -0.047414884 -0.81059706 -0.58368152 0.0054267133
33.293098 77.535004 539.75403 -0.014401128 -0.79757154 -0.60305238 0.0044351458
57.865299 58.040699 572.46503 0.076732516 -0.81878102 -0.56895494 0.01274387
44.1203 65.860397 558.53003 0.16002028 -0.79973435 -0.57863498 0.0010321223
44.3848 63.377602 561.51099 0.13556968 -0.76367891 -0.63120151 0.001704733
40.763199 63.858002 560.17999 0.2181112 -0.74813247 -0.62667805 0.0022554302
44.7663 58.775902 567.20898 0.62954938 -0.26938987 -0.72876388 0.036251996
44.006401 55.7202 565.995 0.81012046 0.018197557 -0.58598101 0.0086832317
38.3438 60.5215 560.29901 0.64858377 -0.15303336 -0.74560034 0.011840699
39.028 57.447399 561.961 0.63592303 0.0014055729 -0.77175117 0.014811837
41.466999 55.162998 563.18201 0.70592999 0.0093601672 -0.70821977 0.014712878
31.5916 58.709202 551.85901 0.85525411 0.18597874 -0.48368618 0.0020652658
31.4872 54.3255 549.73499 0.77282697 0.19658233 -0.60340184 0.013205919
29.3248 57.008598 548.591 0.71461749 0.20887783 -0.66760164 0.0058783614
32.984501 51.152 550.95099 0.72280282 0.042842675 -0.68972504 0.0038510093
-56.409401 31.794701 486.267 -0.18140741 -0.92734957 -0.32728282 0.0074449033
-56.793701 28.7563 494.073 -0.020567 -0.87565756 -0.48249429 0.0039208513
-56.668301 30.2199 490.194 -0.054628097 -0.92807758 -0.36835817 0.0014919355
-56.1329 26.936399 496.39099 -0.029377205 -0.86889023 -0.49413234 0.0028625967
-43.3489 14.9695 521.52301 -0.033632059 -0.87067884 -0.49070081 0.0039502773
-60.7234 27.4333 496.22601 -0.069859885 -0.8902815 -0.45002061 0.00056285848
-42.763 11.4637 527.55402 -0.21105455 -0.86127329 -0.46223846 0.0017741573
-49.902302 14.0636 522.54498 0.018518634 -0.88288373 -0.46922627 0
-50.3908 12.7209 525.37799 -0.0039178771 -0.92666245 -0.37587407 0.0016669064
-53.6577 13.2728 524.85498 -0.18878141 -0.91919506 -0.34560388 0.0019846947
-57.343102 14.5801 524.39801 -0.17518145 -0.9076876 -0.38133278 0.0032470888
-57.326801 11.1853 530.96301 -0.04246328 -0.87071115 -0.48995811 0.0011255594
-58.637001 9.7198095 534.052 -0.0028505013 -0.83815348 -0.54542702 0.0034300077
-57.845501 7.0372701 537.34302 0.011881657 -0.87524796 -0.48352864 0.0026093663
-61.9011 7.9319901 536.87799 -0.092066415 -0.8503201 -0.51815015 0.0024655219
-57.896801 2.1236999 547.55603 0.034367342 -0.8833952 -0.4673669 0.0022772693
-58.510799 0.355719 551.31403 -0.049734 -0.91552097 -0.39918405 0.0034009598
-61.900799 0.95076698 549.50201 -0.059935387 -0.93339378 -0.35381329 0.0027460952
-64.888 1.66953 548.84198 -0.054298759 -0.86166525 -0.50456393 0.0033710992
-68.726997 2.2539999 548.104 0.034060102 -0.82558 -0.56325626 0.00088395132
-72.0578 2.9312601 546.99701 -0.074145854 -0.84666944 -0.52692813 0.0016468312
-86.157402 11.3809 533.71198 -0.10259932 -0.88192278 -0.46009302 0.0025324977
-87.109497 9.5164804 537.69501 -0.14234383 -0.86271769 -0.48523855 0
-86.952797 5.5909901 543.64203 -0.038645554 -0.8920204 -0.45034006 0.0020546794
-90.667801 7.16083 542.14301 -0.12835599 -0.83447313 -0.53589123 0.00069678912
-126.162 -15.7001 585.53198 -0.088690229 -0.86393785 -0.49572709 0.0019041795
-114.758 -25.336599 600.37903 -0.070703074 -0.81098241 -0.58078271 0
-122.42 -13.9942 583.396 0.0068884143 -0.84614033 -0.53291565 0.0036904912
-115.039 -17.583401 587.99902 -0.091207407 -0.88193035 -0.4624716 0.0011729943
-114.404 -16.340401 585.34399 -0.097765461 -0.84042346 -0.53303879 0.0019065744
-115.569 -13.6419 581.88501 -0.098291218 -0.8457036 -0.52452284 0.00035668988
-104.305 -19.401699 590.54303 0.026882999 -0.88871849 -0.45766458 0.0027804961
-100.623 -18.2682 588.771 -0.018482234 -0.90377563 -0.42760736 0.005155521
-100.511 -16.9044 585.20001 -0.11480103 -0.87438828 -0.47145072 0.0018550438
-28.883101 15.2796 518.21301 -0.032241095 -0.89999121 -0.43471408 0.00068726228
-38.462299 23.735701 501.18799 -0.0058504269 -0.91106808 -0.41221458 0.001199
-35.640499 24.4886 499.84201 0.037356969 -0.89726573 -0.43990758 0
-28.0439 21.771099 504.547 -0.14277284 -0.89395612 -0.42480397 0.0094218375
-28.750601 25.558001 498.10699 0.13863184 -0.80360401 -0.57879335 0.027003353
-28.6017 29.503201 495.74799 0.4362658 0.12595178 -0.89095914 0.047034319
-0.834912 10.2603 526.33398 -0.094337463 -0.90717041 -0.41005161 0.0033670256
-0.183093 11.7369 522.17798 -0.1092973 -0.88450837 -0.45354044 0.0058518033
-138.51801 86.913002 509.29099 -0.13830882 -0.82510215 -0.54779291 0.013236416
-130.72301 83.130997 509.19501 0.0028887354 0.30154502 -0.95344758 0.020599362
-3.8663399 18.4622 511.84601 0.23128231 -0.61386746 -0.75476837 0.039256439
0.21139 16.962299 513.47498 0.19938235 -0.51426411 -0.83413374 0.041701004
-138.826 91.455597 506.448 -0.36190817 -0.065464206 -0.92991227 0.012085086
-7.9063301 24.1597 509.63101 0.56560034 0.37416458 -0.73491299 0.0075069699
-0.22244801 19.620501 513.63599 0.50928885 0.0090404041 -0.86054814 0.081684329
-0.67643398 19.9382 511.64301 0.33670783 -0.064538516 -0.93939483 0.080258176
-124.286 85.873299 511.07599 0.21263257 0.81123811 -0.54468352 0.003245265
-138.23599 95.079498 506.59 -0.34660596 0.0053987834 -0.93799525 0.005118018
9.26614 16.2647 518.32501 0.34920889 0.061364383 -0.9350335 0.057088029
-125.576 88.142601 514.84198 0.38155657 0.8062427 -0.45209202 0.002179367
-15.9584 32.054901 507.07199 0.59469366 0.30416968 -0.74419099 0.0059835287
-136.091 97.029198 505.44199 -0.26136985 -0.058314733 -0.96347558 0.0081877559
-132.476 95.079597 505.21799 0.16965856 -0.23311886 -0.95753413 0.013243985
-16.9778 35.613899 507.49799 0.65906429 0.29159766 -0.69325686 0.002790947
-2.3737099 26.704201 515.56299 0.59586239 0.40616632 -0.69280362 0.0063912105
-125.547 92.919998 519.10901 0.51716518 -0.36877111 -0.77236527 0.073840491
-132.334 99.862396 504.40302 -0.11390153 -0.22315767 -0.96810484 0.010492973
-126.183 96.403801 507.267 0.3197833 -0.81400639 -0.48490444 0.020659387
-64.111198 63.969398 506.922 0.23652323 0.91170967 -0.3359198 0.00053166662
53.1217 -0.57478797 539.04199 0.32982162 -0.085953139 -0.94012219 0.024896011
56.112301 -1.47835 540.04602 0.39485136 -0.20060314 -0.89657724 0.063128352
-126.338 102.446 503.37399 -0.00091536529 -0.22621503 -0.97407693 0.0031849635
-69.000702 70.286797 517.37097 0.12668021 0.53167325 -0.83742207 0.14912786
48.180199 5.1461201 538.01202 0.43399003 0.48962548 -0.75625366 0.0035533893
55.764198 1.01657 541.565 0.56070477 0.30545869 -0.76961362 0.017100984
-66.890198 70.8367 516.87799 -0.28466523 0.061663732 -0.95664167 0.047256738
-3.9546499 37.499901 517.19598 0.42624632 0.099081151 -0.89916462 0.014404433
54.899899 4.6918602 544.22498 0.58269417 0.56452829 -0.58461553 0.0040948642
-4.2870202 41.374298 516.828 0.40464786 -0.27138811 -0.87327462 0.014268645
52.423401 6.8628502 543.82098 0.63811284 0.46328136 -0.61496538 0.0040815501
54.5728 7.6859002 546.164 0.61334366 0.33291227 -0.7162255 0.0063329889
-116.841 107.391 503.84698 0.10136927 0.22976352 -0.96795303 0.010476576
-112.513 106.046 503.75101 0.077927001 -0.20427069 -0.97580779 0.015888207
-113.723 109.773 505.20599 -0.032842435 0.35902891 -0.93274844 0.0033239801
-51.3815 79.106796 505.28201 -0.20467991 -0.82778144 -0.52238315 0.0012844424
-51.077099 80.8713 502.133 -0.27624202 -0.80725962 -0.52155757 0.029762836
8.6993198 44.279499 527.53601 0.71180654 0.35510868 -0.60599434 0.0081219822
7.8632102 47.0294 526.95001 0.73001271 0.16037229 -0.66435093 0.0023127012
46.6577 26.471901 559.52899 0.66180825 0.60327083 -0.44505522 0.0077565517
49.9161 23.5308 559.55902 0.51671708 0.79762864 -0.31111425 0.0013697274
43.4893 29.1392 558.13702 0.69453394 0.4344756 -0.5734576 0.010151428
22.0096 45.475399 540.315 0.67824101 -0.040717851 -0.73371059 0.028169733
42.329498 31.993999 557.87799 0.71545243 0.20532613 -0.66780901 0.0014957074
48.995201 26.815201 562.88397 0.70363396 0.44670251 -0.55259031 0.002134345
20.5061 48.8447 538.91998 0.58674729 -0.031320062 -0.80916411 0.0020477409
49.065498 31.017799 564.492 0.77083141 0.16679163 -0.61481661 0.0073480355
19.322001 53.166199 537.91699 0.5871281 0.12873772 -0.79919159 0.00089874258
47.345901 34.315701 563.17603 0.76757568 0.3140876 -0.55872762 0.0065716323
49.211498 34.576099 566.38 0.75983423 0.26396561 -0.59411633 0.0045945672
34.0242 46.7868 552.22601 0.71463138 0.12348539 -0.68851531 0.0050497856
90.184402 108.957 577.28497 -0.91636723 0.23844486 -0.32158214 0.0049606222
128.606 52.129601 697.44202 -0.19575351 -0.97817665 -0.06964992 0.0026988534
124.359 53.025002 697.41998 0.10688341 -0.98804688 -0.11108255 0.030779198
97.585999 70.517502 632.98602 -0.7935878 -0.59902287 0.10672395 0.0029434797
95.4104 71.796898 624.65503 -0.73233873 -0.67484593 0.090901226 0.004826888
121.684 53.184898 690.31897 0.5670889 -0.7978099 -0.20471847 0.047760461
121.945 52.2649 694.65802 0.66095811 -0.72826111 -0.18102549 0.024996269
120.001 50.3783 691.89801 0.82106572 -0.5270952 -0.21913874 0.0062647774
110.247 57.1306 656.14398 0.88929534 -0.14341339 -0.43426529 0.017594118
121.873 48.0802 700.49597 0.78311855 -0.53096199 -0.32373559 0.0086796349
108.2 55.350498 653.15198 0.95424873 -0.098834619 -0.28220767 0.01927791
116.643 48.6017 685.17999 0.80424911 -0.5600698 -0.19875936 0.005158551
112.646 50.043598 670.30798 0.93319875 -0.25751257 -0.25065368 0.032053716
112.213 48.118198 671.93903 0.95522565 0.22989346 -0.18626033 0.021276645
111.879 48.958599 667.73401 -0.94679517 -0.32078648 -0.025979117 0.019087503
111.257 49.205898 663.43298 0.93002629 0.31399545 -0.19093983 0.012429284
110.305 49.501202 655.185 -0.85324264 -0.50152361 0.14300722 0.0054319231
115.801 46.1208 687.427 0.97499126 -0.12210389 -0.1856955 0.041101802
111.453 49.117199 659.328 -0.84962004 -0.52697033 0.02116674 0.004132567
110.667 49.2953 648.39697 -0.80084139 -0.59245318 0.087478004 0.0038051433
109.483 50.4571 640.12201 -0.83866996 -0.53971505 0.073077649 0.0061835321
107.681 51.281502 611.992 -0.87212306 -0.48159242 0.086429529 0.0030047356
112.544 46.326099 656.49402 -0.82801759 -0.55522811 0.078158133 0.0077835899
112.113 46.347801 648.367 -0.77925313 -0.62395138 0.058728989 0.0051560816
114.454 44.506599 645.74298 -0.76028639 -0.64901805 0.027207458 0.00317025
113.833 44.357601 641.57098 -0.71449018 -0.69937128 0.019585878 0.0040155631
108.696 48.215698 609.93201 0.88257325 -0.021341655 -0.46969032 0.097594634
118.472 38.851299 643.11499 -0.82175416 -0.56857693 0.037952058 0.008553952
120.206 36.497002 643.18103 -0.8591221 -0.50931197 0.050105352 0.0061833733
102.524 49.609501 602.74103 0.14544094 -0.85987455 -0.48934919 0.015712952
102.465 47.736599 606.16803 0.10286497 -0.83867341 -0.5348323 0.0041682902
99.7379 48.166 604.776 -0.037827648 -0.87995225 -0.47355363 0.0049597742
102.105 44.501099 612.74902 -0.086804345 -0.89392948 -0.4397217 0.007200188
98.806396 45.2043 612.01599 0.076428682 -0.84405428 -0.53078347 0.005902932
33.5144 90.223999 517.15399 -0.10239251 -0.85981494 -0.50023401 0.0052231988
39.839802 83.869301 529.48499 -0.041407816 -0.86931807 -0.49251544 0.011092312
40.539398 81.599297 532.15399 -0.10870855 -0.84164143 -0.52898228 0.0029010605
36.911598 82.748497 531.34198 -0.080517299 -0.82893622 -0.55351752 0.0074702268
33.483002 83.372902 530.85797 -0.0050438121 -0.83371836 -0.55216694 9.3310431e-05
34.3153 81.497498 533.00403 -0.033258498 -0.84057593 -0.54067177 0.0026800805
32.838902 79.571602 537.21002 0.0079442095 -0.83984298 -0.54277116 0.0039955699
4.74964 97.9645 507.14401 -0.0072113052 -0.81812578 -0.57499403 0.0018326512
30.514799 79.429604 536.39899 -0.077959187 -0.81552786 -0.57344282 0.012536913
5.4547901 95.509903 510.07001 -0.060457546 -0.85876173 -0.50879586 0.0049517266
5.1080999 92.667198 517.13 0.071582645 -0.82869762 -0.5551002 0.0025399986
1.43066 96.495003 509.38101 -0.11276154 -0.86164594 -0.49482429 0.012519
5.4531102 90.6063 519.57397 -0.025285507 -0.79833037 -0.6016888 0.012938046
4.7715402 88.482498 523.18701 0.12750988 -0.75070941 -0.64821035 0.0042065871
1.45254 88.6408 521.77698 0.30749723 -0.66593748 -0.67968577 0.005406139
-1.78251 89.019798 520.13898 0.3762053 -0.5863409 -0.71740776 0.0041062739
5.4599199 82.057503 528.09003 0.47878963 -0.21479875 -0.85124731 0.02147574
-9.4007196 91.1166 514.81897 0.57215554 -0.31700006 -0.75640535 0.036189307
2.18172 79.213303 525.76001 0.64055961 0.15227184 -0.7526598 0.0056693973
-8.57162 87.077202 516.453 0.73914301 0.046474006 -0.67194319 0.006327854
6.6796799 74.020798 530.42999 0.78815794 0.099844046 -0.60732049 0.0028978372
-43.1203 104.28 496.728 -0.11693974 0.40521735 -0.90671051 0.0063477326
6.48666 70.099503 528.61102 0.75477594 0.30175608 -0.5824573 0.00071952975
4.0560002 72.450302 527.185 0.67458367 0.19492169 -0.71199888 0.0094667301
8.0627298 66.681503 529.24597 0.72185206 0.20283656 -0.66165471 0.00029047686
-4.8560901 -7.6005001 566.10101 -0.018039096 -0.91584659 -0.40112299 0.0016327593
-8.1224604 -8.6020899 568.23999 -0.037162438 -0.91190112 -0.40872401 0.0014446101
-12.3556 -8.1474504 567.755 0.016938949 -0.90463293 -0.42585477 0.0020817672
-11.9483 -9.9374104 570.65503 0.014061016 -0.87561959 -0.48279685 0.0022554311
-11.9982 -11.5792 574.01703 -0.038140677 -0.89272553 -0.44898376 0.0033687269
-12.048 -13.221 577.37799 0.10318725 -0.89573467 -0.43244863 0.0034386434
-12.0978 -14.8628 580.73999 0.078973524 -0.88686544 -0.45522854 0.0033706389
-16.0805 -14.7731 580.01898 0.044475563 -0.87698311 -0.47845861 0.0011957971
-19.6499 -14.2499 578.84497 -0.0085714115 -0.83264238 -0.55374473 0.0023669649
-26.768499 -12.7472 577.09399 0.14968331 -0.80142403 -0.57906336 0.010904836
-26.905199 -11.2166 573.82397 0.13245304 -0.9205066 -0.36759201 0.0015989963
-30.1982 -12.6565 575.94 0.16128832 -0.83557671 -0.52516425 0
-33.635101 -12.3564 574.50598 0.098044716 -0.82287979 -0.5596928 0.0031702488
-41.288799 -8.8131199 568.68701 0.089702114 -0.83407915 -0.54430282 0.00042890594
-10.4395 -27.301201 580.83801 0.64530009 0.75442743 -0.12011297 0.0014977957
-10.9978 -27.179199 577.12097 0.38089466 0.92410469 -0.030820139 0.013949855
-25.9848 -19.7393 581.841 0.21970804 0.28398752 -0.93331641 0.038479336
-40.856201 -11.3357 572.56799 0.0098873535 -0.8412962 -0.54048401 0.00065267121
-25.0886 -22.1691 578.16901 0.14600261 0.8659848 -0.47828186 0.0033291639
-9.11304 -29.118099 569.51001 0.41727495 0.87627846 -0.24086873 0.0024984125
-29.227501 -21.506201 578.43201 0.10087939 0.84682924 -0.52221024 0.0006147839
-40.473999 -15.1879 578.74799 -0.021070037 -0.6406405 -0.76755184 0.018494375
-44.160599 -14.498 577.76599 0.012815332 -0.78653228 -0.6174162 0.0038658893
-12.7765 -27.7509 569.776 0.29319948 0.89318275 -0.34096712 0.0020942288
-39.836399 -18.803499 580.24902 0.1067905 -0.0040419772 -0.9942733 0.10575456
-97.161301 8.57582 541.039 0.063006036 -0.86602587 -0.49601349 0.0053317375
-97.0989 2.2273099 550.34698 -0.080643341 -0.92029434 -0.38282487 0.0022322489
-100.391 6.1482902 542.95001 0.039787833 -0.83346885 -0.55113208 0.0097754523
-96.981903 -0.61147201 557.14301 -0.082530141 -0.87295783 -0.48076332 0.0033641793
-110.791 -27.877899 604.15399 -0.12554426 -0.8189618 -0.55994672 0.0028382505
-96.854202 -28.430401 600.323 -0.14240693 -0.72367638 -0.67528719 0.010694333
-100.852 -22.230499 594.86401 -0.10441358 -0.79696679 -0.59492993 0.0029605392
-98.385101 -20.969601 593.53302 -0.095474742 -0.82022417 -0.56401867 0.0045750006
-90.6241 -24.885799 596.69299 -0.25559387 -0.62430459 -0.73818392 0.0043588676
-89.538902 -23.241501 594.83502 -0.22053163 -0.78852755 -0.5740993 0.014404803
-97.561798 -15.7475 583.05701 -0.099150427 -0.88751566 -0.44998354 0.0012817882
-114.258 -2.0940399 559.28601 -0.13809831 -0.87004697 -0.47323039 0.0012696952
-30.3778 -36.688 555.23499 -0.23735026 0.78735119 -0.56898421 0.0042165485
-111.283 -2.4465101 559.45502 0.067848071 -0.78576416 -0.61479372 0.00054281281
-27.9884 -36.641602 554.698 -0.21424207 0.78336352 -0.5834741 0.0059046964
-111.257 0.233128 556.69897 0.063447364 -0.79240811 -0.60668278 0.0045408015
-111.436 1.94901 553.56799 -0.087782808 -0.88443619 -0.45833039 0
-107.877 1.19768 554.44397 -0.081687547 -0.89645624 -0.43553799 0.0002943867
-104.317 0.446347 555.32001 -0.069558769 -0.89434755 -0.44193214 0.00064374355
-26.889299 -34.325901 557.92798 -0.14952385 0.80882215 -0.56872612 0.0012338181
-104.267 2.08816 551.95801 -0.0055833119 -0.90768164 -0.41962221 0.00096254563
-1.48645 -4.2431698 556.508 -0.023133576 -0.9056747 -0.42334166 0.00027133344
2.43841 -8.0172997 564.07202 0.056345511 -0.93370694 -0.3535769 0.0011776964
2.5380599 -4.7336798 557.34802 0.0022918198 -0.88164687 -0.47190404 0.00020662717
3.1728001 -3.49073 554.69299 -0.04858968 -0.92416143 -0.37889943 0
16.569799 -10.0104 568.58801 -0.089169063 -0.89860797 -0.42959592 0.00063997961
16.236 -7.6164899 561.72101 -0.11084657 -0.96439803 -0.24010299 0.0069834716
20.8563 -7.8344698 561.31097 -0.10294706 -0.92230928 -0.37248835 0.0015878263
2.3720601 8.2135801 530.53198 -0.11382406 -0.92414343 -0.36469567 0.0057086842
23.112 -7.2779198 559.75702 -0.090706959 -0.91892231 -0.38386729 0.0010752088
3.94432 9.16471 526.15601 -0.058059681 -0.91551411 -0.39807394 0.0072721201
13.1812 5.2571201 532.93701 -0.013515531 -0.90278327 -0.42988336 0.00078766933
17.859501 5.1732502 533.263 -0.17146416 -0.91709262 -0.35991821 0.0095761474
17.170799 8.1361599 526.72803 -0.092708111 -0.82391304 -0.55908173 0.0012373243
17.469601 10.2212 524.047 0.10154115 -0.71004331 -0.69679826 0.015238532
13.4236 14.8397 520.87299 0.41486114 0.16908333 -0.89403635 0.029259313
16.243299 12.8998 521.86499 0.37297451 -0.18672912 -0.90885764 0.052078631
16.844299 16.301399 523.08197 0.53798401 0.36681861 -0.75895804 0.0081966072
23.4536 11.6175 525.18903 0.52967077 0.33137193 -0.78079545 0.035191294
42.340401 21.0387 543.01001 0.52866238 0.54047066 -0.6545285 0.007810615
-48.4454 80.629898 502.64899 -0.38004008 -0.84482729 -0.37661186 0.033941563
-66.110901 92.062401 506.03699 -0.55492932 -0.35191581 -0.75379628 0.00016796427
-46.782902 83.093002 496.29099 -0.43226984 -0.58944935 -0.6824165 0.0056297793
10.0784 48.761299 529.96399 0.76674521 0.22651833 -0.60065895 0.010278615
48.299198 23.6525 556.71899 0.556279 0.76016051 -0.33572254 0.0018424819
7.7811298 51.281399 528.711 0.72759467 0.18521164 -0.66053212 0.0082150837
-46.551701 86.736397 493.91 -0.48365822 -0.40868741 -0.77398282 0.00035334396
10.6953 51.664799 531.46997 0.71812516 -0.10215132 -0.68837595 0.011560618
-66.802902 100.238 502.73199 -0.43269691 -0.42780533 -0.79357165 0.0055018743
-64.912201 97.661797 502.543 -0.52569842 -0.321266 -0.78767335 0.005724119
-59.629002 95.5308 499.79599 -0.52598512 -0.1541871 -0.83640057 0.0037571085
-57.683498 97.065102 498.34299 -0.38198406 0.11314181 -0.91721708 0.017333403
13.8016 53.378201 534.11298 0.65917355 -0.070442051 -0.74868435 0.019714028
16.4506 51.541199 535.758 0.51248235 -0.0090466002 -0.85865009 0.013050636
-54.205299 98.923599 497.22 -0.3075304 0.25717726 -0.916125 0.00035665638
16.561501 54.751598 536.42603 0.54427689 0.14467344 -0.82633662 0.0066705979
124.538 53.640202 692.815 0.28094727 -0.94887662 -0.1438812 0.0099288821
124.483 52.366199 701.46198 0.33746648 -0.91850728 -0.20606034 0.057955608
96.640999 70.630699 628.16901 -0.70856345 -0.70214027 0.070262812 0.0027982411
112.882 54.461399 664.79797 0.79593557 -0.47226408 -0.37875214 0.011874807
120.957 48.595001 697.33002 0.79719651 -0.54357624 -0.26268345 0.0062992363
114.38 52.566601 672.65601 0.84520823 -0.44557014 -0.29511073 0.004319014
113.527 53.661098 668.44598 0.82675683 -0.461887 -0.32114413 0.0020270909
109.999 53.756001 657.60602 0.95187384 -0.15511124 -0.26434216 0.012305371
111.562 52.1763 665.66803 0.92648625 -0.23732561 -0.29206118 0.018918063
109.024 52.499901 654.40002 0.92542213 0.252433 -0.28261536 0.013512962
106.491 53.369301 635.75 -0.82431006 -0.5637151 0.052328475 0.0047167279
106.197 54.0201 618.66199 -0.84706116 -0.53132021 -0.013641257 0.0037044024
105.924 54.124699 611.867 -0.83591902 -0.54570377 0.058709629 0.0031836741
105.043 54.112499 607.63397 -0.88140893 -0.46497214 0.083182029 0.0037969004
113.447 49.5284 674.67401 0.88185805 -0.14840211 -0.44755241 0.021676207
108.279 52.5107 650.77502 -0.95925212 -0.25675976 0.11793954 0.017799079
104.735 54.738201 603.52301 -0.94327456 -0.32480285 0.068820968 0.01267584
109.893 49.578602 635.039 -0.80128199 -0.59571582 0.055406488 0.003549221
113.981 45.8228 671.539 -0.81074494 -0.58479112 -0.026682407 0.0026638757
114.063 46.182499 667.89801 -0.82853782 -0.55778646 0.048983242 0.0056737498
112.606 46.900101 652.164 -0.78213847 -0.62240869 0.029442612 0.0054230061
116.145 43.229801 669.461 -0.8330909 -0.54553026 0.091412894 0.0044195713
114.58 44.501701 652.36102 -0.82710171 -0.56102741 -0.033925235 0.0052728923
106.371 50.713699 605.18103 -0.99669099 -0.017778676 0.079315901 0.073993348
116.274 41.385399 645.65802 -0.82214683 -0.56856966 0.028340694 0.0039229593
115.94 42.2258 641.453 -0.7644906 -0.64397597 0.029139686 0.0059112161
115.123 42.0882 637.80499 -0.82116091 -0.54492635 0.16955854 0.0065109367
116.995 40.9342 649.76202 -0.7843712 -0.61849493 -0.047178049 0.0043865331
119.067 37.477798 647.51001 -0.83344209 -0.5500598 0.052994516 0.0029735642
117.929 38.591202 638.815 -0.85524052 -0.51046306 0.089392751 0.0026423754
119.656 36.115799 640.23499 -0.84452868 -0.52685833 0.095873244 0.0033956338
105.369 47.260502 607.31702 0.32070604 -0.74364656 -0.58663225 0.018027026
106.055 45.965801 610.28601 0.22574928 -0.81863493 -0.52808535 0.0056234314
103.101 45.872601 608.83698 0.02283923 -0.87819141 -0.47776386 0.012780172
37.438202 89.177399 517.76398 -0.18503405 -0.87490863 -0.44754568 0.0028667594
98.770203 46.7948 608.69702 -0.072686344 -0.89471734 -0.44067848 0.0069265696
95.589401 47.397999 608.13202 0.10734356 -0.861022 -0.49711013 0.0035298006
37.159801 87.609703 521.35602 -0.13061485 -0.89819872 -0.41973644 2.5066742e-05
36.995701 86.004898 524.83398 -0.053347204 -0.89497209 -0.4429211 0.0045818454
37.339001 84.340302 527.14899 -0.051485721 -0.93247926 -0.35753569 0.0066365302
33.327301 84.996002 527.46002 -0.063118435 -0.90632832 -0.41783375 0.003087722
30.120199 84.1129 529.46002 -0.012898765 -0.86587602 -0.50009245 0.00082172174
29.853701 82.026199 532.75 -0.025983376 -0.87621343 -0.48122227 0.006724386
8.6208401 95.299202 511.10501 -0.011479247 -0.90141773 -0.43279827 0.0032566993
8.5710201 93.657402 514.46698 -0.02320361 -0.91263819 -0.40810913 0.0026707922
5.13129 94.192902 513.573 -0.025724029 -0.92079037 -0.38920879 0.0044107283
8.7234602 89.261803 520.354 0.015267104 -0.80756366 -0.58958286 0.014982997
8.6809702 87.785896 523.93201 -0.12786907 -0.88202888 -0.45351359 0.0050089201
8.6238098 85.978203 527.07703 0.065016493 -0.78944254 -0.61037147 0.013557617
4.8457699 85.897797 525.586 0.34343705 -0.61694163 -0.70812011 0.0011322508
-5.4597001 91.632103 516.19 0.23763505 -0.72201443 -0.64978814 0.0052874344
-4.9274502 88.5271 518.63 0.52347666 -0.28687313 -0.80229414 0.012898033
-4.1967802 84.420998 519.70697 0.73111129 -0.0052648829 -0.68223792 0.013397799
10.6055 71.658501 533.91602 0.6499241 0.14699611 -0.74564797 0.0090391142
8.2530603 70.822701 531.56897 0.74293107 0.2550658 -0.61886585 0.0060944105
10.5585 68.131401 532.71399 0.69137615 0.24001364 -0.68146354 0.013585141
-46.5028 103.01 497.396 -0.16851431 0.45799869 -0.87283456 0.0067007388
-50.414799 104.697 498.75699 -0.16249675 0.3407281 -0.92601246 0.007130336
4.00002 69.336098 525.75598 0.65527475 0.25569201 -0.71079999 0.0059788208
-8.2395401 -5.76331 561.44501 0.015155307 -0.8907848 -0.4541727 0.0017102945
-8.87428 -7.0062599 564.09998 -0.0028314493 -0.92463398 -0.38084641 0.00089130719
-11.7025 -6.75351 564.10797 -0.041719422 -0.91199076 -0.40808374 0.0036895887
-8.92834 -10.5662 572.40002 0.017085765 -0.88290626 -0.46923822 0.0054328181
-14.9437 -7.7109399 565.89697 0.06598714 -0.90101999 -0.42872909 0.0023496633
-9.22404 -15.3919 582.30902 0.017557675 -0.80391914 -0.5944795 0.003246488
-15.9336 -9.2532301 569.73999 -0.040417004 -0.91677511 -0.39735359 0.0010661847
-8.4622698 -17.811899 584.55902 0.068998046 -0.74653125 -0.66176307 0.0048820027
-12.3515 -17.041599 584.29401 0.09206824 -0.52952278 -0.84328467 0.027298646
-23.001801 -13.3013 578.112 -0.018312711 -0.76072985 -0.64881015 0.0043049636
-26.718599 -15.4515 579.77301 0.12155276 -0.66963041 -0.73268002 0.00082434213
-37.3731 -9.8892298 570.5 -0.040771101 -0.84762222 -0.52903146 0.0018069899
-37.156502 -11.9272 573.771 0.010553027 -0.82150173 -0.57010847 0.0012199017
-13.5387 -25.937099 577.09497 0.34851849 0.91790366 -0.18970451 0.0098464135
-37.6777 -14.1366 576.849 -0.021004254 -0.84060073 -0.54124796 0.0018040081
-7.1863899 -29.0424 577.15997 0.54025006 0.84062278 0.03851277 0.00470105
-5.3917899 -30.654301 574.76398 0.65135407 0.75489867 -0.076588735 0.00039633064
-12.3998 -26.9179 572.76599 0.29863048 0.93004465 -0.21409529 0.005989443
-16.5404 -25.1572 574.35797 0.2780242 0.94335562 -0.1810599 0.0031450666
-43.894001 -12.4113 574.47601 0.013120645 -0.86356342 -0.50406951 0
-25.587799 -23.2386 575.85498 0.085987605 0.91158575 -0.40201685 0.0017078517
-47.670101 -12.1048 573.52899 0.01110774 -0.87679851 -0.48072967 6.2928839e-06
-21.124701 -24.3473 573.89203 0.13455528 0.94093406 -0.31070566 0.0028745392
-37.172501 -19.4674 580.5 -0.011874107 0.30566424 -0.95206535 0.1100063
-38.271599 -21.783199 577.27002 -0.0631935 0.75690663 -0.6504606 0.0078266971
-94.023102 5.4636998 545.38 -0.013614932 -0.82645226 -0.56284213 0.0028778075
-97.049103 3.8691101 546.98499 0.012485637 -0.87097168 -0.49117461 0.0044983826
-100.316 4.42102 546.46301 -0.087367132 -0.89888829 -0.42937958 0.0010033525
-93.346802 -2.0070701 558.29999 -0.11079078 -0.85637194 -0.50433367 0.0013716572
-107.08 -29.9177 605.59302 -0.18207727 -0.72305638 -0.66636127 0.00398571
-93.510597 -26.4515 598.85999 -0.0893737 -0.6280793 -0.77299982 0.0062757288
-97.674896 -25.3367 597.55798 -0.015119387 -0.66696322 -0.74493712 0.0064829802
-94.368202 -23.4226 596.60901 -0.045586161 -0.74978399 -0.66011053 0.013160055
-93.721001 -21.769199 593.11298 -0.11284424 -0.86532867 -0.48833627 0.0023663163
-94.052299 -18.140699 587.29498 -0.085331134 -0.89103848 -0.44583517 0.00073381886
-118.352 0.69795501 554.34198 0.015648467 -0.86503571 -0.50146616 0.0080706757
-115.478 0.168846 555.91101 0.059038453 -0.82437426 -0.56295794 0.0068613319
-114.995 2.70034 552.69299 0.060948759 -0.80812061 -0.58585531 0.0017860727
-30.7306 -35.752701 557.47198 -0.23304808 0.78376794 -0.57567048 0.0010085974
-108.219 -0.24470501 557.453 -0.037942592 -0.86887604 -0.49357346 0.0023571986
-111.043 3.4797001 549.85999 -0.16428879 -0.88559359 -0.43443429 0.00077658985
-107.37 2.69133 550.62 -0.067906968 -0.90340149 -0.42338443 0.0010475136
-108.069 4.6807199 547.367 -0.13432194 -0.84891737 -0.51117206 0.0026502749
-94.020103 -3.85725 561.35199 -0.068839647 -0.88519305 -0.4601025 0.0021360854
-0.486164 -6.0230198 560.54102 -0.10542874 -0.93030387 -0.35131121 0.0063790423
2.21891 -6.6998 560.54797 -0.018722216 -0.9083643 -0.41776052 0.0042774775
5.9008298 -5.4736199 558.74701 -0.028711889 -0.91906774 -0.39305246 0.00089301722
12.9141 -7.51758 564.17401 -0.032576177 -0.91790557 -0.39545932 0.0010567539
13.216 -6.9876699 559.97498 -0.15620776 -0.9612537 -0.22713515 0.007604145
16.4734 -8.2689104 565.04901 -0.19587673 -0.93445331 -0.29737052 0.0045579285
19.816 -9.4650803 565.85303 -0.18834023 -0.91029817 -0.36862594 0.0016955564
16.881599 -5.66155 557.40503 -0.073645368 -0.93634927 -0.3432585 0.0022612154
19.799601 -6.4496598 557.65802 -0.081822686 -0.91985172 -0.38363767 0.0011832651
6.1840701 5.47403 534.80902 -0.15787135 -0.9052211 -0.39452681 0.0098403459
20.116699 -5.0514398 554.99902 -0.048098952 -0.90998888 -0.41183326 0.0025801407
6.7808399 7.0158801 530.91199 -0.15147911 -0.8870073 -0.43620193 0.004787771
16.862 3.2200401 537.43597 -0.049290001 -0.84932435 -0.52556509 0.003306675
21.262199 2.5668499 537.75098 -0.19650996 -0.91320282 -0.35699368 0.0092090638
13.6809 10.894 522.60901 0.18934254 -0.70176423 -0.68678707 0.059560407
20.444 10.6003 524.55902 0.25453445 -0.0097049009 -0.96701497 0.033221673
19.6555 14.3028 524.65997 0.63441831 0.32645723 -0.70067054 0.015444749
47.4963 12.2089 542.284 0.50543469 0.33953658 -0.79325318 0.0064529278
39.581001 19.5371 540.48499 0.49090081 0.28884524 -0.82193959 0.0070485249
42.4585 17.455 541.19397 0.52975005 0.31981218 -0.78554761 0.0094086006
46.050098 14.7235 542.211 0.43134874 0.38090456 -0.81783247 0.0044607362
35.684101 22.4459 539.58301 0.39669999 0.41938359 -0.81654549 0.0051255156
37.6805 22.514999 540.09198 0.51363862 0.43509918 -0.73950255 0.006679656
45.5569 18.938 543.89899 0.5141229 0.46693575 -0.71947807 0.013856121
38.923302 23.4965 542.44897 0.51383948 0.62078327 -0.59211248 0.0067888661
41.106998 24.003901 545.59998 0.51536977 0.72109687 -0.46304768 0.0030378134
44.880199 21.8016 545.99799 0.53949219 0.65986097 -0.52300262 0.0068566916
-52.008598 83.209503 499.741 -0.52954799 -0.57356894 -0.62497813 0.0050674188
-48.536598 81.182602 499.49701 -0.33455637 -0.79147446 -0.51150787 0.023962693
-54.7076 86.289597 500.41199 -0.51797235 -0.46455932 -0.71825433 0.0063717016
-44.147301 80.5056 499.72699 -0.18729714 -0.89568597 -0.40331936 0.00338569
44.238602 25.467699 553.08301 0.61946863 0.71957636 -0.31379688 0.0061279661
15.2639 43.358799 534.323 0.66305417 0.29243138 -0.6890887 0.0042442903
14.2755 46.1581 533.89099 0.6703071 0.21481282 -0.71031249 0.0048592193
44.245602 25.803499 555.62701 0.65717107 0.64080709 -0.39685321 0.0064448821
-67.2509 96.150299 505.04199 -0.51620322 -0.35565069 -0.77913207 0.006081359
13.287 48.957401 533.45801 0.65926367 0.17183059 -0.73201483 0.010645357
14.0533 50.5602 535.14502 0.56665629 0.024678791 -0.82358462 0.011265093
10.3007 55.661201 530.18402 0.60804498 -0.0065951645 -0.79387516 0.0040272651
-60.6175 98.330101 499.36301 -0.50620294 -0.088954836 -0.85781443 0.005156124
-47.011501 95.448898 493.547 -0.18939887 0.29511151 -0.9365027 0.0086981691
12.7143 57.109299 532.73102 0.77113092 0.068668254 -0.6329627 0.0022049325
-48.009899 99.072403 495.005 -0.13255499 0.40798193 -0.90331608 0.0030928105
5.52075 65.124802 526.36603 0.65057039 -0.043340415 -0.75820822 0.013402632
7.8647299 63.508301 527.76001 0.59436893 0.011695734 -0.80410743 0.015910719
89.9375 110.1 579.07898 -0.91389573 0.24165212 -0.32618853 0.004869651
123.961 53.307999 694.875 0.37545449 -0.89833254 -0.22810631 0.0084966673
123.577 54.0602 691.37 0.29154557 -0.94530004 -0.14631821 0.0091860071
97.394203 70.8936 631.23401 -0.74070883 -0.66808891 0.070764996 0.0048853955
122.258 51.486 697.38098 0.70979476 -0.64812511 -0.27590811 0.018584192
111.041 56.1656 658.104 0.91402882 -0.27801171 -0.29539931 0.0051111393
115.017 51.9417 674.60797 0.84502017 -0.41263938 -0.34010237 0.0028487083
107.854 53.2976 652.987 0.96032923 0.19282334 -0.20146193 0.017337739
112.762 50.311798 671.77899 -0.95900595 0.24778844 0.13750786 0.030015491
112.027 51.1996 668.02802 0.92518818 -0.19876818 -0.32329255 0.025653826
111.164 52.0154 663.883 0.94391412 -0.19770539 -0.2644594 0.018202391
104.195 55.562302 605.85101 -0.89709651 -0.43927914 0.047452725 0.0031580387
109.49 50.598301 652.586 -0.82565939 -0.56081706 0.061406039 0.0048652194
107.802 51.576099 637.33197 -0.78444284 -0.61587447 0.07313063 0.0036881235
108.114 51.813 633.526 -0.8083083 -0.58777511 0.034030695 0.0045908554
106.39 53.038399 614.40802 -0.85838419 -0.51166022 0.037153605 0.0020273966
105.98 52.7784 606.104 -0.9143644 -0.37455243 0.1537798 0.0054127933
112.954 47.572201 669.60101 -0.90818268 -0.4140009 0.061705656 0.032919165
116.581 43.668098 686.33899 -0.90906984 -0.41069746 0.07014063 0.0042107203
114.673 45.051102 669.58502 -0.79785085 -0.6008454 0.049180433 0.0055066636
114.148 44.7141 666.28998 -0.84675294 -0.52047163 0.11008535 0.0035025114
114.167 44.769699 654.27002 -0.81684208 -0.57632333 -0.024910994 0.0071729459
115.503 43.076 647.96002 -0.83050293 -0.55549979 0.041047245 0.0024590604
115.749 42.601898 639.70099 -0.7394188 -0.65856659 0.1398212 0.0055972524
117.393 40.499298 647.771 -0.82881725 -0.55765933 0.045585569 0.0026246491
117.111 39.874599 645.52802 -0.80714566 -0.58936018 -0.034211736 0.0035846254
117.413 40.404499 641.32898 -0.85096276 -0.51632833 0.096267693 0.0040431428
116.621 40.3111 637.33099 -0.78973502 -0.59839118 0.13508049 0.0065649329
107.654 45.956299 610.24597 0.41185156 -0.63914275 -0.64951885 0.015043364
104.424 46.638199 608.45697 0.18557934 -0.80510044 -0.56335926 0.0041261408
121.036 34.1637 642.94598 -0.8775813 -0.47502801 0.064803779 0.00172167
104.722 44.409401 611.26898 0.073671706 -0.86611021 -0.49439415 0.021267243
39.119801 88.030701 519.79401 -0.12848754 -0.9016577 -0.41292158 0.0018225454
97.051697 46.400902 609.89697 0.05084515 -0.83329201 -0.55048996 0.0056975451
96.931198 48.0158 606.52002 -0.038387008 -0.91317868 -0.40574765 0.005196549
35.290798 88.8433 519.35303 -0.13865808 -0.88652557 -0.441414 0.0058231042
38.2934 84.956497 527.41498 -0.061142135 -0.92784876 -0.36791089 0.0048337099
35.533901 85.448601 525.72998 -0.068355098 -0.91083944 -0.40706158 0.0064104078
35.261299 84.167099 529.62201 -0.063767664 -0.88616449 -0.45896208 0.0059325635
32.132 82.833 531.31799 -0.0052587776 -0.81751215 -0.57588726 0
27.732599 83.152397 531.013 -0.025594993 -0.8920536 -0.45120436 0.0072720475
10.3504 94.058403 513.57397 -0.084333807 -0.9057703 -0.41529268 0.0038004792
6.9044499 94.620102 511.789 0.001892593 -0.90960401 -0.41547206 0.003756634
7.2603898 93.523399 515.27399 -0.052592177 -0.90544516 -0.42119253 0.0020671934
-0.40300399 96.18 511.996 -0.0099090934 -0.81905943 -0.57362306 0.015295599
10.4831 86.538002 525.95502 -0.15101622 -0.88099349 -0.44837981 0.0020882376
7.2589998 86.908897 525.42999 0.09821666 -0.77444935 -0.62496525 0.0056210505
6.6905198 84.544502 527.86902 0.37453964 -0.58001333 -0.72339791 0.0052727107
-7.3078299 92.734398 514.495 0.24590856 -0.66784132 -0.70250756 0.0094405524
-3.0489199 87.4189 520.302 0.54851657 -0.35437971 -0.75732726 0.018660754
-6.3598299 85.732498 518.10901 0.60746104 -0.030141436 -0.79377741 0.0042462912
11.7117 69.894699 533.84399 0.67138332 0.18931353 -0.71652269 0.0098010739
8.6300297 72.739899 532.48102 0.7049557 0.13376413 -0.69652319 0.008338606
9.4228897 70.025002 532.98102 0.65407681 0.25750011 -0.71125048 0.0059196278
-46.711399 105.278 497.90601 -0.14650753 0.41747391 -0.8968004 0.0039596455
8.3606596 69.4142 530.68402 0.76265532 0.27756 -0.58422387 0.0040809447
-49.971298 106.683 499.04001 -0.13036007 0.34853852 -0.92818487 0.002297489
6.4059901 67.984001 527.505 0.73471802 0.16305919 -0.65848392 0.0027172463
-49.351101 102.807 496.80899 -0.21818006 0.45947343 -0.86097711 0.011224925
-6.5553598 -6.77282 564.01099 0.032748487 -0.91078651 -0.41157681 0.00075625238
-10.0441 -6.20855 562.68799 -0.041967895 -0.91127545 -0.40965328 0.002584029
-9.6664495 -7.61871 566.10999 -0.044148702 -0.92526406 -0.37674558 0.00082826463
-10.8293 -9.2699499 570.10498 -0.0093881702 -0.88302088 -0.46923992 0.0030233089
-13.7031 -8.74084 568.53601 0.033283547 -0.89972669 -0.43518263 0.0031757925
-7.2727499 -16.599899 583.90503 0.045033868 -0.78588295 -0.61673331 0.0024055287
-17.593399 -8.3973103 567.70398 0.030739194 -0.92313266 -0.3832511 0.00055961858
-10.1481 -16.1924 583.09399 0.038389996 -0.79088926 -0.61075389 0.0049802558
-10.0383 -18.3312 585.57098 0.26034504 -0.50786066 -0.82115644 0.041721571
-25.2066 -10.4607 572.13599 0.083837874 -0.92731595 -0.3647688 0.0010180459
-21.6712 -15.1399 580.01703 0.0044043274 -0.77986163 -0.62593639 0.0074847708
-25.3062 -13.7443 578.85999 0.073172256 -0.71770108 -0.69249624 0.0044722832
-24.583 -16.7715 581.50702 0.15095291 -0.55026805 -0.82122976 0.027642109
-39.5849 -8.5445099 568.84302 0.0067083822 -0.86392879 -0.50356925 0.0020166943
-35.313599 -13.3576 575.33099 0.055962503 -0.82944906 -0.55577189 0.0032695271
-39.101799 -12.5933 574.36902 -0.035527945 -0.82958114 -0.55725467 0.0011773602
-8.7126303 -27.919901 574.81 0.5241335 0.85162812 -0.0036897983 0.0056023812
-11.4318 -26.5154 574.31598 0.31965441 0.94180119 -0.10407482 0.0068623656
-14.4565 -26.2512 574.84601 0.34788617 0.92970228 -0.12094971 0.0072263437
-6.8608799 -29.5504 572.35602 0.58873218 0.7903527 -0.1695196 0.0029434813
-22.789801 -23.123501 577.14203 0.19178836 0.92437011 -0.32978338 0.0030267155
-45.6488 -11.2148 572.35699 0.025269588 -0.86359382 -0.50355452 0.0014622458
-14.1291 -26.453899 571.62903 0.28739598 0.92769301 -0.23830494 0.0061107115
-45.915298 -13.3014 575.64697 -0.012834627 -0.86338192 -0.50438768 0.00054376357
-35.0401 -20.778299 578.70099 -0.01845073 0.78092909 -0.62434709 0.0074878051
-37.722 -20.625299 578.88501 -0.015265455 0.60633039 -0.7950663 0.04110118
-37.550701 -23.562099 575.66803 -0.094069108 0.78347462 -0.6142627 0.0036965113
-92.039803 4.1930399 547.26703 0.042164754 -0.86102849 -0.50680578 0.0016057605
-95.294403 2.67255 549.104 0.0075880028 -0.8940528 -0.44789732 0.002864633
-102.948 6.2158699 543.28497 -0.092353076 -0.88201982 -0.46207356 0.00023213544
-91.655998 -3.07828 559.83398 -0.10033312 -0.8651607 -0.49135539 0.0017294131
-109.325 -29.667601 606.177 -0.20289125 -0.70307374 -0.68155879 0.0045107324
-95.598 -24.8456 597.53198 -0.027972886 -0.70251894 -0.71111506 0.0020701361
-95.060898 -20.440701 591.362 -0.14765754 -0.84732366 -0.51013714 0.0025226302
-91.586098 -21.845501 592.36298 -0.091611423 -0.85639977 -0.50812083 0.00085013866
-31.5776 -39.180401 553.40503 -0.28912628 0.66239178 -0.69111723 0.0074536717
-95.733398 -17.112801 585.30298 -0.05305114 -0.89800453 -0.43677616 0.00039965927
-117.233 1.36541 553.79199 0.10556094 -0.82704097 -0.55214137 0.0055709495
-113.24 1.50377 554.81097 0.04829143 -0.82272959 -0.56637788 0.0053716963
-109.681 0.75243598 555.68701 -0.06557294 -0.86435717 -0.49858496 0.001108132
-109.606 2.4384 551.97498 -0.11789307 -0.91794688 -0.37878069 0.0011604537
-29.9643 -34.150002 559.15802 -0.13499025 0.79822689 -0.58703619 0.003864693
-109.124 3.8879001 548.50098 -0.15216017 -0.85713184 -0.49211007 0.0026701463
-95.748802 -2.4639101 559.677 -0.089988165 -0.83800685 -0.53818834 0.0007619611
4.8024902 -7.2383299 562.55402 0.060168952 -0.92900258 -0.36514914 0.0019822132
4.4390402 -6.0299702 559.64301 0.028115533 -0.89986181 -0.43526807 0.0025864972
7.1665702 -6.4593601 561.03601 0.02833163 -0.93469065 -0.35433137 0.00034741277
11.8449 -6.5432301 561.362 -0.085271567 -0.96811014 -0.23556645 0.006736245
18.228201 -9.4654799 567.16803 -0.20104064 -0.90760535 -0.36855823 0.0024591717
18.134899 -8.4372501 563.86102 -0.18637215 -0.92731565 -0.3245782 0.0039147194
18.9184 -7.0516601 560.07098 -0.092598066 -0.92666185 -0.36431208 0.0016982954
19.2146 -6.0508099 556.95203 -0.049572777 -0.92088389 -0.38667226 0.0032032563
4.4675999 7.0707302 532.68201 -0.17488778 -0.89790064 -0.40396625 0.0045572435
21.732 -6.2551298 557.58398 -0.092137218 -0.92431182 -0.37034887 0.0024685918
9.0623302 5.6747198 532.336 -0.14294995 -0.88892883 -0.43516764 0.004758623
18.5814 2.2081599 539.01398 -0.030957142 -0.85953075 -0.51014566 0.0038733736
19.7715 3.9675601 534.96301 -0.17857365 -0.89550173 -0.40766162 0.017112391
12.0245 12.1399 520.93201 0.082201995 -0.51405174 -0.85381126 0.038638256
15.5687 11.5175 521.75201 0.31203967 -0.42227143 -0.85106879 0.042615734
18.7675 11.6556 523.42798 0.56668615 -0.12416694 -0.81452399 0.022787206
21.948799 13.6308 525.83002 0.51848537 0.3875322 -0.76222807 0.020346124
19.2603 15.6971 525.505 0.6069681 0.51356936 -0.60649502 0.0027077985
49.377899 11.3645 543.69397 0.49183124 0.36060375 -0.79250669 0.012809503
37.0242 20.8332 539.26099 0.49470228 0.28831711 -0.81984317 0.010846471
44.9762 16.2936 542.69 0.5377413 0.3138617 -0.78251213 0.0082074199
36.529701 24.203899 540.93701 0.48436549 0.58542025 -0.65013331 0.0065451516
40.220299 21.7078 541.78101 0.57323921 0.46727735 -0.67308903 0.0079264911
43.539101 19.2558 542.60303 0.54116505 0.42533067 -0.72542 0.011897526
42.782799 22.591499 545.11298 0.53807366 0.64014161 -0.54835707 0.0032784534
43.125801 23.8834 547.68298 0.54239464 0.75781912 -0.36265442 0.00103602
-55.458401 84.778503 501.59698 -0.51810622 -0.47250426 -0.71295559 0.007371515
-46.748299 80.044899 501.14899 -0.18876684 -0.89338714 -0.40770879 0.024846997
-45.395199 81.770798 497.51001 -0.24444515 -0.85203439 -0.46290821 0.0056411633
-55.277599 88.333504 499.91501 -0.52848953 -0.42238545 -0.73640299 0.0050078323
12.0276 47.428699 532.22198 0.69623393 0.26769042 -0.66603309 0.0064904811
42.490898 27 553.508 0.65563756 0.66152179 -0.3640444 0.0074261902
45.984901 24.515301 554.875 0.58441859 0.73962355 -0.3337844 0.0050485539
-62.401199 93.129501 502.151 -0.56899828 -0.28476226 -0.77146053 0.0024242792
-63.9995 95.506798 502.694 -0.55165696 -0.26450017 -0.79102099 0.0033609446
12.4311 50.629299 533.51801 0.64667583 0.050478071 -0.76109284 0.012218498
14.7445 49.041 534.87299 0.56300449 0.10937725 -0.81918406 0.0071062581
-47.388699 88.2472 494.04001 -0.48072496 -0.33268806 -0.81130898 0.0053187325
12.104 54.556198 531.93597 0.71168321 -0.094993159 -0.69604832 0.0037973681
10.9532 58.355202 531.02301 0.6513828 0.11041181 -0.75067276 0.0052019339
-47.631802 97.404503 493.75 -0.21689782 0.44096702 -0.87092102 0.0078095077
3.4612601 66.420197 524.55499 0.66162694 0.0083704414 -0.7497865 0.0039261817
9.7158003 62.509499 529.90997 0.69240528 0.034295928 -0.72069323 0.0089749284
-44.007198 98.386597 494.134 -0.12765107 0.47337678 -0.87156159 0.0066382769
91.248596 112.713 537.22699 0.27267492 -0.44073525 -0.85521978 0.011814279
92.006897 109.645 539.633 -0.0079078125 -0.79344064 -0.60859627 0.0081540775
88.305603 111.154 538.84302 -0.12252595 -0.75709993 -0.64170629 0.021322642
54.876301 133.811 522.86401 0.57928741 0.41588712 -0.70104492 0.0095865326
61.708401 129.216 524.52197 0.50785416 0.27149266 -0.81754261 0.0039636232
54.250999 133.297 520.96802 0.66585577 0.37966263 -0.6422556 0.0046839137
83.898201 111.716 538.73999 0.04751125 -0.85593939 -0.51488882 0.013900843
84.730598 109.53 541.41803 0.087412603 -0.81756133 -0.56916833 0.0030426802
55.886799 129.73 521.422 0.64582032 0.35271782 -0.67713094 0.015148332
58.6054 127.582 522.34601 0.60570002 0.32364723 -0.72689748 0.018172681
84.633202 107.657 544.80603 -0.104492 -0.89599812 -0.43158862 0.0034666047
56.729801 126.572 518.94 0.86385822 0.40593499 -0.29827127 0.013525587
56.421799 126.457 515.00403 -0.88705289 -0.44795442 0.11168749 0.0035392304
57.73 123.405 516.03998 -0.91826898 -0.36129576 0.16201082 0.0013394711
64.132202 113.522 530.64301 0.91595244 -0.024365349 -0.40054634 0.020194761
62.935101 113.676 527.19 0.94382542 0.14363177 -0.29759607 0.01244993
64.3825 110.442 528.69702 -0.90663624 -0.39282095 0.15395589 0.0065375189
69.662102 101.182 531.83698 -0.88801241 -0.45826077 0.037829567 0.0017821124
68.866302 101.254 523.33398 0.95688856 0.21350625 -0.1969249 0.0056988201
71.366402 98.493599 531.73999 -0.89223444 -0.43093392 0.13495772 0.0046782326
75.300903 79.591202 540.02502 0.73746663 -0.42019904 -0.52874923 0
75.035202 76.435097 542.43799 0.54689991 -0.67338479 -0.49744681 0.010755799
