ply
format ascii 1.0
comment PCL generated
element vertex 623
property float x
property float y
property float z
property float nx
property float ny
property float nz
property float curvature
element camera 0
property float view_px
property float view_py
property float view_pz
property float x_axisx
property float x_axisy
property float x_axisz
property float y_axisx
property float y_axisy
property float y_axisz
property float z_axisx
property float z_axisy
property float z_axisz
property float focal
property float scalex
property float scaley
property float centerx
property float centery
property int viewportx
property int viewporty
property float k1
property float k2
end_header
5.9261198 -38.035599 579.68903 0.63584369 0.76445282 -0.10637064 0.0015061012
4.7948198 -37.375401 576.29303 0.70058841 0.70895511 -0.080985188 0.0033564644
12.2719 -42.044102 612.841 0.48239532 -0.77183378 -0.41420701 0.017757911
46.0882 -49.411701 624.534 -0.13817465 -0.87224376 -0.4691467 0
9.0578403 -42.7411 574.12402 0.84936094 0.48453712 -0.20930798 0.0058900774
47.847099 -51.281101 627.20697 -0.14728734 -0.8490591 -0.50735098 0.0011424862
14.6683 -61.059101 585.18298 -0.99270052 -0.11809899 -0.024461117 0.00016442168
14.2388 -57.946201 588.729 -0.99117863 -0.13021089 -0.024699332 0.000210909
14.2171 -58.9384 592.37097 -0.99040633 -0.13099307 -0.044002827 0.00025348886
48.9091 -66.563904 652.89502 -0.058892939 -0.78064668 -0.62219161 0.0072109485
52.5965 -65.943901 651.026 -0.061911713 -0.88087356 -0.46928528 0.00068702636
48.1245 -63.018398 646.71698 -0.12035352 -0.87726456 -0.46467406 0.0011821898
13.6181 -53.841202 581.19501 0.98497492 0.16680217 -0.044737272 0.0010295747
12.9036 -54.664001 600.117 -0.98096269 -0.16443646 -0.10330977 4.1492633e-05
13.1104 -51.7528 578.92297 0.97177571 0.21578228 -0.09534172 0.0023335854
45.666199 -61.398499 643.98602 -0.063091047 -0.89201742 -0.44757625 0
43.331402 -60.048199 641.64001 -0.06666486 -0.86473703 -0.49778083 0.00041709977
46.806999 -59.129799 640.19897 -0.040763859 -0.81932002 -0.57188553 0.004458983
10.8574 -48.427399 568.44397 0.9050048 0.33388552 -0.26360354 0.0027272629
48.073002 -56.732101 637.172 -0.023241485 -0.84677529 -0.53144276 0.0019438219
49.242199 -54.900101 633.60602 -0.063987434 -0.85331047 -0.51746184 0.0026024925
52.777901 -54.423698 632.255 -0.14887467 -0.87363446 -0.46324852 0.0016934368
44.534302 -15.0654 562.97498 -0.21065457 -0.88402557 -0.41728112 0.0057549733
42.247002 -13.3896 559.59698 -0.25251237 -0.82846534 -0.4998827 0.0037415558
32.187401 -8.1969995 555.026 -0.15301982 -0.81644034 -0.5567854 0
35.211399 -7.64399 553.685 -0.19769025 -0.90053672 -0.38723665 0.006546156
42.7729 -8.3842602 550.521 -0.15979663 -0.90119171 -0.4028877 0.0018758529
33.362 -6.8727298 551.138 -0.15069619 -0.9172737 -0.36864573 0.0036553263
40.6134 -6.45682 547.40503 -0.15599717 -0.82495743 -0.54324043 0.00010008793
22.5987 1.83406 538.71802 -0.22157079 -0.84464943 -0.48731273 0.0048422106
13.7094 5.10396 536.41998 -0.13619083 -0.87732506 -0.46016604 0.011701785
17.3937 4.5440602 534.38501 -0.1872624 -0.93087637 -0.31369078 0.0050963052
21.3246 5.2621498 532.435 -0.062833034 -0.84774858 -0.52666348 0.0066247755
23.995701 6.0732999 531.82001 -0.087225102 -0.83237642 -0.5473035 0.0075482931
22.3223 7.322 528.85602 -0.041319802 -0.92579722 -0.37575543 0.0022022394
31.7388 6.4204402 529.198 0.33337817 -0.23534934 -0.91294563 0.068983778
58.284599 4.0362301 545.47198 0.39127085 0.50513053 -0.76925313 0.011974403
55.708698 5.93964 545.79199 0.43305013 0.44677076 -0.78285605 0.0067484411
58.267799 8.0938902 547.935 0.43298763 0.35686716 -0.82774848 0.0019833182
130.314 4.35783 656.91199 0.63250715 0.7059285 -0.31874686 0.0020284262
50.452499 12.1914 544.90198 0.53205252 0.3183645 -0.78457904 0.0086742518
128.22301 5.1605701 653.27399 0.66655868 0.70723289 -0.23562944 0.0026391663
123.319 6.8687801 644.78699 0.64184791 0.72306794 -0.25535086 0.00058561453
52.231701 14.384 546.65399 0.68927264 0.23665673 -0.68476039 0.0055345683
44.9837 18.8771 544.396 0.51172596 0.54484296 -0.66429108 0.0047528101
119.755 14.6816 652.52301 0.88115942 0.13613024 -0.45279872 0.054697461
118.241 18.778799 651.297 0.42626217 -0.47574726 -0.76939261 0.028390462
36.7687 25.7878 544.45203 0.45011589 0.79446715 -0.40769792 0.0016410658
33.831501 28.679399 546.44598 0.64397341 0.65638649 -0.39300758 0.0018697749
110.484 46.625801 626.09497 -0.93630195 -0.3439588 0.070929654 0.0063851485
108.07 46.948898 617.245 0.92092347 0.054198105 -0.38595659 0.023833677
104.271 48.2458 610.33398 0.72243536 -0.34027457 -0.60191393 0.018780822
40.8279 157.201 520.99402 0.50193244 0.74789608 -0.43441376 0.01590227
43.592098 156.802 524.26501 0.64724964 0.62152851 -0.44132781 0.0032170445
50.4151 158.09 532.07001 0.51559848 0.42626324 -0.74327505 0.0014794718
44.0107 154.705 521.362 0.6372754 0.69524878 -0.33242935 0.005862412
45.585899 152.948 520.27502 0.7284593 0.58803421 -0.35151488 0.0051265508
58.2341 154.75999 535.25897 0.35422707 0.38018158 -0.85439169 0.002594664
55.785599 152.996 533.59698 0.50266689 0.35842294 -0.78667599 0.0051852078
58.187 150.83701 533.12903 0.4212296 0.46634674 -0.77787292 0.0039521824
63.260899 148.853 535.60101 0.42474997 0.48153609 -0.76662272 0.0012507592
60.9594 148.075 533.31598 0.50524211 0.43891591 -0.74302304 0
63.491299 144.76401 533.30603 0.45750725 0.41589403 -0.78595126 0.0016299502
66.5914 142.27901 533.59698 0.43811458 0.44117364 -0.7832123 0
71.380096 136.912 533.755 0.32684079 0.5277431 -0.78400409 0.0090398826
68.990601 135.34 531.76501 0.36665007 0.46571571 -0.8054046 0.0069228262
65.834602 134.959 529.24597 0.51769906 0.34682778 -0.78211135 0.0042883065
61.1297 133.179 524.38599 0.61585885 0.40156403 -0.67783791 0.0040863208
68.959099 131.797 529.79901 0.31958079 0.40390494 -0.85716325 0.0025060906
48.262501 122.45 481.272 0.57325923 -0.46675295 -0.67343557 0.015925778
68.240097 128.103 527.36902 0.46786082 0.40849045 -0.78373587 0.0049728537
52.449001 119.167 486.505 0.39120266 0.13269578 -0.9106878 0.03576389
65.957703 125.976 525.21002 0.60641164 -0.002778667 -0.79514605 0.035584949
53.483799 115.04 483.75101 0.080153249 0.6478076 -0.75757557 0.0052302419
49.445801 116.32 484.33899 0.32731551 0.31910798 -0.88940126 0.03159488
55.283298 113.417 482.54099 0.064917587 0.58433294 -0.80891329 0.010859255
61.986801 120.295 512.41498 -0.96389228 -0.26585886 0.015193828 0.0035782198
99.169899 118.21 537.31299 0.39579466 0.095467009 -0.91336334 0.019564787
53.945801 111.589 481.258 -0.16745706 -0.040864505 -0.98503208 0.08263243
101.525 118.126 540.84302 0.76827508 0.23231737 -0.59647465 0.035405494
63.1856 111.78 494.33801 -0.96699226 -0.22348216 0.1224 0.0046453178
100.381 115.002 538.88702 0.56086314 -0.21999568 -0.79814434 0.043747928
64.002899 117.326 519.21399 -0.96973598 -0.19345 0.14896047 0.0052407109
57.743301 107.997 483.367 0.11642694 -0.78875941 -0.60357553 0.053070877
64.005798 111.168 498.17099 -0.98828596 -0.14538519 0.046411321 0.0028275331
63.422001 108.193 491.28 0.96967977 -0.048762385 -0.23946489 0.0098908124
92.353401 113.231 536.32599 0.25250056 -0.32429436 -0.91163403 0.015456547
64.075104 114.273 517.125 -0.98526394 -0.13178022 0.10903682 0.0028870718
64.237503 108.11 500.414 -0.97772533 -0.19169243 0.085482314 0.0055627353
59.805401 106.463 485.76901 0.38735199 -0.76391202 -0.51613641 0.02849541
95.273697 110.705 537.60303 0.16358115 -0.4293569 -0.888197 0.034738753
62.043301 105.51 488.80499 0.74635559 -0.44627434 -0.49375343 0.029204445
91.675102 109.983 538.43701 0.0015816246 -0.65736639 -0.75356942 0.0048028538
88.2444 108.731 539.25702 -0.047079414 -0.80380142 -0.59303188 0.0041022915
65.199303 105.469 507.457 -0.96509004 -0.22112949 0.14036742 0.0037950668
58.822899 103.561 488.70901 0.2725673 -0.63532603 -0.7225427 0.05211255
55.746601 102.254 489.29599 0.11259739 -0.49393287 -0.86217874 0.028536363
65.588997 102.362 504.073 0.97640979 0.045379162 -0.21110335 0.007430939
92.435204 106.104 544.51501 0.029732443 -0.85320455 -0.52072835 0.007956977
89.9431 107.224 541.96802 -0.040883426 -0.90213776 -0.42950687 0.0014894702
89.153801 105.474 545.224 -0.03672114 -0.84921753 -0.52676469 0.0043553188
96.114799 103.889 549.28699 -0.57817322 -0.35946071 -0.73246413 0.077860504
96.092598 101.02 547.68201 -0.50105327 -0.24523216 -0.8299439 0.050703969
87.772903 102.775 548.65997 -0.12406276 -0.80664665 -0.57786644 0.0065828892
68.724297 100.787 521.052 -0.95901108 -0.2389864 0.15226084 0.0052653803
52.9067 97.149101 496.53699 0.014449196 -0.93653429 -0.35027811 0.023999212
49.355801 97.177597 497.20999 -0.1231318 -0.91057092 -0.39458725 0.027310178
89.948303 101.45 551.30902 -0.072564334 -0.94431335 -0.3209464 0.0094944835
57.811699 94.662598 500.41901 -0.2079744 -0.87525737 -0.43665916 0.014062827
48.827202 95.2519 501.28101 -0.09803991 -0.92084116 -0.3774119 0.00033463957
50.842602 93.9505 503.89001 -0.062426846 -0.84728473 -0.52745748 0.0080485875
47.808998 93.061203 505.07199 -0.17301357 -0.85480028 -0.48926756 0.0054134321
89.229103 96.031502 559.59802 -0.63744104 0.20893992 -0.74162859 0.098477885
43.9333 93.6464 506.32901 -0.12984802 -0.88538527 -0.44635454 0.0048414199
40.1549 92.966599 507.93201 0.033219188 -0.81570053 -0.57751983 0.0082297726
48.702702 90.253304 510.215 -0.021853743 -0.91288471 -0.40763217 0.0090075815
50.48 88.991699 513.79401 -0.064824902 -0.92814279 -0.36653602 0.0048439475
84.821198 91.139198 561.80902 0.040445779 0.18196365 -0.98247308 0.12079455
52.737202 87.658798 517.495 -0.10622376 -0.88560736 -0.45212412 0.0087210163
83.036797 89.881104 559.87701 0.28597936 0.73346883 -0.61663556 0.10867839
49.112301 87.192802 518.16998 -0.050346226 -0.87951857 -0.47319373 0.0052652471
80.3395 77.624702 555.08002 0.50665218 -0.63910198 -0.5786643 0.0034123051
78.144302 78.275902 551.76703 0.65302092 -0.6194855 -0.43566191 0.0064445059
78.510002 76.880997 553.63098 0.65598983 -0.62416768 -0.42437246 0.0066175107
-48.301998 91.064301 498.73999 -0.68001992 0.44094336 -0.58578324 0.0022689733
-60.6488 94.487503 512.57202 -0.51896203 -0.0061334688 -0.85477531 0.029863691
77.0653 75.4151 554.367 0.68760186 -0.6149075 -0.38612476 0.0065853805
-48.367802 87.776299 496.02499 -0.66639292 0.17694643 -0.72430003 0.028784234
88.760002 74.104599 566.85999 0.45299086 -0.70601469 -0.54437345 0.012436613
-59.849499 90.8237 511.37299 -0.65277523 0.37708995 -0.65702951 0.01279195
-46.510201 84.211502 495.854 -0.32548514 -0.72215801 -0.6103664 0.0122983
-63.316799 90.848701 514.12799 -0.62586689 0.13797559 -0.76762849 0.018995043
-53.1488 86.239304 501.35501 -0.69616818 0.25330672 -0.67170352 0.0087287137
-44.090599 82.340103 497.55499 -0.21740739 -0.89166027 -0.39708441 0.0089822486
-59.533699 87.223 507.991 -0.66535407 0.31976166 -0.67457879 0.0056073712
-64.966499 88.566299 513.81598 -0.61969048 0.34260273 -0.70612109 0.009129161
-47.903702 82.245003 499.543 -0.18595962 -0.92102015 -0.34225857 0.003440772
-51.4762 82.115601 501.93399 -0.28601897 -0.78464705 -0.5500201 0.010772111
-55.409 82.977097 503.87799 -0.54572546 -0.59871352 -0.58628142 0.056593351
-58.788502 83.817299 506.12399 -0.78565109 -0.1871307 -0.58969015 0.055943608
-61.9743 84.559998 509.21899 -0.59313792 0.081211433 -0.8009944 0.028923929
-65.155899 84.036201 511.89499 -0.6563887 0.30018795 -0.69212794 0.011521849
-56.031502 81.133797 507.04001 -0.27956685 -0.85720986 -0.43247402 0.0076339003
-54.330002 79.373497 509.59 -0.25015706 -0.80009246 -0.54522789 0.0050565754
-57.354 78.820503 510.93201 -0.21914844 -0.76228869 -0.6090073 0.0023910664
-121.988 91.593697 527.521 -0.052182011 -0.82504135 -0.56265777 0.0065799276
-120.176 89.314598 530.80701 -0.030326355 -0.79665464 -0.60367358 0.0042281207
-56.071499 75.216698 516.95898 -0.2076294 -0.8350057 -0.5095641 0.00078007713
-123.363 88.7798 530.73401 -0.074303269 -0.82722151 -0.55694121 0.011851424
-115.314 86.809097 535.30902 -0.050902802 -0.91995585 -0.38870299 0.00060122518
-118.77 86.099098 537.39801 -0.091127068 -0.8435244 -0.52930379 0.0070435237
-122.515 85.650497 537.94 0.029902728 -0.75515038 -0.65486938 0.0004979106
-45.066502 65.866302 512.41803 -0.65761477 0.25272372 -0.70969963 0.014119592
-44.787399 64.468102 510.483 -0.70567518 0.45473245 -0.54336071 0.0013914605
-46.4865 64.565201 513.15302 -0.68135238 0.35108507 -0.64226025 0.0083837779
-57.851898 68.838097 523.58502 -0.43323576 0.086493343 -0.89712077 0.0093190521
-45.561798 -6.1381698 562.99597 0.041724768 -0.86968267 -0.49184468 0.0011614574
-43.287998 -7.5760698 566.36102 0.10921502 -0.87262243 -0.47602743 0.0012673631
-47.044899 -8.42906 566.50403 0.078510836 -0.85126233 -0.51883382 0.0017617957
-38.795601 -10.1493 571.00403 0.047656052 -0.86212909 -0.50444257 0.0044750064
-10.3724 -15.866 583.02301 -0.015856853 -0.83088857 -0.5562129 0.0034354615
-42.651402 -11.0791 573.35901 0.0084187454 -0.88348019 -0.46839285 0.0016765576
-8.0719004 -17.717501 585.21002 0.037050586 -0.78692466 -0.61593568 0.001091225
-5.77139 -19.568899 587.396 0.071276799 -0.4837608 -0.87229306 0.022919446
-8.94695 -21.1192 586.67999 0.24075681 -0.010282086 -0.97053093 0
-23.2731 -21.8064 586.90198 -0.49890622 0.088128768 -0.86216348 0.040533751
-29.395 -26.6579 586.01099 -0.29539552 0.88924348 -0.34926704 0.0091809789
-97.0979 -18.043301 586.90302 -0.0956579 -0.82210565 -0.56124133 0.0048745465
-94.392197 -19.8575 588.328 -0.13400207 -0.84517443 -0.51742017 0.0010932139
-98.380798 -20.363199 590.63397 -0.076654121 -0.86188984 -0.50126845 0.0050992081
-101.771 -20.357 591.69 -0.013459721 -0.8945232 -0.4468188 0.0038877961
-66.960602 -27.051901 598.448 -0.060878657 -0.87098122 -0.48753008 0.0031565074
-65.017303 -28.843599 602.09003 0.011582036 -0.86690027 -0.49834707 0.0031502068
-11.2873 -35.244301 559.47998 0.20432685 0.8127287 -0.54563969 0.0035203926
-66.027702 -30.7022 605.00897 0.005193904 -0.88426161 -0.46696305 0.0025116564
-80.662399 -28.52 603.38898 -0.0058324323 -0.81095225 -0.58508319 0.0060848226
-37.5756 -34.566101 578.65997 -0.59511507 0.75173002 -0.2841478 0.0010154772
-78.794998 -30.8104 606.00201 0.0075335023 -0.7869336 -0.61699164 0.0053462284
-76.406799 -32.571499 608.72198 -0.10733327 -0.86097246 -0.4971981 0.0057743047
-47.0644 -36.626598 592.388 -0.67965484 0.65466428 -0.33088368 0.0061374097
-83.577904 -33.542801 610.38702 0.040984739 -0.84295636 -0.53641856 0.0028488515
-101.417 -44.513 629.86603 0.26318946 -0.77114129 -0.57971752 0.01659178
-98.910599 -43.480499 627.966 0.054022249 -0.87677747 -0.47785223 0.0022444408
-97.862701 -42.030201 625.48401 0.0095802164 -0.89145833 -0.45300129 0.0010473656
-111.107 -38.306301 619.24701 -0.068313725 -0.83806956 -0.54126942 0.0026271506
-104.233 -36.779301 617.22803 -0.0060930392 -0.80437207 -0.59409469 0
-109.275 -33.8018 613.586 -0.076215953 -0.80024755 -0.59480661 0.001080603
-67.144501 -39.078499 616.92902 -0.15573001 -0.84926766 -0.50447255 0.0029232441
-111.179 -32.016701 609.78302 -0.035550732 -0.88961923 -0.45531729 0.001303261
-87.199303 -34.5816 612.33801 -0.03614486 -0.87015378 -0.49145278 0
-23.704599 0.156468 553.33197 0.082560942 -0.86814243 -0.48940003 0.0029879455
-20.198799 0.64236802 553.14203 -0.047244746 -0.87377661 -0.48402721 0.0035095145
-22.142099 2.4340899 549.5 0.015971951 -0.94143498 -0.33681607 0.0059749749
-23.993299 3.20119 545.92297 -0.0052086632 -0.90241653 -0.43083334 0.014389125
-29.0562 5.4562001 541.49597 0.065115012 -0.88267028 -0.46546021 0.0011136564
-25.2383 6.39679 540.33301 0.024631852 -0.8869735 -0.46116298 0.0012027426
-22.2143 6.9498 538.992 -0.057936743 -0.93763447 -0.34276077 0.0018824945
-24.3962 7.84202 536.21198 -0.030689644 -0.92967743 -0.36709401 0.0040938286
-14.7283 7.8378301 535.64001 -0.032704521 -0.88817292 -0.45834407 0.0037714171
-22.021299 9.9274101 532.73401 0.032031842 -0.90586764 -0.42234808 0.0025148971
-19.5079 10.5546 530.87799 -0.025458502 -0.94169694 -0.33549765 0.0023471378
-4.29041 8.7885399 531.97998 -0.052480385 -0.90720743 -0.41739714 0.0012843441
-3.2704899 10.7154 528.47101 -0.035572547 -0.86674935 -0.49747375 0.00060536602
-5.30266 12.4521 525.742 -0.016843967 -0.86224246 -0.50621569 0.00043114377
-12.5163 14.5284 522.51202 -0.0013880014 -0.89598787 -0.44407639 0.0019964853
-9.8922501 15.1408 521.07001 -0.050033223 -0.91973048 -0.38934895 0.0025426357
-29.5805 18.559 513.52197 0.067497075 -0.92552358 -0.37262607 0.0043666009
-24.951599 18.365999 512.09003 0.01153626 -0.92787689 -0.3727082 0.0089397067
-28.2325 20.059299 509.56601 0.072798379 -0.90387553 -0.42155612 0.0017574852
-18.733101 20.2038 509.16101 0.023185642 -0.91671556 -0.39886725 0.0047904118
-22.1189 20.951599 506.496 0.0066581708 -0.90769839 -0.41957051 0.0058933976
-144.41499 45.5779 568.21503 -0.41523004 -0.44758105 -0.79199451 0.016259937
-23.5497 22.6733 504.39899 0.013650919 -0.89780873 -0.44017395 0.0055387905
-31.497101 24.3498 500.22699 -0.02367406 -0.90574074 -0.42317048 0.0033248819
-27.6852 24.7845 498.789 0.084200665 -0.84494179 -0.52818894 0.0069962242
-30.1791 26.1605 496.884 0.03792261 -0.82506084 -0.56377 0.0011099323
-32.5009 27.5051 493.655 0.27240536 -0.63596767 -0.7220391 0.044333383
-35.331299 28.9263 490.56 0.40466109 -0.45153135 -0.79521632 0.047705691
-8.9786596 27.0954 511.20801 0.53560281 0.36215889 -0.76287001 0.0096863508
-37.314301 31.0961 489.46899 0.38983995 -0.076065034 -0.9177357 0.0047019147
-6.88164 29.317101 512.98401 0.59986031 0.23734453 -0.76409113 0.008687296
-39.616501 34.446701 488.767 0.52278596 0.18233763 -0.83273512 0
-36.294102 34.507599 491.125 0.56343526 0.33833921 -0.7537024 0.011666331
-6.0443101 33.094299 515.198 0.58076406 0.11209819 -0.80631697 0.0073459288
-13.5211 34.341999 509.98901 0.55948812 0.11059894 -0.82142615 0.010020909
-42.263401 37.7397 488.39401 0.52132577 0.45614505 -0.72121501 0.0039461651
-153.028 64.683601 573.14899 -0.21360627 -0.86505115 -0.45393714 0.010891928
-11.1994 36.529598 511.62799 0.54032248 0.29338053 -0.78865683 0.014542356
-8.2154198 37.191601 514.65198 0.46721035 0.12578312 -0.87515312 0.0017358115
-154.075 66.238503 569.11902 -0.21291067 -0.88332582 -0.41761777 0.012536824
-44.0089 40.328999 488.99301 0.5878638 0.34907809 -0.7297675 0.011058312
-158.005 67.837502 569.11902 -0.27980062 -0.87837577 -0.38751456 0.0055315061
-44.988602 41.9865 487.65399 0.53648698 0.40168726 -0.74217856 0.012036484
-42.233898 42.3456 490.634 0.56881666 0.32065228 -0.75738347 0.0038426942
-39.184898 42.0522 493.198 0.54103363 0.37783796 -0.75134611 0.0036931685
-45.091702 55.2658 498.56699 0.24851485 0.85972017 -0.44623056 0.007715981
-20.529699 53.752201 500.491 0.45007434 -0.45468977 -0.76856381 0.053581584
-58.3913 64.855499 519.23602 0.17403595 0.92068011 -0.3493703 0.0079804193
-49.252499 62.457401 514.62201 -0.57914484 0.50770891 -0.6378268 0.0079763252
-62.2561 66.457001 522.08698 0.15504643 0.8154363 -0.55769545 0.064616546
-20.789301 56.831299 498.72601 0.68029815 0.057215676 -0.73069882 0.031519063
-17.750601 56.5905 502.64001 0.71449912 0.28095061 -0.64074779 0.0091126543
39.611801 160.028 524.59802 0.41165233 0.76635933 -0.49318939 0.0057623396
42.4771 155.939 519.90503 0.62401009 0.70250642 -0.34219316 0.0051615089
55.421101 157.103 535.40002 0.44743922 0.29984993 -0.84254861 0.008804176
43.420799 153.256 516.64001 0.67942166 0.64492518 -0.3499397 0.0020509788
53.552799 156.108 532.92102 0.56707996 0.40293866 -0.71837366 0.0071486435
47.7673 155.17999 527.41699 0.63041288 0.52936214 -0.56776345 0.0039541903
50.167301 155.76199 530.64398 0.55199748 0.4488917 -0.7027055 0.0079526808
47.390202 152.69099 523.30499 0.7403695 0.56721443 -0.36072257 0.00775686
53.0019 152.30499 530.79498 0.60244 0.36521485 -0.70970708 0.0023618455
65.9981 146.82401 535.32599 0.40187356 0.45340022 -0.79556644 0
69.236198 147.069 537.599 0.48820558 0.3665058 -0.79204094 0
69.012497 143.94901 535.72498 0.5291931 0.36725286 -0.76490527 0.00010768866
76.744598 135.71201 535.32703 0.53051227 0.45631966 -0.71437323 0.0045344955
61.187401 136.701 526.46399 0.49469373 0.46015629 -0.73724782 0.0031847865
51.730301 124.969 482.22601 0.69483072 -0.26576844 -0.66826439 0.060451921
52.9496 124.566 485.97699 0.95928895 0.13691881 -0.24701813 0.019780157
52.938801 122.873 483.63901 0.87903714 -0.23985344 -0.41202423 0.084029637
63.6283 133.341 527.05298 0.63041246 0.355822 -0.68990636 0.0082780467
65.287399 131.321 526.513 0.5729782 0.44537756 -0.68799329 0.0036219987
66.820999 130.08701 527.96997 0.55689973 0.4338021 -0.7082926 0.0073235012
50.4814 121.558 484.349 0.44951522 -0.58853525 -0.6719839 0.011395124
61.0369 129.78799 521.797 0.72164255 0.44622493 -0.52925915 0.0066778194
63.402901 129.123 524.42297 0.59094077 0.39401716 -0.7039457 0.0064771073
48.0774 119.555 483.61301 0.65682691 -0.27976674 -0.70022064 0.019984908
45.4636 120.003 480.009 0.67008585 -0.3050544 -0.67670286 0.010982542
63.285 126.651 523.01801 0.70110178 0.16412674 -0.69391549 0.041895244
61.2061 123.795 515.51501 -0.89991236 -0.39587209 0.18287435 0.011136252
46.3573 117.062 482.11499 0.24916525 -0.076202579 -0.96545833 0.079464838
62.505199 122.609 520.00403 0.84485358 0.39460927 -0.36125627 0.0063932785
43.432598 116.708 482.93301 -0.019819761 -0.57188052 -0.82009751 0.049029201
93.384102 119.07 535.97198 0.25847208 0.11962833 -0.95858294 0.0064337496
62.775902 119.523 517.10602 -0.92715204 -0.32702273 0.18288025 0.0020166
61.8349 111.84 484.832 0.92370164 0.087036759 -0.37309507 0.026337091
62.738701 117.14 510.32401 -0.96519059 -0.25615403 0.052841917 0.003487119
62.693802 111.323 488.56799 -0.96186966 -0.22113854 0.16094863 0.018728845
63.477798 116.871 512.75 -0.96062976 -0.25328729 0.11417545 0.0034736502
96.073898 115.477 536.45398 0.26081073 -0.21442342 -0.94127595 0.0055365567
63.629398 113.805 510.336 -0.96104115 -0.25793985 0.099333078 0.0027158
62.6534 108.285 486.10599 0.89330876 -0.29821712 -0.3362529 0.043790836
101.127 112.874 540.18701 0.54145378 0.017326899 -0.84055197 0.047187168
63.8027 111.731 504.28101 -0.97577095 -0.214155 0.044818569 0.0024542632
97.655098 112.283 538.32898 0.29006162 -0.20931338 -0.93383735 0.038842626
64.360199 114.243 520.11603 -0.9827978 -0.15995449 0.092320114 0.0046170717
64.394501 111.152 507.79901 -0.96604872 -0.24531582 0.081056036 0.0016800164
54.3428 107.032 484.31601 -0.014556817 -0.71333104 -0.70067614 0
56.630699 105.143 486.30301 0.11014945 -0.72472179 -0.68018043 0.0015904785
64.784302 108.045 504.41501 -0.97733158 -0.20760417 0.041515194 0.0022266733
100.595 109.273 539.17401 0.36883041 -0.45245919 -0.81193888 0.061352268
96.375801 109.536 539.15802 0.049646687 -0.39412987 -0.91771281 0.025593927
64.478203 105.367 497.83801 0.9626537 0.19575304 -0.18702583 0.0032842371
81.594902 110.733 538.573 -0.092491373 -0.77568811 -0.62430239 0.0028161816
65.331902 105.171 501.57599 -0.98648906 -0.14551373 0.075266711 0.0041044783
53.0947 103.907 487.354 -0.030051025 -0.70755017 -0.70602381 0.0048427014
61.206902 102.457 491.177 0.61903882 -0.26757419 -0.73837322 0.02446254
96.002098 106.463 542.97101 -0.19797257 -0.90318936 -0.38086197 0.059008036
65.439301 102.058 498.69 0.98172098 0.064919122 -0.17891169 0.0124812
98.761101 104.14 543.05603 -0.32922843 -0.8529923 -0.40498489 0.059319571
97.7146 105.32 545.84302 -0.30006331 -0.87667954 -0.37602541 0.047961395
64.966599 99.896301 496.80801 0.85240936 -0.35309961 -0.38564092 0.020030614
94.569702 104.783 546.63898 0.026036341 -0.89027053 -0.45468712 0.013728588
66.744698 101.449 508.259 -0.98017406 -0.1412757 0.13892435 0.0080657341
62.772598 99.195702 492.69199 0.71245921 -0.43673256 -0.54924184 0.055560481
91.157799 103.276 547.92401 0.010174164 -0.76328164 -0.64598584 0.016194424
62.1483 96.990601 495.647 0.41863516 -0.82101148 -0.3881813 0.035097085
58.679699 96.390198 497.367 -0.095490783 -0.88909024 -0.44766074 0.020819332
93.513 101.247 549.78802 -0.40156859 -0.62311167 -0.67117387 0.11159506
55.355099 96.286598 498.71899 -0.040362608 -0.87484944 -0.4827103 0.0035302858
50.885899 95.934998 496.60599 -0.089250728 -0.92567539 -0.3676402 0.032663845
93.571999 98.889503 552.30298 -0.61109394 -0.63833106 -0.46807882 0.11129742
51.970299 95.785004 499.45499 0.060758229 -0.92667478 -0.37092078 0.018223695
54.057301 94.138298 502.61099 -0.023969373 -0.89553124 -0.44435257 0.005426398
57.6521 91.923897 504.61401 -0.17585646 -0.85932708 -0.48024106 0.01946507
55.962002 93.190201 505.17801 -0.16650406 -0.82404304 -0.54150677 0.013837533
35.058498 96.309601 503.423 -0.16570894 -0.83568078 -0.52362013 0.0017185748
52.903099 92.134697 506.01599 -0.017353231 -0.84567767 -0.5334118 0.0044642626
90.436203 94.309196 553.78198 -0.98197865 0.1821298 -0.05046406 0.046274722
37.901798 94.458199 504.901 -0.16971911 -0.85182679 -0.49556684 0.0089857168
84.293297 95.8283 558.98401 0.036808431 -0.69591027 -0.7171849 0.014283012
34.650501 94.18 507.02701 -0.27509341 -0.84544528 -0.45776176 0.0055011297
86.390099 93.258102 560.50403 -0.52652997 -0.42758134 -0.7348063 0.080628954
54.265099 89.226402 511.931 -0.055132892 -0.88991672 -0.45277861 0.0096286526
83.197304 93.402199 561.31702 -0.046603452 -0.50253594 -0.86329931 0.028480185
45.081501 89.795601 512.95203 -0.059586167 -0.93859661 -0.3398321 0.00097812701
86.224998 89.899803 557.56702 -0.63986003 0.56256688 -0.52354348 0.013478727
46.977798 88.514099 516.04602 -0.01346442 -0.90189195 -0.43175179 0.0012031724
43.592999 88.012497 516.78198 -0.00872018 -0.88297093 -0.46934673 0.0030745203
86.134804 86.864799 554.06299 -0.68296659 0.059419822 -0.72802883 0.13914287
83.995499 87.026497 556.45099 0.40489879 0.49610573 -0.76807302 0.15350206
81.017899 80.543503 552.03497 0.55206907 -0.62983191 -0.54638034 0.005075125
-46.193901 91.242699 495.987 -0.69032604 0.44223571 -0.57260597 0.0022320747
74.850899 75.3936 550.73297 0.61709404 -0.67899936 -0.39768663 0.0042698467
78.701202 74.848396 557.883 0.45423669 -0.70245832 -0.54792446 0.016442176
-51.112999 89.470901 500.69101 -0.66934282 0.34973428 -0.65548933 0.0041800081
-57.181801 92.690002 509.117 -0.73101294 0.20906742 -0.64954668 0.014180808
-64.830498 94.716499 514.422 -0.43672523 -0.40162778 -0.80496347 0.014067972
-54.6134 88.997498 503.974 -0.61001593 0.45684069 -0.64743888 0.0067782626
-57.172501 89.8993 507.08701 -0.6517033 0.3885318 -0.65140295 0.00040257719
-49.054298 83.587196 497.31601 -0.51472843 -0.63477945 -0.57628965 0.018761227
-51.3106 85.702499 499.25201 -0.7007001 0.0065104617 -0.71342629 0.022202978
-62.1292 87.878899 511.44901 -0.64506537 0.41601893 -0.64095157 0.010173941
-45.263401 81.019997 502.474 -0.1815466 -0.86127114 -0.47460803 0.011843689
-50.322899 78.768898 508.39001 -0.28071916 -0.79441261 -0.53861421 0.002442088
-47.6432 77.358398 508.73801 -0.22897243 -0.84063822 -0.49081445 0.0027123778
-51.3978 76.920601 511.44101 -0.23737422 -0.80755728 -0.53991169 0.0040608994
-55.057701 77.028099 513.63 -0.27296993 -0.82700717 -0.49147373 0.0063084271
-58.8055 77.284599 514.76099 -0.12493356 -0.85140157 -0.50941837 0.0057809232
-116.481 90.133003 529.026 0.020494463 -0.83382869 -0.55164266 0.0014499736
-52.274799 75.042198 514.39398 -0.32591256 -0.8089934 -0.48919392 0.0031531814
-114.229 88.862297 531.745 0.10948825 -0.85390776 -0.5087769 0
-117.619 87.927101 532.24701 0.032973807 -0.87962103 -0.47453094 0.0039535845
-51.0966 73.058998 517.44397 -0.52630663 -0.61657757 -0.58551979 0.016008725
-121.514 87.218498 534.29401 -0.065090515 -0.90827495 -0.4132795 0.005228702
-125.008 87.027397 536.24103 0.024269339 -0.85861915 -0.51203924 0.0088967634
-116.67 84.2742 538.74402 -0.065552481 -0.74244255 -0.66669476 0.0038070721
-48.221699 67.7006 515.69 -0.72429132 0.1443783 -0.67420846 0.0020477884
-115.489 82.591904 541.336 -0.31762674 -0.6484347 -0.6918422 0.022924365
-20.273701 59.932701 501.466 0.76895761 0.24812034 -0.58918625 0.012097213
-54.257702 68.291 521.39801 -0.52218515 0.083415776 -0.8487429 0.011347059
-62.246601 69.502502 525.22699 0.0045485282 -0.020936124 -0.99977046 0.031072946
-39.887299 -6.4724302 565.08899 0.082968995 -0.86942703 -0.48704505 0.0023258198
-37.440601 -8.1733799 568.164 0.073310353 -0.88112456 -0.46716696 0.0051420783
-44.435902 -9.3138704 569.07001 0.059221912 -0.90239912 -0.4268122 0.0025104876
-4.61307 -16.7213 584.47198 -0.11306018 -0.85056609 -0.51357049 0.0098350579
-48.120499 -10.2697 571.32098 0.022711096 -0.92680639 -0.37485215 0.0036215591
-14.294 -16.5403 583.71997 0.079500675 -0.59450394 -0.80015308 0.015289981
-11.5307 -18.7136 585.94702 0.20425287 -0.23112026 -0.95124346 0.052268166
-12.6963 -21.577801 584.74799 0.20256765 0.14287989 -0.9687888 0.025494242
-15.1862 -20.1926 585.11102 0.040881842 -0.058957785 -0.99742299 0.040810149
-19.243299 -22.721399 584.83698 -0.12756625 0.30318633 -0.9443543 0.032963045
-26.841499 -21.3211 589.06799 -0.3547056 -0.16031638 -0.92113113 0.016659768
-22.3002 -24.7931 584.58398 -0.28759852 0.72107869 -0.63034326 0.038584486
-18.8519 -25.5529 582.71399 -0.12560381 0.80250269 -0.58327782 0.026427655
-26.194799 -24.942801 586.72601 -0.42940158 0.74277627 -0.51370972 0.020429673
-29.116301 -24.410299 589.336 -0.44413295 0.29092419 -0.84741306 0.029458286
-26.6868 -26.568001 583.58002 -0.27571717 0.91919708 -0.28117025 0.0027988346
-27.559999 -27.4625 580.31097 -0.26866812 0.92805904 -0.25792202 0.005122459
-102.778 -17.2012 585.13098 -0.018805699 -0.87954211 -0.47544929 0.0019483133
-100.523 -18.5383 587.79999 0.021660071 -0.86219448 -0.50611424 0.0010940672
-104.1 -19.5145 589.02301 -0.050687753 -0.88075215 -0.47085708 0.0025144324
-29.5285 -30.7351 573.77899 -0.4591358 0.82358706 -0.33301452 0.0025578325
-61.201199 -27.9072 599.896 -0.028666746 -0.87279528 -0.48724383 0.0036396177
-39.275299 -31.2409 587.38098 -0.58956856 0.75499547 -0.28703803 0.00092342758
-70.663002 -27.5005 600.47699 -0.16214412 -0.87721229 -0.45189384 0.0029316691
-4.4441199 -36.312599 560.84302 0.32518712 0.75382668 -0.57096303 0.0010021779
-35.556599 -33.356098 577.56 -0.57483524 0.74780589 -0.33219078 0.0005033231
-68.283096 -29.3652 602.34003 -0.070172653 -0.83827096 -0.54071957 0.0018100819
-40.489601 -33.598999 584.60303 -0.59315366 0.69273055 -0.41023543 0.002048949
-71.890297 -29.225 603.51001 -0.1677237 -0.81595218 -0.55325466 0.00060254062
-75.623001 -29.2684 604.65601 -0.055314384 -0.75864893 -0.64914727 0.0065936781
-84.554298 -29.955099 604.55402 0.025505571 -0.81782752 -0.57489794 0.0039112591
-43.181599 -35.212299 586.07001 -0.66220945 0.65431243 -0.36517635 0.001817597
-48.977001 -36.324799 596.02802 -0.67451286 0.61144686 -0.41372108 0.0054185688
-80.043503 -32.629101 609.89203 0.023664113 -0.78963596 -0.61311907 0.0020393813
-82.635399 -31.493799 607.40601 0.049102791 -0.86723685 -0.49546856 0.0013487196
-40.779999 -37.125301 577.46301 -0.6436606 0.67972076 -0.35168269 0.0039164941
-77.584198 -34.507099 611.43201 -0.10330143 -0.81428075 -0.57120538 0.0049792947
-104.606 -43.0378 626.84698 0.12938543 -0.70078486 -0.70154119 0.015796935
-96.617699 -45.2258 631.073 0.089648239 -0.7605837 -0.64302063 0.0042963088
-100.649 -42.623001 625.85498 0.032784738 -0.84711343 -0.53039992 0.002373867
-103.622 -41.1749 624.03497 0.0021266139 -0.86086398 -0.50883061 0.0037576952
-105.565 -39.383099 620.39301 0.0091242976 -0.84754395 -0.5306468 0.0038534154
-114.704 -36.514 617.00201 -0.032800376 -0.7646963 -0.64355546 0.0095714675
-110.359 -36.1549 616.508 -0.022609189 -0.75387049 -0.65663397 3.1956843e-05
-113.066 -33.737701 614.19897 -0.017755754 -0.78443557 -0.6199562 0.0068937871
-103.614 -34.898602 614.24799 -0.085311316 -0.8264249 -0.55654639 0.0033007308
-72.9114 -38.117001 616.40198 -0.11918924 -0.8462016 -0.51936191 0.0011398577
-105.578 -32.845501 611.87799 -0.043557934 -0.8290624 -0.55745691 0
-81.360603 -35.450199 613.46301 -0.028149147 -0.85104722 -0.52433407 0
-29.2258 0.97196198 550.91302 0.014082017 -0.83649677 -0.54779083 0.00063839747
-25.719999 1.45786 550.72302 0.10358615 -0.8497591 -0.51689398 0.0020557351
-27.5142 2.9277101 547.95502 0.014390975 -0.91895002 -0.39411134 0.010054154
-18.233999 2.34589 547.37097 -0.04100877 -0.93728864 -0.34613341 0.0069894888
-34.723 6.2261701 540.22101 0.0086363349 -0.84286147 -0.53806132 0.0018703495
-19.419399 5.5315399 541.539 -0.026367471 -0.89154983 -0.45215443 0
-16.215 6.0588698 540.50098 -0.043801956 -0.94643974 -0.31989568 0.0040097372
-18.5348 6.9696698 537.24402 -0.076983131 -0.92606962 -0.36941653 0.0052297115
-20.6464 8.7196598 534.83899 0.0066133849 -0.84370202 -0.53677088 0.0028218089
-18.1817 9.3572102 533.70001 -0.078232981 -0.88791382 -0.45330855 0.00081410131
-13.9425 9.22262 532.29901 -0.10180803 -0.91453993 -0.39147377 0.0010266381
-10.0894 9.6504698 530.69299 -0.011281126 -0.91252911 -0.40885612 0.0022112692
-9.1295795 11.5153 527.46002 -0.00040266686 -0.86271805 -0.50568491 0.00058498012
0.61544901 11.5703 526.54401 -0.089227132 -0.8542611 -0.51212937 0.00093965
-15.6066 15.6114 519.90601 -0.014683289 -0.9155581 -0.40191755 0.0032085388
-23.7183 18.1912 514.33197 0.027045922 -0.92339885 -0.38288781 0.004483263
-22.2127 19.469101 511.17099 0.02154249 -0.9077177 -0.41902795 0.0062150485
-24.373199 20.860701 507.71301 0.033745456 -0.9248482 -0.37883642 0.0064307312
-26.918301 21.6644 505.289 0.086417839 -0.89770603 -0.43203682 0.004365705
-148.37 46.176399 569.79602 -0.51995492 -0.47673827 -0.70877886 0.027975056
-17.5802 21.787399 506.03 0.091234408 -0.79570121 -0.59877872 0.042097416
-37.0233 24.661501 498.048 -0.018833917 -0.92173481 -0.38736323 0.0049287849
-33.9245 25.7111 497.22 0.091225222 -0.85674053 -0.50761557 0.002980144
-36.179901 27.0481 494.55099 0.010254643 -0.92132556 -0.38865674 0.0047904281
-27.623501 27.1884 495.61499 0.52155364 -0.1804536 -0.83391744 0.088750303
-11.7911 26.6959 508.58899 0.54775023 0.55154461 -0.6291011 0.0020859276
-42.221699 32.074902 486.67899 0.60723722 -0.15642774 -0.77896941 0.028892796
-5.7419 27.6359 514.36298 0.59750664 0.30260715 -0.74257302 0.010733363
-13.3464 28.7519 509.35901 0.62441802 0.3983323 -0.67188799 0.0099012693
-14.8801 29.9862 507.90201 0.56143326 0.40848476 -0.71967554 0.012102058
-11.4888 30.5028 510.87701 0.48403183 0.21209785 -0.84895676 0.0031834038
-44.255402 35.9715 486.01999 0.65412486 0.2808021 -0.70233238 0.019311571
-9.1698904 32.3866 512.29602 0.5214107 0.28420538 -0.80458575 0.0041967388
-154.123 62.9921 576.711 -0.4548693 -0.67301571 -0.5832184 0.016561421
-156.66299 63.6297 577.86499 -0.40855819 -0.72742015 -0.55130768 0.0092839189
-39.442001 38.419102 491.108 0.52513534 0.41763476 -0.74149454 0.0024060265
-156.94901 65.011299 575.677 -0.41903201 -0.7910561 -0.44569322 0.0019670622
-10.195 35.0369 512.96698 0.59669441 0.21046753 -0.77437669 0.0099991644
-13.5101 38.563599 512.35199 0.50159681 0.29473987 -0.81334436 0.012528835
-130.883 67.788498 560.664 -0.60653412 -0.32795438 -0.72426671 0.03133617
-39.950298 54.678902 498.93301 0.021499131 0.36266801 -0.93167037 0.032146163
-16.0658 53.652599 503.29099 0.65089321 0.0067649717 -0.75913924 0.032158528
-46.942902 60.880001 510.30701 -0.46640903 0.63656652 -0.61420333 0.05499072
-56.5695 65.944397 522.30103 -0.37757844 0.64769858 -0.66175604 0.055433087
-53.0247 65.067596 520.11499 -0.53679031 0.4027608 -0.74137712 0.014692613
-59.825699 67.113701 524.20203 -0.13221028 0.54037642 -0.8309716 0.0458025
39.326698 159.453 522.07898 0.34971344 0.80946922 -0.47165689 0.0074860849
42.606201 159.382 525.56598 0.56741452 0.59590268 -0.56827873 0.0077005192
40.735298 156.87 519.09497 0.4171086 0.75602829 -0.50442213 0.0094590718
41.662701 154.356 515.30402 0.5891881 0.725806 -0.35505357 0.001384584
58.3008 156.675 536.12402 0.42890993 0.40885624 -0.80552644 0.0052166437
45.3297 156.381 526.08301 0.64943159 0.53957933 -0.53581041 0.0014837689
44.178001 153.657 518.698 0.67593068 0.67428339 -0.29742151 0.0017332989
52.945599 154.929 531.53198 0.55870318 0.35992509 -0.74719787 0.0038590527
45.795601 153.83701 522.86603 0.68119943 0.65096462 -0.33498129 0.0015577227
50.201698 153.407 529.11798 0.62437224 0.41091666 -0.6643092 0.0048369532
47.835899 153.394 526.09003 0.68498683 0.58068752 -0.43999442 0.0032000949
66.466599 147.871 536.42798 0.40597451 0.46539164 -0.78650832 0.0034349414
66.304802 144.347 534.29999 0.44116482 0.41171411 -0.7974115 0.0025488366
79.718102 134.26401 537.14697 0.46569341 0.46187556 -0.7548514 0.0027558219
63.5359 135.633 527.73798 0.62315232 0.35113278 -0.69884682 0.0032965413
53.160702 124.356 483.633 0.88020617 -0.24125572 -0.40869656 0.084033139
50.942699 122.778 482.59799 0.4487282 -0.665995 -0.59589732 0.029571917
61.726898 130.493 523.612 0.69460839 0.35927451 -0.62325037 0.0018700806
52.930901 121.602 485.68201 0.49512815 -0.30071715 -0.81511796 0.06905742
69.098503 129.118 528.698 0.47119859 0.35311678 -0.80825764 0.00409067
47.197899 119.68 481.98599 0.66081828 -0.383858 -0.64495909 0.0058990605
61.629501 127.128 521.32098 0.83992714 0.24167517 -0.48591718 0.013096539
44.5518 117.645 481.177 0.25566041 -0.68679333 -0.68040633 0.036060922
61.750999 123.727 518.48499 0.91914099 0.31467253 -0.23698325 0.0048332089
46.828602 116.455 483.43301 0.36013213 0.0043127625 -0.93289131 0.064138032
61.931499 120.992 515.80798 -0.94607162 -0.29852185 0.12582985 0.0063679023
96.523598 118.603 536.67603 0.32573879 0.23435812 -0.91595328 0.020615261
62.6208 118.517 512.987 -0.93642765 -0.34288868 0.074368328 0.0038841257
63.166801 120.483 518.88 0.91330814 0.3265391 -0.2433936 0.001720762
62.904099 110.778 486.58099 0.9411996 0.096741594 -0.32370427 0.025990399
92.983597 116.209 536.10498 0.22219488 -0.14838347 -0.96364504 0.0037056166
64.571198 116.742 520.75201 -0.98211223 -0.12205534 0.14338081 0.004927054
61.002399 108.189 484.67499 0.67750591 -0.45859787 -0.57504237 0.061047383
98.887299 113.207 539.62402 0.54711372 -0.13129121 -0.82669783 0.039433211
62.557598 108.084 488.20901 0.88929874 -0.29438412 -0.34997949 0.037996944
64.170097 113.569 513.57001 -0.98323274 -0.17934003 0.033023577 0.003325636
100.848 111.563 539.14203 0.48003358 -0.044768631 -0.87610704 0.046442408
57.2477 106.522 484.892 -0.0068826689 -0.81188816 -0.58377248 0.03341464
53.682899 105.582 485.85599 -0.035625625 -0.72282994 -0.69010705 0.0034466011
97.610802 109.601 538.42798 0.12360808 -0.4522557 -0.88328129 0.02067801
65.015198 107.518 507.328 -0.97760326 -0.19918931 0.06793718 0.0039563323
62.704498 104.762 491.41599 0.86196983 -0.23976547 -0.4466773 0.013899799
100.244 108.332 540.672 0.2782428 -0.70759845 -0.64952719 0.035137352
65.036903 104.446 499.215 -0.97954959 -0.17251188 0.10354799 0.0046183621
79.230202 111.086 538.41998 -0.06148966 -0.75623798 -0.65140086 0
55.925598 103.57 487.98099 0.069932602 -0.63719755 -0.76752108 0.034212518
58.618999 102.434 489.99399 0.31791359 -0.42181367 -0.8491196 0.047233678
98.594704 106.302 543.61401 -0.08162722 -0.864896 -0.49526951 0.084339902
66.187401 104.145 508.26901 -0.9590773 -0.24012442 0.15003686 0.0027703422
95.314903 105.676 545.23901 0.015383683 -0.84648973 -0.53218269 0.0077587417
66.078003 101.792 505.93399 0.96165341 0.19353773 -0.19433448 0.0050161351
65.326797 101.718 501.974 -0.99254811 0.041917305 0.11441629 0.0040657562
97.531502 104.088 546.87903 -0.64969647 -0.45171434 -0.6114316 0.099752568
63.391998 98.945503 495.258 0.70352268 -0.48516053 -0.51930255 0.052756846
88.479202 104.227 547.46198 -0.12348811 -0.8181476 -0.56159168 0.0037049982
55.786301 96.721397 497.26099 -0.1339511 -0.90003955 -0.41471183 0.018056452
57.5149 95.965897 499.26199 -0.21421239 -0.84446728 -0.4909054 0.015301785
93.437401 101.436 551.85699 -0.53763294 -0.60370493 -0.58863509 0.14871758
49.330601 96.177002 498.79099 -0.10515737 -0.93130827 -0.34872168 0.026530486
93.900398 97.8209 550.367 -0.65451229 -0.5426203 -0.52647597 0.075481005
56.936901 93.710602 503.33499 -0.18097667 -0.86913651 -0.4602707 0.014547137
53.4823 93.558502 504.55399 0.0075684828 -0.87293446 -0.48777884 0.0068124821
55.782799 91.7071 506.741 -0.10880242 -0.87801427 -0.46610406 0.016594652
35.583599 95.223297 504.215 -0.16130503 -0.84201455 -0.51477391 0.0020498603
90.037399 94.891701 557.78302 -0.59458911 0.34576219 -0.72588718 0.1014443
89.811897 93.399803 555.72699 -0.91478407 0.2613897 -0.30797014 0.058082364
86.861397 95.880203 559.60303 0.21133079 -0.6119805 -0.76211494 0.020446455
83.583397 94.351402 560.34302 0.1261512 -0.60775453 -0.78404105 0.049623109
36.8778 93.400002 507.31299 -0.18819481 -0.85312742 -0.48657602 0.012762167
51.163799 89.891098 511.60699 -0.036625337 -0.89767402 -0.43913549 0.012508038
85.387802 92.739998 561.88202 -0.28261626 -0.090290681 -0.95497411 0.080925651
47.721199 89.403603 513.61603 -0.061952196 -0.94565988 -0.3192009 0.00036041858
87.628799 88.6604 553.32501 -0.68298471 0.34287626 -0.64495564 0.06563969
44.3381 88.906097 515.38202 -0.029919498 -0.90443581 -0.42555919 0.0025779514
46.472599 87.584801 517.50598 0.012477659 -0.88863742 -0.45844066 0.0012842808
83.348999 86.272003 554.43402 0.60869437 0.65551817 -0.44697556 0.1238524
-47.001099 92.3853 498.48999 -0.68428802 0.37923706 -0.62283951 0.0017110637
-50.6614 91.935699 501.73199 -0.68576336 0.43050793 -0.58684874 0.0030452313
-52.848801 91.770599 504.80801 -0.6551435 0.3690677 -0.65922374 0.0090560857
-53.103199 89.269897 502.272 -0.67450553 0.42339826 -0.6047942 0.0062145996
-58.848099 90.158501 509.07001 -0.66734564 0.44513121 -0.59708285 0.0049128872
-49.048401 85.477997 496.33801 -0.67200994 -0.19499204 -0.71440941 0.031665195
-52.5005 85.123199 499.49899 -0.67839092 -0.16666681 -0.71554732 0.047167111
-64.982697 90.0896 514.78003 -0.63204384 0.15226935 -0.75982541 0.016255515
-50.518799 83.382202 499.46799 -0.4208689 -0.72468299 -0.54562247 0.033332501
-63.990299 86.900497 513.09399 -0.61642009 0.36574361 -0.69732195 0.0055323243
-48.7934 81.546799 502.17499 -0.17436421 -0.89264041 -0.41568035 0.0035878527
-63.730499 84.829597 510.83801 -0.65403533 0.3133873 -0.68849564 0.010568488
-48.016102 78.4226 508.08801 -0.18515939 -0.82260132 -0.53762722 0.0010719501
-50.4002 77.774498 509.59 -0.24546613 -0.8183682 -0.51963437 0.0032886905
-48.556198 76.222504 512.07397 -0.18752821 -0.82767457 -0.52894986 0.0054879789
-57.722099 77.984901 512.82202 -0.22803183 -0.85916764 -0.4580746 0.0067444122
-56.202801 76.645401 515.42603 -0.20697284 -0.83831388 -0.50437301 0.0037984811
-113.535 90.210403 529.26599 0.051795021 -0.8465575 -0.52977133 0
-117.138 88.860397 530.88397 0.039596945 -0.83949459 -0.54192322 0.0051667271
-114.882 87.523399 533.55298 0.071905516 -0.87397945 -0.48061356 0.0030012452
-49.483898 74.168999 515.30298 -0.44506967 -0.61478239 -0.65111876 0.027143976
-53.2971 74.1968 517.38397 -0.35193998 -0.77565801 -0.52392054 0.0043385192
-124.146 87.896896 533.32599 -0.070940979 -0.90022135 -0.42961478 0.0096367337
-122.129 86.599701 536.96503 -0.0097928923 -0.85385966 -0.52041107 0.011111405
-20.399401 63.015099 501.715 0.81106311 0.095871061 -0.5770489 0.0097096413
-50.212502 71.041702 517.98401 -0.58841819 -0.35172996 -0.72804528 0.019535609
-119.875 85.258499 538.604 -0.055543683 -0.75119895 -0.65773463 0.00181771
-18.6623 58.8414 502.69901 0.70530373 0.40568301 -0.58135009 0.0018732355
-51.8246 68.1735 519.93903 -0.63384622 0.050597012 -0.77180237 0.011420975
-56.1642 68.4692 522.64001 -0.49312416 0.19154014 -0.84861118 0.0072109858
-59.496498 69.312401 524.42102 -0.35218117 -0.002382606 -0.93592882 0.023450635
-37.007599 -6.9000802 565.81403 0.071577057 -0.86696547 -0.49320143 0.0025466478
-40.585499 -7.8763099 567.03699 0.086950868 -0.88551652 -0.4563989 0.0032988694
-47.429199 -9.3740797 568.51001 0.018246202 -0.92088532 -0.38940638 0.0041080136
-7.4927402 -16.293699 583.74799 0.033145126 -0.82753038 -0.56044161 0.004833133
-45.445999 -10.6656 572.28802 0.032516565 -0.90849185 -0.41663569 0.0013039478
-10.9516 -17.289801 584.48499 0.057690118 -0.668006 -0.74191624 0.023916699
-15.1487 -17.9741 585.02899 0.064200297 -0.56580651 -0.8220349 0.021476617
-11.6881 -20.5858 585.98602 0.42247683 0.059469014 -0.90442067 0.018947944
-21.385799 -22.296 585.737 -0.45240089 0.16189139 -0.87699747 0.018056115
-24.98 -21.748899 587.92401 -0.5655995 0.047295272 -0.82332283 0.05173238
-29.3062 -20.968399 589.53497 -0.17469606 -0.35957721 -0.91661632 0.036451329
-19.8846 -24.547501 584.65198 -0.057128359 0.66892618 -0.74113029 0.016079707
-27.321899 -23.7526 589.14801 -0.44109499 0.23020414 -0.86743373 0.022959456
-21.9848 -26.2686 581.63098 -0.099195786 0.94510156 -0.31135717 0.0095579587
-24.933001 -26.843201 580.58698 -0.22431493 0.94545692 -0.23620769 0.0033603755
-29.2344 -27.2006 582.98102 -0.30570453 0.93084955 -0.20015955 0.006009954
-99.957802 -17.6189 586.09802 0.013877885 -0.87346512 -0.48668891 0.0015367322
-103.402 -18.1106 587.07599 -0.03634331 -0.85772157 -0.51282829 0.0024305217
-101.26 -19.935499 589.909 -0.012165157 -0.89243031 -0.45102116 0.00293458
-31.441099 -30.433399 577.41998 -0.50894511 0.78231978 -0.35909685 0.0023044946
-64.080902 -27.479601 599.172 -0.025043827 -0.87284964 -0.48734614 0.0010180899
-35.807499 -31.7847 581.55603 -0.56560194 0.73757517 -0.36888674 0.00084100786
-67.897003 -28.416 601.36499 -0.067068763 -0.85491812 -0.51440918 0.0042432346
-1.72052 -36.967602 562.05298 0.43878588 0.71937954 -0.53847927 0.0086765746
-39.1436 -32.7924 583.87 -0.56724006 0.70190287 -0.43077958 0.0010414787
-68.667397 -30.3102 604.34497 -0.070589915 -0.88343006 -0.46321526 0.0017994565
-78.022697 -28.912001 604.05298 0.0099530397 -0.83134502 -0.55566758 0.0076890639
-41.597401 -34.445499 584.36603 -0.64111137 0.66473681 -0.38353792 0.0028630132
-81.674599 -30.3827 605.27802 0.045981746 -0.80830294 -0.58696842 0.006158506
-41.178799 -36.5429 581.46301 -0.59284168 0.71045482 -0.37920019 0.0039805975
-78.123703 -32.9142 610.375 -0.088694602 -0.79907233 -0.59465688 0.0054644267
-85.371597 -31.3391 606.98602 0.052019022 -0.86302781 -0.50247079 0.00030096679
-80.853302 -34.119301 611.40399 -0.018616693 -0.78422582 -0.62019628 0.0036024791
6.2966299 -88.745003 674.604 -0.35687193 -0.91713142 -0.17751744 0.014088059
2.83355 -86.207298 673.99402 0.84231699 0.53578329 0.058636826 0.032795656
-101.777 -43.6259 627.67999 0.12534611 -0.81794095 -0.561481 0.017583916
-99.497299 -44.7981 630.349 0.14798705 -0.7494837 -0.64527059 0.01459777
-104.968 -41.981499 624.76898 0.021926995 -0.82245624 -0.56840563 0.0011266987
-100.742 -41.602501 624.76001 0.019335195 -0.86920476 -0.49407417 0.0018710908
-108.445 -38.955502 619.66901 -0.055584937 -0.8341586 -0.54871655 0.0034055053
-112.759 -35.7985 615.90503 -0.010668562 -0.75851518 -0.65156811 0.0021251868
-106.237 -34.256001 613.664 -0.088165551 -0.81727982 -0.56945634 0.00077609735
-102.317 -33.585899 611.93597 -0.060089573 -0.82329911 -0.56441802 0.0043226606
-76.066803 -37.241402 616.21002 -0.096261874 -0.84177637 -0.53117436 0.001203017
-100.154 -32.648899 611.14001 -0.069047183 -0.8456912 -0.52918702 0.0054855132
-78.481003 -35.8778 614.18799 -0.041164614 -0.87255168 -0.48678455 0
-26.1061 0.50867599 551.69702 0.09358491 -0.85688269 -0.50694573 0.0040740115
-28.599701 1.88551 549.99799 0.021999571 -0.85055542 -0.5254252 0.0042672246
-25.046301 2.9356899 548.32501 0.051014896 -0.93922061 -0.33950275 0.0056391493
-21.3536 2.80918 546.58698 -0.095800526 -0.9241392 -0.36984992 0.0084352773
-37.6847 6.8097801 539.323 0.062198043 -0.84509432 -0.53098679 0.0039034877
-16.8393 5.1494799 542.44598 0.017579505 -0.88552117 -0.46426633 0.00057800271
-19.0947 6.4865098 539.77698 -0.051153384 -0.94433182 -0.32499337 0.0024547873
-15.3056 6.41822 538.133 -0.010108549 -0.94458675 -0.32810616 0.0044910861
-23.3673 9.1207705 533.46802 0.045167949 -0.88464528 -0.46407184 0.0016193574
-16.4848 9.8540096 531.90601 -0.11700838 -0.89802372 -0.42410192 0.0018352054
-7.31984 9.2389803 531.34698 -0.059420474 -0.90464747 -0.42199782 0.0013392968
-5.9650798 10.9724 528.09399 -0.019273395 -0.86224598 -0.50612307 0.00096599024
-2.5529101 12.0439 526.47699 -0.034746412 -0.85349083 -0.51994818 0
-18.924299 15.9789 519.33502 -0.038195368 -0.90643764 -0.420609 0.00011419079
