ply
format ascii 1.0
comment VCGLIB generated
element vertex 1048
property float x
property float y
property float z
property float nx
property float ny
property float nz
element face 0
property list uchar int vertex_indices
end_header
0 305 763 -0.07455101 -0.03530791 -0.9965919 
1 305 763 -0.1371417 -0.2198229 -0.965852 
2 305 763 -0.2055362 0.01029415 -0.9785954 
4 305 763 -0.2613546 -0.06893158 -0.9627784 
5 304 762 -0.300465 -0.3348788 -0.8930717 
6 304 761 -0.3491661 -0.2145113 -0.9121776 
7 304 761 -0.381569 -0.1700789 -0.9085584 
8 303 760 -0.3264409 -0.2761504 -0.9039786 
10 303 760 -0.2088177 -0.2991357 -0.9310816 
11 303 760 -0.1480557 -0.2413245 -0.959084 
12 303 760 -0.1697946 -0.2850948 -0.9433402 
13 303 760 -0.1015813 -0.2227977 -0.9695578 
15 303 760 -0.0635502 -0.2085973 -0.9759348 
16 303 760 -0.02971103 -0.1732892 -0.9844227 
17 303 760 -0.09090564 -0.1903807 -0.9774924 
18 303 759 -0.08807259 -0.1692452 -0.981631 
19 303 759 -0.05285902 -0.2577718 -0.9647588 
21 303 760 0.04512579 -0.4246815 -0.9042175 
22 303 760 0.058509 -0.4912629 -0.8690441 
23 303 760 -0.06546298 -0.5030557 -0.8617712 
24 303 759 -0.1657162 -0.5203699 -0.8377072 
26 303 760 -0.1766871 -0.5511789 -0.8154652 
27 303 760 -0.1482588 -0.5614076 -0.8141503 
28 303 759 -0.1050469 -0.5728678 -0.8128885 
29 303 759 -0.1142759 -0.5851609 -0.8028248 
30 303 759 -0.1079407 -0.5485495 -0.8291214 
32 303 759 -0.02452218 -0.5843614 -0.8111229 
33 303 759 -0.01023781 -0.6304417 -0.7761692 
34 303 759 -0.006341219 -0.6473778 -0.762143 
35 303 759 -0.001338277 -0.6511198 -0.7589738 
36 303 759 -0.01173971 -0.6409271 -0.767512 
38 303 759 -0.07138447 -0.6269354 -0.775794 
39 303 759 -0.1188302 -0.5930215 -0.7963699 
40 303 759 -0.1228183 -0.5539284 -0.8234556 
41 303 758 -0.1162068 -0.6191442 -0.7766315 
42 303 758 -0.08487459 -0.5217353 -0.8488749 
44 303 758 0.06212288 -0.470461 -0.8802314 
45 303 758 0.1051439 -0.5107851 -0.8532546 
46 303 759 0.2598915 -0.4118101 -0.8734237 
47 303 759 0.2322534 -0.4440699 -0.8653672 
49 303 759 0.1780057 -0.4307135 -0.8847597 
50 303 760 0.0732352 -0.3916374 -0.9172006 
51 303 760 -0.08791886 -0.4108225 -0.9074663 
52 303 760 -0.2433551 -0.428839 -0.8699858 
53 303 759 -0.2479661 -0.4547659 -0.8553951 
55 303 759 -0.4526238 -0.4483052 -0.770814 
56 303 758 -0.4360819 -0.5069127 -0.7435537 
57 302 757 -0.3829682 -0.5711617 -0.7260232 
58 302 757 -0.3104006 -0.596144 -0.7404484 
59 302 757 -0.2633871 -0.6265581 -0.7335204 
61 302 756 -0.1442405 -0.7251592 -0.6733045 
62 302 757 -0.02469654 -0.6973633 -0.7162923 
63 302 757 0.0340071 -0.6997657 -0.7135626 
64 302 757 0.05801132 -0.7375221 -0.6728267 
65 302 757 0.06436623 -0.7506118 -0.6576009 
67 302 757 0.1108626 -0.7561115 -0.6449844 
68 303 758 0.1332247 -0.7656249 -0.6293407 
69 303 758 0.1120107 -0.7618788 -0.6379611 
70 303 759 0.09112024 -0.7073891 -0.7009264 
72 303 759 0.02668837 -0.5889274 -0.8077452 
73 303 758 0.003865596 -0.6031025 -0.7976544 
74 303 759 0.1017367 -0.5231686 -0.846135 
75 303 759 0.0982746 -0.4167574 -0.9036899 
77 303 759 0.1831444 -0.2942148 -0.9380276 
78 303 759 0.2346874 -0.3215212 -0.9173582 
79 303 759 0.2802331 -0.3559319 -0.8915054 
80 303 760 0.2923811 -0.3503315 -0.8898209 
82 303 760 0.1382128 -0.51984 -0.8430087 
83 303 760 0.1056372 -0.5820754 -0.8062437 
84 303 760 0.03927552 -0.6145256 -0.7879187 
85 304 761 -0.01869047 -0.6243529 -0.7809188 
86 304 761 -0.05720442 -0.6332418 -0.7718371 
88 303 760 -0.2507001 -0.475236 -0.8433862 
89 303 759 -0.3168441 -0.470603 -0.8234941 
90 303 759 -0.3289329 -0.4711824 -0.8184073 
91 303 759 -0.2678688 -0.5910391 -0.7608675 
92 302 758 -0.1343974 -0.5978126 -0.7902895 
93 302 757 -0.08518255 -0.6923029 -0.7165617 
95 302 757 0.0733963 -0.7616603 -0.6438064 
96 302 758 0.0645263 -0.7079373 -0.7033215 
97 302 758 -0.03586683 -0.6952017 -0.7179193 
98 302 758 -0.0153153 -0.6745465 -0.7380735 
99 302 758 -0.09779605 -0.6480911 -0.7552575 
101 302 758 -0.1363478 -0.6654831 -0.7338539 
102 302 758 -0.1085745 -0.6814522 -0.7237641 
103 302 757 -0.1269108 -0.7652823 -0.6310599 
104 302 758 -0.04390131 -0.7696845 -0.6369133 
105 302 757 -0.07208119 -0.8950824 -0.4400363 
106 302 756 -0.1052909 -0.9359556 -0.3360074 
108 301 756 -0.09824827 -0.9401901 -0.3261746 
109 301 756 -0.02876949 -0.9379715 -0.3455169 
110 301 756 -0.01777777 -0.9184921 -0.3950395 
111 301 756 -0.03202835 -0.9076663 -0.4184688 
113 301 756 0.0835596 -0.882843 -0.4621754 
114 302 757 0.1314524 -0.8393431 -0.5274689 
115 302 757 0.1074028 -0.802318 -0.5871546 
116 302 757 0.1529378 -0.8092364 -0.5672269 
118 302 758 0.1544707 -0.6369247 -0.7552918 
119 302 758 0.08326315 -0.7471243 -0.6594487 
120 302 757 0.04333434 -0.8367146 -0.545922 
121 302 758 0.06460562 -0.8227935 -0.5646566 
122 302 757 0.009544532 -0.8974852 -0.4409413 
124 302 758 -0.05286987 -0.8736748 -0.4836292 
125 302 758 -0.0680602 -0.877666 -0.4744157 
126 302 757 -0.09077641 -0.9157256 -0.3914157 
127 302 758 -0.07351238 -0.8733135 -0.4815803 
128 302 757 -0.1038824 -0.9325231 -0.3458455 
130 302 757 -0.1348096 -0.9252937 -0.3544828 
131 302 757 -0.1280557 -0.932282 -0.3383076 
132 301 756 -0.1182082 -0.9431953 -0.3104987 
133 301 756 -0.1582443 -0.9365975 -0.3126406 
134 301 756 -0.2314794 -0.9144578 -0.3319401 
135 301 755 -0.216802 -0.9324879 -0.2889 
137 301 756 -0.3548554 -0.8168091 -0.4548632 
138 301 755 -0.256102 -0.8818299 -0.3959645 
139 300 754 -0.2119773 -0.843699 -0.4931911 
140 300 754 -0.2222878 -0.8039444 -0.5515991 
141 300 754 -0.1700336 -0.7714809 -0.6131116 
142 300 753 -0.04153805 -0.8399629 -0.5410517 
143 300 754 -0.01677912 -0.7618122 -0.6475807 
144 300 753 0.003291172 -0.7994415 -0.6007349 
146 300 754 0.06083602 -0.818536 -0.5712248 
147 300 754 0.04759272 -0.8350382 -0.5481296 
148 300 754 -0.05516157 -0.864724 -0.499209 
149 300 753 -0.2391105 -0.8476501 -0.4736196 
150 300 753 -0.3519096 -0.8296635 -0.4333799 
151 300 752 -0.3852963 -0.7923573 -0.4729871 
152 299 750 -0.237261 -0.7134338 -0.6593326 
153 299 750 -0.1484734 -0.7051611 -0.6933278 
155 299 750 0.0910907 -0.6984664 -0.7098219 
156 299 750 0.223765 -0.6563684 -0.7204927 
157 299 752 0.3383236 -0.7695848 -0.54155 
159 300 753 0.3890908 -0.6468979 -0.6558441 
160 300 753 0.548479 -0.5528012 -0.6273609 
-192 309 775 0.01869722 -0.9997054 -0.01547747 
-191 309 775 0 -1 -0 
-189 309 775 0 -1 -0 
-188 309 774 0 -1 -0 
-187 309 775 0 -1 -0 
-186 309 775 0 -1 -0 
-184 309 774 -0.03382575 -0.99938 0.009778721 
-183 309 775 -0.04702754 -0.998751 0.01687876 
-182 309 774 -0.07434154 -0.9967922 0.02964294 
-181 309 774 -0.08487783 -0.996066 0.02546318 
-179 309 773 -0.09262039 -0.9950624 0.03566961 
-178 308 772 -0.08849887 -0.9959067 0.01838315 
-176 308 772 -0.07737157 -0.9966567 0.02625169 
-175 308 771 -0.0706292 -0.9974934 -0.004280783 
-174 308 770 -0.07253018 -0.99677 -0.03448166 
-172 308 770 -0.05796085 -0.9974732 -0.04108172 
-171 308 770 -0.05641705 -0.99796 -0.02988292 
-170 308 770 -0.07868583 -0.9964746 -0.02910111 
-169 308 770 -0.0811694 -0.9966965 -0.002775911 
-167 307 769 -0.1013253 -0.9948299 -0.006836686 
-166 307 769 -0.09272909 -0.995307 0.02766474 
-165 307 769 -0.09900256 -0.994839 0.02222623 
-164 307 769 -0.07628307 -0.9961225 0.04382887 
-162 307 768 -0.032974 -0.9994544 0.001901684 
-161 307 768 0.01471597 -0.99989 -0.001890791 
-160 307 768 0.04406637 -0.9989918 -0.008577014 
-158 307 768 0.04555438 -0.9981407 -0.04049607 
-157 307 768 0.04044482 -0.996215 -0.0769411 
-156 307 768 0.0445204 -0.9915901 -0.1215194 
-155 307 768 0.007820234 -0.9941871 -0.107382 
-154 307 768 -0.01855391 -0.9916943 -0.1272725 
-152 307 768 -0.01498814 -0.9854072 -0.1695528 
-151 307 767 -0.02524794 -0.9839259 -0.1767834 
-150 307 767 -0.008259099 -0.9846884 -0.1741282 
-148 307 767 0.03919888 -0.9801224 -0.1944826 
-147 307 767 0.02692017 -0.9765998 -0.2133735 
-146 307 767 0.001618762 -0.9742854 -0.2253114 
-145 307 767 0.006333474 -0.9705866 -0.240669 
-144 307 768 -0.02841102 -0.9688271 -0.2461038 
-142 307 767 -0.1300468 -0.953184 -0.2729984 
-141 307 767 -0.1600028 -0.9464587 -0.2803838 
-140 306 766 -0.1831778 -0.9296263 -0.3197509 
-138 306 765 -0.1251165 -0.9310619 -0.3427384 
-137 306 766 -0.1183661 -0.9444284 -0.3066668 
-136 306 766 -0.1038728 -0.9441751 -0.3126402 
-135 306 765 -0.06692122 -0.9255602 -0.372639 
-134 306 766 -0.05237411 -0.9470962 -0.3166478 
-132 306 766 -0.09194722 -0.9622728 -0.2560798 
-131 306 765 -0.1399679 -0.9193388 -0.3677298 
-130 306 765 -0.1388321 -0.9291523 -0.3426393 
-128 306 764 -0.08347932 -0.8378845 -0.5394264 
-127 305 763 -0.05491835 -0.8375073 -0.5436593 
-126 306 764 0.003211389 -0.8428809 -0.5380906 
-125 306 764 0.01802004 -0.8083488 -0.5884281 
-124 306 764 0.06246375 -0.8376358 -0.5426459 
-122 306 764 0.02329699 -0.8103251 -0.5855172 
-121 306 764 -0.04769324 -0.803959 -0.5927692 
-120 306 764 -0.09529771 -0.8017179 -0.5900567 
-119 305 763 -0.1099367 -0.8267111 -0.5517814 
-117 305 763 -0.09692305 -0.8786009 -0.4676177 
-116 305 763 -0.05986285 -0.9004925 -0.4307316 
-115 305 763 -0.01397169 -0.8759837 -0.4821385 
-114 305 763 0.06252249 -0.8591714 -0.5078538 
-112 305 763 0.1335485 -0.8365013 -0.5314419 
-111 306 764 0.1611664 -0.8749583 -0.456589 
-110 306 764 0.07956488 -0.8923848 -0.444206 
-109 306 764 -0.01191511 -0.8910809 -0.4536881 
-108 306 764 -0.08867816 -0.8812233 -0.4643078 
-107 306 764 -0.09882867 -0.8562112 -0.507085 
-105 305 763 -0.2523335 -0.8317798 -0.4944393 
-104 305 763 -0.2602612 -0.8292199 -0.4946296 
-103 305 762 -0.2015248 -0.8498446 -0.4869825 
-101 305 762 -0.05864153 -0.8912916 -0.4496225 
-100 305 762 0.05162682 -0.8955133 -0.44203 
-99 305 762 0.1209673 -0.8866945 -0.4462509 
-98 305 763 0.1885738 -0.8529922 -0.4866665 
-97 305 763 0.2029905 -0.822199 -0.5317742 
-96 306 764 0.1894709 -0.7882903 -0.5854053 
-94 306 764 0.07091586 -0.7635058 -0.6418955 
-93 306 764 0.001848021 -0.7566187 -0.6538537 
-92 306 764 -0.100116 -0.7464173 -0.6579043 
-91 306 763 -0.2002368 -0.6996242 -0.6858799 
-89 306 763 -0.2504741 -0.7005 -0.6682534 
-88 305 762 -0.2487665 -0.7170339 -0.6511357 
-87 305 762 -0.2099606 -0.7412764 -0.6375154 
-86 305 762 -0.1686458 -0.7744319 -0.6097654 
-84 305 762 -0.08303793 -0.8199342 -0.5664033 
-83 305 762 -0.03904393 -0.8197708 -0.5713593 
-82 305 762 0.04210125 -0.8263202 -0.5616249 
-81 305 762 0.0935061 -0.8202935 -0.5642475 
-79 305 762 0.1739446 -0.7985769 -0.5762103 
-78 305 762 0.1171475 -0.7882032 -0.6041624 
-77 306 763 0.05833063 -0.7339709 -0.6766713 
-76 306 763 -0.001826211 -0.7403612 -0.6722069 
-75 306 763 -0.06404243 -0.7658347 -0.6398404 
-73 306 763 -0.07989083 -0.825673 -0.5584636 
-72 305 762 -0.1459668 -0.8275684 -0.5420555 
-71 305 762 -0.1591411 -0.8499494 -0.5022553 
-70 305 762 -0.1537137 -0.837849 -0.5238141 
-68 305 762 -0.1529884 -0.794047 -0.588289 
-67 305 762 -0.09813349 -0.7970782 -0.5958492 
-66 305 761 -0.0762018 -0.7742956 -0.6282194 
-65 305 761 -0.05584705 -0.7651608 -0.6414126 
-64 305 761 -0.04859062 -0.7520536 -0.6573085 
-62 305 761 0.1263907 -0.7382236 -0.6626095 
-61 305 761 0.1501751 -0.7042888 -0.6938479 
-60 305 761 0.1454363 -0.70823 -0.6908391 
-59 305 762 0.1632924 -0.736885 -0.6560001 
-57 305 762 0.2079693 -0.7131869 -0.6694126 
-56 305 762 0.239215 -0.6052049 -0.7592782 
-55 305 762 0.1586498 -0.6178572 -0.7701186 
-54 306 763 0.102193 -0.5687284 -0.8161523 
-53 306 763 0.00919661 -0.5295135 -0.8482516 
-51 306 763 -0.1384225 -0.4761244 -0.8684152 
-50 305 762 -0.2044632 -0.5283618 -0.8240319 
-49 305 761 -0.2542869 -0.4459113 -0.8581964 
-48 305 761 -0.2513248 -0.4470494 -0.858477 
-46 305 761 -0.02507514 -0.5225859 -0.8522179 
-45 305 761 0.0734983 -0.5180846 -0.8521657 
-44 305 761 0.1676105 -0.5096818 -0.8438787 
-43 305 761 0.2592811 -0.4946473 -0.8295163 
-42 305 762 0.289722 -0.5675367 -0.7706901 
-40 305 762 0.3644534 -0.5631177 -0.7416685 
-39 306 763 0.3804087 -0.3216848 -0.8670687 
-38 306 763 0.2853909 -0.4232592 -0.8598859 
-37 306 763 0.2458119 -0.4607283 -0.8528222 
-36 306 764 0.1944565 -0.4441506 -0.8745953 
-34 306 764 0.1523868 -0.5505497 -0.820776 
-33 306 764 0.05417746 -0.630649 -0.7741749 
-32 306 764 0.03460032 -0.6250105 -0.7798492 
-31 306 764 0.03213342 -0.580941 -0.8133112 
-29 306 764 0.1280497 -0.5444133 -0.8289858 
-28 306 764 0.1619064 -0.5980871 -0.7849064 
-27 307 765 0.1839522 0.07332958 -0.9801961 
-26 307 765 0.2144604 -0.04931947 -0.9754867 
-25 307 765 0.1604043 0.1337201 -0.9779516 
-23 307 766 0.1485689 0.1325549 -0.9799778 
-22 307 766 0.1805625 0.080787 -0.9802401 
-21 307 766 0.05454546 0.1927414 -0.9797324 
-20 307 766 0.001630663 0.1757525 -0.9844331 
-19 307 766 -0.4407549 -0.2787442 -0.8532507 
-17 307 765 -0.239965 -0.0962568 -0.9659976 
-16 306 764 -0.3537184 -0.2015717 -0.9133741 
-15 306 764 -0.3323289 -0.318072 -0.887912 
-14 306 764 -0.2740438 -0.4261181 -0.8621621 
-12 306 764 -0.08886894 -0.3112878 -0.9461513 
-11 306 763 -0.05287292 -0.4052877 -0.9126589 
-10 306 763 -0.05018597 -0.3315835 -0.9420901 
-9 306 764 -0.04432815 -0.1348402 -0.9898754 
-7 306 764 0.02385668 -0.4487907 -0.8933185 
-6 306 764 0.03193886 -0.02978788 -0.9990458 
-5 306 763 -0.009503973 -0.260893 -0.9653209 
-4 306 763 -0.09567526 -0.2273991 -0.9690903 
-3 306 763 -0.08148664 -0.180046 -0.9802772 
-1 306 763 -0.02351089 -0.02860319 -0.9993143 
0 306 763 -0.07387336 -0.02599713 -0.9969288 
1 306 763 -0.1139755 0.04321779 -0.9925431 
2 306 763 -0.139539 -0.004412868 -0.9902068 
4 306 763 -0.2971099 0.1733096 -0.9389833 
5 305 762 -0.3051462 -0.105191 -0.9464781 
6 305 761 -0.3268471 0.02540686 -0.9447357 
7 305 761 -0.3324371 0.02990441 -0.9426513 
8 305 760 -0.3278239 0.04334948 -0.9437438 
10 305 760 -0.2170793 -0.06125464 -0.9742302 
11 305 760 -0.1339241 -0.04870518 -0.989794 
12 305 760 -0.08371832 -0.04713064 -0.9953743 
13 305 760 -0.04507492 0.04225565 -0.9980896 
15 305 760 -0.1398099 0.04638322 -0.9890914 
16 305 760 -0.2851859 -0.05478435 -0.9569053 
17 305 760 -0.1578641 -0.1102251 -0.9812897 
18 305 760 -0.2190905 -0.1279131 -0.9672837 
19 304 759 -0.05581695 -0.1701214 -0.983841 
21 305 760 -0.2080814 -0.3229964 -0.9232419 
22 305 760 -0.226195 -0.4163498 -0.8806184 
23 304 759 -0.05843313 -0.5435449 -0.8373438 
24 304 759 -0.1866686 -0.5027122 -0.8440588 
25 304 759 -0.1633071 -0.5384268 -0.8266966 
27 304 759 -0.1778219 -0.5945716 -0.7841326 
28 304 759 -0.152435 -0.6118423 -0.7761524 
29 304 759 -0.1271833 -0.6123675 -0.7802759 
30 304 758 -0.09160423 -0.660168 -0.7455112 
32 304 759 -0.03823082 -0.6321332 -0.7739161 
33 304 759 -0.04922777 -0.6412029 -0.7657908 
34 304 758 -0.03017178 -0.7090902 -0.704472 
35 304 759 0.007181918 -0.6716968 -0.7407913 
36 304 759 0.001826965 -0.6656689 -0.7462451 
38 304 759 -0.06352568 -0.655498 -0.7525204 
39 304 759 -0.06161503 -0.6415864 -0.7645721 
40 304 759 -0.09112981 -0.6083723 -0.7884026 
41 304 759 -0.05993403 -0.5527105 -0.8312153 
43 304 759 0.02360059 -0.4648369 -0.8850817 
44 304 759 0.06446657 -0.4655041 -0.8826947 
45 304 759 0.1461606 -0.4193637 -0.8959751 
46 305 760 0.2308022 -0.4277945 -0.8739122 
47 305 760 0.2642579 -0.4334722 -0.8615507 
49 305 761 0.125129 -0.4499556 -0.8842413 
50 305 761 0.02697105 -0.467939 -0.8833491 
51 305 761 -0.07913579 -0.4687093 -0.8798007 
52 305 761 -0.1940432 -0.4531496 -0.8700591 
54 305 760 -0.3602403 -0.5254447 -0.7708014 
55 304 759 -0.4433586 -0.4711351 -0.7625384 
56 304 758 -0.4512986 -0.5041749 -0.7362998 
57 304 758 -0.4333836 -0.5408311 -0.7208886 
58 303 757 -0.3528555 -0.574836 -0.7382795 
59 303 756 -0.2715044 -0.7540807 -0.5980366 
61 303 756 -0.1407352 -0.7934606 -0.5921265 
62 303 756 -0.05211856 -0.8008798 -0.5965527 
63 303 756 -0.0180349 -0.8323833 -0.5539067 
64 303 756 0.02075931 -0.823332 -0.5671803 
65 303 756 0.0806013 -0.8246605 -0.5598558 
67 303 756 0.09589379 -0.854976 -0.5097259 
68 303 756 0.1194916 -0.8477045 -0.5168355 
69 303 756 0.1040061 -0.8662527 -0.4886604 
70 303 756 0.08917845 -0.8864568 -0.454138 
71 303 757 0.05174601 -0.7783732 -0.6256657 
73 303 757 0.03750471 -0.6764402 -0.7355421 
74 303 757 0.05278814 -0.6150466 -0.7867217 
75 303 757 0.1782884 -0.5707656 -0.8015234 
77 304 759 0.2073019 -0.4716037 -0.8570974 
78 304 759 0.2324259 -0.508529 -0.8290817 
79 304 759 0.2111931 -0.5829445 -0.7845848 
80 304 759 0.240861 -0.6461328 -0.7242227 
81 304 759 0.161264 -0.7975649 -0.5812781 
83 304 759 0.06165576 -0.8125162 -0.579669 
84 304 759 0.03738293 -0.7864535 -0.6165171 
85 304 759 -0.03716821 -0.7363999 -0.6755248 
86 304 759 -0.1065845 -0.6393925 -0.7614572 
87 304 759 -0.1895363 -0.6433804 -0.7417126 
89 304 758 -0.2904227 -0.7927099 -0.5359716 
90 304 758 -0.2912151 -0.7956182 -0.5312113 
91 304 758 -0.2613625 -0.7856385 -0.5607691 
92 303 757 -0.1606495 -0.7592188 -0.630697 
93 303 756 -0.06763502 -0.870314 -0.487831 
94 302 755 0.03626671 -0.9304274 -0.3646774 
96 303 756 -0.02076581 -0.9021233 -0.4309784 
97 303 757 0.0009936192 -0.8668362 -0.4985921 
98 303 757 -0.01989259 -0.8653546 -0.5007652 
99 303 757 -0.02219655 -0.8585964 -0.5121713 
100 303 756 -0.08873203 -0.9096391 -0.405812 
102 303 756 -0.1672401 -0.9073859 -0.3855924 
103 303 756 -0.179122 -0.9168507 -0.3567916 
104 303 756 -0.169248 -0.9013726 -0.3986008 
105 302 755 -0.1642676 -0.927302 -0.3363439 
106 302 754 -0.1720161 -0.9484161 -0.2663032 
107 302 754 -0.1447484 -0.946815 -0.2873835 
109 302 754 -0.05694139 -0.9511014 -0.3035851 
110 302 754 0.04874662 -0.9410498 -0.3347374 
111 302 754 0.1045188 -0.9431437 -0.3155249 
112 302 755 0.1069625 -0.9329404 -0.3437751 
114 302 755 0.1586992 -0.9112996 -0.379931 
115 303 756 0.1650248 -0.9117961 -0.3760249 
116 303 756 0.1530079 -0.8969604 -0.4147901 
117 303 757 0.1273541 -0.842125 -0.524029 
119 303 757 0.07275476 -0.8646172 -0.4971357 
120 303 756 0.003683084 -0.931142 -0.3646384 
121 303 756 -0.02311855 -0.9446334 -0.3273123 
122 302 754 -0.04720088 -0.9470918 -0.3174733 
123 302 755 -0.03791713 -0.9528587 -0.3010359 
124 302 755 -0.0859425 -0.9513178 -0.2959872 
126 302 755 -0.05994353 -0.9508242 -0.3038751 
127 302 754 -0.09215341 -0.9194069 -0.3823594 
128 302 754 -0.09757963 -0.9175309 -0.3855067 
129 302 754 -0.1541225 -0.9207649 -0.3583828 
130 302 754 -0.1464841 -0.9198157 -0.3639802 
131 301 753 -0.1724441 -0.8963978 -0.4083309 
132 301 753 -0.242767 -0.8637755 -0.4415384 
134 301 753 -0.1548743 -0.8929957 -0.4225785 
135 301 753 -0.132384 -0.9062986 -0.4013695 
136 301 753 -0.09197883 -0.9081107 -0.4085031 
137 301 753 -0.1525138 -0.8933212 -0.4227491 
138 301 752 -0.1944682 -0.8393276 -0.5076528 
140 301 752 -0.07589369 -0.846756 -0.5265401 
141 301 752 -0.05316159 -0.818417 -0.5721605 
142 301 752 0.02872618 -0.8005709 -0.5985492 
143 301 753 0.0899434 -0.8185073 -0.5674117 
144 301 752 0.1684122 -0.7386833 -0.6526747 
146 301 753 0.03246596 -0.7749748 -0.6311577 
147 301 753 -0.06296778 -0.8035626 -0.5918801 
148 301 752 -0.1717981 -0.7425173 -0.6474206 
149 301 752 -0.2693103 -0.7199715 -0.6396195 
150 300 751 -0.3979505 -0.7181517 -0.5708709 
151 300 750 -0.3664702 -0.5533794 -0.7479779 
152 299 749 -0.1783543 -0.6433125 -0.7445394 
153 299 749 -0.1413219 -0.6246618 -0.7680011 
154 299 749 -0.07022796 -0.6447602 -0.761152 
156 299 749 0.184927 -0.6229936 -0.7600532 
157 300 750 0.3252288 -0.4516411 -0.8308108 
158 300 750 0.4691364 -0.4170003 -0.7784741 
159 300 750 0.5239807 -0.4679402 -0.7116715 
-192 309 772 -0.02650282 -0.9987847 -0.04155566 
-191 309 771 -0.04787859 -0.9964277 -0.06956715 
-190 309 771 -0.02978041 -0.9974846 -0.06432422 
-188 309 771 -0.03498707 -0.9987521 -0.0356406 
-187 309 770 -0.04775684 -0.9979305 -0.04305804 
-186 309 771 -0.03071363 -0.9995207 0.003893203 
-185 309 771 -0.04849238 -0.9987249 0.01403837 
-184 309 771 -0.04878219 -0.9986183 0.01953852 
-182 309 771 -0.0738529 -0.9972537 0.005555805 
-181 309 770 -0.0793947 -0.996792 -0.01010944 
-180 309 770 -0.0891071 -0.9959614 -0.01099214 
-178 308 769 -0.08553419 -0.9945013 -0.06042401 
-177 308 768 -0.0336893 -0.9877735 -0.1522126 
-176 308 768 -0.04434882 -0.9885872 -0.1439743 
-174 308 768 -0.08696988 -0.9903941 -0.1074989 
-173 308 767 -0.08769879 -0.9769852 -0.194445 
-172 308 767 -0.09275436 -0.9794502 -0.1790917 
-170 308 767 -0.1470821 -0.9678521 -0.2040323 
-169 308 767 -0.142979 -0.9651468 -0.2192003 
-168 307 766 -0.1671293 -0.9587375 -0.2299789 
-166 307 765 -0.1555745 -0.9551386 -0.2520057 
-165 307 765 -0.1450843 -0.9487683 -0.2806946 
-164 307 765 -0.1535818 -0.9539958 -0.2574971 
-163 307 765 -0.113675 -0.9706069 -0.2121329 
-161 306 764 0.02913008 -0.9722907 -0.2319529 
-160 306 764 0.09615187 -0.960598 -0.2607802 
-159 307 764 0.1724551 -0.9381456 -0.3002368 
-158 307 765 0.1538102 -0.9419917 -0.2983187 
-157 307 765 0.1229332 -0.9407516 -0.3160285 
-155 307 765 0.0743582 -0.933732 -0.3501648 
-154 307 765 0.03445368 -0.9167004 -0.3980869 
-153 307 765 0.02381699 -0.926623 -0.3752367 
-152 307 765 -0.01055341 -0.9180913 -0.3962285 
-151 307 765 -0.02557555 -0.9309279 -0.3643064 
-149 307 765 0.02563883 -0.9475735 -0.3185078 
-148 307 764 0.05465337 -0.9074209 -0.4166538 
-147 307 764 0.07209631 -0.8985911 -0.4328235 
-146 307 765 0.0823457 -0.8879968 -0.4524167 
-144 307 765 0.04769913 -0.9243292 -0.3786031 
-143 307 766 -0.0572435 -0.9435644 -0.3262045 
-142 307 765 -0.1297724 -0.9028128 -0.4099855 
-141 307 765 -0.1676961 -0.8968946 -0.4092164 
-139 307 764 -0.1809492 -0.8862575 -0.4263862 
-138 306 763 -0.1587811 -0.8861675 -0.435311 
-137 307 764 -0.09650852 -0.9113479 -0.4001639 
-136 307 764 -0.07382282 -0.9074667 -0.4135872 
-135 307 764 -0.05030575 -0.9031568 -0.4263535 
-133 307 764 -0.01818895 -0.8945817 -0.446534 
-132 307 764 -0.08375534 -0.8686588 -0.4882797 
-131 306 763 -0.1482868 -0.8406731 -0.5208452 
-129 306 763 -0.1256895 -0.8091022 -0.5740696 
-128 306 762 -0.05083711 -0.7715235 -0.6341666 
-127 306 762 -0.006580298 -0.7520297 -0.6590965 
-126 306 762 0.0002804524 -0.7563401 -0.6541786 
-125 306 763 0.02764881 -0.8001232 -0.5991983 
-123 306 763 0.06412283 -0.7785178 -0.6243383 
-122 306 763 0.01839005 -0.7972626 -0.6033525 
-121 306 763 -0.04671897 -0.7983931 -0.6003214 
-120 306 763 -0.1100129 -0.7808451 -0.6149619 
-119 307 763 -0.1365694 -0.7798041 -0.6109455 
-117 307 763 -0.1316825 -0.798345 -0.5876266 
-116 306 762 -0.06626666 -0.7999066 -0.5964547 
-115 306 762 -0.01925559 -0.8150605 -0.5790558 
-114 306 762 0.05593091 -0.8059634 -0.5893172 
-112 306 762 0.1851774 -0.7969384 -0.574977 
-111 307 763 0.1836626 -0.7668093 -0.6150379 
-110 307 763 0.1010319 -0.7508246 -0.6527288 
-109 307 763 -0.02622894 -0.7369989 -0.6753848 
-108 307 763 -0.08702032 -0.7467763 -0.6593578 
-106 307 763 -0.1809066 -0.7974362 -0.5756459 
-105 306 762 -0.2523817 -0.7672603 -0.5895891 
-104 306 762 -0.2847724 -0.7804906 -0.556542 
-102 306 761 -0.2021645 -0.8287063 -0.5218961 
-101 306 761 -0.1082296 -0.8452504 -0.5232956 
-100 306 761 0.02685709 -0.8695212 -0.493165 
-99 306 761 0.1457856 -0.8678578 -0.4749415 
-98 306 762 0.2275426 -0.8442213 -0.4852988 
-96 306 762 0.256654 -0.7828988 -0.5667435 
-95 307 763 0.1921835 -0.7618402 -0.6185994 
-94 307 763 0.1158485 -0.7641264 -0.6345786 
-93 307 763 0.0004594622 -0.7455363 -0.6664648 
-92 307 763 -0.1006419 -0.7249204 -0.6814409 
-91 307 763 -0.2034288 -0.7015894 -0.6829268 
-89 306 762 -0.2582648 -0.6855196 -0.6807072 
-88 306 761 -0.2751853 -0.692027 -0.6673619 
-87 306 761 -0.2475667 -0.7120803 -0.6570026 
-85 306 761 -0.1225552 -0.7492168 -0.6508874 
-84 306 761 -0.05262795 -0.7476941 -0.6619546 
-83 306 761 -0.03301084 -0.7628265 -0.6457601 
-82 306 761 0.001210178 -0.7379215 -0.6748854 
-81 306 761 0.09767722 -0.7325824 -0.6736336 
-79 306 761 0.2149238 -0.734324 -0.6438757 
-78 306 761 0.1910926 -0.7251503 -0.6615441 
-77 306 762 0.05943986 -0.7415855 -0.6682199 
-76 306 761 -0.003258046 -0.7263988 -0.6872658 
-74 306 761 -0.1415419 -0.7345427 -0.6636362 
-73 306 761 -0.1508184 -0.7453516 -0.649388 
-72 306 761 -0.169855 -0.7426189 -0.6478167 
-71 306 761 -0.1504641 -0.7235135 -0.6737127 
-70 306 761 -0.1389246 -0.7167917 -0.6833079 
-68 306 761 -0.09910603 -0.7055805 -0.7016653 
-67 306 760 -0.07062948 -0.6537566 -0.7534015 
-66 306 760 -0.08281646 -0.6321881 -0.7703763 
-65 306 760 -0.04346524 -0.6242 -0.7800546 
-63 306 760 0.05093661 -0.581319 -0.8120799 
-62 306 760 0.1471742 -0.5505337 -0.8217374 
-61 306 760 0.1800433 -0.5565969 -0.8110391 
-60 306 760 0.1877019 -0.5759766 -0.7956249 
-59 306 761 0.1993289 -0.5428909 -0.8158048 
-57 306 761 0.2675513 -0.4649197 -0.8439586 
-56 306 761 0.3324971 -0.4715281 -0.8167661 
-55 306 761 0.1637804 -0.4528575 -0.8764109 
-54 307 762 0.1231515 -0.3279822 -0.9366223 
-53 307 762 0.06081995 -0.2860136 -0.9562935 
-51 307 762 -0.1188925 -0.2130092 -0.9697895 
-50 306 761 -0.1513577 -0.3270132 -0.9328201 
-49 306 761 -0.2136698 -0.2773403 -0.9367111 
-48 306 760 -0.1753987 -0.1553125 -0.9721694 
-46 306 760 -0.02344291 -0.1776477 -0.9838149 
-45 306 760 0.06765941 -0.1583902 -0.9850557 
-44 306 760 0.143101 -0.1746005 -0.9741852 
-43 306 760 0.2457469 -0.1842185 -0.951668 
-42 306 761 0.2789736 -0.3091483 -0.909176 
-40 306 761 0.396345 -0.3712617 -0.8396876 
-39 307 762 0.4082783 0.08216389 -0.9091523 
-38 307 762 0.3638474 -0.03637044 -0.9307483 
-37 307 762 0.2867714 0.04117638 -0.9571138 
-36 307 763 0.2112144 -0.1031297 -0.9719839 
-34 307 763 0.08689704 -0.4214282 -0.9026889 
-33 307 763 0.07474321 -0.4767547 -0.8758529 
-32 307 763 0.06892135 -0.4464269 -0.892162 
-31 307 763 0.05306969 -0.423163 -0.904498 
-29 307 762 0.1023742 -0.4638286 -0.87999 
-28 307 763 0.1869754 -0.3461865 -0.9193449 
-27 307 763 0.2041427 -0.09989181 -0.9738314 
-26 307 764 0.2137088 0.01908029 -0.976711 
-25 308 765 0.1743799 0.1297747 -0.9760892 
-23 308 765 0.1799228 0.06979208 -0.9812017 
-22 308 766 0.1334136 0.2462557 -0.9599786 
-21 308 766 0.08605589 0.2997228 -0.9501372 
-20 308 766 0.03606694 0.370155 -0.9282696 
-19 308 766 -0.05038076 0.3645166 -0.9298331 
-17 308 765 -0.1781124 0.09492885 -0.9794205 
-16 307 764 -0.3230127 -0.0747425 -0.9434386 
-15 307 764 -0.311312 0.05838704 -0.9485124 
-14 307 764 -0.2449846 0.1863944 -0.9514408 
-12 307 764 -0.06003274 0.08818701 -0.9942933 
-11 307 763 -0.0363446 0.1988803 -0.9793497 
-10 307 764 0.0007851477 0.2923088 -0.9563237 
-9 307 764 -0.04460241 0.1675201 -0.9848592 
-7 308 765 0.05781373 0.3167983 -0.9467294 
-6 308 765 0.1200967 0.2568263 -0.9589667 
-5 308 765 0.02106579 0.2240022 -0.9743609 
-4 308 765 -0.05103192 0.2370706 -0.9701512 
-3 308 766 -0.06333576 0.5013273 -0.8629366 
-1 308 766 -0.09096865 0.489628 -0.8671731 
0 308 765 -0.1107435 0.4211664 -0.900197 
1 308 765 -0.2101776 0.3719763 -0.9041345 
2 308 765 -0.30495 0.3423353 -0.8887137 
4 308 765 -0.3747249 0.3086037 -0.8742682 
5 307 764 -0.3644246 0.2230133 -0.9041349 
6 307 763 -0.3567065 0.04144108 -0.9332969 
7 307 762 -0.4304705 0.01529759 -0.9024751 
8 307 762 -0.3628742 0.06616493 -0.9294862 
10 307 762 -0.1591751 0.05491913 -0.9857217 
11 307 762 -0.08102719 0.07342089 -0.9940041 
12 307 762 -0.08945975 0.08634193 -0.9922409 
13 307 763 -0.07864404 0.1303197 -0.9883481 
15 307 763 -0.1220328 0.01839192 -0.9923557 
16 307 762 -0.20516 0.01227914 -0.9786515 
17 307 762 -0.2207317 -0.0242677 -0.9750326 
18 307 762 -0.2086038 -0.0516607 -0.9766349 
19 307 762 -0.2019637 -0.160834 -0.9660968 
21 306 761 -0.2755593 -0.2815515 -0.9191278 
22 306 760 -0.2755148 -0.4819939 -0.8317292 
23 306 760 -0.2344785 -0.5534659 -0.7991842 
24 305 759 -0.1634929 -0.6096254 -0.7756461 
25 305 759 -0.2188766 -0.5232117 -0.8236156 
27 305 759 -0.1856689 -0.6036888 -0.7752979 
28 305 759 -0.1076601 -0.6302783 -0.7688684 
29 305 758 -0.1346186 -0.7034523 -0.6978773 
30 305 758 -0.1034087 -0.692709 -0.7137653 
32 305 758 -0.1005566 -0.7323022 -0.6735146 
33 305 758 -0.06974071 -0.7711729 -0.6327943 
34 305 757 -0.05585894 -0.8573146 -0.5117534 
35 305 758 -0.03520821 -0.7664449 -0.6413444 
36 305 758 -0.01241549 -0.7887139 -0.6146352 
38 305 758 -0.03503245 -0.797112 -0.6028144 
39 305 758 -0.03457122 -0.7900712 -0.6120395 
40 305 758 -0.04418596 -0.7823694 -0.6212454 
41 305 758 0.001195952 -0.7407531 -0.6717764 
42 305 758 0.03702711 -0.7113722 -0.7018395 
44 305 758 0.04990693 -0.7427191 -0.6677408 
45 305 758 0.09188771 -0.7604738 -0.6428345 
46 305 759 0.2227271 -0.5982831 -0.7697078 
47 305 759 0.2885699 -0.6341946 -0.7173038 
49 305 759 0.1096818 -0.6179766 -0.7785081 
50 305 759 0.0357435 -0.5718797 -0.8195584 
51 306 760 -0.1033728 -0.539267 -0.8357663 
52 305 759 -0.1900432 -0.5814484 -0.7910761 
53 305 759 -0.3158836 -0.4961033 -0.8087639 
55 305 758 -0.4238126 -0.5401619 -0.7270543 
56 305 757 -0.4132702 -0.7789398 -0.4716572 
57 305 757 -0.3841426 -0.7230495 -0.5741376 
58 304 756 -0.3284736 -0.8391336 -0.4335435 
59 304 755 -0.2720758 -0.8608816 -0.4299508 
60 303 754 -0.1636879 -0.9044163 -0.3940019 
62 303 754 -0.07401294 -0.9320071 -0.3548026 
63 303 754 -0.02490975 -0.935486 -0.3524849 
64 303 754 0.0203994 -0.9243063 -0.3811057 
65 303 754 0.06883144 -0.932076 -0.3556635 
66 303 754 0.06802803 -0.917622 -0.3915891 
68 303 754 0.1196959 -0.9077283 -0.4021223 
69 303 754 0.1397017 -0.9077699 -0.3955215 
70 304 755 0.1418632 -0.8893909 -0.4345788 
71 304 755 0.1165056 -0.8754079 -0.4691349 
73 304 755 0.1836484 -0.845153 -0.5019858 
74 304 756 0.1835329 -0.7914219 -0.583067 
75 304 756 0.2541404 -0.7806528 -0.5709587 
76 304 757 0.2252446 -0.721704 -0.654529 
78 304 757 0.1444221 -0.7861978 -0.6008621 
79 304 757 0.05401663 -0.8320667 -0.5520393 
80 304 757 0.07538557 -0.8397597 -0.5376995 
81 304 757 0.04767785 -0.8907221 -0.4520409 
82 304 757 0.0740617 -0.9094859 -0.4090845 
84 304 757 -0.03169435 -0.9503657 -0.3095165 
85 304 756 -0.02238286 -0.9628727 -0.2690261 
86 304 756 -0.02089026 -0.9648266 -0.2620557 
87 304 756 -0.1150315 -0.9426295 -0.3133965 
88 304 756 -0.1921457 -0.9238458 -0.3310422 
90 304 756 -0.2399901 -0.8935519 -0.3794336 
91 304 755 -0.2034718 -0.940374 -0.2725733 
92 303 754 -0.1305421 -0.9559048 -0.2630677 
93 303 754 -0.01315256 -0.9671178 -0.2539886 
94 303 753 0.08970445 -0.9387111 -0.3328281 
95 303 754 0.001930758 -0.957249 -0.2892585 
97 304 755 0.04897543 -0.9155332 -0.3992497 
98 304 755 0.04575646 -0.9118237 -0.4080245 
99 304 755 -0.03155293 -0.9029227 -0.4286433 
100 303 754 -0.09135862 -0.920668 -0.3795051 
101 303 754 -0.1996152 -0.9119248 -0.3585342 
103 303 754 -0.2460669 -0.9230078 -0.295817 
104 303 753 -0.1888846 -0.9068365 -0.3767894 
105 302 752 -0.1204621 -0.929634 -0.3482376 
106 302 752 -0.1104111 -0.8997138 -0.4222849 
107 302 752 -0.1262025 -0.8816395 -0.4547359 
108 302 751 -0.01376027 -0.8752229 -0.4835241 
110 302 752 0.07548708 -0.8564599 -0.5106645 
111 302 752 0.08804271 -0.8546811 -0.5116333 
112 302 752 0.1539101 -0.8676741 -0.4727087 
113 303 753 0.1896282 -0.8563886 -0.4802496 
114 302 752 0.1459645 -0.8835939 -0.4449227 
116 303 753 0.1369082 -0.8980819 -0.4179772 
117 303 754 0.1133412 -0.9201223 -0.3748718 
118 303 754 0.009614708 -0.9402515 -0.3403452 
119 303 754 -0.051292 -0.9301681 -0.3635334 
120 303 753 -0.07259177 -0.8897441 -0.4506506 
122 302 752 -0.0620406 -0.8548297 -0.5151865 
123 303 753 -0.01418826 -0.8595383 -0.5108745 
124 303 753 -0.06040599 -0.8493195 -0.5244116 
125 303 753 -0.04516664 -0.8301735 -0.5556726 
126 302 752 -0.07080771 -0.7619856 -0.6437114 
128 302 752 -0.1458208 -0.6899256 -0.7090408 
129 302 752 -0.1239227 -0.7387825 -0.6624527 
130 302 752 -0.1854001 -0.7767603 -0.6018889 
131 302 751 -0.1536476 -0.5883282 -0.7938906 
132 302 751 -0.1640654 -0.6314417 -0.7578681 
133 302 751 -0.1506247 -0.5964675 -0.7883773 
134 301 750 -0.1599547 -0.4360635 -0.8855863 
136 302 751 -0.09633898 -0.5114043 -0.853923 
137 302 751 -0.1480602 -0.6016706 -0.7849016 
138 301 750 -0.04910975 -0.6509516 -0.7575291 
139 301 750 -0.05699873 -0.6833043 -0.7279055 
140 301 749 -0.04488308 -0.5810223 -0.8126491 
141 301 749 0.0502791 -0.5782723 -0.8142931 
143 302 751 0.1763761 -0.6029302 -0.7780531 
144 302 751 0.1886277 -0.6046001 -0.7738723 
145 302 751 0.1132161 -0.5996397 -0.7922212 
147 302 752 -0.1019233 -0.6856191 -0.72079 
148 302 751 -0.1837384 -0.5948261 -0.7825741 
149 301 751 -0.3545719 -0.6554886 -0.6667936 
150 301 750 -0.3801702 -0.4194983 -0.8243129 
151 301 750 -0.2659626 -0.2587231 -0.9286153 
152 301 749 -0.2054467 -0.1699223 -0.963804 
153 301 749 -0.1091698 -0.1240596 -0.9862511 
154 301 749 0.005921535 -0.09134587 -0.9958016 
156 301 749 0.1385792 -0.02120033 -0.9901245 
157 301 750 0.2493343 -0.1590905 -0.9552605 
158 301 750 0.3545738 -0.2687706 -0.8955667 
159 301 750 0.3916197 -0.3058822 -0.8677962 
-191 309 768 -0.0976145 -0.9824518 -0.1589338 
-190 309 767 -0.09448273 -0.9757698 -0.1973483 
-189 309 768 -0.108914 -0.9853931 -0.1309129 
-188 309 768 -0.0795355 -0.9915607 -0.1023795 
-186 309 767 -0.08492767 -0.9827986 -0.1639947 
-185 309 767 -0.09036563 -0.983932 -0.1539864 
-184 309 767 -0.08330161 -0.9819727 -0.1696778 
-182 308 766 -0.07941055 -0.9743 -0.2107926 
-181 308 766 -0.07207565 -0.9740964 -0.2143395 
-180 308 766 -0.04788911 -0.9690821 -0.2420465 
-179 308 766 -0.05827505 -0.9714606 -0.2299311 
-177 308 765 -0.04260407 -0.9380236 -0.3439428 
-176 308 764 -0.07645857 -0.8794932 -0.4697295 
-175 308 764 -0.1149685 -0.8642017 -0.4898343 
-173 308 764 -0.09605174 -0.8579089 -0.5047439 
-172 307 763 -0.1046489 -0.8342294 -0.5413963 
-171 307 763 -0.111244 -0.8423554 -0.527316 
-170 307 763 -0.1075792 -0.8224624 -0.5585538 
-169 308 764 -0.1419595 -0.8732159 -0.4661992 
-167 308 764 -0.1832452 -0.8921117 -0.4129867 
-166 307 763 -0.2159189 -0.8465783 -0.4865021 
-165 307 763 -0.2155511 -0.8754987 -0.4324811 
-163 307 762 -0.1389948 -0.8265042 -0.545501 
-162 307 762 -0.08180445 -0.8368422 -0.5412978 
-161 307 762 0.04422375 -0.8561753 -0.5147895 
-160 307 762 0.1316032 -0.8396125 -0.5270024 
-158 307 762 0.2450974 -0.780042 -0.5757272 
-157 307 763 0.2101564 -0.870615 -0.444819 
-156 308 764 0.1556055 -0.8898156 -0.4289698 
-155 308 764 0.08393911 -0.8984818 -0.4309117 
-154 308 764 0.04320884 -0.8948046 -0.4443622 
-153 307 763 0.05161414 -0.8784963 -0.4749528 
-151 307 763 -0.02991481 -0.8722177 -0.4882023 
-150 308 764 -0.01330036 -0.8952892 -0.4452866 
-149 308 764 0.01845321 -0.899535 -0.4364587 
-148 308 764 0.07067639 -0.8893248 -0.4517811 
-146 307 763 0.08827715 -0.8789018 -0.4687629 
-145 308 764 0.08239067 -0.8703118 -0.4855607 
-144 308 765 0.04890562 -0.8884761 -0.4563096 
-143 308 765 -0.0373963 -0.9045288 -0.4247696 
-142 308 764 -0.1456085 -0.8339464 -0.532289 
-141 308 764 -0.1588765 -0.8401085 -0.5186289 
-139 308 764 -0.2265342 -0.8472415 -0.4804833 
-138 307 762 -0.1483478 -0.8161032 -0.5585415 
-137 307 762 -0.0825834 -0.8152114 -0.5732455 
-135 307 762 -0.03881466 -0.8151977 -0.5778807 
-134 308 763 -0.01504613 -0.8405162 -0.5415774 
-133 308 763 0.01977441 -0.8519301 -0.5232821 
-132 307 762 -0.08863533 -0.7869164 -0.6106606 
-131 307 762 -0.1171035 -0.76431 -0.634127 
-129 307 762 -0.112236 -0.7544597 -0.646679 
-128 307 761 -0.01785147 -0.6519359 -0.7580639 
-127 307 762 0.002416337 -0.7131723 -0.7009847 
-126 307 762 0.04569204 -0.6845268 -0.7275544 
-124 307 762 0.05833182 -0.6981453 -0.7135759 
-123 307 762 0.03744796 -0.672478 -0.7391692 
-122 307 762 -0.006592921 -0.7121829 -0.7019629 
-121 307 762 -0.05760388 -0.6801674 -0.7307901 
-120 307 762 -0.1245842 -0.7202226 -0.6824648 
-118 307 762 -0.1518446 -0.7345323 -0.6613664 
-117 307 762 -0.1296779 -0.7623265 -0.6340678 
-116 307 761 -0.1022077 -0.6980044 -0.7087619 
-115 307 761 -0.01206862 -0.6980895 -0.7159089 
-114 307 762 0.0816043 -0.7756026 -0.6259244 
-112 307 762 0.2144343 -0.7521804 -0.6230912 
-111 307 762 0.2017783 -0.7415556 -0.6398288 
-110 307 762 0.173061 -0.7456198 -0.6435068 
-109 308 763 0.0007306773 -0.7385855 -0.6741595 
-108 308 763 -0.08489911 -0.7230115 -0.6855994 
-106 307 762 -0.2230576 -0.7149051 -0.6626886 
-105 307 761 -0.3191309 -0.6937858 -0.6456134 
-104 307 761 -0.3371614 -0.7188374 -0.6079432 
-102 307 760 -0.2557016 -0.7579938 -0.6000518 
-101 307 760 -0.1104851 -0.8067034 -0.5805367 
-100 307 760 0.004809546 -0.814588 -0.5800201 
-99 307 760 0.1715893 -0.7994777 -0.575667 
-98 307 761 0.2909933 -0.8095685 -0.5098252 
-96 307 761 0.3259628 -0.7923547 -0.5156767 
-95 307 762 0.2228249 -0.7678662 -0.6006086 
-94 307 762 0.09796864 -0.7594591 -0.6431361 
-93 308 762 0.06418562 -0.7397478 -0.669816 
-92 308 762 -0.05893802 -0.7230623 -0.688264 
-90 308 762 -0.2358916 -0.6615084 -0.7118721 
-89 307 761 -0.2902472 -0.6480333 -0.7041373 
-88 307 761 -0.2979862 -0.6561293 -0.6933244 
-87 307 760 -0.2922463 -0.6526444 -0.6990332 
-85 307 760 -0.1564948 -0.6640113 -0.7311623 
-84 307 760 -0.09301091 -0.7122368 -0.6957499 
-83 306 759 0.001439884 -0.6978217 -0.71627 
-82 306 759 0.04827935 -0.6798427 -0.7317671 
-80 307 760 0.1422878 -0.6690626 -0.7294584 
-79 307 760 0.2002708 -0.6916024 -0.693958 
-78 307 760 0.1385254 -0.7139156 -0.6863929 
-77 307 761 0.09694542 -0.7187389 -0.6884883 
-76 307 760 0.0326825 -0.734414 -0.6779143 
-74 307 760 -0.1332851 -0.7141773 -0.6871579 
-73 307 760 -0.159333 -0.6845667 -0.7113237 
-72 307 760 -0.1319911 -0.6827238 -0.718656 
-71 307 760 -0.1294153 -0.6726608 -0.7285459 
-69 307 760 -0.08932545 -0.6227345 -0.7773176 
-68 307 760 -0.04934382 -0.6249061 -0.779139 
-67 306 759 -0.06856468 -0.6400594 -0.76526 
-66 306 759 -0.05357042 -0.6083089 -0.7918905 
-65 306 759 -0.02554474 -0.5964462 -0.8022466 
-63 307 760 0.1041959 -0.4986281 -0.8605308 
-62 306 759 0.1362715 -0.5450274 -0.8272697 
-61 306 759 0.1631606 -0.515874 -0.8409832 
-60 306 759 0.1920036 -0.5048941 -0.841556 
-59 307 760 0.2772677 -0.3908839 -0.8776858 
-57 307 760 0.3132078 -0.2957195 -0.9024693 
-56 307 760 0.313962 -0.2656244 -0.9115216 
-55 307 761 0.1842887 -0.2946186 -0.9376767 
-54 307 761 0.1501072 -0.3087581 -0.9392211 
-53 307 761 0.07765412 -0.2299629 -0.9700963 
-51 307 761 -0.06369126 -0.1500314 -0.9866276 
-50 307 761 -0.1406356 -0.1558819 -0.9777129 
-49 307 761 -0.1469726 -0.1069796 -0.9833384 
-48 307 761 -0.184457 -0.07333681 -0.9801007 
-46 307 760 -0.0583346 -0.08190901 -0.9949312 
-45 307 760 0.07146565 -0.06712049 -0.9951822 
-44 307 760 0.1727646 -0.06937382 -0.982517 
-43 307 761 0.2407248 0.0879693 -0.9665987 
-42 307 761 0.3162037 0.1104746 -0.9422371 
-40 308 762 0.3523879 0.1493647 -0.9238576 
-39 308 763 0.3880609 0.09009892 -0.9172192 
-38 309 764 0.4681579 0.149496 -0.8709071 
-37 309 764 0.2704327 0.1428298 -0.952085 
-36 309 765 0.2419485 0.1681549 -0.9556071 
-34 309 765 0.2335902 0.2633362 -0.9359966 
-33 309 765 0.1696723 0.2861946 -0.9430292 
-32 309 765 0.08255044 0.3089376 -0.947493 
-31 309 765 0.01917723 0.254981 -0.9667559 
-30 309 765 0.07392541 0.3192627 -0.9447785 
-28 309 765 0.1104242 0.1946173 -0.9746438 
-27 309 765 0.1534867 0.2081305 -0.9659832 
-26 309 766 0.2067198 0.3300419 -0.9210534 
-25 309 766 0.1439776 0.2865476 -0.9471858 
-23 309 766 0.1265453 0.2791709 -0.9518666 
-22 310 767 0.1461507 0.3340251 -0.9311644 
-21 310 767 0.1412731 0.3412939 -0.9292796 
-20 310 768 0.1634938 0.2966653 -0.9408823 
-19 310 768 0.1251342 0.2851838 -0.9502692 
-17 310 768 -0.02799952 0.4571801 -0.8889333 
-16 310 768 -0.1451651 0.5192659 -0.8421935 
-15 310 768 -0.1128414 0.578238 -0.808027 
-14 310 768 -0.05992313 0.6236237 -0.7794247 
-12 310 768 -0.03644709 0.6510448 -0.7581638 
-11 310 768 -0.0877448 0.6470171 -0.75741 
-10 310 767 -0.02537818 0.6029646 -0.7973642 
-9 310 768 0.06183802 0.6942749 -0.7170485 
-7 310 768 0.0700184 0.6697888 -0.7392432 
-6 310 768 0.002529571 0.6906545 -0.7231805 
-5 310 768 -0.0233647 0.7013358 -0.7124481 
-4 310 768 0.01452983 0.7006872 -0.7133207 
-3 310 768 -0.0148486 0.6744043 -0.7382129 
-1 310 768 -0.07685784 0.6762022 -0.7326962 
0 310 767 -0.1420139 0.6243475 -0.7681291 
1 310 767 -0.2697657 0.4885659 -0.8297771 
2 309 766 -0.3229804 0.4228705 -0.8466783 
4 309 766 -0.3699851 0.2976039 -0.8800813 
5 309 765 -0.4853438 0.2320946 -0.8429552 
6 309 764 -0.4181108 0.168197 -0.8926887 
7 308 763 -0.3803712 0.02237331 -0.9245632 
8 308 762 -0.3054627 0.04900323 -0.9509423 
10 308 762 -0.1484982 0.05119161 -0.9875869 
11 308 762 -0.1552067 -0.01833608 -0.9877119 
12 308 762 -0.1407022 -0.1528535 -0.9781814 
13 308 762 -0.1156043 -0.201767 -0.9725872 
15 308 762 -0.2183755 -0.1120229 -0.9694138 
16 308 762 -0.2559507 -0.3109645 -0.9153088 
17 307 761 -0.2382219 -0.09621812 -0.9664329 
18 307 761 -0.281675 -0.1070263 -0.9535222 
19 307 760 -0.3154595 -0.4204929 -0.8506886 
21 307 760 -0.357388 -0.6347564 -0.6850972 
22 307 760 -0.335936 -0.6537678 -0.6780375 
23 307 759 -0.2743778 -0.7707458 -0.5750371 
24 306 758 -0.1680124 -0.7799329 -0.6028901 
25 306 758 -0.223533 -0.7499081 -0.6226322 
27 306 758 -0.1797392 -0.7344514 -0.6544272 
28 306 758 -0.1801717 -0.7660627 -0.6169976 
29 306 757 -0.1523778 -0.8439105 -0.514389 
30 306 757 -0.1411379 -0.8404403 -0.5232019 
31 306 757 -0.1093802 -0.8771541 -0.467586 
33 306 757 -0.07862985 -0.8830808 -0.4625857 
34 305 756 -0.06037838 -0.896032 -0.439865 
35 305 756 -0.02102102 -0.8832564 -0.4684188 
36 305 756 -0.004140304 -0.8805588 -0.4739188 
37 305 756 -0.04177429 -0.8957973 -0.4424953 
39 305 756 -0.05298252 -0.8809686 -0.4701991 
40 305 756 -0.07168211 -0.8575059 -0.509456 
41 305 756 -0.02076411 -0.8593342 -0.5109928 
42 305 756 -0.005646876 -0.8793219 -0.4761944 
44 305 756 0.02227147 -0.8877366 -0.4598128 
45 305 756 0.003721921 -0.9009295 -0.4339496 
46 305 756 0.06792925 -0.895517 -0.4398124 
47 306 757 0.1397354 -0.9245566 -0.3544984 
48 305 756 0.1031637 -0.9499002 -0.295037 
50 305 756 -0.03763142 -0.9682718 -0.2470497 
51 306 757 -0.1076859 -0.9594077 -0.2606541 
52 306 757 -0.1127856 -0.9563132 -0.269712 
53 305 756 -0.1475855 -0.9479877 -0.2820247 
54 305 756 -0.2909465 -0.9017841 -0.3195868 
56 305 755 -0.33213 -0.8563141 -0.3954946 
57 305 755 -0.3403545 -0.8415663 -0.4194343 
58 305 754 -0.307869 -0.8119187 -0.4959887 
59 304 753 -0.313078 -0.8601737 -0.4025959 
60 303 751 -0.2673205 -0.8868649 -0.3768429 
61 303 751 -0.2168769 -0.8947088 -0.3904623 
63 304 752 0.06239336 -0.9099489 -0.4100001 
64 304 752 0.1278503 -0.9085484 -0.3977363 
65 304 752 0.2199002 -0.8487144 -0.4809654 
66 304 752 0.1463292 -0.8355746 -0.5295308 
67 304 752 0.166324 -0.8100803 -0.5622332 
69 304 752 0.270853 -0.7302815 -0.6271583 
70 304 753 0.2164763 -0.8160244 -0.5359497 
71 304 753 0.233905 -0.7988727 -0.5541579 
72 304 754 0.1655478 -0.8121784 -0.5594284 
74 304 754 0.3016275 -0.743971 -0.5962618 
75 304 754 0.2329909 -0.7406793 -0.6301662 
76 305 755 0.1636615 -0.8182507 -0.5510725 
77 305 756 0.06449649 -0.8354283 -0.5458019 
79 305 755 -0.1071613 -0.857724 -0.5028182 
80 304 754 -0.1204594 -0.8206227 -0.5586303 
81 304 754 -0.1679966 -0.8682273 -0.4668602 
82 304 754 -0.1605112 -0.9095829 -0.3832689 
83 304 754 -0.1478225 -0.9225862 -0.3563471 
84 304 753 -0.1671917 -0.8410982 -0.5143936 
86 304 753 -0.1533574 -0.8907922 -0.4277509 
87 304 753 -0.1465591 -0.9320525 -0.3313587 
88 304 753 -0.1373764 -0.945987 -0.2936602 
89 304 752 -0.2121928 -0.8549588 -0.4733073 
90 303 750 -0.2116615 -0.6279901 -0.7488843 
91 303 750 -0.1558634 -0.6490428 -0.7446141 
92 303 750 -0.07000504 -0.5706529 -0.8182021 
94 303 750 0.1424353 -0.3563064 -0.9234489 
95 303 750 0.1672876 -0.510945 -0.8431786 
96 303 751 0.144892 -0.6723914 -0.7258762 
97 304 752 0.08071649 -0.745861 -0.6611931 
99 303 752 0.05505979 -0.9301733 -0.3629684 
100 303 752 -0.03367556 -0.8935013 -0.447796 
101 303 751 -0.1246495 -0.6800705 -0.7224726 
102 303 751 -0.2636937 -0.7833343 -0.5628971 
103 303 751 -0.2787008 -0.687005 -0.6710811 
104 303 750 -0.1641897 -0.3798186 -0.9103733 
106 303 750 -0.1337285 -0.3369037 -0.9319939 
107 303 750 -0.04343691 -0.2889413 -0.9563609 
108 303 750 -0.01616095 -0.3909419 -0.9202735 
109 303 750 0.03844865 -0.4656713 -0.8841222 
110 303 750 0.05581988 -0.4246705 -0.9036255 
112 303 750 0.1745794 -0.5126604 -0.8406553 
113 303 751 0.1416148 -0.608335 -0.7809442 
114 303 751 0.149907 -0.6647785 -0.7318453 
115 303 751 0.1218484 -0.7048392 -0.6988239 
117 303 752 0.03025354 -0.863062 -0.5041912 
118 303 752 0.02732332 -0.8738108 -0.4854978 
119 303 751 0.05119135 -0.6548565 -0.7540175 
120 303 751 -0.00781519 -0.686878 -0.7267308 
121 303 750 -0.009708286 -0.5458552 -0.8378233 
123 303 751 0.01567054 -0.5867386 -0.8096248 
124 303 751 0.05340573 -0.5837529 -0.8101731 
125 303 751 0.03146328 -0.6032072 -0.7969637 
126 303 751 -0.06352811 -0.5606241 -0.8256299 
127 303 751 -0.03349084 -0.4641803 -0.8851074 
129 303 751 -0.09352788 -0.361498 -0.9276701 
130 303 751 -0.1603818 -0.2540489 -0.9538013 
131 303 751 -0.1895908 -0.2933279 -0.9370241 
132 302 750 -0.1887278 -0.3397601 -0.9213821 
133 302 750 -0.1756214 -0.3221741 -0.9302478 
134 302 750 -0.1533879 -0.3626349 -0.9192215 
136 302 750 -0.16504 -0.2191376 -0.9616343 
137 302 750 -0.1161174 -0.2691322 -0.9560778 
138 302 749 -0.08460598 -0.1747216 -0.9809762 
139 302 749 -0.05250938 -0.2673906 -0.9621565 
140 302 749 0.01893809 -0.2532715 -0.9672098 
141 302 749 0.06617431 -0.2163835 -0.9740632 
143 302 750 0.1821417 -0.4508913 -0.8737972 
144 302 750 0.1670427 -0.4811216 -0.8605921 
145 302 750 0.04808332 -0.51735 -0.8544221 
146 303 751 -0.05522889 -0.4240141 -0.9039701 
147 302 750 -0.1291491 -0.4934924 -0.8601081 
149 302 750 -0.215627 -0.2942554 -0.9310848 
150 302 750 -0.2272405 -0.2227874 -0.9480125 
151 302 750 -0.2000495 -0.1883751 -0.9615067 
152 302 750 -0.1723796 -0.111868 -0.9786577 
153 302 750 -0.04420007 0.02055444 -0.9988112 
155 302 750 0.08713674 0.1156898 -0.989456 
156 302 750 0.1162109 0.02520258 -0.9929048 
157 302 750 0.1974853 -0.05534507 -0.9787423 
158 302 750 0.15301 -0.07900403 -0.9850616 
159 302 750 0.2446847 -0.1573615 -0.956748 
-192 309 766 -0.1225308 -0.9514925 -0.2822202 
-191 309 765 -0.1117044 -0.9455792 -0.3056177 
-189 309 764 -0.1186594 -0.9109624 -0.3950539 
-188 309 765 -0.1358741 -0.9429209 -0.3040369 
-187 309 765 -0.1222721 -0.9540324 -0.2736273 
-186 309 765 -0.1080756 -0.9481485 -0.2988878 
-184 309 765 -0.07830376 -0.945037 -0.3174486 
-183 309 765 -0.07435501 -0.9477967 -0.3100853 
-182 309 764 -0.06838989 -0.8700447 -0.4882059 
-181 309 764 -0.03815827 -0.8654577 -0.4995268 
-179 309 764 -0.0148505 -0.8641348 -0.5030411 
-178 309 764 -0.01167594 -0.8658873 -0.5001029 
-177 309 764 -0.01056749 -0.8754451 -0.4832021 
-176 308 763 -0.08857892 -0.8376662 -0.5389519 
-174 308 763 -0.09684006 -0.8067703 -0.5828753 
-173 309 764 -0.08540917 -0.8347337 -0.54399 
-172 308 763 -0.08781765 -0.8446905 -0.5280018 
-171 308 763 -0.09156188 -0.8132827 -0.5746197 
-169 308 763 -0.1493375 -0.8185453 -0.5546908 
-168 308 763 -0.1746918 -0.8073969 -0.563554 
-167 308 763 -0.2159753 -0.7852145 -0.5803386 
-166 308 762 -0.2411361 -0.7360021 -0.6325777 
-164 308 761 -0.2187726 -0.7607444 -0.61107 
-163 308 761 -0.1700451 -0.7916802 -0.5867939 
-162 308 761 -0.08847412 -0.7854161 -0.6126123 
-161 308 761 0.01912613 -0.7880768 -0.6152799 
-159 308 761 0.2506472 -0.7639571 -0.5945969 
-158 308 762 0.2441878 -0.7785534 -0.5781237 
-157 308 762 0.2626786 -0.7563671 -0.5990898 
-156 309 763 0.1553726 -0.8008103 -0.5784135 
-155 309 763 0.1089835 -0.7734574 -0.6244087 
-154 309 763 0.0701901 -0.8011864 -0.5942842 
-153 309 763 0.05417453 -0.7936479 -0.6059605 
-151 308 762 -0.04490383 -0.8204271 -0.5699851 
-150 309 763 -0.02222446 -0.8363733 -0.5477095 
-149 309 763 0.01031331 -0.8519297 -0.5235545 
-148 309 763 0.05920025 -0.8643914 -0.4993224 
-146 309 763 0.09558013 -0.8487241 -0.5201269 
-145 309 763 0.07708576 -0.8500749 -0.5209899 
-144 309 764 0.04847412 -0.8735591 -0.4842984 
-143 309 764 0.004686722 -0.86709 -0.4981294 
-142 309 764 -0.1456085 -0.8339465 -0.5322889 
-140 309 763 -0.2364896 -0.7978949 -0.5544696 
-139 309 763 -0.2366906 -0.805298 -0.5435741 
-138 308 762 -0.1733072 -0.811096 -0.5586483 
