ply
format ascii 1.0
comment PCL generated
element vertex 1715
property float x
property float y
property float z
element camera 0
property float view_px
property float view_py
property float view_pz
property float x_axisx
property float x_axisy
property float x_axisz
property float y_axisx
property float y_axisy
property float y_axisz
property float z_axisx
property float z_axisy
property float z_axisz
property float focal
property float scalex
property float scaley
property float centerx
property float centery
property int viewportx
property int viewporty
property float k1
property float k2
end_header
-0.048999999 0.213 0.884
-0.045000002 0.20100001 0.83499998
-0.043000001 0.199 0.82499999
-0.041000001 0.198 0.82099998
-0.039999999 0.197 0.81900001
-0.037999999 0.197 0.81699997
-0.037 0.19599999 0.815
-0.035999998 0.19599999 0.81400001
-0.034000002 0.19599999 0.81300002
-0.033 0.19499999 0.81099999
-0.032000002 0.19499999 0.81
-0.029999999 0.19499999 0.81
-0.028999999 0.19499999 0.81
-0.028000001 0.19499999 0.80900002
-0.026000001 0.19499999 0.80900002
-0.025 0.19499999 0.80800003
-0.024 0.19499999 0.80800003
-0.022 0.19499999 0.80800003
-0.021 0.19499999 0.80800003
-0.02 0.19499999 0.80800003
-0.017999999 0.19499999 0.80800003
-0.017000001 0.19499999 0.80900002
-0.016000001 0.19499999 0.81
-0.015 0.19499999 0.81
-0.013 0.19499999 0.81099999
-0.012 0.19599999 0.81199998
-0.011 0.19599999 0.81300002
-0.0089999996 0.19599999 0.81400001
-0.0080000004 0.19599999 0.815
-0.0070000002 0.197 0.81599998
-0.0049999999 0.197 0.81699997
-0.0040000002 0.197 0.81800002
-0.003 0.198 0.81999999
-0.001 0.198 0.82300001
0 0.2 0.82800001
0.001 0.20100001 0.83499998
0.0060000001 0.213 0.884
0.0070000002 0.21699999 0.90200001
0.0089999996 0.22 0.91299999
0.0099999998 0.222 0.921
0.012 0.222 0.92299998
0.013 0.223 0.92500001
0.015 0.223 0.92699999
0.016000001 0.223 0.92699999
0.017999999 0.22400001 0.92900002
0.018999999 0.22400001 0.93000001
0.021 0.22400001 0.93000001
0.022 0.22400001 0.93099999
0.024 0.22400001 0.93099999
0.025 0.22400001 0.93099999
0.027000001 0.22400001 0.93099999
0.028000001 0.22400001 0.93000001
0.029999999 0.22400001 0.92900002
0.030999999 0.22400001 0.92900002
0.033 0.22400001 0.92799997
0.034000002 0.22400001 0.92799997
0.035999998 0.22400001 0.92900002
0.037 0.22400001 0.92900002
0.039000001 0.22400001 0.92900002
0.039999999 0.22400001 0.92900002
0.041999999 0.22400001 0.93000001
0.043000001 0.22400001 0.93000001
0.045000002 0.22400001 0.93000001
0.046 0.22400001 0.93000001
0.048 0.22400001 0.93000001
0.048999999 0.22400001 0.92900002
0.050999999 0.22400001 0.92900002
0.052000001 0.22400001 0.92799997
0.054000001 0.22400001 0.92900002
0.055 0.22400001 0.92900002
0.057 0.22400001 0.92900002
0.057999998 0.22400001 0.92900002
0.059999999 0.22400001 0.92799997
0.061000001 0.22400001 0.92799997
0.063000001 0.22400001 0.92799997
0.064000003 0.223 0.92699999
0.066 0.223 0.92699999
0.067000002 0.223 0.92699999
0.068999998 0.22400001 0.92799997
0.07 0.22400001 0.92799997
0.071999997 0.22400001 0.92900002
0.074000001 0.22400001 0.93000001
0.075000003 0.22400001 0.93000001
0.077 0.22400001 0.93000001
0.078000002 0.22400001 0.92900002
0.079000004 0.22400001 0.92799997
0.081 0.223 0.92799997
0.082000002 0.223 0.926
0.083999999 0.223 0.926
0.085000001 0.223 0.926
0.086999997 0.223 0.92500001
0.088 0.223 0.926
0.090000004 0.223 0.92699999
0.090999998 0.223 0.92699999
0.093000002 0.223 0.92699999
0.093999997 0.223 0.92699999
0.096000001 0.223 0.92799997
0.097000003 0.22400001 0.92900002
0.098999999 0.223 0.92799997
0.1 0.223 0.92799997
0.102 0.223 0.92699999
0.103 0.223 0.92799997
0.105 0.223 0.92699999
0.106 0.223 0.92699999
0.108 0.223 0.926
0.109 0.223 0.926
0.111 0.223 0.92699999
0.112 0.223 0.92799997
0.114 0.223 0.92799997
0.115 0.223 0.92799997
0.117 0.223 0.92799997
0.118 0.223 0.92699999
0.12 0.223 0.926
0.121 0.223 0.926
0.122 0.223 0.926
0.124 0.223 0.92500001
0.125 0.223 0.92500001
0.127 0.223 0.92500001
0.12800001 0.223 0.92500001
0.13 0.223 0.926
0.131 0.223 0.926
0.133 0.223 0.92500001
0.134 0.223 0.926
0.13600001 0.223 0.926
0.13699999 0.222 0.92500001
0.139 0.222 0.92400002
0.14 0.222 0.92400002
0.142 0.222 0.92400002
0.14300001 0.222 0.92299998
0.14399999 0.222 0.92299998
0.146 0.222 0.92299998
0.147 0.222 0.92299998
-0.206 0.22400001 0.92699999
-0.2 0.22400001 0.926
-0.198 0.223 0.92500001
-0.19499999 0.223 0.92400002
-0.193 0.223 0.92299998
-0.192 0.223 0.92199999
-0.19 0.223 0.92199999
-0.189 0.223 0.92299998
-0.18099999 0.22400001 0.92500001
-0.17900001 0.22400001 0.926
-0.178 0.22400001 0.92699999
-0.177 0.22400001 0.92799997
-0.175 0.22499999 0.92900002
-0.17399999 0.22499999 0.93000001
-0.17200001 0.22499999 0.92900002
-0.171 0.22499999 0.92900002
-0.169 0.22499999 0.92900002
-0.168 0.22499999 0.92900002
-0.16599999 0.22499999 0.92900002
-0.16500001 0.22400001 0.92799997
-0.163 0.22400001 0.92799997
-0.162 0.22499999 0.92900002
-0.161 0.22499999 0.93000001
-0.15899999 0.22499999 0.93000001
-0.15700001 0.22499999 0.92900002
-0.156 0.22499999 0.92799997
-0.154 0.22499999 0.92900002
-0.153 0.22499999 0.92900002
-0.15099999 0.22499999 0.92799997
-0.15000001 0.22499999 0.92799997
-0.148 0.22400001 0.92699999
-0.147 0.22400001 0.926
-0.145 0.22400001 0.92500001
-0.14300001 0.22400001 0.92400002
-0.141 0.223 0.92199999
-0.14 0.223 0.92199999
-0.139 0.223 0.92299998
-0.13699999 0.223 0.92299998
-0.13600001 0.22400001 0.92400002
-0.134 0.22400001 0.92400002
-0.133 0.22400001 0.92500001
-0.132 0.22400001 0.926
-0.13 0.22400001 0.926
-0.12899999 0.22400001 0.926
-0.127 0.22400001 0.92500001
-0.125 0.22400001 0.92400002
-0.124 0.22400001 0.92500001
-0.122 0.22400001 0.92400002
-0.121 0.22400001 0.92400002
-0.12 0.22400001 0.92500001
-0.118 0.22400001 0.92500001
-0.117 0.22400001 0.92500001
-0.115 0.22400001 0.92500001
-0.114 0.22400001 0.92500001
-0.112 0.22400001 0.92400002
-0.11 0.22400001 0.92299998
-0.109 0.223 0.92199999
-0.107 0.22400001 0.92299998
-0.106 0.22400001 0.92400002
-0.105 0.22400001 0.92400002
-0.103 0.22400001 0.92500001
-0.102 0.22400001 0.926
-0.1 0.22400001 0.926
-0.098999999 0.22400001 0.926
-0.097000003 0.22400001 0.92500001
-0.096000001 0.22400001 0.92500001
-0.093999997 0.22400001 0.92500001
-0.093000002 0.22400001 0.92500001
-0.090999998 0.22400001 0.92500001
-0.090000004 0.22400001 0.926
-0.088 0.22400001 0.926
-0.086999997 0.22400001 0.926
-0.086000003 0.22499999 0.92699999
-0.083999999 0.22400001 0.926
-0.082000002 0.22400001 0.926
-0.081 0.22499999 0.92699999
-0.079999998 0.22499999 0.92699999
-0.078000002 0.22499999 0.92699999
-0.075999998 0.22400001 0.926
-0.075000003 0.22400001 0.92500001
-0.072999999 0.22400001 0.92500001
-0.071999997 0.22400001 0.926
-0.07 0.22400001 0.92500001
-0.068999998 0.22400001 0.92500001
-0.068000004 0.22499999 0.926
-0.066 0.22499999 0.926
-0.064999998 0.22499999 0.92699999
-0.063000001 0.22499999 0.92699999
-0.061999999 0.22499999 0.92699999
-0.059999999 0.22499999 0.92699999
-0.059 0.22499999 0.92699999
-0.057 0.22499999 0.92699999
-0.055 0.22400001 0.92500001
-0.054000001 0.22400001 0.92199999
-0.052000001 0.222 0.91500002
-0.048999999 0.21600001 0.89200002
-0.045000002 0.20200001 0.833
-0.043000001 0.2 0.824
-0.041000001 0.199 0.81999999
-0.039999999 0.198 0.81800002
-0.037999999 0.198 0.81599998
-0.037 0.198 0.815
-0.035999998 0.197 0.81400001
-0.034000002 0.197 0.81300002
-0.033 0.197 0.81199998
-0.032000002 0.197 0.81099999
-0.029999999 0.19599999 0.81
-0.028999999 0.19599999 0.81
-0.028000001 0.19599999 0.80900002
-0.026000001 0.19599999 0.80900002
-0.025 0.19599999 0.80900002
-0.024 0.19599999 0.80900002
-0.022 0.19599999 0.80900002
-0.021 0.19599999 0.80800003
-0.02 0.19599999 0.80900002
-0.017999999 0.19599999 0.80900002
-0.017000001 0.19599999 0.80900002
-0.016000001 0.19599999 0.81
-0.015 0.19599999 0.81
-0.013 0.197 0.81099999
-0.012 0.197 0.81199998
-0.011 0.197 0.81300002
-0.0089999996 0.197 0.81400001
-0.0080000004 0.198 0.815
-0.0070000002 0.198 0.81599998
-0.0049999999 0.198 0.81699997
-0.0040000002 0.198 0.81800002
-0.003 0.199 0.81900001
-0.001 0.199 0.82200003
0 0.20100001 0.82700002
0.001 0.20200001 0.833
0.003 0.205 0.847
0.0040000002 0.20900001 0.86299998
0.0089999996 0.221 0.912
0.0099999998 0.223 0.92000002
0.012 0.22400001 0.92400002
0.013 0.22499999 0.926
0.015 0.22499999 0.92699999
0.016000001 0.22499999 0.92799997
0.017999999 0.22499999 0.92900002
0.018999999 0.226 0.93000001
0.021 0.226 0.93000001
0.022 0.226 0.93099999
0.024 0.226 0.93099999
0.025 0.226 0.93099999
0.027000001 0.226 0.93099999
0.028000001 0.226 0.93000001
0.029999999 0.22499999 0.92900002
0.030999999 0.22499999 0.92799997
0.033 0.22499999 0.92799997
0.034000002 0.22499999 0.92799997
0.035999998 0.22499999 0.92799997
0.037 0.22499999 0.92900002
0.039000001 0.22499999 0.92900002
0.039999999 0.22499999 0.92900002
0.041999999 0.226 0.93000001
0.043000001 0.226 0.93000001
0.045000002 0.22499999 0.92900002
0.046 0.22499999 0.92900002
0.048 0.22499999 0.92900002
0.048999999 0.22499999 0.92900002
0.050999999 0.22499999 0.92799997
0.052000001 0.22499999 0.92799997
0.054000001 0.22499999 0.92799997
0.055 0.22499999 0.92799997
0.057 0.22499999 0.92799997
0.057999998 0.22499999 0.92799997
0.059999999 0.22499999 0.92799997
0.061000001 0.22499999 0.92699999
0.063000001 0.22499999 0.92699999
0.064000003 0.22499999 0.92699999
0.066 0.22499999 0.926
0.067000002 0.22499999 0.926
0.068999998 0.22499999 0.92699999
0.07 0.22499999 0.92699999
0.071999997 0.22499999 0.92799997
0.072999999 0.22499999 0.92900002
0.075000003 0.22499999 0.92900002
0.075999998 0.22499999 0.92799997
0.078000002 0.22499999 0.92799997
0.079000004 0.22499999 0.92699999
0.081 0.22400001 0.926
0.082000002 0.22400001 0.92500001
0.082999997 0.22400001 0.92400002
0.085000001 0.22400001 0.92400002
0.086000003 0.22400001 0.92400002
0.088 0.22400001 0.92400002
0.090000004 0.22400001 0.92500001
0.090999998 0.22400001 0.926
0.093000002 0.22400001 0.926
0.093999997 0.22400001 0.926
0.096000001 0.22499999 0.92699999
0.097000003 0.22499999 0.92699999
0.098999999 0.22499999 0.92699999
0.1 0.22400001 0.92500001
0.101 0.22400001 0.92500001
0.103 0.22400001 0.926
0.104 0.22400001 0.92500001
0.106 0.22400001 0.92400002
0.107 0.22400001 0.92400002
0.109 0.22400001 0.92400002
0.11 0.22400001 0.92500001
0.112 0.22400001 0.926
0.114 0.22400001 0.926
0.115 0.22400001 0.926
0.116 0.22400001 0.92500001
0.118 0.22400001 0.92400002
0.119 0.22400001 0.92299998
0.121 0.22400001 0.92299998
0.122 0.22400001 0.92299998
0.123 0.223 0.92199999
0.125 0.223 0.92199999
0.126 0.223 0.92199999
0.12800001 0.223 0.92199999
0.12899999 0.223 0.92199999
0.131 0.223 0.92199999
0.132 0.223 0.92199999
0.134 0.223 0.92199999
0.13500001 0.223 0.92299998
0.13699999 0.223 0.92199999
0.138 0.223 0.92199999
0.14 0.223 0.921
0.141 0.223 0.921
0.142 0.223 0.92000002
0.14399999 0.222 0.91900003
0.145 0.222 0.91900003
0.147 0.222 0.91900003
0.148 0.223 0.92000002
-0.208 0.226 0.92900002
-0.207 0.226 0.92900002
-0.20100001 0.22499999 0.92500001
-0.2 0.22499999 0.926
-0.198 0.22499999 0.926
-0.197 0.22499999 0.92500001
-0.19499999 0.22499999 0.92400002
-0.193 0.22400001 0.92299998
-0.192 0.22400001 0.92199999
-0.19 0.22400001 0.92199999
-0.189 0.22400001 0.92299998
-0.18700001 0.22499999 0.92299998
-0.186 0.22499999 0.92400002
-0.185 0.22499999 0.92500001
-0.183 0.22499999 0.92400002
-0.182 0.22499999 0.92299998
-0.18000001 0.22499999 0.92400002
-0.17900001 0.22499999 0.926
-0.178 0.226 0.92699999
-0.177 0.226 0.92799997
-0.175 0.226 0.92799997
-0.17399999 0.226 0.92900002
-0.17200001 0.226 0.92799997
-0.171 0.226 0.92799997
-0.169 0.226 0.92699999
-0.168 0.226 0.92699999
-0.16599999 0.226 0.92699999
-0.164 0.22499999 0.926
-0.163 0.22499999 0.926
-0.162 0.226 0.92699999
-0.16 0.226 0.92699999
-0.15899999 0.226 0.92699999
-0.15700001 0.226 0.92699999
-0.156 0.226 0.92699999
-0.154 0.226 0.92699999
-0.153 0.226 0.92799997
-0.15099999 0.226 0.92799997
-0.15000001 0.226 0.92799997
-0.148 0.226 0.92699999
-0.147 0.226 0.926
-0.145 0.226 0.926
-0.14300001 0.22499999 0.92500001
-0.142 0.22499999 0.92400002
-0.14 0.22499999 0.92299998
-0.139 0.22499999 0.92400002
-0.13699999 0.22499999 0.92400002
-0.13600001 0.22499999 0.92500001
-0.134 0.22499999 0.92500001
-0.133 0.226 0.926
-0.132 0.226 0.92699999
-0.13 0.226 0.92799997
-0.12899999 0.226 0.92799997
-0.127 0.226 0.92699999
-0.126 0.226 0.92699999
-0.124 0.226 0.926
-0.123 0.226 0.926
-0.121 0.226 0.926
-0.12 0.226 0.92699999
-0.118 0.226 0.92699999
-0.117 0.226 0.92699999
-0.115 0.226 0.92699999
-0.114 0.226 0.92699999
-0.112 0.226 0.926
-0.111 0.226 0.92500001
-0.109 0.22499999 0.92400002
-0.108 0.226 0.92500001
-0.106 0.226 0.92500001
-0.105 0.226 0.926
-0.103 0.226 0.92699999
-0.102 0.226 0.92699999
-0.101 0.226 0.92799997
-0.098999999 0.226 0.92699999
-0.097000003 0.226 0.92699999
-0.096000001 0.226 0.92699999
-0.093999997 0.226 0.92699999
-0.093000002 0.226 0.92699999
-0.092 0.226 0.92699999
-0.090000004 0.226 0.92699999
-0.089000002 0.226 0.92699999
-0.086999997 0.226 0.92699999
-0.086000003 0.226 0.92699999
-0.083999999 0.226 0.92699999
-0.082999997 0.226 0.92699999
-0.081 0.226 0.92699999
-0.079999998 0.226 0.92699999
-0.078000002 0.226 0.92699999
-0.077 0.226 0.92699999
-0.075000003 0.226 0.926
-0.072999999 0.226 0.926
-0.071999997 0.226 0.92500001
-0.07 0.226 0.92500001
-0.068999998 0.226 0.926
-0.068000004 0.226 0.92699999
-0.066 0.226 0.92699999
-0.064999998 0.226 0.92699999
-0.063000001 0.226 0.92699999
-0.061999999 0.226 0.92799997
-0.059999999 0.227 0.92799997
-0.059 0.226 0.92699999
-0.057 0.226 0.92699999
-0.056000002 0.226 0.926
-0.054000001 0.22499999 0.92299998
-0.052000001 0.22400001 0.917
-0.048999999 0.219 0.89600003
-0.044 0.20299999 0.82999998
-0.043000001 0.20100001 0.82200003
-0.041000001 0.2 0.81900001
-0.039999999 0.199 0.81699997
-0.037999999 0.199 0.81599998
-0.037 0.199 0.81400001
-0.035999998 0.199 0.81400001
-0.034000002 0.198 0.81300002
-0.033 0.198 0.81199998
-0.032000002 0.198 0.81099999
-0.029999999 0.198 0.81
-0.028999999 0.198 0.81
-0.028000001 0.198 0.81
-0.026000001 0.198 0.81
-0.025 0.198 0.80900002
-0.024 0.198 0.80900002
-0.022 0.198 0.81
-0.021 0.198 0.80900002
-0.02 0.198 0.80900002
-0.017999999 0.198 0.81
-0.017000001 0.198 0.81
-0.016000001 0.198 0.81
-0.015 0.198 0.81
-0.013 0.198 0.81099999
-0.012 0.198 0.81199998
-0.011 0.198 0.81199998
-0.0089999996 0.199 0.81300002
-0.0080000004 0.199 0.81400001
-0.0070000002 0.199 0.815
-0.0049999999 0.199 0.81599998
-0.0040000002 0.2 0.81699997
-0.003 0.2 0.81800002
-0.001 0.2 0.81999999
0 0.20100001 0.82499999
0.001 0.20299999 0.83200002
0.003 0.206 0.84500003
0.0089999996 0.222 0.91100001
0.0099999998 0.22400001 0.91900003
0.012 0.22499999 0.92299998
0.013 0.226 0.92500001
0.015 0.226 0.92699999
0.016000001 0.226 0.92699999
0.017999999 0.227 0.92900002
0.018999999 0.227 0.92900002
0.021 0.227 0.92900002
0.022 0.227 0.93000001
0.024 0.227 0.93000001
0.025 0.227 0.93000001
0.027000001 0.227 0.93000001
0.028000001 0.227 0.92900002
0.029999999 0.227 0.92799997
0.030999999 0.227 0.92799997
0.033 0.227 0.92799997
0.034000002 0.227 0.92799997
0.035999998 0.227 0.92799997
0.037 0.227 0.92799997
0.039000001 0.227 0.92900002
0.039999999 0.227 0.92900002
0.041999999 0.227 0.92900002
0.043000001 0.227 0.92900002
0.045000002 0.227 0.92900002
0.046 0.227 0.92900002
0.048 0.227 0.92900002
0.048999999 0.227 0.92799997
0.050999999 0.226 0.92699999
0.052000001 0.226 0.92699999
0.054000001 0.226 0.92699999
0.055 0.226 0.92699999
0.057 0.226 0.92699999
0.057999998 0.226 0.92699999
0.059999999 0.226 0.92699999
0.061000001 0.226 0.926
0.063000001 0.226 0.926
0.064000003 0.226 0.92500001
0.066 0.226 0.92500001
0.067000002 0.226 0.92500001
0.068999998 0.226 0.92500001
0.07 0.226 0.92500001
0.071999997 0.226 0.926
0.072999999 0.226 0.92699999
0.075000003 0.226 0.92699999
0.075999998 0.226 0.926
0.078000002 0.226 0.92500001
0.079000004 0.22499999 0.92400002
0.079999998 0.22499999 0.92400002
0.082000002 0.22499999 0.92199999
0.082999997 0.22499999 0.92199999
0.085000001 0.22499999 0.92199999
0.086000003 0.22499999 0.92199999
0.088 0.22499999 0.92199999
0.089000002 0.22499999 0.92299998
0.090999998 0.22499999 0.92400002
0.092 0.22499999 0.92400002
0.093999997 0.22499999 0.92299998
0.094999999 0.22499999 0.92400002
0.097000003 0.22499999 0.92400002
0.097999997 0.22499999 0.92400002
0.1 0.22499999 0.92299998
0.101 0.22499999 0.92199999
0.103 0.22499999 0.92199999
0.104 0.22499999 0.921
0.105 0.22499999 0.921
0.107 0.22400001 0.92000002
0.108 0.22400001 0.92000002
0.11 0.22499999 0.921
0.112 0.22499999 0.92199999
0.113 0.22499999 0.92199999
0.115 0.22499999 0.92199999
0.116 0.22499999 0.92199999
0.117 0.22499999 0.921
0.119 0.22400001 0.92000002
0.12 0.22400001 0.91900003
0.122 0.22400001 0.91900003
0.123 0.22400001 0.91900003
0.124 0.22400001 0.91799998
0.126 0.22400001 0.91799998
0.127 0.22400001 0.91900003
0.12899999 0.22400001 0.91900003
0.13 0.22400001 0.91900003
0.132 0.22400001 0.91799998
0.133 0.22400001 0.91799998
0.13500001 0.22400001 0.91799998
0.13600001 0.22400001 0.91799998
0.138 0.223 0.917
0.139 0.223 0.917
0.14 0.223 0.91600001
0.142 0.223 0.91500002
0.14300001 0.223 0.91500002
0.14399999 0.222 0.91299999
0.146 0.223 0.91399997
0.148 0.223 0.91500002
-0.208 0.227 0.92799997
-0.206 0.227 0.92900002
-0.205 0.227 0.92799997
-0.20299999 0.226 0.92500001
-0.20100001 0.226 0.92500001
-0.2 0.226 0.92500001
-0.198 0.227 0.926
-0.197 0.226 0.92500001
-0.19499999 0.226 0.92500001
-0.19400001 0.226 0.92400002
-0.192 0.226 0.92299998
-0.191 0.226 0.92400002
-0.189 0.226 0.92400002
-0.18799999 0.226 0.92400002
-0.186 0.226 0.92400002
-0.185 0.226 0.92400002
-0.183 0.226 0.92400002
-0.182 0.227 0.92500001
-0.18000001 0.227 0.92500001
-0.17900001 0.227 0.92500001
-0.178 0.227 0.92699999
-0.176 0.227 0.92699999
-0.175 0.227 0.92799997
-0.17399999 0.227 0.92799997
-0.17200001 0.227 0.92799997
-0.17 0.227 0.92699999
-0.169 0.227 0.926
-0.167 0.227 0.926
-0.16599999 0.227 0.926
-0.164 0.227 0.92500001
-0.163 0.227 0.92500001
-0.161 0.227 0.926
-0.16 0.227 0.92799997
-0.15899999 0.227 0.92799997
-0.15700001 0.227 0.92799997
-0.156 0.228 0.92900002
-0.154 0.228 0.92900002
-0.153 0.228 0.92900002
-0.15099999 0.228 0.92900002
-0.15000001 0.228 0.92799997
-0.148 0.228 0.92799997
-0.147 0.228 0.92799997
-0.145 0.227 0.92699999
-0.14399999 0.227 0.92699999
-0.142 0.227 0.92699999
-0.141 0.227 0.926
-0.139 0.227 0.926
-0.138 0.227 0.92699999
-0.13600001 0.227 0.92699999
-0.13500001 0.227 0.92699999
-0.133 0.228 0.92799997
-0.132 0.228 0.92900002
-0.131 0.228 0.92900002
-0.12899999 0.228 0.92900002
-0.12800001 0.228 0.92900002
-0.126 0.228 0.92799997
-0.124 0.228 0.92799997
-0.123 0.227 0.926
-0.121 0.227 0.926
-0.12 0.227 0.92699999
-0.119 0.228 0.92799997
-0.117 0.228 0.92799997
-0.116 0.228 0.92799997
-0.114 0.228 0.92799997
-0.112 0.228 0.92699999
-0.111 0.228 0.92699999
-0.109 0.227 0.926
-0.108 0.228 0.92699999
-0.106 0.228 0.92699999
-0.105 0.228 0.92699999
-0.104 0.228 0.92799997
-0.102 0.228 0.92799997
-0.101 0.228 0.92900002
-0.098999999 0.228 0.92799997
-0.097999997 0.228 0.92799997
-0.096000001 0.228 0.92799997
-0.094999999 0.228 0.92799997
-0.093000002 0.228 0.92799997
-0.092 0.228 0.92799997
-0.090000004 0.228 0.92799997
-0.089000002 0.228 0.92699999
-0.086999997 0.228 0.92699999
-0.086000003 0.228 0.92799997
-0.083999999 0.228 0.92799997
-0.082999997 0.228 0.92799997
-0.081 0.228 0.92799997
-0.079999998 0.228 0.92799997
-0.078000002 0.228 0.92799997
-0.077 0.228 0.92799997
-0.075000003 0.228 0.92699999
-0.074000001 0.228 0.92699999
-0.071999997 0.228 0.92699999
-0.071000002 0.228 0.92699999
-0.068999998 0.228 0.92699999
-0.068000004 0.228 0.92699999
-0.066 0.228 0.92799997
-0.064999998 0.228 0.92900002
-0.063000001 0.228 0.92799997
-0.061999999 0.228 0.92799997
-0.059999999 0.228 0.92799997
-0.059 0.228 0.92799997
-0.057 0.228 0.92699999
-0.056000002 0.228 0.926
-0.054000001 0.227 0.92199999
-0.052000001 0.22499999 0.91500002
-0.048999999 0.22 0.89399999
-0.044 0.20299999 0.82700002
-0.043000001 0.20100001 0.81999999
-0.041000001 0.20100001 0.81699997
-0.039999999 0.2 0.815
-0.037999999 0.2 0.81400001
-0.037 0.2 0.81400001
-0.035999998 0.2 0.81300002
-0.034000002 0.2 0.81300002
-0.033 0.2 0.81199998
-0.032000002 0.199 0.81099999
-0.029999999 0.199 0.81
-0.028999999 0.199 0.81
-0.028000001 0.199 0.81
-0.026000001 0.199 0.80900002
-0.025 0.199 0.80900002
-0.024 0.199 0.80900002
-0.022 0.199 0.80900002
-0.021 0.199 0.80900002
-0.02 0.199 0.80900002
-0.017999999 0.199 0.80900002
-0.017000001 0.199 0.80900002
-0.016000001 0.199 0.80900002
-0.015 0.199 0.80900002
-0.013 0.199 0.81
-0.012 0.199 0.81099999
-0.011 0.2 0.81199998
-0.0089999996 0.2 0.81199998
-0.0080000004 0.2 0.81300002
-0.0070000002 0.2 0.81400001
-0.0049999999 0.2 0.815
-0.0040000002 0.20100001 0.81599998
-0.003 0.20100001 0.81699997
-0.001 0.20100001 0.81900001
0 0.20200001 0.82300001
0.001 0.204 0.829
0.003 0.207 0.84100002
0.0089999996 0.223 0.90700001
0.0099999998 0.22499999 0.917
0.012 0.227 0.92199999
0.013 0.227 0.92500001
0.015 0.228 0.926
0.016000001 0.228 0.92699999
0.017999999 0.228 0.92799997
0.018999999 0.228 0.92900002
0.021 0.228 0.92900002
0.022 0.228 0.92900002
0.024 0.228 0.92900002
0.025 0.228 0.92900002
0.027000001 0.228 0.92900002
0.028000001 0.228 0.92699999
0.029999999 0.228 0.926
0.030999999 0.227 0.92500001
0.033 0.227 0.92500001
0.034000002 0.227 0.92500001
0.035999998 0.227 0.92500001
0.037 0.227 0.92500001
0.039000001 0.228 0.926
0.039999999 0.228 0.92699999
0.041999999 0.228 0.92699999
0.043000001 0.228 0.92699999
0.045000002 0.228 0.926
0.046 0.228 0.926
0.048 0.228 0.926
0.048999999 0.228 0.926
0.050999999 0.227 0.92500001
0.052000001 0.227 0.92400002
0.054000001 0.227 0.92500001
0.055 0.227 0.92500001
0.057 0.227 0.92500001
0.057999998 0.227 0.92500001
0.059999999 0.227 0.92400002
0.061000001 0.227 0.92400002
0.063000001 0.227 0.92299998
0.064000003 0.227 0.92199999
0.064999998 0.227 0.92199999
0.067000002 0.227 0.92199999
0.068000004 0.227 0.92199999
0.07 0.227 0.92199999
0.071000002 0.227 0.92299998
0.072999999 0.227 0.92299998
0.074000001 0.227 0.92299998
0.075999998 0.227 0.92299998
0.077 0.226 0.92199999
0.079000004 0.226 0.92000002
0.079999998 0.226 0.92000002
0.082000002 0.226 0.91900003
0.082999997 0.22499999 0.91799998
0.083999999 0.22499999 0.91799998
0.086000003 0.22499999 0.91799998
0.086999997 0.22499999 0.91799998
0.089000002 0.22499999 0.91799998
0.090000004 0.22499999 0.91799998
0.092 0.22499999 0.91799998
0.093000002 0.22499999 0.91799998
0.094999999 0.226 0.91900003
0.096000001 0.226 0.91900003
0.097999997 0.22499999 0.91799998
0.098999999 0.22499999 0.917
0.1 0.22499999 0.91600001
0.102 0.22499999 0.91600001
0.103 0.22499999 0.91600001
0.105 0.22499999 0.91500002
0.106 0.22499999 0.91500002
0.108 0.22499999 0.91500002
0.109 0.22499999 0.91600001
0.111 0.22499999 0.91500002
0.112 0.22499999 0.91600001
0.114 0.22499999 0.91600001
0.115 0.22499999 0.91600001
0.117 0.22499999 0.91500002
0.118 0.22400001 0.91399997
0.119 0.22400001 0.91299999
0.121 0.22400001 0.91299999
0.122 0.22400001 0.91299999
0.124 0.22400001 0.91299999
0.125 0.22400001 0.91299999
0.127 0.22400001 0.91299999
0.12800001 0.22400001 0.91399997
0.13 0.22400001 0.91399997
0.131 0.22400001 0.91399997
0.132 0.22400001 0.91299999
0.134 0.22400001 0.91299999
0.13500001 0.22400001 0.91299999
0.13699999 0.22400001 0.91299999
0.138 0.22400001 0.912
0.14 0.223 0.91100001
0.141 0.223 0.91100001
0.142 0.223 0.91000003
0.14399999 0.223 0.91000003
0.145 0.223 0.90899998
0.147 0.223 0.91000003
0.148 0.223 0.91000003
-0.208 0.229 0.92799997
-0.206 0.229 0.92900002
-0.205 0.229 0.92799997
-0.20299999 0.228 0.92699999
-0.20200001 0.228 0.92699999
-0.2 0.228 0.926
-0.199 0.228 0.92699999
-0.197 0.228 0.92699999
-0.19499999 0.228 0.926
-0.19400001 0.228 0.92500001
-0.192 0.228 0.92500001
-0.191 0.228 0.92500001
-0.19 0.228 0.926
-0.18799999 0.228 0.92500001
-0.186 0.228 0.92500001
-0.185 0.228 0.926
-0.184 0.228 0.92699999
-0.182 0.228 0.92699999
-0.18099999 0.228 0.92699999
-0.17900001 0.229 0.92699999
-0.178 0.229 0.92699999
-0.176 0.229 0.92699999
-0.175 0.229 0.92799997
-0.17399999 0.229 0.92799997
-0.17200001 0.229 0.92699999
-0.17 0.229 0.92699999
-0.169 0.229 0.92699999
-0.167 0.229 0.92699999
-0.16599999 0.228 0.926
-0.164 0.228 0.926
-0.163 0.228 0.926
-0.161 0.228 0.926
-0.16 0.229 0.92699999
-0.15899999 0.229 0.92900002
-0.15700001 0.229 0.92799997
-0.156 0.229 0.92900002
-0.154 0.229 0.92900002
-0.153 0.229 0.92900002
-0.15099999 0.229 0.92900002
-0.15000001 0.229 0.92799997
-0.148 0.229 0.92799997
-0.147 0.229 0.92799997
-0.145 0.229 0.92699999
-0.14399999 0.229 0.92699999
-0.142 0.229 0.92699999
-0.141 0.229 0.92699999
-0.139 0.229 0.92699999
-0.138 0.229 0.92699999
-0.13600001 0.229 0.92799997
-0.13500001 0.229 0.92799997
-0.133 0.229 0.92799997
-0.132 0.229 0.92799997
-0.13 0.229 0.92799997
-0.12899999 0.229 0.92799997
-0.127 0.229 0.92799997
-0.126 0.229 0.92799997
-0.124 0.229 0.92699999
-0.123 0.229 0.92699999
-0.121 0.229 0.92699999
-0.12 0.229 0.92799997
-0.118 0.229 0.92799997
-0.117 0.229 0.92799997
-0.116 0.229 0.92799997
-0.114 0.229 0.92799997
-0.113 0.229 0.92799997
-0.111 0.229 0.92699999
-0.109 0.229 0.92699999
-0.108 0.229 0.92799997
-0.107 0.229 0.92799997
-0.105 0.229 0.92799997
-0.104 0.229 0.92799997
-0.102 0.229 0.92799997
-0.101 0.23 0.92900002
-0.098999999 0.229 0.92799997
-0.097999997 0.23 0.92900002
-0.096000001 0.23 0.92900002
-0.094999999 0.229 0.92799997
-0.093000002 0.229 0.92799997
-0.092 0.23 0.92900002
-0.090000004 0.23 0.92900002
-0.089000002 0.229 0.92799997
-0.086999997 0.229 0.92699999
-0.086000003 0.229 0.92799997
-0.083999999 0.229 0.92799997
-0.082999997 0.229 0.92799997
-0.081 0.229 0.92799997
-0.079999998 0.229 0.92799997
-0.078000002 0.229 0.92799997
-0.077 0.229 0.92799997
-0.075000003 0.229 0.92799997
-0.074000001 0.229 0.92699999
-0.071999997 0.229 0.92699999
-0.071000002 0.229 0.92699999
-0.068999998 0.229 0.92699999
-0.068000004 0.229 0.92699999
-0.066 0.229 0.92799997
-0.064999998 0.23 0.92900002
-0.063000001 0.229 0.92799997
-0.061999999 0.229 0.92799997
-0.059999999 0.229 0.92799997
-0.059 0.229 0.92699999
-0.057 0.229 0.92699999
-0.055 0.229 0.92500001
-0.054000001 0.228 0.921
-0.052000001 0.226 0.91399997
-0.048999999 0.219 0.88700002
-0.044 0.204 0.824
-0.041999999 0.20200001 0.81800002
-0.041000001 0.20200001 0.81599998
-0.039999999 0.20100001 0.81400001
-0.037999999 0.20100001 0.81300002
-0.037 0.20100001 0.81300002
-0.035999998 0.20100001 0.81199998
-0.034000002 0.20100001 0.81199998
-0.033 0.20100001 0.81199998
-0.032000002 0.20100001 0.81099999
-0.029999999 0.2 0.81
-0.028999999 0.2 0.80900002
-0.028000001 0.2 0.80900002
-0.026000001 0.2 0.80900002
-0.025 0.2 0.80900002
-0.024 0.2 0.80800003
-0.022 0.2 0.80900002
-0.021 0.2 0.80800003
-0.02 0.2 0.80800003
-0.017999999 0.2 0.80900002
-0.017000001 0.2 0.80900002
-0.016000001 0.2 0.80900002
-0.015 0.2 0.80900002
-0.013 0.2 0.80900002
-0.012 0.2 0.80900002
-0.011 0.2 0.81
-0.0089999996 0.20100001 0.81199998
-0.0080000004 0.20100001 0.81199998
-0.0070000002 0.20100001 0.81199998
-0.0049999999 0.20100001 0.81300002
-0.0040000002 0.20100001 0.81400001
-0.003 0.20200001 0.815
-0.001 0.20200001 0.81800002
0 0.20299999 0.82200003
0.001 0.205 0.82700002
0.003 0.207 0.83700001
0.0070000002 0.219 0.88499999
0.0089999996 0.223 0.89999998
0.0099999998 0.226 0.912
0.012 0.227 0.91900003
0.013 0.228 0.92199999
0.015 0.229 0.92400002
0.016000001 0.229 0.92500001
0.017999999 0.229 0.926
0.018999999 0.229 0.926
0.021 0.229 0.926
0.022 0.229 0.926
0.024 0.229 0.92500001
0.025 0.229 0.92500001
0.027000001 0.229 0.92500001
0.028000001 0.228 0.92299998
0.029999999 0.228 0.92199999
0.030999999 0.228 0.921
0.033 0.228 0.921
0.034000002 0.228 0.921
0.035999998 0.228 0.921
0.037 0.228 0.92199999
0.039000001 0.228 0.92199999
0.039999999 0.228 0.92299998
0.041999999 0.229 0.92400002
0.043000001 0.229 0.92400002
0.045000002 0.228 0.92299998
0.046 0.228 0.92199999
0.048 0.228 0.92199999
0.048999999 0.228 0.92199999
0.050000001 0.228 0.921
0.052000001 0.228 0.921
0.052999999 0.228 0.92000002
0.055 0.228 0.92199999
0.056000002 0.228 0.921
0.057999998 0.228 0.921
0.059 0.228 0.92000002
0.061000001 0.227 0.91900003
0.061999999 0.227 0.91799998
0.064000003 0.227 0.917
0.064999998 0.227 0.91600001
0.066 0.227 0.91600001
0.068000004 0.227 0.91600001
0.07 0.227 0.917
0.071000002 0.227 0.91799998
0.072999999 0.227 0.91799998
0.074000001 0.227 0.91799998
0.075999998 0.227 0.91799998
0.077 0.226 0.91600001
0.078000002 0.226 0.91500002
0.079999998 0.226 0.91399997
0.081 0.226 0.91399997
0.082000002 0.226 0.91299999
0.083999999 0.22499999 0.912
0.085000001 0.22499999 0.912
0.086999997 0.22499999 0.912
0.088 0.22499999 0.912
0.090000004 0.22499999 0.912
0.090999998 0.22499999 0.91100001
0.093000002 0.22499999 0.91100001
0.093999997 0.22499999 0.91100001
0.096000001 0.22499999 0.91100001
0.097000003 0.22499999 0.912
0.097999997 0.22499999 0.91100001
0.1 0.22499999 0.91000003
0.101 0.22499999 0.91000003
0.103 0.22499999 0.90899998
0.104 0.22499999 0.91000003
0.106 0.22499999 0.90899998
0.107 0.22499999 0.90899998
0.108 0.22499999 0.90899998
0.11 0.22499999 0.90899998
0.111 0.22499999 0.90899998
0.113 0.22499999 0.90899998
0.114 0.22499999 0.90899998
0.116 0.22499999 0.90899998
0.117 0.22400001 0.90799999
0.118 0.22400001 0.90700001
0.12 0.22400001 0.90799999
0.121 0.22400001 0.90700001
0.123 0.22400001 0.90799999
0.124 0.22400001 0.90799999
0.126 0.22400001 0.90799999
0.12800001 0.22400001 0.90899998
0.12899999 0.22499999 0.91000003
0.13 0.22400001 0.90899998
0.132 0.22400001 0.90899998
0.133 0.22400001 0.90899998
0.13500001 0.22400001 0.90899998
0.13600001 0.22400001 0.90799999
0.13699999 0.22400001 0.90700001
0.139 0.22400001 0.90700001
0.14 0.22400001 0.90600002
0.142 0.22400001 0.90600002
0.14300001 0.22400001 0.90600002
0.145 0.22400001 0.90600002
0.146 0.22400001 0.90700001
0.147 0.22400001 0.90600002
0.149 0.22400001 0.90600002
-0.208 0.23 0.92900002
-0.206 0.23 0.92900002
-0.205 0.23 0.92900002
-0.20299999 0.23 0.92799997
-0.20200001 0.23 0.92799997
-0.2 0.23 0.92799997
-0.199 0.23 0.92799997
-0.197 0.23 0.92799997
-0.19599999 0.23 0.92799997
-0.19400001 0.23 0.92799997
-0.193 0.23 0.92699999
-0.191 0.23 0.92699999
-0.19 0.23 0.92799997
-0.18799999 0.23 0.92799997
-0.18700001 0.23 0.92699999
-0.185 0.23 0.92799997
-0.184 0.23 0.92799997
-0.183 0.23 0.92900002
-0.18099999 0.23 0.92900002
-0.18000001 0.23 0.92799997
-0.178 0.23 0.92799997
-0.177 0.23 0.92799997
-0.175 0.23 0.92799997
-0.17399999 0.23 0.92799997
-0.17200001 0.23 0.92799997
-0.17 0.23 0.92699999
-0.169 0.23 0.92699999
-0.167 0.23 0.92699999
-0.16599999 0.23 0.92699999
-0.164 0.23 0.926
-0.163 0.23 0.926
-0.162 0.23 0.92699999
-0.16 0.23 0.92799997
-0.15899999 0.23 0.92799997
-0.15700001 0.23 0.92799997
-0.156 0.23100001 0.92900002
-0.154 0.23100001 0.92900002
-0.153 0.23100001 0.92900002
-0.15099999 0.23100001 0.92900002
-0.15000001 0.23 0.92799997
-0.148 0.23 0.92799997
-0.147 0.23 0.92799997
-0.145 0.23100001 0.92799997
-0.14399999 0.23100001 0.92799997
-0.142 0.23100001 0.92799997
-0.141 0.23100001 0.92799997
-0.139 0.23100001 0.92799997
-0.138 0.23100001 0.92799997
-0.13600001 0.23100001 0.92799997
-0.13500001 0.23100001 0.92799997
-0.133 0.23 0.92699999
-0.132 0.23100001 0.92799997
-0.13 0.23100001 0.92799997
-0.12899999 0.23100001 0.92799997
-0.127 0.23 0.92699999
-0.126 0.23 0.92699999
-0.124 0.23 0.92699999
-0.123 0.23 0.92699999
-0.121 0.23 0.92699999
-0.12 0.23 0.92699999
-0.118 0.23 0.92699999
-0.117 0.23 0.92699999
-0.115 0.23 0.92699999
-0.114 0.23 0.92699999
-0.112 0.23 0.92699999
-0.111 0.23 0.92699999
-0.109 0.23 0.92699999
-0.108 0.23100001 0.92799997
-0.107 0.23100001 0.92799997
-0.105 0.23100001 0.92799997
-0.104 0.23100001 0.92799997
-0.102 0.23100001 0.92799997
-0.101 0.23100001 0.92799997
-0.098999999 0.23100001 0.92799997
-0.097999997 0.23100001 0.92799997
-0.096000001 0.23100001 0.92900002
-0.094999999 0.23100001 0.92799997
-0.093000002 0.23100001 0.92900002
-0.092 0.23100001 0.92900002
-0.090000004 0.23100001 0.92799997
-0.089000002 0.23100001 0.92799997
-0.086999997 0.23100001 0.92699999
-0.086000003 0.23100001 0.92799997
-0.083999999 0.23100001 0.92699999
-0.082999997 0.23100001 0.92699999
-0.081 0.23100001 0.92699999
-0.079999998 0.23100001 0.92799997
-0.078000002 0.23100001 0.92799997
-0.077 0.23100001 0.92699999
-0.075000003 0.23100001 0.92699999
-0.074000001 0.23100001 0.92699999
-0.071999997 0.23100001 0.92699999
-0.07 0.23 0.926
-0.068999998 0.23 0.926
-0.068000004 0.23100001 0.92699999
-0.066 0.23100001 0.92799997
-0.064999998 0.23100001 0.92799997
-0.063000001 0.23100001 0.92699999
-0.061999999 0.23100001 0.92699999
-0.059999999 0.23100001 0.92699999
-0.059 0.23 0.926
-0.057 0.23 0.92500001
-0.055 0.23 0.92400002
-0.054000001 0.229 0.91900003
-0.052000001 0.227 0.91100001
-0.044 0.205 0.82200003
-0.041999999 0.20299999 0.81599998
-0.041000001 0.20299999 0.81400001
-0.039999999 0.20200001 0.81300002
-0.037999999 0.20200001 0.81199998
-0.037 0.20200001 0.81199998
-0.035999998 0.20200001 0.81199998
-0.034000002 0.20200001 0.81099999
-0.033 0.20200001 0.81099999
-0.032000002 0.20200001 0.81
-0.029999999 0.20200001 0.81
-0.028999999 0.20100001 0.80900002
-0.028000001 0.20100001 0.80900002
-0.026000001 0.20100001 0.80900002
-0.025 0.20100001 0.80800003
-0.024 0.20100001 0.80800003
-0.022 0.20100001 0.80800003
-0.021 0.20100001 0.80800003
-0.02 0.20100001 0.80800003
-0.017999999 0.20100001 0.80800003
-0.017000001 0.20100001 0.80800003
-0.016000001 0.20100001 0.80800003
-0.015 0.20100001 0.80800003
-0.013 0.20100001 0.80800003
-0.012 0.20100001 0.80900002
-0.011 0.20100001 0.80900002
-0.0089999996 0.20200001 0.81
-0.0080000004 0.20200001 0.81099999
-0.0070000002 0.20200001 0.81199998
-0.0049999999 0.20200001 0.81199998
-0.0040000002 0.20200001 0.81300002
-0.003 0.20299999 0.815
-0.001 0.20299999 0.81699997
0 0.204 0.81999999
0.001 0.205 0.82499999
0.003 0.207 0.83200002
0.0099999998 0.22499999 0.90200001
0.012 0.227 0.91100001
0.013 0.228 0.91600001
0.015 0.229 0.91799998
0.016000001 0.229 0.92000002
0.017999999 0.229 0.92000002
0.018999999 0.229 0.921
0.021 0.229 0.91900003
0.022 0.229 0.91799998
0.024 0.228 0.917
0.025 0.228 0.91600001
0.027000001 0.228 0.91600001
0.028000001 0.228 0.91500002
0.028999999 0.227 0.91299999
0.030999999 0.227 0.91299999
0.032000002 0.227 0.91299999
0.034000002 0.227 0.912
0.035 0.227 0.91100001
0.037 0.227 0.912
0.037999999 0.227 0.91299999
0.039999999 0.228 0.91399997
0.041000001 0.228 0.91399997
0.043000001 0.228 0.91399997
0.044 0.228 0.91399997
0.046 0.227 0.91299999
0.046999998 0.227 0.91299999
0.048999999 0.227 0.912
0.050000001 0.227 0.912
0.050999999 0.227 0.912
0.052999999 0.227 0.91100001
0.054000001 0.227 0.91299999
0.056000002 0.227 0.912
0.057 0.227 0.912
0.059 0.227 0.912
0.059999999 0.227 0.91100001
0.061999999 0.227 0.91100001
0.063000001 0.226 0.91000003
0.064999998 0.226 0.91000003
0.066 0.226 0.91000003
0.068000004 0.226 0.91000003
0.068999998 0.227 0.91100001
0.071000002 0.227 0.91100001
0.071999997 0.227 0.912
0.072999999 0.227 0.91100001
0.075000003 0.227 0.91100001
0.075999998 0.226 0.90899998
0.078000002 0.226 0.90899998
0.079000004 0.226 0.90799999
0.081 0.226 0.90799999
0.082000002 0.226 0.90700001
0.082999997 0.226 0.90700001
0.085000001 0.226 0.90700001
0.086000003 0.226 0.90700001
0.088 0.22499999 0.90600002
0.089000002 0.22499999 0.90600002
0.090999998 0.22499999 0.90499997
0.092 0.22499999 0.90499997
0.093000002 0.22499999 0.90499997
0.094999999 0.22499999 0.90499997
0.096000001 0.22499999 0.90499997
0.097999997 0.22499999 0.90499997
0.098999999 0.22499999 0.90499997
0.101 0.22499999 0.90499997
0.102 0.22499999 0.90399998
0.104 0.22499999 0.90399998
0.105 0.22499999 0.90399998
0.106 0.22499999 0.90399998
0.108 0.22499999 0.903
0.109 0.22499999 0.903
0.111 0.22499999 0.903
0.112 0.22499999 0.903
0.114 0.22499999 0.90399998
0.115 0.22499999 0.90399998
0.116 0.22499999 0.903
0.118 0.22400001 0.90200001
0.119 0.22400001 0.90200001
0.121 0.22400001 0.903
0.122 0.22400001 0.903
0.124 0.22400001 0.903
0.125 0.22400001 0.903
0.127 0.22499999 0.90399998
0.12899999 0.22499999 0.90600002
0.13 0.22499999 0.90499997
0.131 0.22499999 0.90399998
0.133 0.22499999 0.90399998
0.134 0.22499999 0.90399998
0.13500001 0.22400001 0.903
0.13699999 0.22400001 0.90200001
0.138 0.22400001 0.90200001
0.14 0.22400001 0.90200001
0.141 0.22400001 0.903
0.142 0.22400001 0.90200001
0.14399999 0.22400001 0.90200001
0.146 0.22400001 0.903
0.147 0.22400001 0.903
0.148 0.22400001 0.903
-0.208 0.23199999 0.93000001
-0.207 0.23199999 0.93000001
-0.205 0.23199999 0.93000001
-0.20299999 0.23199999 0.92900002
-0.20200001 0.23199999 0.92799997
-0.2 0.23199999 0.92799997
-0.199 0.23199999 0.92799997
-0.198 0.23199999 0.92900002
-0.19599999 0.23199999 0.92799997
-0.19499999 0.23199999 0.92900002
-0.193 0.23199999 0.92900002
-0.191 0.23199999 0.92799997
-0.19 0.23199999 0.92900002
-0.189 0.23199999 0.92900002
-0.18700001 0.23199999 0.92799997
-0.185 0.23199999 0.92799997
-0.184 0.23199999 0.92900002
-0.183 0.23199999 0.92900002
-0.18099999 0.23199999 0.93000001
-0.18000001 0.23199999 0.92900002
-0.178 0.23199999 0.92799997
-0.177 0.23199999 0.92799997
-0.175 0.23199999 0.92799997
-0.17399999 0.23199999 0.92799997
-0.17200001 0.23199999 0.92799997
-0.17 0.23199999 0.92699999
-0.169 0.23199999 0.92699999
-0.167 0.23199999 0.92699999
-0.16599999 0.23199999 0.92699999
-0.164 0.23199999 0.92699999
-0.163 0.23199999 0.92699999
-0.162 0.23199999 0.92699999
-0.16 0.23199999 0.92799997
-0.15899999 0.23199999 0.92799997
-0.15700001 0.23199999 0.92799997
-0.156 0.23199999 0.92799997
-0.154 0.23199999 0.92900002
-0.153 0.23199999 0.92900002
-0.15099999 0.23199999 0.92900002
-0.15000001 0.23199999 0.92900002
-0.148 0.23199999 0.92799997
-0.147 0.23199999 0.92799997
-0.145 0.23199999 0.92799997
-0.14399999 0.23199999 0.92900002
-0.142 0.23199999 0.92900002
-0.141 0.23199999 0.92900002
-0.14 0.23199999 0.92900002
-0.138 0.23199999 0.92900002
-0.13600001 0.23199999 0.92799997
-0.13500001 0.23199999 0.92799997
-0.133 0.23199999 0.92699999
-0.132 0.23199999 0.92699999
-0.13 0.23199999 0.92699999
-0.12899999 0.23199999 0.92699999
-0.127 0.23199999 0.92699999
-0.126 0.23199999 0.926
-0.124 0.23199999 0.926
-0.123 0.23199999 0.926
-0.121 0.23199999 0.926
-0.12 0.23199999 0.926
-0.118 0.23199999 0.926
-0.117 0.23199999 0.92699999
-0.115 0.23199999 0.92699999
-0.114 0.23199999 0.926
-0.112 0.23199999 0.92699999
-0.111 0.23199999 0.926
-0.109 0.23199999 0.92699999
-0.108 0.23199999 0.92699999
-0.107 0.23199999 0.92799997
-0.105 0.23199999 0.92799997
-0.103 0.23199999 0.92699999
-0.102 0.23199999 0.92699999
-0.101 0.23199999 0.92799997
-0.098999999 0.23199999 0.92799997
-0.097999997 0.23199999 0.92799997
-0.096000001 0.23199999 0.92799997
-0.094999999 0.23199999 0.92799997
-0.093000002 0.233 0.92900002
-0.092 0.23199999 0.92799997
-0.090000004 0.23199999 0.92799997
-0.088 0.23199999 0.92699999
-0.086999997 0.23199999 0.926
-0.086000003 0.23199999 0.92699999
-0.083999999 0.23199999 0.926
-0.082000002 0.23199999 0.926
-0.081 0.23199999 0.926
-0.079000004 0.23199999 0.926
-0.078000002 0.23199999 0.926
-0.075999998 0.23199999 0.926
-0.075000003 0.23199999 0.92500001
-0.072999999 0.23199999 0.92500001
-0.071999997 0.23199999 0.92500001
-0.07 0.23100001 0.92400002
-0.068999998 0.23199999 0.92500001
-0.067000002 0.23199999 0.92500001
-0.066 0.23199999 0.926
-0.064000003 0.23199999 0.926
-0.063000001 0.23199999 0.92500001
-0.061000001 0.23199999 0.92500001
-0.059999999 0.23199999 0.92500001
-0.057999998 0.23100001 0.92400002
-0.057 0.23100001 0.92299998
-0.055 0.23100001 0.921
-0.052999999 0.229 0.91600001
-0.050999999 0.227 0.90499997
-0.046 0.20900001 0.83600003
-0.044 0.205 0.81999999
-0.041999999 0.204 0.815
-0.041000001 0.204 0.81300002
-0.039999999 0.20299999 0.81199998
-0.037999999 0.20299999 0.81099999
-0.037 0.20299999 0.81
-0.035 0.20299999 0.81
-0.034000002 0.20299999 0.80900002
-0.033 0.20299999 0.81
-0.032000002 0.20299999 0.80900002
-0.029999999 0.20299999 0.80900002
-0.028999999 0.20299999 0.80900002
-0.028000001 0.20200001 0.80800003
-0.026000001 0.20200001 0.80800003
-0.025 0.20200001 0.80800003
-0.024 0.20200001 0.80699998
-0.022 0.20200001 0.80800003
-0.021 0.20200001 0.80699998
-0.02 0.20200001 0.80699998
-0.017999999 0.20200001 0.80699998
-0.017000001 0.20200001 0.80699998
-0.016000001 0.20200001 0.80699998
-0.014 0.20200001 0.80699998
-0.013 0.20200001 0.80699998
-0.012 0.20200001 0.80800003
-0.011 0.20200001 0.80800003
-0.0089999996 0.20299999 0.80900002
-0.0080000004 0.20299999 0.81
-0.0070000002 0.20299999 0.81
-0.0049999999 0.20299999 0.81099999
-0.0040000002 0.20299999 0.81199998
-0.003 0.204 0.815
-0.001 0.204 0.81599998
0 0.205 0.81900001
0.001 0.206 0.82200003
0.003 0.207 0.82800001
0.0040000002 0.20900001 0.83600003
0.011 0.22499999 0.898
0.013 0.227 0.90399998
0.015 0.228 0.90799999
0.016000001 0.228 0.90899998
0.017000001 0.228 0.90899998
0.018999999 0.228 0.90899998
0.02 0.227 0.90700001
0.022 0.227 0.90600002
0.023 0.227 0.90499997
0.025 0.227 0.90399998
0.026000001 0.227 0.90399998
0.028000001 0.226 0.903
0.028999999 0.226 0.90200001
0.029999999 0.226 0.90100002
0.032000002 0.226 0.90100002
0.035 0.22499999 0.89899999
0.035999998 0.226 0.89999998
0.037999999 0.226 0.90100002
0.039000001 0.226 0.90200001
0.041000001 0.226 0.90200001
0.041999999 0.226 0.90200001
0.044 0.226 0.90200001
0.045000002 0.226 0.90100002
0.046 0.226 0.90100002
0.048 0.22499999 0.89899999
0.048999999 0.22499999 0.89999998
0.050999999 0.22499999 0.89999998
0.052000001 0.226 0.90100002
0.054000001 0.226 0.90200001
0.055 0.226 0.90100002
0.057 0.226 0.90200001
0.057999998 0.226 0.903
0.059999999 0.226 0.90200001
0.061000001 0.226 0.903
0.063000001 0.226 0.903
0.064000003 0.226 0.903
0.066 0.226 0.90399998
0.067000002 0.226 0.90399998
0.068999998 0.226 0.90399998
0.07 0.226 0.90399998
0.071000002 0.226 0.90399998
0.072999999 0.227 0.90499997
0.074000001 0.226 0.90399998
0.075999998 0.226 0.903
0.077 0.226 0.90200001
0.079000004 0.226 0.90200001
0.079999998 0.226 0.90200001
0.081 0.226 0.90200001
0.082999997 0.226 0.90200001
0.083999999 0.226 0.90200001
0.086000003 0.226 0.90200001
0.086999997 0.226 0.90200001
0.089000002 0.226 0.90200001
0.090000004 0.226 0.90100002
0.092 0.226 0.90100002
0.093000002 0.226 0.90100002
0.094999999 0.226 0.90200001
0.096000001 0.22499999 0.89999998
0.097000003 0.22499999 0.89899999
0.098999999 0.22499999 0.89999998
0.1 0.226 0.90100002
0.102 0.22499999 0.89999998
0.103 0.22499999 0.89999998
0.105 0.22499999 0.89999998
0.106 0.226 0.90100002
0.108 0.226 0.90100002
0.109 0.22499999 0.89999998
0.11 0.22499999 0.89999998
0.112 0.22499999 0.89999998
0.113 0.22499999 0.90100002
0.115 0.22499999 0.90100002
0.116 0.22499999 0.89999998
0.118 0.22499999 0.89999998
0.119 0.22499999 0.89999998
0.12 0.22499999 0.89999998
0.122 0.22499999 0.89999998
0.123 0.22499999 0.89999998
0.125 0.22499999 0.90100002
0.127 0.226 0.90200001
0.12800001 0.226 0.903
0.12899999 0.226 0.90200001
0.131 0.226 0.90200001
0.132 0.226 0.90200001
0.134 0.226 0.90200001
0.13500001 0.22499999 0.89999998
0.13600001 0.22499999 0.89999998
0.138 0.22499999 0.90100002
0.139 0.22499999 0.90100002
0.141 0.22499999 0.90100002
0.142 0.22499999 0.90100002
0.14399999 0.22499999 0.90100002
0.145 0.226 0.90200001
0.146 0.22499999 0.89999998
0.148 0.22499999 0.89999998
0.149 0.22499999 0.89999998
-0.208 0.233 0.93000001
-0.207 0.234 0.93099999
-0.205 0.233 0.93000001
-0.20299999 0.233 0.92900002
-0.20200001 0.233 0.92900002
-0.20100001 0.233 0.92900002
-0.199 0.233 0.92799997
-0.197 0.233 0.92799997
-0.19599999 0.233 0.92799997
-0.19499999 0.233 0.92900002
-0.193 0.233 0.92900002
-0.192 0.233 0.92900002
-0.19 0.233 0.92900002
-0.189 0.234 0.93000001
-0.18700001 0.233 0.92900002
-0.186 0.233 0.92900002
-0.184 0.233 0.92900002
-0.182 0.233 0.92799997
-0.18099999 0.233 0.92900002
-0.18000001 0.233 0.92799997
-0.178 0.233 0.92699999
-0.176 0.233 0.92699999
-0.175 0.233 0.92699999
-0.17399999 0.233 0.92799997
-0.17200001 0.233 0.92699999
-0.17 0.233 0.92699999
-0.169 0.233 0.92699999
-0.167 0.233 0.92699999
-0.16599999 0.233 0.92699999
-0.164 0.233 0.926
-0.163 0.233 0.926
-0.161 0.233 0.926
-0.16 0.233 0.92699999
-0.15899999 0.233 0.92699999
-0.15700001 0.233 0.926
-0.156 0.233 0.92699999
-0.154 0.233 0.92799997
-0.153 0.233 0.92799997
-0.15099999 0.233 0.92799997
-0.15000001 0.233 0.92799997
-0.148 0.233 0.92799997
-0.147 0.233 0.92699999
-0.145 0.233 0.92699999
-0.14399999 0.233 0.92799997
-0.142 0.234 0.92900002
-0.141 0.234 0.92900002
-0.14 0.234 0.92900002
-0.138 0.234 0.92799997
-0.13600001 0.234 0.92799997
-0.13500001 0.233 0.92699999
-0.133 0.233 0.926
-0.131 0.233 0.92500001
-0.13 0.233 0.92500001
-0.12899999 0.233 0.92500001
-0.127 0.233 0.92500001
-0.126 0.233 0.92500001
-0.124 0.233 0.92500001
-0.123 0.233 0.92500001
-0.121 0.233 0.92500001
-0.12 0.233 0.92500001
-0.118 0.233 0.92500001
-0.117 0.233 0.92500001
-0.115 0.233 0.926
-0.114 0.233 0.92500001
-0.112 0.233 0.92500001
-0.111 0.233 0.92500001
-0.109 0.233 0.92500001
-0.108 0.233 0.926
-0.106 0.233 0.926
-0.105 0.233 0.926
-0.103 0.233 0.926
-0.102 0.233 0.92500001
-0.1 0.233 0.926
-0.098999999 0.233 0.926
-0.097000003 0.233 0.926
-0.096000001 0.233 0.926
-0.093999997 0.233 0.926
-0.093000002 0.234 0.92699999
-0.090999998 0.233 0.926
-0.090000004 0.233 0.92500001
-0.088 0.233 0.92500001
-0.086999997 0.233 0.92400002
-0.085000001 0.233 0.92400002
-0.083999999 0.233 0.92299998
-0.082000002 0.233 0.92299998
-0.081 0.23199999 0.92199999
-0.079000004 0.23199999 0.92199999
-0.078000002 0.233 0.92299998
-0.075999998 0.23199999 0.92199999
-0.075000003 0.23199999 0.92199999
-0.072999999 0.23199999 0.921
-0.071999997 0.23199999 0.921
-0.07 0.23199999 0.92000002
-0.068999998 0.23199999 0.921
-0.067000002 0.23199999 0.921
-0.066 0.23199999 0.921
-0.064000003 0.23199999 0.921
-0.063000001 0.23199999 0.921
-0.061000001 0.23199999 0.92000002
-0.059999999 0.23199999 0.92000002
-0.057999998 0.23199999 0.91900003
-0.056000002 0.23100001 0.917
-0.055 0.23 0.91399997
-0.052999999 0.228 0.90600002
-0.046 0.20900001 0.829
-0.044 0.206 0.81800002
-0.041999999 0.205 0.81400001
-0.041000001 0.204 0.81099999
-0.039000001 0.204 0.81
-0.037999999 0.204 0.80900002
-0.037 0.204 0.80900002
-0.035 0.204 0.80900002
-0.034000002 0.204 0.80800003
-0.033 0.204 0.80900002
-0.030999999 0.204 0.80800003
-0.029999999 0.20299999 0.80699998
-0.028999999 0.204 0.80800003
-0.028000001 0.204 0.80800003
-0.026000001 0.20299999 0.80699998
-0.025 0.20299999 0.80699998
-0.024 0.20299999 0.80699998
-0.022 0.20299999 0.80699998
-0.021 0.20299999 0.80599999
-0.02 0.20299999 0.80599999
-0.017999999 0.20299999 0.80599999
-0.017000001 0.20299999 0.80599999
-0.016000001 0.20299999 0.80599999
-0.014 0.20299999 0.80599999
-0.013 0.20299999 0.80599999
-0.012 0.20299999 0.80599999
-0.011 0.204 0.80699998
-0.0089999996 0.204 0.80800003
-0.0080000004 0.204 0.80900002
-0.0070000002 0.204 0.81
-0.0049999999 0.204 0.81
-0.0040000002 0.205 0.81199998
-0.003 0.205 0.81400001
-0.001 0.206 0.815
0 0.206 0.81800002
0.001 0.207 0.82099998
0.003 0.208 0.82599998
0.0040000002 0.20999999 0.83200002
0.0049999999 0.212 0.83999997
0.0070000002 0.214 0.85000002
0.0080000004 0.21699999 0.861
0.046 0.22400001 0.889
0.046999998 0.22400001 0.88800001
0.048999999 0.22400001 0.889
0.050000001 0.22400001 0.889
0.052000001 0.22499999 0.89099997
0.052999999 0.22499999 0.89200002
0.055 0.22499999 0.89200002
0.056000002 0.226 0.89499998
0.057999998 0.226 0.89600003
0.059 0.226 0.89600003
0.061000001 0.226 0.89700001
0.061999999 0.226 0.898
0.064000003 0.226 0.898
0.064999998 0.227 0.89899999
0.067000002 0.227 0.89899999
0.068000004 0.227 0.89999998
0.07 0.227 0.89899999
0.071000002 0.227 0.89999998
0.072999999 0.227 0.89999998
0.074000001 0.227 0.89999998
0.075000003 0.227 0.89899999
0.077 0.227 0.89899999
