ply
format ascii 1.0
comment VCGLIB generated
element vertex 2455
property float x
property float y
property float z
element face 0
property list uchar int vertex_indices
end_header
-0.015 0.174 0.807 
-0.013 0.174 0.807 
-0.012 0.174 0.808 
-0.011 0.174 0.809 
-0.009 0.174 0.81 
-0.008 0.175 0.813 
-0.007 0.176 0.818 
0.001 0.202 0.94 
-0.041 0.18 0.832 
-0.039 0.177 0.818 
-0.037 0.176 0.812 
-0.036 0.176 0.81 
-0.034 0.175 0.809 
-0.033 0.175 0.808 
-0.031 0.175 0.807 
-0.03 0.175 0.807 
-0.029 0.175 0.806 
-0.028 0.175 0.806 
-0.026 0.175 0.805 
-0.025 0.175 0.805 
-0.024 0.175 0.805 
-0.022 0.175 0.805 
-0.021 0.175 0.805 
-0.02 0.175 0.805 
-0.018 0.175 0.805 
-0.017 0.175 0.805 
-0.016 0.174 0.804 
-0.014 0.175 0.805 
-0.013 0.175 0.805 
-0.012 0.175 0.806 
-0.011 0.175 0.807 
-0.009 0.175 0.808 
-0.008 0.176 0.811 
-0.007 0.177 0.816 
0.001 0.204 0.94 
-0.04 0.181 0.829 
-0.038 0.178 0.815 
-0.037 0.177 0.81 
-0.035 0.177 0.808 
-0.034 0.176 0.807 
-0.033 0.176 0.806 
-0.031 0.176 0.805 
-0.03 0.176 0.805 
-0.029 0.176 0.805 
-0.028 0.176 0.805 
-0.026 0.176 0.804 
-0.025 0.176 0.804 
-0.024 0.176 0.804 
-0.022 0.175 0.803 
-0.021 0.175 0.803 
-0.02 0.175 0.803 
-0.018 0.175 0.803 
-0.017 0.176 0.803 
-0.016 0.176 0.803 
-0.014 0.176 0.803 
-0.013 0.176 0.804 
-0.012 0.176 0.805 
-0.011 0.176 0.806 
-0.009 0.176 0.807 
-0.008 0.177 0.81 
-0.007 0.178 0.814 
-0.005 0.18 0.824 
-0.004 0.183 0.836 
0.001 0.204 0.935 
-0.04 0.181 0.824 
-0.038 0.179 0.813 
-0.037 0.178 0.808 
-0.035 0.177 0.806 
-0.034 0.177 0.805 
-0.033 0.177 0.804 
-0.031 0.177 0.803 
-0.03 0.177 0.803 
-0.029 0.177 0.803 
-0.027 0.177 0.802 
-0.026 0.177 0.802 
-0.025 0.177 0.802 
-0.024 0.177 0.802 
-0.022 0.177 0.802 
-0.021 0.176 0.801 
-0.02 0.177 0.802 
-0.018 0.176 0.801 
-0.017 0.177 0.802 
-0.016 0.177 0.802 
-0.014 0.177 0.802 
-0.013 0.177 0.803 
-0.012 0.177 0.804 
-0.011 0.177 0.805 
-0.009 0.178 0.807 
-0.008 0.178 0.809 
-0.007 0.179 0.813 
-0.005 0.181 0.82 
-0.04 0.182 0.82 
-0.038 0.18 0.811 
-0.037 0.179 0.807 
-0.035 0.178 0.805 
-0.034 0.178 0.804 
-0.033 0.178 0.803 
-0.031 0.178 0.802 
-0.03 0.178 0.802 
-0.029 0.178 0.802 
-0.027 0.178 0.801 
-0.026 0.178 0.801 
-0.025 0.178 0.801 
-0.023 0.178 0.801 
-0.022 0.178 0.801 
-0.021 0.177 0.8 
-0.02 0.177 0.8 
-0.018 0.177 0.8 
-0.017 0.177 0.8 
-0.016 0.177 0.8 
-0.014 0.178 0.801 
-0.013 0.178 0.802 
-0.012 0.178 0.803 
-0.011 0.179 0.805 
-0.009 0.179 0.807 
-0.008 0.179 0.809 
-0.007 0.18 0.813 
-0.005 0.182 0.819 
-0.04 0.183 0.819 
-0.038 0.181 0.81 
-0.037 0.18 0.806 
-0.035 0.18 0.804 
-0.034 0.179 0.803 
-0.033 0.179 0.803 
-0.031 0.179 0.801 
-0.03 0.179 0.801 
-0.029 0.179 0.801 
-0.027 0.179 0.8 
-0.026 0.179 0.8 
-0.025 0.179 0.8 
-0.023 0.179 0.8 
-0.022 0.179 0.8 
-0.021 0.179 0.8 
-0.02 0.179 0.8 
-0.018 0.179 0.8 
-0.017 0.179 0.8 
-0.016 0.179 0.8 
-0.014 0.179 0.801 
-0.013 0.179 0.802 
-0.012 0.179 0.803 
-0.011 0.18 0.805 
-0.009 0.18 0.807 
-0.008 0.181 0.809 
-0.007 0.181 0.812 
-0.005 0.183 0.817 
-0.004 0.184 0.824 
-0.003 0.186 0.834 
0.054 0.206 0.924 
0.055 0.207 0.925 
0.057 0.207 0.926 
0.058 0.207 0.927 
0.06 0.207 0.929 
-0.04 0.184 0.816 
-0.038 0.182 0.81 
-0.037 0.181 0.806 
-0.035 0.181 0.804 
-0.034 0.181 0.803 
-0.033 0.181 0.803 
-0.031 0.18 0.801 
-0.03 0.18 0.801 
-0.029 0.18 0.8 
-0.027 0.18 0.8 
-0.026 0.18 0.8 
-0.025 0.18 0.799 
-0.023 0.18 0.799 
-0.022 0.18 0.799 
-0.021 0.18 0.799 
-0.02 0.18 0.8 
-0.018 0.18 0.8 
-0.017 0.18 0.8 
-0.016 0.18 0.801 
-0.014 0.18 0.801 
-0.013 0.181 0.803 
-0.012 0.181 0.803 
-0.011 0.181 0.805 
-0.009 0.182 0.807 
-0.008 0.182 0.809 
-0.007 0.183 0.812 
-0.005 0.184 0.816 
-0.004 0.185 0.821 
-0.003 0.187 0.829 
0.055 0.206 0.918 
0.056 0.207 0.919 
0.058 0.207 0.921 
0.06 0.208 0.923 
0.061 0.208 0.925 
0.063 0.208 0.926 
-0.05 0.21 0.926 
-0.042 0.188 0.829 
-0.04 0.185 0.818 
-0.038 0.184 0.811 
-0.037 0.183 0.807 
-0.035 0.182 0.805 
-0.034 0.182 0.804 
-0.033 0.182 0.803 
-0.031 0.182 0.802 
-0.03 0.181 0.801 
-0.029 0.181 0.801 
-0.027 0.181 0.8 
-0.026 0.181 0.8 
-0.025 0.181 0.799 
-0.023 0.181 0.8 
-0.022 0.181 0.8 
-0.021 0.181 0.8 
-0.02 0.181 0.8 
-0.018 0.181 0.8 
-0.017 0.181 0.801 
-0.016 0.181 0.801 
-0.014 0.182 0.802 
-0.013 0.182 0.803 
-0.012 0.182 0.804 
-0.011 0.183 0.806 
-0.009 0.183 0.808 
-0.008 0.183 0.809 
-0.007 0.184 0.812 
-0.005 0.185 0.816 
-0.004 0.186 0.821 
-0.003 0.187 0.827 
0.055 0.207 0.916 
0.056 0.208 0.918 
0.058 0.208 0.92 
0.059 0.209 0.921 
0.061 0.209 0.923 
0.063 0.209 0.924 
-0.052 0.21 0.919 
-0.05 0.208 0.914 
-0.048 0.205 0.9 
-0.044 0.194 0.85 
-0.042 0.189 0.827 
-0.04 0.187 0.819 
-0.038 0.185 0.813 
-0.037 0.185 0.809 
-0.035 0.184 0.807 
-0.034 0.184 0.805 
-0.033 0.183 0.804 
-0.031 0.183 0.802 
-0.03 0.183 0.801 
-0.029 0.183 0.801 
-0.027 0.183 0.801 
-0.026 0.183 0.8 
-0.025 0.183 0.8 
-0.023 0.183 0.801 
-0.022 0.183 0.8 
-0.021 0.183 0.8 
-0.02 0.183 0.801 
-0.018 0.183 0.801 
-0.017 0.183 0.802 
-0.016 0.183 0.803 
-0.014 0.183 0.803 
-0.013 0.184 0.805 
-0.012 0.184 0.805 
-0.011 0.184 0.807 
-0.009 0.185 0.809 
-0.008 0.185 0.811 
-0.007 0.186 0.813 
-0.005 0.186 0.816 
-0.004 0.187 0.82 
-0.003 0.188 0.826 
-0.001 0.19 0.834 
0.055 0.209 0.915 
0.056 0.209 0.917 
0.058 0.21 0.919 
0.059 0.21 0.92 
0.061 0.21 0.922 
0.062 0.21 0.922 
-0.044 0.194 0.846 
-0.042 0.19 0.826 
-0.04 0.188 0.819 
-0.038 0.187 0.814 
-0.037 0.186 0.81 
-0.035 0.186 0.808 
-0.034 0.185 0.807 
-0.033 0.185 0.805 
-0.031 0.184 0.802 
-0.03 0.184 0.802 
-0.029 0.184 0.802 
-0.027 0.184 0.802 
-0.026 0.184 0.801 
-0.025 0.184 0.801 
-0.023 0.184 0.801 
-0.022 0.184 0.802 
-0.021 0.184 0.801 
-0.02 0.184 0.802 
-0.018 0.184 0.802 
-0.017 0.185 0.803 
-0.016 0.185 0.804 
-0.014 0.185 0.804 
-0.013 0.185 0.805 
-0.012 0.185 0.806 
-0.011 0.186 0.808 
-0.009 0.186 0.81 
-0.008 0.186 0.811 
-0.007 0.187 0.814 
-0.005 0.188 0.817 
-0.004 0.189 0.821 
-0.003 0.19 0.826 
-0.001 0.191 0.832 
0.053 0.21 0.915 
0.055 0.211 0.917 
0.056 0.211 0.918 
0.058 0.211 0.919 
-0.046 0.201 0.868 
-0.044 0.194 0.838 
-0.042 0.191 0.826 
-0.04 0.19 0.82 
-0.038 0.189 0.816 
-0.037 0.188 0.812 
-0.035 0.187 0.809 
-0.034 0.187 0.808 
-0.033 0.186 0.806 
-0.031 0.186 0.804 
-0.03 0.186 0.803 
-0.029 0.186 0.803 
-0.027 0.186 0.802 
-0.026 0.186 0.802 
-0.025 0.186 0.802 
-0.023 0.186 0.802 
-0.022 0.186 0.802 
-0.021 0.186 0.802 
-0.02 0.186 0.803 
-0.018 0.186 0.803 
-0.017 0.186 0.804 
-0.016 0.186 0.805 
-0.014 0.186 0.806 
-0.013 0.186 0.806 
-0.012 0.187 0.807 
-0.011 0.187 0.808 
-0.009 0.188 0.811 
-0.008 0.188 0.812 
-0.007 0.189 0.815 
-0.005 0.189 0.818 
-0.004 0.19 0.821 
-0.003 0.191 0.826 
-0.001 0.193 0.832 
0 0.194 0.838 
0.047 0.211 0.913 
0.049 0.212 0.916 
0.05 0.212 0.917 
-0.046 0.2 0.86 
-0.044 0.195 0.838 
-0.042 0.192 0.826 
-0.04 0.191 0.82 
-0.038 0.19 0.817 
-0.037 0.189 0.813 
-0.036 0.189 0.811 
-0.034 0.188 0.809 
-0.033 0.188 0.807 
-0.031 0.188 0.805 
-0.03 0.188 0.805 
-0.029 0.187 0.804 
-0.027 0.187 0.804 
-0.026 0.187 0.803 
-0.025 0.187 0.803 
-0.024 0.187 0.803 
-0.022 0.187 0.803 
-0.021 0.187 0.803 
-0.02 0.187 0.804 
-0.018 0.188 0.805 
-0.017 0.188 0.805 
-0.016 0.188 0.806 
-0.014 0.188 0.807 
-0.013 0.188 0.808 
-0.012 0.188 0.808 
-0.011 0.189 0.81 
-0.009 0.189 0.811 
-0.008 0.189 0.813 
-0.007 0.19 0.816 
-0.005 0.191 0.818 
-0.004 0.191 0.821 
-0.003 0.192 0.825 
-0.001 0.193 0.83 
0 0.195 0.836 
0.001 0.196 0.843 
-0.116 0.216 0.923 
-0.048 0.205 0.876 
-0.046 0.2 0.854 
-0.043 0.196 0.836 
-0.042 0.193 0.825 
-0.04 0.193 0.821 
-0.038 0.192 0.817 
-0.037 0.191 0.814 
-0.036 0.19 0.812 
-0.034 0.19 0.81 
-0.033 0.19 0.808 
-0.031 0.189 0.807 
-0.03 0.189 0.806 
-0.029 0.189 0.806 
-0.027 0.189 0.805 
-0.026 0.189 0.805 
-0.025 0.189 0.804 
-0.024 0.189 0.804 
-0.022 0.189 0.804 
-0.021 0.189 0.804 
-0.02 0.189 0.805 
-0.018 0.189 0.805 
-0.017 0.189 0.806 
-0.016 0.189 0.807 
-0.014 0.189 0.807 
-0.013 0.19 0.808 
-0.012 0.19 0.809 
-0.011 0.19 0.81 
-0.009 0.19 0.812 
-0.008 0.191 0.814 
-0.007 0.191 0.816 
-0.005 0.192 0.818 
-0.004 0.193 0.821 
-0.003 0.194 0.825 
-0.001 0.194 0.828 
0 0.196 0.834 
0.001 0.197 0.841 
0.003 0.2 0.853 
0.01 0.213 0.906 
0.012 0.213 0.91 
0.013 0.214 0.912 
0.015 0.214 0.914 
0.016 0.215 0.916 
-0.116 0.217 0.92 
-0.115 0.217 0.92 
-0.113 0.217 0.919 
-0.111 0.216 0.917 
-0.11 0.216 0.916 
-0.057 0.215 0.909 
-0.056 0.215 0.909 
-0.054 0.214 0.906 
-0.053 0.213 0.902 
-0.051 0.211 0.894 
-0.048 0.206 0.873 
-0.045 0.2 0.846 
-0.043 0.196 0.832 
-0.041 0.195 0.824 
-0.04 0.194 0.82 
-0.039 0.193 0.818 
-0.037 0.192 0.815 
-0.036 0.192 0.812 
-0.034 0.192 0.811 
-0.033 0.191 0.809 
-0.032 0.191 0.808 
-0.03 0.191 0.807 
-0.029 0.191 0.807 
-0.028 0.19 0.806 
-0.026 0.19 0.806 
-0.025 0.19 0.806 
-0.024 0.19 0.806 
-0.022 0.19 0.806 
-0.021 0.19 0.806 
-0.02 0.19 0.806 
-0.018 0.191 0.807 
-0.017 0.191 0.807 
-0.016 0.191 0.808 
-0.015 0.191 0.808 
-0.013 0.191 0.809 
-0.012 0.191 0.81 
-0.011 0.192 0.811 
-0.009 0.192 0.813 
-0.008 0.192 0.815 
-0.007 0.193 0.817 
-0.005 0.193 0.819 
-0.004 0.194 0.821 
-0.003 0.194 0.823 
-0.001 0.195 0.827 
0 0.197 0.832 
0.001 0.198 0.839 
0.003 0.201 0.852 
0.004 0.204 0.865 
0.006 0.208 0.881 
0.007 0.211 0.894 
0.009 0.213 0.903 
0.01 0.215 0.911 
-0.113 0.218 0.918 
-0.111 0.218 0.917 
-0.11 0.217 0.916 
-0.108 0.217 0.915 
-0.105 0.218 0.916 
-0.104 0.218 0.916 
-0.102 0.218 0.916 
-0.059 0.217 0.912 
-0.058 0.217 0.912 
-0.056 0.217 0.912 
-0.055 0.217 0.911 
-0.053 0.215 0.904 
-0.051 0.213 0.895 
-0.048 0.207 0.872 
-0.045 0.2 0.842 
-0.043 0.197 0.829 
-0.041 0.196 0.823 
-0.04 0.195 0.82 
-0.038 0.194 0.817 
-0.037 0.194 0.815 
-0.036 0.193 0.813 
-0.034 0.193 0.811 
-0.033 0.193 0.81 
-0.032 0.192 0.808 
-0.03 0.192 0.808 
-0.029 0.192 0.808 
-0.028 0.192 0.808 
-0.026 0.192 0.807 
-0.025 0.192 0.807 
-0.024 0.192 0.807 
-0.022 0.192 0.807 
-0.021 0.192 0.807 
-0.02 0.192 0.807 
-0.018 0.192 0.807 
-0.017 0.192 0.808 
-0.016 0.192 0.809 
-0.015 0.192 0.809 
-0.013 0.193 0.81 
-0.012 0.193 0.811 
-0.011 0.193 0.812 
-0.009 0.193 0.813 
-0.008 0.194 0.815 
-0.007 0.194 0.817 
-0.005 0.195 0.819 
-0.004 0.195 0.82 
-0.003 0.195 0.822 
-0.001 0.196 0.826 
0 0.198 0.831 
0.001 0.199 0.838 
0.003 0.203 0.853 
0.004 0.206 0.866 
0.009 0.216 0.908 
-0.098 0.219 0.915 
-0.096 0.219 0.914 
-0.095 0.219 0.914 
-0.093 0.219 0.914 
-0.069 0.218 0.912 
-0.053 0.218 0.912 
-0.051 0.216 0.902 
-0.048 0.209 0.872 
-0.045 0.2 0.837 
-0.043 0.198 0.826 
-0.041 0.197 0.822 
-0.04 0.196 0.819 
-0.038 0.196 0.817 
-0.037 0.195 0.815 
-0.036 0.195 0.814 
-0.034 0.194 0.811 
-0.033 0.194 0.81 
-0.032 0.194 0.81 
-0.03 0.194 0.809 
-0.029 0.194 0.809 
-0.028 0.193 0.808 
-0.026 0.193 0.808 
-0.025 0.193 0.808 
-0.024 0.193 0.808 
-0.022 0.193 0.808 
-0.021 0.193 0.807 
-0.02 0.193 0.807 
-0.018 0.193 0.808 
-0.017 0.194 0.809 
-0.016 0.194 0.809 
-0.015 0.194 0.809 
-0.013 0.194 0.811 
-0.012 0.194 0.812 
-0.011 0.194 0.812 
-0.009 0.195 0.813 
-0.008 0.195 0.816 
-0.007 0.196 0.817 
-0.005 0.196 0.818 
-0.004 0.196 0.819 
-0.003 0.197 0.821 
-0.001 0.197 0.825 
0 0.199 0.83 
0.001 0.2 0.836 
-0.052 0.219 0.91 
-0.049 0.213 0.884 
-0.045 0.201 0.835 
-0.043 0.199 0.825 
-0.041 0.198 0.821 
-0.04 0.197 0.819 
-0.038 0.197 0.817 
-0.037 0.196 0.815 
-0.036 0.196 0.814 
-0.034 0.196 0.813 
-0.033 0.195 0.811 
-0.032 0.195 0.81 
-0.03 0.195 0.81 
-0.029 0.195 0.81 
-0.028 0.195 0.809 
-0.026 0.195 0.809 
-0.025 0.195 0.808 
-0.024 0.195 0.808 
-0.022 0.195 0.808 
-0.021 0.195 0.808 
-0.02 0.195 0.808 
-0.018 0.195 0.808 
-0.017 0.195 0.809 
-0.016 0.195 0.81 
-0.015 0.195 0.81 
-0.013 0.195 0.811 
-0.012 0.196 0.812 
-0.011 0.196 0.813 
-0.009 0.196 0.814 
-0.008 0.196 0.815 
-0.007 0.197 0.816 
-0.005 0.197 0.817 
-0.004 0.197 0.818 
-0.003 0.198 0.82 
-0.001 0.198 0.823 
0 0.2 0.828 
0.001 0.201 0.835 
0.006 0.213 0.884 
0.007 0.217 0.902 
-0.049 0.216 0.892 
-0.045 0.202 0.833 
-0.043 0.2 0.824 
-0.041 0.199 0.82 
-0.04 0.198 0.818 
-0.038 0.198 0.816 
-0.037 0.198 0.815 
-0.036 0.197 0.814 
-0.034 0.197 0.813 
-0.033 0.197 0.812 
-0.032 0.197 0.811 
-0.03 0.196 0.81 
-0.029 0.196 0.81 
-0.028 0.196 0.809 
-0.026 0.196 0.809 
-0.025 0.196 0.809 
-0.024 0.196 0.809 
-0.022 0.196 0.809 
-0.021 0.196 0.808 
-0.02 0.196 0.809 
-0.018 0.196 0.809 
-0.017 0.196 0.809 
-0.016 0.196 0.81 
-0.015 0.196 0.81 
-0.013 0.197 0.811 
-0.012 0.197 0.812 
-0.011 0.197 0.813 
-0.009 0.197 0.814 
-0.008 0.198 0.815 
-0.007 0.198 0.816 
-0.005 0.198 0.817 
-0.004 0.198 0.818 
-0.003 0.199 0.819 
-0.001 0.199 0.822 
0 0.201 0.827 
0.001 0.202 0.833 
0.003 0.205 0.847 
0.004 0.209 0.863 
-0.049 0.219 0.896 
-0.044 0.203 0.83 
-0.043 0.201 0.822 
-0.041 0.2 0.819 
-0.04 0.199 0.817 
-0.038 0.199 0.816 
-0.037 0.199 0.814 
-0.036 0.199 0.814 
-0.034 0.198 0.813 
-0.033 0.198 0.812 
-0.032 0.198 0.811 
-0.03 0.198 0.81 
-0.029 0.198 0.81 
-0.028 0.198 0.81 
-0.026 0.198 0.81 
-0.025 0.198 0.809 
-0.024 0.198 0.809 
-0.022 0.198 0.81 
-0.021 0.198 0.809 
-0.02 0.198 0.809 
-0.018 0.198 0.81 
-0.017 0.198 0.81 
-0.016 0.198 0.81 
-0.015 0.198 0.81 
-0.013 0.198 0.811 
-0.012 0.198 0.812 
-0.011 0.198 0.812 
-0.009 0.199 0.813 
-0.008 0.199 0.814 
-0.007 0.199 0.815 
-0.005 0.199 0.816 
-0.004 0.2 0.817 
-0.003 0.2 0.818 
-0.001 0.2 0.82 
0 0.201 0.825 
0.001 0.203 0.832 
0.003 0.206 0.845 
-0.049 0.22 0.894 
-0.044 0.203 0.827 
-0.043 0.201 0.82 
-0.041 0.201 0.817 
-0.04 0.2 0.815 
-0.038 0.2 0.814 
-0.037 0.2 0.814 
-0.036 0.2 0.813 
-0.034 0.2 0.813 
-0.033 0.2 0.812 
-0.032 0.199 0.811 
-0.03 0.199 0.81 
-0.029 0.199 0.81 
-0.028 0.199 0.81 
-0.026 0.199 0.809 
-0.025 0.199 0.809 
-0.024 0.199 0.809 
-0.022 0.199 0.809 
-0.021 0.199 0.809 
-0.02 0.199 0.809 
-0.018 0.199 0.809 
-0.017 0.199 0.809 
-0.016 0.199 0.809 
-0.015 0.199 0.809 
-0.013 0.199 0.81 
-0.012 0.199 0.811 
-0.011 0.2 0.812 
-0.009 0.2 0.812 
-0.008 0.2 0.813 
-0.007 0.2 0.814 
-0.005 0.2 0.815 
-0.004 0.201 0.816 
-0.003 0.201 0.817 
-0.001 0.201 0.819 
0 0.202 0.823 
0.001 0.204 0.829 
0.003 0.207 0.841 
-0.049 0.219 0.887 
-0.044 0.204 0.824 
-0.042 0.202 0.818 
-0.041 0.202 0.816 
-0.04 0.201 0.814 
-0.038 0.201 0.813 
-0.037 0.201 0.813 
-0.036 0.201 0.812 
-0.034 0.201 0.812 
-0.033 0.201 0.812 
-0.032 0.201 0.811 
-0.03 0.2 0.81 
-0.029 0.2 0.809 
-0.028 0.2 0.809 
-0.026 0.2 0.809 
-0.025 0.2 0.809 
-0.024 0.2 0.808 
-0.022 0.2 0.809 
-0.021 0.2 0.808 
-0.02 0.2 0.808 
-0.018 0.2 0.809 
-0.017 0.2 0.809 
-0.016 0.2 0.809 
-0.015 0.2 0.809 
-0.013 0.2 0.809 
-0.012 0.2 0.809 
-0.011 0.2 0.81 
-0.009 0.201 0.812 
-0.008 0.201 0.812 
-0.007 0.201 0.812 
-0.005 0.201 0.813 
-0.004 0.201 0.814 
-0.003 0.202 0.815 
-0.001 0.202 0.818 
0 0.203 0.822 
0.001 0.205 0.827 
0.003 0.207 0.837 
0.007 0.219 0.885 
-0.044 0.205 0.822 
-0.042 0.203 0.816 
-0.041 0.203 0.814 
-0.04 0.202 0.813 
-0.038 0.202 0.812 
-0.037 0.202 0.812 
-0.036 0.202 0.812 
-0.034 0.202 0.811 
-0.033 0.202 0.811 
-0.032 0.202 0.81 
-0.03 0.202 0.81 
-0.029 0.201 0.809 
-0.028 0.201 0.809 
-0.026 0.201 0.809 
-0.025 0.201 0.808 
-0.024 0.201 0.808 
-0.022 0.201 0.808 
-0.021 0.201 0.808 
-0.02 0.201 0.808 
-0.018 0.201 0.808 
-0.017 0.201 0.808 
-0.016 0.201 0.808 
-0.015 0.201 0.808 
-0.013 0.201 0.808 
-0.012 0.201 0.809 
-0.011 0.201 0.809 
-0.009 0.202 0.81 
-0.008 0.202 0.811 
-0.007 0.202 0.812 
-0.005 0.202 0.812 
-0.004 0.202 0.813 
-0.003 0.203 0.815 
-0.001 0.203 0.817 
0 0.204 0.82 
0.001 0.205 0.825 
0.003 0.207 0.832 
-0.046 0.209 0.836 
-0.044 0.205 0.82 
-0.042 0.204 0.815 
-0.041 0.204 0.813 
-0.04 0.203 0.812 
-0.038 0.203 0.811 
-0.037 0.203 0.81 
-0.035 0.203 0.81 
-0.034 0.203 0.809 
-0.033 0.203 0.81 
-0.032 0.203 0.809 
-0.03 0.203 0.809 
-0.029 0.203 0.809 
-0.028 0.202 0.808 
-0.026 0.202 0.808 
-0.025 0.202 0.808 
-0.024 0.202 0.807 
-0.022 0.202 0.808 
-0.021 0.202 0.807 
-0.02 0.202 0.807 
-0.018 0.202 0.807 
-0.017 0.202 0.807 
-0.016 0.202 0.807 
-0.014 0.202 0.807 
-0.013 0.202 0.807 
-0.012 0.202 0.808 
-0.011 0.202 0.808 
-0.009 0.203 0.809 
-0.008 0.203 0.81 
-0.007 0.203 0.81 
-0.005 0.203 0.811 
-0.004 0.203 0.812 
-0.003 0.204 0.815 
-0.001 0.204 0.816 
0 0.205 0.819 
0.001 0.206 0.822 
0.003 0.207 0.828 
0.004 0.209 0.836 
-0.046 0.209 0.829 
-0.044 0.206 0.818 
-0.042 0.205 0.814 
-0.041 0.204 0.811 
-0.039 0.204 0.81 
-0.038 0.204 0.809 
-0.037 0.204 0.809 
-0.035 0.204 0.809 
-0.034 0.204 0.808 
-0.033 0.204 0.809 
-0.031 0.204 0.808 
-0.03 0.203 0.807 
-0.029 0.204 0.808 
-0.028 0.204 0.808 
-0.026 0.203 0.807 
-0.025 0.203 0.807 
-0.024 0.203 0.807 
-0.022 0.203 0.807 
-0.021 0.203 0.806 
-0.02 0.203 0.806 
-0.018 0.203 0.806 
-0.017 0.203 0.806 
-0.016 0.203 0.806 
-0.014 0.203 0.806 
-0.013 0.203 0.806 
-0.012 0.203 0.806 
-0.011 0.204 0.807 
-0.009 0.204 0.808 
-0.008 0.204 0.809 
-0.007 0.204 0.81 
-0.005 0.204 0.81 
-0.004 0.205 0.812 
-0.003 0.205 0.814 
-0.001 0.206 0.815 
0 0.206 0.818 
0.001 0.207 0.821 
0.003 0.208 0.826 
0.004 0.21 0.832 
0.005 0.212 0.84 
0.007 0.214 0.85 
0.008 0.217 0.861 
0.046 0.224 0.889 
0.047 0.224 0.888 
0.049 0.224 0.889 
0.05 0.224 0.889 
0.052 0.225 0.891 
-0.048 0.213 0.841 
-0.045 0.209 0.825 
-0.044 0.207 0.817 
-0.042 0.206 0.813 
-0.041 0.206 0.811 
-0.039 0.205 0.809 
-0.038 0.205 0.809 
-0.037 0.205 0.809 
-0.035 0.205 0.808 
-0.034 0.205 0.808 
-0.033 0.205 0.808 
-0.031 0.205 0.807 
-0.03 0.205 0.807 
-0.029 0.205 0.807 
-0.028 0.205 0.807 
-0.026 0.205 0.806 
-0.025 0.205 0.806 
-0.024 0.205 0.806 
-0.022 0.205 0.806 
-0.021 0.204 0.805 
-0.02 0.204 0.805 
-0.018 0.204 0.805 
-0.017 0.204 0.805 
-0.016 0.204 0.805 
-0.014 0.204 0.805 
-0.013 0.205 0.806 
-0.012 0.205 0.806 
-0.011 0.205 0.806 
-0.009 0.205 0.806 
-0.008 0.205 0.807 
-0.007 0.205 0.808 
-0.005 0.205 0.809 
-0.004 0.206 0.811 
-0.003 0.206 0.813 
-0.001 0.207 0.814 
0 0.207 0.817 
0.001 0.208 0.82 
0.003 0.209 0.823 
0.004 0.211 0.83 
0.005 0.212 0.837 
0.007 0.214 0.844 
0.047 0.224 0.883 
0.048 0.224 0.884 
0.05 0.224 0.884 
0.051 0.225 0.887 
0.053 0.225 0.888 
0.054 0.226 0.889 
-0.055 0.228 0.892 
-0.053 0.225 0.882 
-0.05 0.218 0.855 
-0.047 0.213 0.834 
-0.045 0.21 0.822 
-0.044 0.208 0.816 
-0.042 0.207 0.812 
-0.041 0.207 0.81 
-0.039 0.207 0.809 
-0.038 0.206 0.808 
-0.037 0.206 0.808 
-0.035 0.206 0.807 
-0.034 0.206 0.807 
-0.033 0.206 0.807 
-0.031 0.206 0.806 
-0.03 0.206 0.806 
-0.029 0.206 0.806 
-0.027 0.206 0.806 
-0.026 0.206 0.805 
-0.025 0.205 0.804 
-0.024 0.205 0.804 
-0.022 0.205 0.804 
-0.021 0.205 0.804 
-0.02 0.205 0.803 
-0.018 0.205 0.804 
-0.017 0.205 0.804 
-0.016 0.205 0.804 
-0.014 0.205 0.804 
-0.013 0.205 0.804 
-0.012 0.206 0.805 
-0.011 0.206 0.805 
-0.009 0.206 0.806 
-0.008 0.206 0.807 
-0.007 0.206 0.808 
-0.005 0.207 0.809 
-0.004 0.207 0.811 
-0.003 0.208 0.813 
-0.001 0.208 0.815 
0 0.209 0.817 
0.001 0.209 0.82 
0.003 0.21 0.823 
0.004 0.211 0.828 
0.005 0.213 0.835 
0.007 0.215 0.841 
0.045 0.225 0.88 
0.047 0.225 0.88 
0.048 0.225 0.882 
0.05 0.225 0.883 
0.051 0.225 0.883 
0.053 0.226 0.886 
0.054 0.226 0.887 
-0.069 0.229 0.89 
-0.068 0.229 0.89 
-0.062 0.229 0.89 
-0.061 0.229 0.89 
-0.059 0.228 0.889 
-0.058 0.228 0.888 
-0.056 0.227 0.885 
-0.054 0.226 0.88 
-0.052 0.223 0.868 
-0.049 0.218 0.848 
-0.047 0.214 0.832 
-0.045 0.211 0.821 
-0.044 0.21 0.816 
-0.042 0.209 0.812 
-0.041 0.208 0.81 
-0.039 0.208 0.809 
-0.038 0.208 0.808 
-0.037 0.207 0.807 
-0.035 0.207 0.807 
-0.034 0.207 0.807 
-0.033 0.207 0.806 
-0.031 0.207 0.805 
-0.03 0.207 0.805 
-0.029 0.207 0.805 
-0.027 0.207 0.805 
-0.026 0.207 0.804 
-0.025 0.207 0.804 
-0.023 0.206 0.803 
-0.022 0.206 0.803 
-0.021 0.206 0.803 
-0.02 0.206 0.802 
-0.018 0.206 0.803 
-0.017 0.207 0.804 
-0.016 0.207 0.804 
-0.014 0.207 0.804 
-0.013 0.207 0.804 
-0.012 0.207 0.804 
-0.011 0.207 0.805 
-0.009 0.207 0.805 
-0.008 0.207 0.807 
-0.007 0.208 0.808 
-0.005 0.208 0.809 
-0.004 0.208 0.81 
-0.003 0.209 0.813 
-0.001 0.209 0.815 
0 0.21 0.817 
0.001 0.211 0.82 
0.003 0.211 0.823 
0.004 0.213 0.829 
0.005 0.214 0.834 
0.007 0.216 0.841 
0.042 0.225 0.877 
0.044 0.226 0.879 
0.045 0.226 0.879 
0.047 0.226 0.88 
0.048 0.226 0.88 
0.05 0.227 0.882 
0.051 0.227 0.883 
0.053 0.227 0.884 
0.054 0.227 0.885 
-0.081 0.23 0.89 
-0.079 0.229 0.888 
-0.077 0.229 0.887 
-0.076 0.229 0.886 
-0.069 0.228 0.884 
-0.061 0.228 0.883 
-0.06 0.228 0.883 
-0.059 0.228 0.882 
-0.057 0.227 0.88 
-0.055 0.227 0.877 
-0.054 0.225 0.872 
-0.051 0.222 0.859 
-0.049 0.218 0.844 
-0.047 0.215 0.831 
-0.045 0.212 0.822 
-0.044 0.211 0.817 
-0.042 0.21 0.813 
-0.041 0.21 0.811 
-0.039 0.209 0.81 
-0.038 0.209 0.808 
-0.037 0.209 0.807 
-0.035 0.208 0.806 
-0.034 0.208 0.806 
-0.033 0.208 0.806 
-0.031 0.208 0.805 
-0.03 0.208 0.805 
-0.029 0.208 0.805 
-0.027 0.208 0.805 
-0.026 0.208 0.804 
-0.025 0.208 0.803 
-0.023 0.207 0.802 
-0.022 0.207 0.802 
-0.021 0.207 0.802 
-0.02 0.207 0.802 
-0.018 0.207 0.802 
-0.017 0.208 0.803 
-0.016 0.208 0.804 
-0.014 0.208 0.804 
-0.013 0.208 0.804 
-0.012 0.208 0.804 
-0.011 0.208 0.805 
-0.009 0.208 0.806 
-0.008 0.209 0.807 
-0.007 0.209 0.808 
-0.005 0.209 0.809 
-0.004 0.209 0.81 
-0.003 0.21 0.813 
-0.001 0.211 0.815 
0 0.211 0.817 
0.001 0.212 0.821 
0.003 0.213 0.824 
0.004 0.214 0.829 
0.005 0.216 0.835 
0.007 0.217 0.841 
0.008 0.219 0.848 
0.035 0.225 0.872 
0.037 0.226 0.874 
0.038 0.226 0.874 
0.039 0.226 0.876 
0.041 0.227 0.877 
0.042 0.227 0.878 
0.044 0.227 0.88 
0.045 0.227 0.88 
0.047 0.228 0.881 
0.048 0.228 0.881 
0.05 0.228 0.882 
0.051 0.228 0.883 
-0.083 0.231 0.888 
-0.082 0.23 0.885 
-0.068 0.229 0.88 
-0.06 0.229 0.879 
-0.058 0.229 0.879 
-0.057 0.228 0.877 
-0.055 0.227 0.874 
-0.053 0.226 0.868 
-0.051 0.223 0.858 
-0.049 0.219 0.844 
-0.047 0.216 0.832 
-0.045 0.214 0.824 
-0.044 0.213 0.818 
-0.042 0.212 0.815 
-0.041 0.211 0.812 
-0.039 0.211 0.811 
-0.038 0.21 0.809 
-0.037 0.21 0.808 
-0.035 0.21 0.807 
-0.034 0.21 0.806 
-0.033 0.21 0.806 
-0.031 0.209 0.805 
-0.03 0.209 0.804 
-0.029 0.209 0.804 
-0.027 0.209 0.804 
-0.026 0.209 0.804 
-0.025 0.209 0.803 
-0.023 0.209 0.802 
-0.022 0.209 0.802 
-0.021 0.209 0.802 
-0.02 0.209 0.802 
-0.018 0.209 0.802 
-0.017 0.209 0.803 
-0.016 0.209 0.803 
-0.014 0.209 0.803 
-0.013 0.209 0.803 
-0.012 0.209 0.804 
-0.011 0.209 0.805 
-0.009 0.21 0.806 
-0.008 0.21 0.806 
-0.007 0.21 0.809 
-0.005 0.211 0.81 
-0.004 0.211 0.811 
-0.003 0.212 0.813 
-0.001 0.212 0.815 
0 0.213 0.818 
0.001 0.214 0.821 
0.003 0.215 0.825 
0.004 0.216 0.831 
0.005 0.218 0.837 
0.007 0.219 0.843 
0.008 0.221 0.85 
0.01 0.223 0.857 
0.011 0.224 0.861 
0.034 0.228 0.876 
0.035 0.228 0.877 
0.037 0.229 0.879 
0.038 0.229 0.879 
0.04 0.229 0.88 
0.041 0.229 0.882 
-0.112 0.232 0.888 
-0.11 0.232 0.888 
-0.086 0.232 0.886 
-0.084 0.231 0.885 
-0.083 0.231 0.883 
-0.061 0.229 0.876 
-0.06 0.229 0.876 
-0.058 0.229 0.876 
-0.057 0.229 0.874 
-0.055 0.228 0.872 
-0.053 0.227 0.866 
-0.051 0.225 0.858 
-0.049 0.221 0.846 
-0.047 0.218 0.835 
-0.046 0.216 0.827 
-0.044 0.215 0.821 
-0.042 0.214 0.817 
-0.041 0.213 0.814 
-0.039 0.212 0.812 
-0.038 0.212 0.81 
-0.037 0.211 0.808 
-0.035 0.211 0.807 
-0.034 0.211 0.806 
-0.033 0.211 0.805 
-0.031 0.211 0.805 
-0.03 0.21 0.804 
-0.029 0.21 0.804 
-0.027 0.21 0.804 
-0.026 0.21 0.803 
-0.025 0.21 0.803 
-0.023 0.21 0.802 
-0.022 0.21 0.801 
-0.021 0.21 0.801 
-0.02 0.21 0.801 
-0.018 0.21 0.802 
-0.017 0.21 0.803 
-0.016 0.21 0.803 
-0.014 0.21 0.803 
-0.013 0.21 0.804 
-0.012 0.21 0.804 
-0.011 0.211 0.805 
-0.009 0.211 0.806 
-0.008 0.211 0.807 
-0.007 0.212 0.809 
-0.005 0.212 0.81 
-0.004 0.213 0.812 
-0.003 0.213 0.814 
-0.001 0.214 0.817 
0 0.215 0.82 
0.001 0.215 0.823 
0.003 0.217 0.828 
0.004 0.218 0.834 
0.005 0.22 0.841 
0.007 0.222 0.848 
0.008 0.224 0.856 
0.01 0.226 0.864 
0.011 0.227 0.867 
0.013 0.228 0.87 
0.014 0.228 0.872 
0.017 0.229 0.875 
0.018 0.229 0.876 
0.021 0.23 0.879 
0.023 0.23 0.88 
0.024 0.231 0.881 
0.033 0.23 0.88 
-0.113 0.233 0.886 
-0.112 0.233 0.886 
-0.102 0.233 0.885 
-0.1 0.233 0.885 
-0.099 0.233 0.885 
-0.097 0.233 0.885 
-0.096 0.233 0.885 
-0.087 0.233 0.884 
-0.086 0.232 0.883 
-0.084 0.232 0.882 
-0.061 0.23 0.874 
-0.059 0.23 0.875 
-0.058 0.23 0.875 
-0.057 0.23 0.873 
-0.055 0.229 0.87 
-0.053 0.228 0.867 
-0.051 0.226 0.859 
-0.05 0.224 0.849 
-0.048 0.221 0.839 
-0.046 0.219 0.83 
-0.044 0.217 0.824 
-0.042 0.216 0.819 
-0.041 0.215 0.815 
-0.04 0.214 0.813 
-0.038 0.214 0.811 
-0.037 0.213 0.809 
-0.035 0.213 0.808 
-0.034 0.212 0.807 
-0.033 0.212 0.806 
-0.031 0.212 0.805 
-0.03 0.212 0.805 
-0.029 0.212 0.804 
-0.027 0.212 0.804 
-0.026 0.211 0.803 
-0.025 0.211 0.802 
-0.023 0.211 0.802 
-0.022 0.211 0.802 
-0.021 0.211 0.802 
-0.02 0.211 0.802 
-0.018 0.211 0.802 
-0.017 0.211 0.803 
-0.016 0.211 0.803 
-0.014 0.211 0.803 
-0.013 0.212 0.804 
-0.012 0.212 0.805 
-0.011 0.212 0.805 
-0.009 0.213 0.807 
-0.008 0.213 0.808 
-0.007 0.213 0.81 
-0.005 0.214 0.811 
-0.004 0.214 0.813 
-0.003 0.215 0.815 
-0.001 0.215 0.817 
0 0.216 0.821 
0.001 0.217 0.824 
0.003 0.219 0.83 
0.004 0.221 0.838 
0.005 0.223 0.845 
0.007 0.225 0.854 
0.008 0.227 0.861 
0.01 0.229 0.87 
0.011 0.23 0.874 
0.013 0.231 0.876 
0.014 0.231 0.879 
-0.136 0.234 0.884 
-0.134 0.234 0.885 
-0.101 0.234 0.883 
-0.1 0.233 0.882 
-0.098 0.233 0.882 
-0.097 0.233 0.882 
-0.095 0.233 0.882 
-0.086 0.233 0.882 
-0.084 0.233 0.881 
-0.082 0.233 0.879 
-0.062 0.232 0.875 
-0.061 0.232 0.875 
-0.059 0.232 0.875 
-0.058 0.232 0.876 
-0.057 0.232 0.875 
-0.055 0.231 0.873 
-0.054 0.23 0.87 
-0.052 0.229 0.866 
-0.05 0.226 0.855 
-0.048 0.224 0.844 
-0.046 0.221 0.834 
-0.044 0.219 0.827 
-0.043 0.218 0.822 
-0.041 0.216 0.817 
-0.04 0.216 0.815 
-0.038 0.215 0.813 
-0.037 0.215 0.811 
-0.035 0.214 0.809 
-0.034 0.214 0.807 
-0.033 0.214 0.807 
-0.031 0.214 0.806 
-0.03 0.213 0.805 
-0.029 0.213 0.805 
-0.027 0.213 0.804 
-0.026 0.213 0.803 
-0.025 0.213 0.803 
-0.023 0.212 0.802 
-0.022 0.213 0.803 
-0.021 0.213 0.803 
-0.02 0.213 0.803 
-0.018 0.213 0.803 
-0.017 0.213 0.804 
-0.016 0.213 0.804 
-0.014 0.213 0.804 
-0.013 0.213 0.804 
-0.012 0.213 0.805 
-0.011 0.214 0.806 
-0.009 0.214 0.808 
-0.008 0.214 0.809 
-0.007 0.215 0.81 
-0.005 0.215 0.812 
-0.004 0.216 0.814 
-0.003 0.216 0.816 
-0.001 0.217 0.818 
0 0.218 0.822 
0.001 0.219 0.826 
0.003 0.22 0.832 
0.004 0.223 0.84 
0.005 0.225 0.85 
0.007 0.228 0.859 
0.008 0.23 0.868 
0.01 0.232 0.875 
-0.19 0.235 0.887 
-0.188 0.235 0.887 
-0.137 0.235 0.883 
-0.135 0.235 0.883 
-0.134 0.235 0.883 
-0.083 0.234 0.88 
-0.081 0.234 0.879 
-0.077 0.234 0.878 
-0.075 0.234 0.877 
-0.074 0.234 0.878 
-0.072 0.234 0.877 
-0.071 0.234 0.878 
-0.07 0.234 0.878 
-0.068 0.234 0.878 
-0.067 0.234 0.878 
-0.065 0.234 0.877 
-0.064 0.234 0.877 
-0.063 0.234 0.878 
-0.061 0.234 0.878 
-0.06 0.234 0.878 
-0.058 0.234 0.878 
-0.057 0.234 0.879 
-0.055 0.234 0.877 
-0.054 0.233 0.875 
-0.052 0.232 0.872 
-0.05 0.23 0.864 
-0.048 0.227 0.853 
-0.046 0.225 0.843 
-0.044 0.222 0.832 
-0.043 0.22 0.825 
-0.041 0.219 0.82 
-0.04 0.218 0.817 
-0.038 0.217 0.814 
-0.037 0.216 0.812 
-0.035 0.216 0.81 
-0.034 0.216 0.809 
-0.033 0.215 0.808 
-0.031 0.215 0.807 
-0.03 0.215 0.806 
-0.029 0.215 0.806 
-0.027 0.215 0.805 
-0.026 0.214 0.804 
-0.025 0.214 0.803 
-0.023 0.214 0.803 
-0.022 0.214 0.803 
-0.021 0.214 0.804 
-0.02 0.214 0.804 
-0.018 0.214 0.804 
-0.017 0.214 0.804 
-0.016 0.215 0.805 
-0.014 0.215 0.805 
-0.013 0.215 0.806 
-0.012 0.215 0.806 
-0.011 0.215 0.808 
-0.009 0.216 0.809 
-0.008 0.216 0.81 
-0.007 0.216 0.811 
-0.005 0.217 0.813 
-0.004 0.217 0.814 
-0.003 0.217 0.816 
-0.001 0.218 0.819 
0 0.219 0.822 
0.001 0.22 0.827 
0.003 0.223 0.835 
0.004 0.225 0.843 
0.005 0.228 0.854 
0.007 0.23 0.864 
0.008 0.233 0.873 
-0.191 0.236 0.885 
-0.051 0.234 0.873 
-0.049 0.232 0.864 
-0.047 0.228 0.85 
-0.045 0.224 0.837 
-0.043 0.222 0.828 
-0.041 0.22 0.822 
-0.04 0.219 0.818 
-0.038 0.219 0.816 
-0.037 0.218 0.814 
-0.036 0.218 0.812 
-0.034 0.217 0.81 
-0.033 0.217 0.809 
-0.031 0.217 0.808 
-0.03 0.216 0.807 
-0.029 0.216 0.806 
-0.027 0.216 0.806 
-0.026 0.216 0.805 
-0.025 0.216 0.805 
-0.024 0.216 0.805 
-0.022 0.216 0.805 
-0.021 0.216 0.805 
-0.02 0.216 0.805 
-0.018 0.216 0.805 
-0.017 0.216 0.806 
-0.016 0.216 0.806 
-0.014 0.216 0.806 
-0.013 0.216 0.807 
-0.012 0.217 0.808 
-0.011 0.217 0.809 
-0.009 0.217 0.81 
-0.008 0.217 0.81 
-0.007 0.218 0.812 
-0.005 0.218 0.813 
-0.004 0.219 0.815 
-0.003 0.219 0.817 
-0.001 0.22 0.82 
0 0.221 0.824 
0.001 0.222 0.829 
0.003 0.225 0.838 
0.004 0.227 0.847 
0.005 0.23 0.859 
0.007 0.233 0.868 
-0.05 0.236 0.874 
-0.047 0.232 0.862 
-0.045 0.228 0.845 
-0.043 0.224 0.831 
-0.041 0.222 0.824 
-0.04 0.221 0.82 
-0.038 0.22 0.817 
-0.037 0.22 0.816 
-0.036 0.219 0.813 
-0.034 0.219 0.812 
-0.033 0.218 0.81 
-0.031 0.218 0.809 
-0.03 0.218 0.808 
-0.029 0.218 0.807 
-0.027 0.218 0.807 
-0.026 0.218 0.807 
-0.025 0.217 0.806 
-0.024 0.218 0.807 
-0.022 0.218 0.807 
-0.021 0.218 0.807 
-0.02 0.218 0.807 
-0.018 0.218 0.807 
-0.017 0.218 0.807 
-0.016 0.218 0.807 
-0.014 0.218 0.807 
-0.013 0.218 0.808 
-0.012 0.218 0.809 
-0.011 0.218 0.809 
-0.009 0.218 0.81 
-0.008 0.219 0.811 
-0.007 0.219 0.813 
-0.005 0.22 0.814 
-0.004 0.22 0.815 
-0.003 0.22 0.817 
-0.001 0.221 0.821 
0 0.223 0.825 
0.001 0.224 0.83 
0.003 0.227 0.84 
0.004 0.229 0.85 
0.005 0.232 0.861 
0.007 0.235 0.872 
-0.048 0.237 0.872 
-0.046 0.232 0.855 
-0.043 0.227 0.838 
-0.042 0.224 0.827 
-0.04 0.223 0.822 
-0.038 0.222 0.819 
-0.037 0.222 0.817 
-0.036 0.221 0.814 
-0.034 0.221 0.813 
-0.033 0.22 0.811 
-0.032 0.22 0.81 
-0.03 0.219 0.809 
-0.029 0.219 0.809 
-0.028 0.219 0.808 
-0.026 0.219 0.808 
-0.025 0.219 0.807 
-0.024 0.219 0.807 
-0.022 0.219 0.808 
-0.021 0.219 0.808 
-0.02 0.219 0.808 
-0.018 0.219 0.808 
-0.017 0.219 0.808 
-0.016 0.219 0.808 
-0.014 0.219 0.808 
-0.013 0.219 0.808 
-0.012 0.219 0.809 
-0.011 0.22 0.81 
-0.009 0.22 0.811 
-0.008 0.22 0.812 
-0.007 0.221 0.813 
-0.005 0.221 0.815 
-0.004 0.221 0.816 
-0.003 0.222 0.818 
-0.001 0.223 0.821 
0 0.224 0.825 
0.001 0.225 0.831 
0.003 0.228 0.841 
0.004 0.231 0.852 
0.005 0.234 0.863 
-0.046 0.236 0.864 
-0.044 0.229 0.84 
-0.042 0.226 0.828 
-0.04 0.225 0.823 
-0.039 0.224 0.82 
-0.037 0.223 0.817 
-0.036 0.222 0.815 
-0.034 0.222 0.813 
-0.033 0.222 0.812 
-0.032 0.221 0.811 
-0.03 0.221 0.81 
-0.029 0.221 0.809 
-0.028 0.221 0.809 
-0.026 0.221 0.809 
-0.025 0.221 0.809 
-0.024 0.221 0.809 
-0.022 0.221 0.809 
-0.021 0.221 0.809 
-0.02 0.221 0.809 
-0.018 0.221 0.809 
-0.017 0.221 0.809 
-0.016 0.221 0.809 
-0.014 0.221 0.809 
-0.013 0.221 0.809 
-0.012 0.221 0.81 
-0.011 0.221 0.81 
-0.009 0.221 0.811 
-0.008 0.222 0.813 
-0.007 0.222 0.814 
-0.005 0.222 0.815 
-0.004 0.223 0.816 
-0.003 0.223 0.818 
-0.001 0.224 0.822 
0 0.225 0.826 
0.001 0.227 0.831 
0.003 0.23 0.841 
0.004 0.233 0.852 
0.005 0.236 0.864 
-0.044 0.231 0.843 
-0.042 0.228 0.83 
-0.04 0.226 0.824 
-0.039 0.225 0.821 
-0.037 0.224 0.818 
-0.036 0.224 0.816 
-0.034 0.223 0.814 
-0.033 0.223 0.812 
-0.032 0.223 0.812 
-0.03 0.223 0.811 
-0.029 0.222 0.81 
-0.028 0.222 0.809 
-0.026 0.222 0.81 
-0.025 0.222 0.81 
-0.024 0.222 0.81 
-0.022 0.222 0.81 
-0.021 0.222 0.81 
-0.02 0.222 0.81 
-0.018 0.222 0.81 
-0.017 0.222 0.81 
-0.016 0.222 0.81 
-0.015 0.222 0.81 
-0.013 0.223 0.811 
-0.012 0.223 0.811 
-0.011 0.223 0.811 
-0.009 0.223 0.812 
-0.008 0.223 0.813 
-0.007 0.223 0.814 
-0.005 0.224 0.816 
-0.004 0.224 0.817 
-0.003 0.225 0.819 
-0.001 0.226 0.822 
0 0.227 0.826 
0.001 0.228 0.832 
0.003 0.231 0.841 
0.004 0.234 0.851 
0.005 0.237 0.863 
-0.044 0.234 0.846 
-0.042 0.229 0.83 
-0.04 0.228 0.825 
-0.039 0.227 0.821 
-0.037 0.226 0.819 
-0.036 0.226 0.817 
-0.034 0.225 0.815 
-0.033 0.224 0.813 
-0.032 0.224 0.811 
-0.03 0.224 0.811 
-0.029 0.224 0.81 
-0.028 0.224 0.81 
-0.026 0.224 0.81 
-0.025 0.224 0.81 
-0.024 0.224 0.81 
-0.022 0.224 0.81 
-0.021 0.224 0.81 
-0.02 0.224 0.81 
-0.018 0.224 0.81 
-0.017 0.224 0.81 
-0.016 0.224 0.81 
-0.015 0.224 0.81 
-0.013 0.224 0.811 
-0.012 0.224 0.811 
-0.011 0.224 0.811 
-0.009 0.224 0.812 
-0.008 0.224 0.813 
-0.007 0.225 0.814 
-0.005 0.225 0.816 
-0.004 0.226 0.817 
-0.003 0.226 0.82 
-0.001 0.227 0.823 
0 0.228 0.826 
0.001 0.23 0.832 
0.003 0.232 0.841 
0.004 0.235 0.85 
0.005 0.238 0.861 
-0.044 0.235 0.845 
-0.042 0.231 0.831 
-0.04 0.229 0.825 
-0.039 0.228 0.822 
-0.037 0.228 0.82 
-0.036 0.227 0.818 
-0.034 0.226 0.815 
-0.033 0.226 0.814 
-0.032 0.225 0.812 
-0.03 0.225 0.811 
-0.029 0.225 0.81 
-0.028 0.225 0.81 
-0.026 0.225 0.811 
-0.025 0.225 0.811 
-0.024 0.225 0.811 
-0.022 0.225 0.811 
-0.021 0.225 0.81 
-0.02 0.225 0.811 
-0.018 0.225 0.811 
-0.017 0.225 0.81 
-0.016 0.225 0.81 
-0.015 0.225 0.81 
-0.013 0.225 0.811 
-0.012 0.225 0.811 
-0.011 0.225 0.811 
-0.009 0.225 0.812 
-0.008 0.226 0.813 
-0.007 0.226 0.815 
-0.005 0.227 0.816 
-0.004 0.227 0.818 
-0.003 0.228 0.82 
-0.001 0.229 0.823 
0 0.229 0.826 
0.001 0.231 0.832 
0.003 0.233 0.839 
0.004 0.235 0.848 
0.005 0.239 0.859 
-0.044 0.236 0.845 
-0.042 0.232 0.831 
-0.04 0.23 0.825 
-0.039 0.23 0.822 
-0.037 0.229 0.82 
-0.036 0.229 0.819 
-0.034 0.228 0.816 
-0.033 0.227 0.814 
-0.032 0.227 0.813 
-0.03 0.226 0.811 
-0.029 0.226 0.811 
-0.028 0.226 0.81 
-0.026 0.226 0.81 
-0.025 0.226 0.811 
-0.024 0.226 0.811 
-0.022 0.227 0.812 
-0.021 0.226 0.811 
-0.02 0.226 0.811 
-0.018 0.226 0.811 
-0.017 0.226 0.811 
-0.016 0.226 0.811 
-0.015 0.226 0.81 
-0.013 0.226 0.811 
-0.012 0.227 0.812 
-0.011 0.227 0.812 
-0.009 0.227 0.813 
-0.008 0.227 0.813 
-0.007 0.228 0.815 
-0.005 0.228 0.817 
-0.004 0.228 0.818 
-0.003 0.229 0.82 
-0.001 0.23 0.823 
0 0.231 0.826 
0.001 0.232 0.831 
0.003 0.234 0.838 
0.004 0.236 0.845 
0.005 0.239 0.855 
-0.046 0.242 0.862 
-0.044 0.237 0.844 
-0.042 0.233 0.831 
-0.04 0.232 0.826 
-0.039 0.231 0.822 
-0.037 0.231 0.821 
-0.036 0.23 0.819 
-0.034 0.229 0.816 
-0.033 0.229 0.814 
-0.032 0.228 0.813 
-0.03 0.228 0.812 
-0.029 0.228 0.811 
-0.028 0.227 0.81 
-0.026 0.228 0.811 
-0.025 0.228 0.811 
-0.024 0.228 0.812 
-0.022 0.228 0.812 
-0.021 0.228 0.811 
-0.02 0.228 0.811 
-0.018 0.228 0.811 
-0.017 0.228 0.811 
-0.016 0.228 0.811 
-0.015 0.228 0.811 
-0.013 0.228 0.812 
-0.012 0.228 0.812 
-0.011 0.228 0.812 
-0.009 0.228 0.812 
-0.008 0.229 0.814 
-0.007 0.229 0.815 
-0.005 0.229 0.817 
-0.004 0.229 0.817 
-0.003 0.23 0.82 
-0.001 0.231 0.823 
0 0.232 0.826 
0.001 0.233 0.83 
0.003 0.235 0.836 
0.004 0.237 0.843 
0.005 0.239 0.851 
0.007 0.241 0.859 
-0.046 0.242 0.856 
-0.044 0.237 0.841 
-0.042 0.235 0.831 
-0.04 0.233 0.826 
-0.039 0.232 0.823 
-0.037 0.232 0.821 
-0.036 0.231 0.819 
-0.034 0.23 0.816 
-0.033 0.23 0.815 
-0.032 0.23 0.813 
-0.03 0.23 0.813 
-0.029 0.229 0.812 
-0.028 0.229 0.812 
-0.026 0.229 0.812 
-0.025 0.229 0.812 
-0.024 0.229 0.812 
-0.022 0.229 0.812 
-0.021 0.229 0.812 
-0.02 0.229 0.812 
-0.018 0.229 0.812 
-0.017 0.229 0.812 
-0.016 0.229 0.812 
-0.015 0.229 0.812 
-0.013 0.229 0.812 
-0.012 0.229 0.812 
-0.011 0.229 0.812 
-0.009 0.23 0.813 
-0.008 0.23 0.814 
-0.007 0.23 0.815 
-0.005 0.231 0.817 
-0.004 0.231 0.818 
-0.003 0.232 0.82 
-0.001 0.232 0.823 
0 0.233 0.826 
0.001 0.234 0.83 
0.003 0.236 0.836 
0.004 0.238 0.842 
0.005 0.24 0.85 
0.007 0.242 0.856 
-0.045 0.241 0.849 
-0.043 0.238 0.838 
-0.042 0.236 0.831 
-0.04 0.235 0.827 
-0.039 0.234 0.824 
-0.037 0.233 0.821 
-0.036 0.233 0.819 
-0.034 0.232 0.817 
-0.033 0.231 0.815 
-0.032 0.231 0.814 
-0.03 0.231 0.813 
-0.029 0.231 0.812 
-0.028 0.231 0.812 
-0.026 0.231 0.812 
-0.025 0.231 0.812 
-0.024 0.231 0.813 
-0.022 0.231 0.813 
-0.021 0.231 0.813 
-0.02 0.231 0.813 
-0.018 0.231 0.813 
-0.017 0.231 0.813 
-0.016 0.231 0.813 
-0.015 0.231 0.812 
-0.013 0.231 0.813 
-0.012 0.231 0.813 
-0.011 0.231 0.813 
-0.009 0.231 0.813 
-0.008 0.231 0.814 
-0.007 0.232 0.816 
-0.005 0.232 0.817 
-0.004 0.232 0.818 
-0.003 0.233 0.821 
-0.001 0.234 0.824 
0 0.235 0.827 
0.001 0.236 0.831 
0.003 0.237 0.836 
0.004 0.239 0.843 
0.005 0.241 0.85 
0.007 0.243 0.855 
-0.045 0.242 0.849 
-0.043 0.24 0.84 
-0.042 0.238 0.832 
-0.04 0.236 0.827 
-0.039 0.235 0.824 
-0.037 0.235 0.822 
-0.036 0.234 0.82 
-0.034 0.234 0.818 
-0.033 0.233 0.817 
-0.032 0.233 0.816 
-0.03 0.233 0.815 
-0.029 0.232 0.813 
-0.028 0.232 0.813 
-0.026 0.232 0.813 
-0.025 0.232 0.813 
-0.024 0.232 0.813 
-0.022 0.232 0.813 
-0.021 0.232 0.813 
-0.02 0.232 0.813 
-0.018 0.232 0.813 
-0.017 0.232 0.813 
-0.016 0.232 0.813 
-0.015 0.232 0.812 
-0.013 0.232 0.813 
-0.012 0.232 0.813 
-0.011 0.232 0.813 
-0.009 0.233 0.814 
-0.008 0.233 0.815 
-0.007 0.233 0.816 
-0.005 0.234 0.818 
-0.004 0.234 0.82 
-0.003 0.235 0.822 
-0.001 0.235 0.824 
0 0.236 0.826 
0.001 0.237 0.83 
0.003 0.239 0.836 
0.004 0.241 0.842 
0.005 0.243 0.849 
-0.045 0.244 0.848 
-0.043 0.241 0.84 
-0.042 0.239 0.833 
-0.04 0.238 0.828 
-0.039 0.237 0.825 
-0.037 0.236 0.823 
-0.036 0.236 0.821 
-0.034 0.235 0.819 
-0.033 0.235 0.817 
-0.032 0.234 0.816 
-0.03 0.234 0.815 
-0.029 0.234 0.814 
-0.028 0.234 0.814 
-0.026 0.234 0.814 
-0.025 0.234 0.813 
-0.024 0.234 0.813 
-0.022 0.234 0.814 
-0.021 0.234 0.814 
-0.02 0.234 0.813 
-0.018 0.234 0.813 
-0.017 0.234 0.813 
-0.016 0.234 0.814 
-0.015 0.234 0.813 
-0.013 0.234 0.813 
-0.012 0.234 0.814 
-0.011 0.234 0.814 
-0.009 0.234 0.815 
-0.008 0.234 0.816 
-0.007 0.235 0.817 
-0.005 0.235 0.819 
-0.004 0.236 0.82 
-0.003 0.236 0.822 
-0.001 0.237 0.824 
0 0.237 0.826 
0.001 0.238 0.83 
0.003 0.24 0.836 
0.004 0.242 0.842 
0.005 0.244 0.848 
-0.045 0.245 0.848 
-0.043 0.243 0.84 
-0.042 0.241 0.833 
-0.04 0.239 0.828 
-0.039 0.239 0.826 
-0.037 0.238 0.824 
-0.036 0.237 0.821 
-0.035 0.237 0.82 
-0.033 0.236 0.818 
-0.032 0.236 0.816 
-0.03 0.236 0.816 
-0.029 0.235 0.814 
-0.028 0.235 0.814 
-0.026 0.235 0.814 
-0.025 0.235 0.814 
-0.024 0.235 0.814 
-0.022 0.235 0.814 
-0.021 0.235 0.814 
-0.02 0.235 0.814 
-0.018 0.235 0.813 
-0.017 0.235 0.813 
-0.016 0.235 0.814 
-0.015 0.235 0.814 
-0.013 0.235 0.814 
-0.012 0.235 0.814 
-0.011 0.235 0.814 
-0.009 0.236 0.816 
-0.008 0.236 0.817 
-0.007 0.236 0.818 
-0.005 0.237 0.819 
-0.004 0.237 0.821 
-0.003 0.238 0.823 
-0.001 0.238 0.825 
0 0.239 0.826 
0.001 0.24 0.83 
0.003 0.241 0.835 
0.004 0.243 0.842 
0.005 0.245 0.848 
-0.045 0.246 0.847 
-0.043 0.244 0.84 
-0.042 0.242 0.834 
-0.04 0.241 0.829 
-0.039 0.24 0.826 
-0.037 0.24 0.825 
-0.036 0.239 0.822 
-0.035 0.238 0.82 
-0.033 0.238 0.819 
-0.032 0.237 0.817 
-0.03 0.237 0.816 
-0.029 0.237 0.815 
-0.028 0.237 0.815 
-0.026 0.237 0.815 
-0.025 0.237 0.815 
-0.024 0.237 0.815 
-0.022 0.237 0.815 
-0.021 0.237 0.815 
-0.02 0.236 0.814 
-0.019 0.236 0.814 
-0.017 0.236 0.814 
-0.016 0.236 0.814 
-0.015 0.236 0.814 
-0.013 0.236 0.814 
-0.012 0.237 0.815 
-0.011 0.237 0.815 
-0.009 0.237 0.816 
-0.008 0.237 0.817 
-0.007 0.238 0.818 
-0.005 0.238 0.82 
-0.004 0.238 0.821 
-0.003 0.239 0.823 
-0.001 0.24 0.825 
0 0.24 0.827 
0.001 0.241 0.831 
0.003 0.243 0.835 
0.004 0.244 0.84 
0.005 0.246 0.846 
-0.045 0.247 0.847 
-0.043 0.245 0.84 
-0.042 0.243 0.834 
-0.04 0.242 0.83 
-0.039 0.241 0.827 
-0.037 0.241 0.825 
-0.036 0.24 0.823 
-0.035 0.24 0.821 
-0.033 0.239 0.819 
-0.032 0.239 0.818 
-0.03 0.238 0.816 
-0.029 0.238 0.815 
-0.028 0.238 0.815 
-0.026 0.238 0.815 
-0.025 0.238 0.815 
-0.024 0.238 0.815 
-0.022 0.238 0.815 
-0.021 0.238 0.815 
-0.02 0.238 0.815 
-0.019 0.238 0.815 
-0.017 0.238 0.815 
-0.016 0.238 0.815 
-0.015 0.238 0.815 
-0.013 0.238 0.815 
-0.012 0.238 0.815 
-0.011 0.238 0.815 
-0.009 0.239 0.817 
-0.008 0.239 0.818 
-0.007 0.239 0.819 
-0.005 0.239 0.82 
-0.004 0.24 0.822 
-0.003 0.24 0.823 
-0.001 0.241 0.825 
0 0.242 0.828 
0.001 0.243 0.831 
0.003 0.244 0.835 
0.004 0.245 0.839 
0.005 0.246 0.844 
-0.045 0.248 0.846 
-0.043 0.247 0.84 
-0.042 0.245 0.834 
-0.04 0.244 0.83 
-0.039 0.243 0.827 
-0.037 0.242 0.826 
-0.036 0.242 0.824 
-0.035 0.241 0.822 
-0.033 0.241 0.82 
-0.032 0.24 0.818 
-0.03 0.24 0.817 
-0.029 0.239 0.815 
-0.028 0.239 0.815 
-0.026 0.239 0.814 
-0.025 0.239 0.815 
-0.024 0.239 0.815 
-0.022 0.239 0.815 
-0.021 0.239 0.815 
-0.02 0.239 0.815 
-0.019 0.239 0.815 
-0.017 0.239 0.814 
-0.016 0.239 0.814 
-0.015 0.239 0.814 
-0.013 0.239 0.815 
-0.012 0.239 0.815 
-0.011 0.24 0.817 
-0.009 0.24 0.818 
-0.008 0.24 0.819 
-0.007 0.241 0.82 
-0.005 0.241 0.821 
-0.004 0.241 0.822 
-0.003 0.242 0.824 
-0.001 0.243 0.826 
0 0.243 0.828 
0.001 0.244 0.831 
0.003 0.245 0.834 
0.004 0.246 0.837 
0.005 0.247 0.842 
-0.045 0.249 0.844 
-0.043 0.248 0.839 
-0.042 0.246 0.834 
-0.04 0.245 0.831 
-0.039 0.244 0.828 
-0.037 0.244 0.826 
-0.036 0.243 0.825 
-0.035 0.243 0.823 
-0.033 0.242 0.821 
-0.032 0.242 0.819 
-0.03 0.241 0.817 
-0.029 0.241 0.816 
-0.028 0.241 0.815 
-0.026 0.241 0.815 
-0.025 0.241 0.815 
-0.024 0.241 0.816 
-0.022 0.241 0.816 
-0.021 0.241 0.816 
-0.02 0.241 0.816 
-0.019 0.241 0.816 
-0.017 0.241 0.815 
-0.016 0.241 0.815 
-0.015 0.241 0.815 
-0.013 0.241 0.815 
-0.012 0.241 0.816 
-0.011 0.241 0.817 
-0.009 0.241 0.818 
-0.008 0.242 0.819 
-0.007 0.242 0.82 
-0.005 0.242 0.821 
-0.004 0.243 0.822 
-0.003 0.243 0.824 
-0.001 0.244 0.826 
0 0.244 0.828 
0.001 0.245 0.831 
0.003 0.246 0.834 
0.004 0.247 0.837 
0.005 0.249 0.842 
-0.045 0.25 0.843 
-0.043 0.249 0.838 
-0.042 0.247 0.834 
-0.04 0.247 0.831 
-0.039 0.246 0.829 
-0.037 0.245 0.827 
-0.036 0.245 0.825 
-0.035 0.244 0.823 
-0.033 0.244 0.821 
-0.032 0.243 0.82 
-0.03 0.243 0.818 
-0.029 0.242 0.817 
-0.028 0.242 0.817 
-0.026 0.242 0.816 
-0.025 0.242 0.816 
-0.024 0.242 0.816 
-0.022 0.242 0.816 
-0.021 0.242 0.816 
-0.02 0.242 0.816 
-0.019 0.242 0.816 
-0.017 0.242 0.816 
-0.016 0.242 0.815 
-0.015 0.242 0.816 
-0.013 0.242 0.816 
-0.012 0.242 0.816 
-0.011 0.242 0.817 
-0.009 0.243 0.818 
-0.008 0.243 0.819 
-0.007 0.243 0.82 
-0.005 0.244 0.821 
-0.004 0.244 0.822 
-0.003 0.245 0.824 
-0.001 0.245 0.826 
0 0.246 0.828 
0.001 0.247 0.831 
0.003 0.248 0.835 
0.004 0.249 0.839 
-0.043 0.25 0.838 
-0.042 0.249 0.834 
-0.04 0.248 0.831 
-0.039 0.247 0.828 
-0.037 0.247 0.827 
-0.036 0.246 0.825 
-0.035 0.246 0.824 
-0.033 0.245 0.822 
-0.032 0.245 0.82 
-0.03 0.244 0.819 
-0.029 0.244 0.818 
-0.028 0.244 0.817 
-0.026 0.244 0.817 
-0.025 0.244 0.817 
-0.024 0.244 0.817 
-0.023 0.244 0.817 
-0.021 0.243 0.816 
-0.02 0.243 0.816 
-0.019 0.243 0.816 
-0.017 0.243 0.816 
-0.016 0.243 0.815 
-0.015 0.243 0.816 
-0.013 0.243 0.816 
-0.012 0.244 0.817 
-0.011 0.244 0.818 
-0.009 0.244 0.819 
-0.008 0.244 0.819 
-0.007 0.245 0.82 
-0.005 0.245 0.821 
-0.004 0.245 0.822 
-0.003 0.246 0.824 
-0.001 0.246 0.826 
0 0.247 0.828 
0.001 0.248 0.832 
0.003 0.249 0.836 
-0.043 0.252 0.84 
-0.042 0.25 0.834 
-0.04 0.249 0.831 
-0.039 0.249 0.829 
-0.037 0.248 0.827 
-0.036 0.248 0.826 
-0.035 0.247 0.824 
-0.033 0.247 0.822 
-0.032 0.246 0.821 
-0.03 0.246 0.819 
-0.029 0.246 0.819 
-0.028 0.245 0.818 
-0.026 0.245 0.817 
-0.025 0.245 0.817 
-0.024 0.245 0.817 
-0.023 0.245 0.817 
-0.021 0.245 0.817 
-0.02 0.245 0.816 
-0.019 0.245 0.816 
-0.017 0.245 0.816 
-0.016 0.245 0.816 
-0.015 0.245 0.816 
-0.013 0.245 0.817 
-0.012 0.245 0.818 
-0.011 0.245 0.818 
-0.009 0.246 0.819 
-0.008 0.246 0.82 
-0.007 0.246 0.821 
-0.005 0.246 0.821 
-0.004 0.247 0.822 
-0.003 0.247 0.824 
-0.001 0.248 0.826 
0 0.249 0.829 
0.001 0.25 0.833 
0.003 0.251 0.837 
-0.042 0.252 0.837 
-0.04 0.251 0.832 
-0.039 0.25 0.829 
-0.037 0.249 0.827 
-0.036 0.249 0.826 
-0.035 0.249 0.825 
-0.033 0.248 0.823 
-0.032 0.248 0.821 
-0.031 0.247 0.82 
-0.029 0.247 0.819 
-0.028 0.247 0.818 
-0.027 0.247 0.818 
-0.025 0.246 0.817 
-0.024 0.247 0.818 
-0.023 0.247 0.818 
-0.021 0.246 0.817 
-0.02 0.246 0.817 
-0.019 0.246 0.817 
-0.017 0.246 0.817 
-0.016 0.246 0.816 
-0.015 0.246 0.816 
-0.013 0.246 0.817 
-0.012 0.247 0.818 
-0.011 0.247 0.819 
-0.009 0.247 0.819 
-0.008 0.247 0.82 
-0.007 0.248 0.821 
-0.005 0.248 0.822 
-0.004 0.248 0.822 
-0.003 0.248 0.824 
-0.001 0.249 0.826 
0 0.25 0.829 
0.001 0.251 0.833 
-0.04 0.253 0.834 
-0.039 0.252 0.83 
-0.037 0.251 0.828 
-0.036 0.25 0.826 
-0.035 0.25 0.825 
-0.033 0.25 0.824 
-0.032 0.249 0.822 
-0.031 0.249 0.821 
-0.029 0.249 0.82 
-0.028 0.248 0.819 
-0.026 0.248 0.818 
-0.025 0.248 0.818 
-0.024 0.248 0.819 
-0.023 0.248 0.819 
-0.021 0.248 0.818 
-0.02 0.248 0.818 
-0.019 0.248 0.818 
-0.017 0.248 0.818 
-0.016 0.248 0.817 
-0.015 0.248 0.817 
-0.013 0.248 0.817 
-0.012 0.248 0.818 
-0.011 0.248 0.819 
-0.009 0.248 0.819 
-0.008 0.249 0.82 
-0.007 0.249 0.821 
-0.005 0.249 0.822 
-0.004 0.249 0.822 
-0.003 0.25 0.824 
-0.001 0.25 0.826 
0 0.251 0.829 
0.001 0.253 0.833 
-0.041 0.254 0.835 
-0.039 0.253 0.831 
-0.037 0.252 0.828 
-0.036 0.252 0.827 
-0.035 0.251 0.825 
-0.033 0.251 0.824 
-0.032 0.251 0.823 
-0.031 0.25 0.821 
-0.029 0.25 0.82 
-0.028 0.25 0.82 
-0.027 0.25 0.82 
-0.025 0.25 0.819 
-0.024 0.25 0.819 
-0.023 0.25 0.819 
-0.021 0.25 0.819 
-0.02 0.25 0.819 
-0.019 0.249 0.818 
-0.017 0.249 0.818 
-0.016 0.249 0.818 
-0.015 0.249 0.817 
-0.013 0.249 0.818 
-0.012 0.249 0.818 
-0.011 0.25 0.819 
-0.009 0.25 0.82 
-0.008 0.25 0.821 
-0.007 0.25 0.821 
-0.005 0.25 0.822 
-0.004 0.251 0.823 
-0.003 0.251 0.824 
-0.001 0.252 0.827 
0 0.253 0.829 
-0.039 0.254 0.831 
-0.038 0.254 0.829 
-0.036 0.253 0.827 
-0.035 0.253 0.825 
-0.033 0.252 0.824 
-0.032 0.252 0.823 
-0.031 0.252 0.822 
-0.029 0.251 0.82 
-0.028 0.251 0.82 
-0.027 0.251 0.82 
-0.025 0.251 0.819 
-0.024 0.251 0.819 
-0.023 0.251 0.819 
-0.021 0.251 0.819 
-0.02 0.251 0.819 
-0.019 0.251 0.819 
-0.017 0.251 0.818 
-0.016 0.251 0.818 
-0.015 0.251 0.818 
-0.013 0.251 0.819 
-0.012 0.251 0.819 
-0.011 0.251 0.82 
-0.009 0.251 0.82 
-0.008 0.251 0.821 
-0.007 0.252 0.822 
-0.005 0.252 0.823 
-0.004 0.252 0.823 
-0.003 0.253 0.825 
-0.001 0.253 0.827 
0 0.254 0.829 
-0.038 0.255 0.83 
-0.036 0.255 0.828 
-0.035 0.254 0.826 
-0.033 0.254 0.825 
-0.032 0.253 0.823 
-0.031 0.253 0.822 
-0.029 0.253 0.821 
-0.028 0.252 0.82 
-0.027 0.252 0.82 
-0.025 0.252 0.819 
-0.024 0.252 0.819 
-0.023 0.252 0.819 
-0.021 0.252 0.819 
-0.02 0.252 0.819 
-0.019 0.252 0.819 
-0.017 0.252 0.819 
-0.016 0.252 0.819 
-0.015 0.252 0.819 
-0.013 0.252 0.82 
-0.012 0.252 0.82 
-0.011 0.252 0.82 
-0.009 0.253 0.821 
-0.008 0.253 0.822 
-0.007 0.253 0.822 
-0.005 0.253 0.823 
-0.004 0.254 0.824 
-0.003 0.254 0.825 
-0.001 0.255 0.827 
0 0.255 0.829 
-0.036 0.256 0.829 
-0.035 0.256 0.828 
-0.033 0.256 0.826 
-0.032 0.255 0.825 
-0.031 0.255 0.823 
-0.029 0.254 0.821 
-0.028 0.254 0.82 
-0.027 0.254 0.82 
-0.025 0.254 0.82 
-0.024 0.254 0.82 
-0.023 0.254 0.82 
-0.021 0.254 0.82 
-0.02 0.254 0.82 
-0.019 0.254 0.82 
-0.017 0.254 0.82 
-0.016 0.254 0.82 
-0.015 0.254 0.82 
-0.013 0.254 0.82 
-0.012 0.254 0.821 
-0.011 0.254 0.821 
-0.009 0.254 0.822 
-0.008 0.254 0.822 
-0.007 0.255 0.823 
-0.005 0.255 0.824 
-0.004 0.255 0.824 
-0.003 0.255 0.825 
-0.001 0.256 0.827 
-0.033 0.257 0.827 
-0.032 0.257 0.825 
-0.031 0.256 0.824 
-0.029 0.256 0.822 
-0.028 0.255 0.821 
-0.027 0.255 0.821 
-0.025 0.255 0.821 
-0.024 0.255 0.821 
-0.023 0.255 0.821 
-0.021 0.255 0.82 
-0.02 0.255 0.82 
-0.019 0.255 0.821 
-0.017 0.255 0.821 
-0.016 0.255 0.821 
-0.015 0.255 0.821 
-0.013 0.255 0.821 
-0.012 0.256 0.822 
-0.011 0.256 0.822 
-0.009 0.256 0.822 
-0.008 0.256 0.823 
-0.007 0.256 0.823 
-0.005 0.256 0.824 
-0.004 0.256 0.824 
-0.003 0.257 0.826 
-0.032 0.258 0.826 
-0.031 0.258 0.824 
-0.029 0.257 0.823 
-0.028 0.257 0.822 
-0.027 0.257 0.821 
-0.025 0.257 0.821 
-0.024 0.257 0.821 
-0.023 0.257 0.821 
-0.021 0.257 0.821 
-0.02 0.256 0.82 
-0.019 0.257 0.821 
-0.017 0.257 0.821 
-0.016 0.257 0.821 
-0.015 0.257 0.821 
-0.013 0.257 0.821 
-0.012 0.257 0.822 
-0.011 0.257 0.822 
-0.009 0.257 0.822 
-0.008 0.257 0.823 
-0.007 0.257 0.823 
-0.005 0.258 0.824 
-0.029 0.259 0.824 
-0.028 0.259 0.823 
-0.027 0.258 0.822 
-0.025 0.258 0.821 
-0.024 0.258 0.821 
-0.023 0.258 0.821 
-0.021 0.258 0.821 
-0.02 0.258 0.821 
-0.019 0.258 0.821 
-0.017 0.258 0.821 
-0.016 0.258 0.821 
-0.015 0.258 0.822 
-0.013 0.258 0.822 
