ply
format ascii 1.0
element vertex 891
property float x
property float y
property float z
property float nx
property float ny
property float nz
end_header
67.6743 160.102 520.674 0.0568649 -0.836298 -0.545319
64.7624 148.778 537.579 0.290678 -0.422736 -0.858371
69.8826 151.183 537.588 0.211626 -0.689085 -0.693092
60.4065 151.408 535.091 0.274692 -0.562408 -0.779899
58.6407 150.176 535.273 0.300306 -0.44009 -0.846249
70.0057 174.335 501.329 -0.0140555 -0.673421 -0.739125
65.2396 174.507 500.209 0.0433452 -0.470804 -0.881172
78.8652 127.072 536.736 -0.0342229 -0.69296 -0.720163
82.1999 178.323 498.263 0.355486 -0.543204 -0.760631
14.611 162.507 510.246 0.144083 -0.825051 -0.546379
79.367 133.489 536.478 0.190751 -0.0666342 -0.979374
68.8741 129.219 535.833 0.0945337 -0.715486 -0.692201
86.1207 163.244 520.336 0.340799 -0.78155 -0.522528
49.0993 140.575 528.868 0.384375 0.124643 -0.914724
81.3723 166.728 512.506 0.242381 -0.76677 -0.594403
47.652 164.785 511.657 0.068453 -0.859012 -0.507359
17.0073 164.906 505.774 0.0955022 -0.838872 -0.535886
16.611 162.409 509.756 0.108934 -0.84207 -0.528253
23.769 163.808 508.081 0.10207 -0.833096 -0.54363
29.3102 165.317 507.947 0.16051 -0.792783 -0.58799
31.0952 164.838 509.205 0.145793 -0.817852 -0.556653
42.9569 168.708 504.5 0.0350719 -0.823024 -0.566922
66.0908 179.906 499.201 -0.13325 0.174968 -0.975516
78.46 122.919 544.074 -0.0568255 -0.803502 -0.592584
76.3425 124.937 542.68 -0.0866459 -0.79387 -0.601882
78.8318 128.808 536.252 0.00973843 -0.605896 -0.795484
73.8551 129.428 535.204 0.0408958 -0.58748 -0.808204
64.6769 132.348 531.852 0.212005 -0.347013 -0.913584
57.3507 131.317 530.728 0.130992 -0.558794 -0.818896
60.1213 132.072 530.661 0.163424 -0.438858 -0.88357
61.2414 134.673 531.65 0.256824 -0.178212 -0.949885
80.5909 155.857 529.343 0.0343132 -0.864274 -0.501849
82.8697 160.176 522.986 0.144819 -0.846551 -0.512229
82.7016 160.544 520.187 0.151664 -0.852044 -0.501017
84.6144 168.139 513.212 0.403812 -0.700351 -0.588596
69.4586 175.507 499.373 -0.0633647 -0.549307 -0.833215
16.859 161.041 512.062 0.122419 -0.839013 -0.53016
25.647 164.802 507.384 0.136597 -0.802664 -0.580579
31.1882 166.311 507.25 0.112335 -0.806692 -0.580198
35.9543 166.139 508.37 0.0671624 -0.849144 -0.523874
45.5043 169.108 503.9 0.023238 -0.818147 -0.574539
44.7293 167.427 505.154 0.0567251 -0.848808 -0.525649
45.2631 163.771 512.143 0.0767151 -0.851927 -0.51801
78.9825 125.139 542.191 -0.110651 -0.812475 -0.572399
69.4632 127.955 538.489 0.0691916 -0.797801 -0.598938
83.1574 166.25 513.765 0.322074 -0.750087 -0.577614
65.0006 172.237 502.068 0.139081 -0.728055 -0.671262
50.0292 163.599 513.263 0.0751496 -0.849761 -0.521784
26.3283 167.521 504.01 0.147791 -0.751595 -0.642855
45.449 166.716 508.233 0.0504034 -0.857395 -0.512185
80.7016 160.642 520.677 0.0692575 -0.865855 -0.495478
62.7075 173.243 500.671 0.0940429 -0.567313 -0.818115
62.5791 178.513 498.752 -0.0402515 0.0617692 -0.997279
80.6571 168.268 507.751 0.218534 -0.782643 -0.58285
36.2002 167.01 505.969 0.0407011 -0.835111 -0.548574
87.2586 169.158 514.615 0.4357 -0.689501 -0.578578
20.2741 162.924 510.318 0.0671154 -0.861443 -0.5034
40.6928 176.869 500.565 -0.121526 0.193086 -0.973627
27.2463 161.378 512.554 0.111719 -0.854151 -0.507883
41.1414 165.072 509.347 0.0370308 -0.858366 -0.511699
51.4664 169.722 503.622 0.0620793 -0.830252 -0.553921
73.3324 127.195 540.657 0.00362227 -0.820387 -0.571797
72.8957 133.139 533.606 0.165105 -0.052913 -0.984856
56.9134 137.237 530.818 0.304047 0.0305585 -0.952167
58.5558 142.047 533.495 0.390299 0.230027 -0.89149
77.3173 164.544 514.249 -0.021123 -0.815793 -0.577958
78.0608 176.323 498.606 0.126327 -0.727773 -0.674083
48.6405 166.575 508.022 0.0788795 -0.860135 -0.503931
77.2511 152.134 535.841 -0.0792767 -0.87073 -0.485329
20.0857 167.513 502.002 0.0985932 -0.666971 -0.738532
20.1988 164.765 505.564 0.069712 -0.829584 -0.554013
22.6313 165.963 505.218 0.11094 -0.797571 -0.592936
20.2218 161.088 512.342 0.0893493 -0.858328 -0.505261
42.6296 175.521 499.557 -0.101647 0.0192837 -0.994634
20.7703 160.188 514.93 0.101438 -0.842148 -0.529619
39.6351 169.967 502.222 0.0318667 -0.719346 -0.69392
42.0647 170.617 501.804 -0.0374535 -0.679807 -0.732434
39.1503 166.826 506.482 0.0487757 -0.848333 -0.527212
49.1674 169.624 504.462 0.072759 -0.827619 -0.556554
74.9914 126.992 539.816 -0.0507933 -0.798449 -0.599916
72.9116 128.098 538.42 0.0242834 -0.771329 -0.635974
54.2157 134.115 529.617 0.250405 -0.351985 -0.901889
79.2091 152.127 534.651 -0.0632625 -0.863177 -0.500922
55.1789 139.268 530.475 0.326694 0.1335 -0.935654
77.003 153.502 533.535 -0.0584212 -0.87673 -0.477422
81.6915 162.704 517.674 0.169526 -0.837655 -0.519225
81.5233 163.072 514.874 0.159183 -0.815095 -0.557028
79.3173 164.446 513.759 0.0587801 -0.81109 -0.58196
87.3516 170.63 512.66 0.470352 -0.67037 -0.57391
78.1073 177.063 496.438 0.118557 -0.558193 -0.821197
39.061 154.054 526.778 0.257632 -0.542208 -0.799773
56.1396 168.078 506.698 0.0664256 -0.878332 -0.473414
54.144 169.004 505.511 0.0654497 -0.863054 -0.500853
61.5522 185.673 503.327 -0.0970404 0.480146 -0.871804
20.6188 166.372 503.725 0.100257 -0.779554 -0.618259
24.6062 161.176 513.043 0.0588439 -0.863134 -0.501535
39.6974 165.654 508.439 0.0370557 -0.855022 -0.517266
77.2619 162.151 518.582 -0.0517249 -0.864701 -0.499616
40.2127 174.568 499.577 -0.0490063 -0.106255 -0.993131
39.7281 171.439 500.267 0.00941123 -0.539667 -0.841826
77.0692 165.912 511.943 -0.0362908 -0.818198 -0.57379
77.5031 167.489 510.338 -0.00712538 -0.831947 -0.55481
58.5691 168.728 506.28 0.0757122 -0.874426 -0.479215
60.6383 181.808 500.374 -0.0468306 0.412478 -0.909763
77.056 155.474 531.827 -0.057999 -0.87696 -0.477051
45.2908 177.065 498.886 -0.127662 0.192164 -0.973024
51.5836 143.593 531.259 0.376889 0.202436 -0.903866
72.3298 155.146 530.46 0.0529144 -0.882723 -0.466905
53.2527 156.135 526.378 0.0817595 -0.844044 -0.530004
52.9702 172.36 498.52 0.0512868 -0.518254 -0.853687
58.3725 155.765 527.45 0.102476 -0.847 -0.521622
43.8636 156.728 524.162 0.0833931 -0.803379 -0.589599
45.8591 155.802 525.349 0.124816 -0.789246 -0.601258
43.6662 151.587 528.975 0.284291 -0.297545 -0.911398
48.4467 154.16 529.265 0.175849 -0.675186 -0.71638
55.6019 155.011 527.518 0.0966895 -0.836003 -0.540139
73.0296 158.667 524.451 0.039985 -0.854822 -0.517378
77.2066 159.759 522.914 -0.00834906 -0.858153 -0.513326
72.2369 153.673 532.415 0.0449376 -0.87772 -0.477063
74.4559 154.771 532.069 0.010822 -0.879709 -0.47539
53.7654 169.82 502.783 0.068128 -0.820164 -0.568057
56.5113 173.967 498.876 0.0686821 -0.326775 -0.942603
54.2168 174.697 498.038 0.04389 -0.206371 -0.977489
50.1833 176.63 498.535 -0.0473777 0.0618417 -0.996961
56.3479 183.452 501.919 -0.0626366 0.492275 -0.868183
53.9958 165.139 511.799 0.100945 -0.841398 -0.530904
43.3411 154.508 526.045 0.165882 -0.68517 -0.709243
42.633 149.354 528.268 0.338151 -0.109166 -0.934739
52.6875 151.219 532.195 0.288165 -0.440474 -0.850261
72.072 162.671 517.533 -0.00417775 -0.840829 -0.541284
47.8929 178.176 499.59 -0.119382 0.274121 -0.954257
58.6245 171.12 501.947 0.0986371 -0.762176 -0.639811
72.5334 161.403 519.839 0.0258559 -0.849547 -0.526879
56.4175 148.262 533.726 0.378056 -0.159955 -0.91186
74.9076 159.661 523.754 -0.00960282 -0.840823 -0.541225
45.6025 179.722 500.645 -0.117844 0.406835 -0.905869
68.9956 176.495 498.816 -0.0773006 -0.397534 -0.914326
15.5079 163.096 509.198 0.120822 -0.833409 -0.539287
49.9412 138.783 528.582 0.37179 0.017664 -0.928149
80.0435 124.544 542.049 -0.108221 -0.817538 -0.565615
78.824 135.477 536.415 0.282227 0.211218 -0.935807
87.5778 165.133 519.783 0.363802 -0.76328 -0.533903
82.3868 165.397 513.342 0.258315 -0.758123 -0.598768
68.3846 173.63 500.976 0.0611916 -0.688269 -0.722871
30.2912 165.722 508.298 0.137761 -0.799862 -0.584159
44.6073 168.519 504.948 0.0414984 -0.835 -0.548682
46.2663 168.317 504.107 0.0373054 -0.835168 -0.548728
77.8917 130.81 536.096 0.102044 -0.389966 -0.915158
68.3594 131.154 533.856 0.165727 -0.456694 -0.874051
83.7554 166.642 513.066 0.362292 -0.733134 -0.575551
82.0212 168.685 509.152 0.335307 -0.723258 -0.60371
17.714 161.722 510.314 0.102622 -0.844899 -0.524989
37.1503 166.924 506.972 0.0493881 -0.844693 -0.532968
64.3307 179.771 499.527 -0.0774092 0.216034 -0.973312
66.4506 178.173 498.296 -0.174517 -0.0121532 -0.984579
70.6592 128.741 537.091 0.076734 -0.724973 -0.68449
81.6939 155.17 529.901 0.0462036 -0.860713 -0.506989
83.9816 161.145 520.189 0.223567 -0.83294 -0.506191
70.9027 174.924 500.281 -0.0351405 -0.639108 -0.768314
65.3616 173.415 500.415 0.078766 -0.591702 -0.8023
15.4703 164.016 506.821 0.116175 -0.834272 -0.538975
15.415 161.624 511.154 0.153051 -0.834931 -0.528645
28.1724 167.472 505.083 0.123186 -0.775501 -0.619211
29.7841 166.394 506.095 0.135477 -0.796044 -0.589881
25.0026 163.673 509.061 0.101273 -0.832028 -0.54541
29.4321 164.225 508.153 0.165464 -0.804645 -0.570235
32.2912 165.624 507.808 0.108445 -0.814506 -0.569929
44.1528 169.493 503.103 0.0108128 -0.782027 -0.623151
44.0671 162.986 513.541 0.0847785 -0.843565 -0.530292
77.7725 124.385 543.355 -0.0743443 -0.798163 -0.597836
77.5384 125.722 541.283 -0.112059 -0.799221 -0.590499
72.4038 128.634 535.901 0.0533605 -0.681151 -0.730196
68.0192 128.538 537.581 0.0898713 -0.763961 -0.638973
59.1668 131.329 531.335 0.140173 -0.5797 -0.802682
60.3995 136.464 531.936 0.296771 0.0466526 -0.953808
81.6563 156.09 527.523 0.0541339 -0.860467 -0.506622
81.8046 159.955 521.235 0.118499 -0.851494 -0.510799
82.6103 167.421 511.809 0.33688 -0.732454 -0.591627
72.9027 174.826 499.791 -0.0769751 -0.729476 -0.679661
51.2252 164.384 511.866 0.0803472 -0.849452 -0.521513
49.0191 165.759 510.75 0.0655801 -0.862033 -0.502592
25.7109 168.838 503.267 0.147105 -0.671883 -0.725902
66.1629 188.329 503.757 -0.196114 0.437631 -0.877507
25.472 166.568 505.127 0.154021 -0.768192 -0.621417
44.253 165.93 509.63 0.0550699 -0.853208 -0.518656
81.8975 161.428 519.28 0.129085 -0.856805 -0.499222
63.707 174.445 499.579 0.0621733 -0.471904 -0.879455
64.1115 176.914 498.593 -0.0122387 -0.1272 -0.991802
62.8435 172.12 501.111 0.116429 -0.685265 -0.718927
34.7207 166.274 507.39 0.0701005 -0.835748 -0.54462
85.1195 167.059 514.468 0.381892 -0.717819 -0.582147
19.0781 162.139 511.716 0.0921181 -0.854072 -0.511933
47.7103 167.734 505.016 0.054636 -0.847554 -0.527889
52.2151 142.25 531.045 0.367763 0.21462 -0.904814
76.4354 126.409 540.725 -0.0863023 -0.800687 -0.592834
88.6227 169.575 516.017 0.480645 -0.680585 -0.552978
80.5088 164.403 514.039 0.0940926 -0.816481 -0.569653
80.5569 173.489 502.727 0.291896 -0.734966 -0.612064
77.1638 175.734 499.654 0.107107 -0.738894 -0.665255
23.6761 162.335 510.036 0.0669705 -0.853925 -0.516068
59.1872 140.704 533.28 0.372765 0.265964 -0.888994
80.258 154.618 531.462 -0.00510506 -0.875105 -0.483906
76.1213 163.759 515.646 -0.0639158 -0.832548 -0.550253
21.5341 167.754 502.423 0.0995224 -0.680046 -0.726383
65.3923 187.477 503.334 -0.150901 0.454292 -0.877979
63.5308 181.47 500.513 -0.0761156 0.355782 -0.931464
40.6176 166.611 506.902 0.0294557 -0.851927 -0.522832
80.4535 162.01 518.371 0.0728899 -0.86215 -0.501382
82.014 175.378 502.174 0.364088 -0.700027 -0.614331
19.1888 166.924 503.05 0.0937302 -0.750713 -0.653946
24.2345 168.658 502.38 0.147472 -0.650901 -0.744701
23.6279 166.617 504.053 0.14545 -0.770511 -0.62061
21.6171 162.004 510.712 0.0525184 -0.865488 -0.498169
59.7206 185.415 503.046 -0.0695122 0.482443 -0.873165
63.4302 186.667 502.631 -0.126447 0.463248 -0.877162
43.8982 173.93 499.272 -0.094653 -0.223688 -0.970054
23.4103 160.391 514.441 0.058765 -0.868427 -0.492322
23.7889 159.575 517.169 0.0695303 -0.833389 -0.548296
43.2606 171.403 500.407 -0.028513 -0.51987 -0.85377
38.2533 166.237 507.53 0.0549305 -0.85343 -0.518305
43.0194 166.065 508.65 0.0517823 -0.857677 -0.511574
52.5694 169.035 504.18 0.066497 -0.848141 -0.525581
76.3978 127.329 538.347 -0.0304046 -0.733615 -0.678885
74.4753 128.655 537.208 0.0520045 -0.6944 -0.717708
59.5576 138.256 532.222 0.331747 0.164042 -0.928996
80.405 152.913 533.254 -0.0364303 -0.869049 -0.493383
77.9 154.09 532.487 -0.0395589 -0.874075 -0.484178
54.5475 140.612 530.689 0.364729 0.184098 -0.912732
78.4235 172.486 502.724 0.18954 -0.763405 -0.617485
76.9403 173.709 501.187 0.120281 -0.76357 -0.634423
82.966 178.347 500.363 0.422979 -0.558907 -0.71324
74.5532 174.637 500.238 -0.0263312 -0.755733 -0.654351
52.4212 165.17 510.468 0.106392 -0.849283 -0.517106
50.0446 166.492 509.177 0.0934971 -0.855175 -0.509838
41.2251 172.829 499.466 -0.0345333 -0.347745 -0.936953
73.4672 163.587 515.902 -0.0569023 -0.827611 -0.558411
61.9465 171.531 502.159 0.105456 -0.73372 -0.671218
57.3753 184.589 502.483 -0.0657514 0.487467 -0.870662
59.1984 183.206 501.358 -0.0685995 0.479571 -0.874817
81.2777 170.278 506.31 0.336266 -0.756568 -0.56083
57.9921 148.232 535.056 0.368206 -0.160038 -0.915867
56.9768 165.446 511.66 0.100753 -0.855881 -0.507264
62.4759 167.047 510.826 0.0819907 -0.867867 -0.489983
61.9534 164.826 512.708 0.0855209 -0.849183 -0.521128
61.8052 160.961 518.997 0.0785029 -0.835951 -0.543161
62.0865 157.845 525.357 0.0751572 -0.849269 -0.522583
71.0814 152.516 536.262 0.12184 -0.816056 -0.564985
60.8382 147.158 536.173 0.367582 -0.0956858 -0.925056
59.7474 166.2 511.593 0.0939092 -0.864376 -0.493998
59.5062 160.863 519.836 0.104276 -0.83892 -0.534173
61.7122 159.489 520.952 0.0721202 -0.836581 -0.543076
61.8804 159.121 523.751 0.0752054 -0.846674 -0.526771
71.3399 153.084 533.464 0.0435271 -0.873391 -0.485071
71.1162 151.048 538.568 0.2076 -0.69225 -0.691152
43.0424 178.519 500.641 -0.102708 0.339981 -0.934807
84.3445 165.378 515.723 0.347297 -0.750611 -0.56211
21.8733 159.501 515.488 0.106029 -0.851842 -0.512955
79.5233 163.17 515.365 0.0625344 -0.825284 -0.561245
62.6297 180.065 499.668 -0.0476275 0.260036 -0.964424
79.6939 155.268 530.391 -0.0304969 -0.872685 -0.487331
87.5866 166.789 516.428 0.41964 -0.720037 -0.552675
79.8328 173.372 501.327 0.25559 -0.740355 -0.62173
75.4611 175.702 499.038 -0.0512469 -0.742817 -0.66753
22.3048 168.611 501.656 0.123295 -0.610046 -0.782714
18.2033 165.691 504.376 0.0721908 -0.81661 -0.572658
24.8519 167.341 503.122 0.154427 -0.720103 -0.676464
22.7835 162.575 509.407 0.0682846 -0.851806 -0.519388
42.0821 173.918 498.665 -0.0575718 -0.14916 -0.987136
41.7281 171.341 499.776 0.0135537 -0.556543 -0.830708
25.5364 160.016 516.05 0.0708206 -0.85976 -0.505763
66.6217 186.526 502.42 -0.20268 0.436062 -0.876796
63.5648 185.272 502.439 -0.107455 0.474355 -0.873751
37.0573 165.452 508.928 0.0550299 -0.857043 -0.512298
41.8353 167.489 505.574 0.0346297 -0.846821 -0.53075
46.8554 167.053 506.764 0.0579322 -0.850323 -0.523064
51.3735 168.249 505.578 0.0814155 -0.856388 -0.509874
75.5805 125.728 542.473 -0.0764202 -0.796966 -0.59917
75.5582 129.541 536.009 0.0942565 -0.561722 -0.821939
58.9261 139.599 532.437 0.349305 0.218077 -0.911279
81.601 153.698 531.856 -0.0167932 -0.875033 -0.483772
53.7056 142.403 530.975 0.349201 0.194925 -0.916549
79.5985 161.329 520.119 0.0511205 -0.871599 -0.487547
79.4304 161.697 517.32 0.0289762 -0.85461 -0.518462
77.2243 163.072 516.204 -0.042211 -0.845068 -0.532989
80.4535 175.382 499.886 0.254276 -0.72047 -0.645188
75.1087 173.452 500.906 0.017462 -0.781881 -0.623183
51.4111 167.329 507.955 0.0922958 -0.862441 -0.497672
22.6949 161.922 512.065 0.0608222 -0.865979 -0.496368
42.5871 172.838 499.922 -0.0508769 -0.410261 -0.910548
61.1605 184.016 502.061 -0.0848862 0.481269 -0.872453
44.4005 172.306 499.266 -0.0456712 -0.451569 -0.891066
42.2154 166.949 507.743 0.0438713 -0.858023 -0.511735
77.7643 128.167 537.125 -0.0212136 -0.639548 -0.768458
82.3824 164.569 515.02 0.239674 -0.782067 -0.575263
75.1611 163.302 517.43 -0.0708416 -0.853797 -0.515764
53.4066 166.403 509.142 0.100227 -0.85561 -0.507824
22.8519 167.439 503.612 0.138724 -0.742353 -0.655491
63.6913 187.771 503.475 -0.127439 0.455954 -0.880832
62.6004 182.617 501.077 -0.082834 0.43377 -0.897208
43.5333 166.642 506.552 0.0531323 -0.852666 -0.519748
49.0745 168.151 506.417 0.0672958 -0.857165 -0.510627
79.4887 154.033 532.861 -0.0183236 -0.877695 -0.47887
82.1562 170.065 507.897 0.347665 -0.74369 -0.571012
80.2115 172.556 504.054 0.285255 -0.733464 -0.616977
77.5537 174.347 500.163 0.114123 -0.750784 -0.650615
40.8796 155.874 524.229 0.154094 -0.71203 -0.685032
63.0916 170.752 503.417 0.119259 -0.794299 -0.595707
74.6772 164.342 514.738 -0.0709615 -0.817453 -0.571607
61.4835 172.519 501.602 0.101277 -0.680977 -0.725267
60.9611 170.298 503.485 0.103112 -0.807161 -0.581256
-175.662 160.006 539.209 -0.995034 -0.0146479 0.0984517
-174.105 164.975 547.628 -0.986465 0.0534276 0.155022
-175.18 160.067 544.904 -0.991106 0.0239989 0.130892
-176.588 161.981 538.096 -0.994924 0.00878017 0.100246
-176.756 162.349 535.296 -0.995201 0.00851796 0.0974778
-175.712 166.766 538.672 -0.992801 0.0382727 0.113495
-175.88 167.134 535.873 -0.993132 0.0411131 0.109542
44.3651 187.329 505.292 -0.0882099 0.381051 -0.920336
-176.42 161.637 533.753 -0.994936 -0.0075024 0.100233
50.3358 189.587 505.23 -0.0424468 0.399855 -0.915595
44.3944 184.777 503.883 -0.0819814 0.428216 -0.89995
50.0661 186.839 504.171 -0.0469084 0.411893 -0.910024
47.2955 186.084 504.238 -0.0782871 0.405148 -0.910893
-175.4 169.423 540.431 -0.98982 0.0564416 0.130658
-176.655 165.453 537.127 -0.993124 0.0367085 0.111164
-176.403 156.625 530.236 -0.990208 -0.102674 0.0945789
-174.649 158.638 550.757 -0.986516 0.0516266 0.155309
-175.695 170.055 539.103 -0.990385 0.0555895 0.126677
46.2431 188.323 504.595 -0.0794257 0.379265 -0.921873
-175.074 158.718 549.007 -0.989444 0.0353622 0.140533
-174.551 160.926 550.695 -0.986659 0.0478963 0.155595
-175.41 159.454 543.408 -0.992402 0.0113779 0.122509
-175.106 168.791 541.76 -0.989799 0.0527139 0.132363
-175.577 168.147 537.416 -0.991335 0.0466875 0.122781
44.104 186.225 504.448 -0.0869202 0.394231 -0.914892
-174.964 163.478 547.483 -0.988164 0.0443724 0.14684
-175.309 162.558 545.239 -0.989944 0.0405957 0.135512
-175.789 160.269 540.68 -0.993745 -0.00670014 0.111476
-177.338 156.956 528.906 -0.989207 -0.108194 0.0988072
-176.075 162.545 539.568 -0.993398 0.0196962 0.113018
-176.634 161.269 531.932 -0.993335 -0.0294467 0.111434
-176.341 160.349 537.39 -0.99543 -0.0122621 0.0946987
-176.188 165.294 536.006 -0.993544 0.0311388 0.109091
46.0155 185.483 504.236 -0.0839093 0.40603 -0.909999
50.8661 187.906 504.501 -0.0473888 0.408689 -0.911443
-176.355 163.163 533.712 -0.993323 0.004444 0.115283
-175.851 164.57 538.034 -0.993385 0.0310766 0.110546
-176.681 160.525 535.29 -0.99532 -0.0172224 0.0950858
-177.172 158.815 530.57 -0.99246 -0.0654117 0.103657
-2.56442 199.048 517.511 -0.30426 0.704262 -0.641437
-175.479 146.3 541.683 -0.96556 -0.259549 -0.0181027
-175.647 146.668 538.884 -0.949703 -0.311241 -0.0345356
-176.1 157.613 538.921 -0.996183 -0.0308229 0.0816632
-1.2086 197.833 515.126 -0.310257 0.69453 -0.649129
-175.091 155.429 548.576 -0.992091 0.0212811 0.123701
-175.764 156.901 537.378 -0.995877 -0.047108 0.0775222
34.8173 201.011 503.377 0.0800634 -0.577235 -0.812644
-175.296 148.676 543.652 -0.993463 -0.0970248 0.0601498
-175.503 149.692 537.844 -0.993025 -0.113625 0.0314822
-176.647 158.797 533.394 -0.994591 -0.053933 0.0887644
0.332543 199.539 515.972 -0.327748 0.676944 -0.659036
-175.646 152.218 536.755 -0.996928 -0.0656991 0.0426485
-175.259 155.797 545.776 -0.994527 0.00923339 0.104069
-175.595 156.533 540.177 -0.995568 -0.0392513 0.0854662
-175.932 157.269 534.579 -0.995417 -0.0635265 0.0714742
-174.931 145.14 540.069 -0.913145 -0.39813 -0.0875092
3.98735 198.422 512.748 -0.307923 0.607846 -0.73192
9.28455 202.115 512.201 -0.305846 0.494284 -0.813721
-175.287 150.444 547.753 -0.995476 -0.0333508 0.0889692
-174.371 154.718 551.654 -0.989069 0.0281542 0.144743
-175.046 153.122 546.841 -0.994418 -0.0196767 0.103663
-174.148 156.742 550.12 -0.988858 0.0383202 0.143844
-176.075 154.245 535.619 -0.995583 -0.0753066 0.0560609
-175.114 150.917 545.305 -0.995368 -0.0437375 0.0856183
-175.427 156.165 542.977 -0.995276 -0.0185869 0.0952872
-176.1 157.637 531.779 -0.992895 -0.0807629 0.0873929
-175.808 152.435 533.757 -0.994458 -0.098846 0.0358102
-174.245 154.442 553.753 -0.988166 0.0395958 0.148189
83.2394 125.231 540.161 -0.0545277 -0.754827 -0.653653
79.7735 121.784 544.56 -0.039106 -0.82065 -0.570091
19.2953 179.17 503.582 -0.0303352 0.460279 -0.887256
-173.921 151.245 557.243 -0.99025 0.0388725 0.133769
-172.877 155.663 560.619 -0.986259 0.0635839 0.152483
34.7399 186.201 505.007 -0.0698736 0.424737 -0.902616
55.9574 198.397 508.551 -0.0115244 0.291907 -0.956377
39.5525 186.765 505.15 -0.0804802 0.41879 -0.90451
54.559 191.403 506.287 -0.0263013 0.366838 -0.929913
82.8851 122.643 544.843 -0.0419313 -0.834987 -0.54867
85.791 157.262 528.858 0.114038 -0.857327 -0.501983
-174.014 149.773 559.199 -0.990567 0.0339651 0.132751
-173.525 153.73 556.832 -0.987331 0.056838 0.148148
18.7161 198.692 505.469 -0.0309403 -0.206951 -0.977862
17.1996 193.594 508.462 -0.0411067 0.027119 -0.998787
14.4027 179.605 503.933 -0.04422 0.45531 -0.889234
35.6749 191.407 507.779 -0.0305382 0.303637 -0.952298
31.7588 185.894 505.146 -0.0754457 0.388734 -0.918256
12.5778 164.354 506.682 0.113244 -0.807855 -0.5784
61.9823 194.722 507.349 -0.0434438 0.378772 -0.92447
-172.76 153.743 562.503 -0.985848 0.0725305 0.151138
-173.196 159.687 555.452 -0.98461 0.0640878 0.162592
22.4213 199.115 506.731 -0.0558869 -0.255679 -0.965145
74.3701 200.508 506.413 -0.429174 0.301413 -0.851446
63.8938 193.98 507.137 -0.101972 0.403214 -0.909406
-173.592 157.202 555.863 -0.985833 0.0588539 0.157066
18.9036 177.513 502.316 -0.0328515 0.474943 -0.879403
18.2561 198.662 508.493 -0.0547714 -0.173977 -0.983225
32.9296 190.047 507.051 -0.00494134 0.336647 -0.941618
34.7106 188.753 506.416 -0.0422899 0.402073 -0.914631
-173.245 142.301 562.814 -0.997034 -0.0197774 0.0743836
53.0977 188.698 504.947 -0.0348582 0.404106 -0.914048
-174.046 159.847 551.951 -0.98628 0.0532444 0.156257
-174.103 149.141 555.906 -0.993099 0.00680571 0.117084
74.389 198.67 505.158 -0.415882 0.348981 -0.839795
-92.2364 119.6 541.389 0.0480955 -0.898319 -0.436702
-66.1307 64.9656 509.419 -0.623982 0.330976 -0.707885
-103.426 120.418 540.62 0.0504517 -0.877082 -0.477683
-87.7595 161.04 473.336 0.38036 -0.172974 -0.908519
-86.5541 76.2786 668.598 0.0704776 -0.996712 -0.0399674
-84.2971 76.4687 667.059 0.0646553 -0.992215 -0.106434
-11.6939 121.949 536.502 0.321378 -0.118215 -0.939543
-16.0311 114.568 531.505 0.342028 0.345555 -0.873847
-34.5757 84.2605 512.917 0.170338 0.51243 -0.841665
-32.5843 82.5181 512.211 0.174838 0.511884 -0.841075
-66.9625 60.5084 506.918 -0.721474 0.329289 -0.609134
-64.9113 59.3355 505.152 -0.568576 0.378982 -0.730133
-63.0572 58.4438 503.375 -0.389976 0.405817 -0.826578
-87.3487 78.8426 657.194 0.0333679 -0.926773 -0.374136
-88.9656 78.9531 658.735 0.037271 -0.923163 -0.382598
-103.581 75.9594 662.434 0.0660081 -0.925751 -0.372327
-39.7511 128.489 528.33 0.024316 -0.912967 -0.407308
-87.2197 110.527 557.042 0.0669355 -0.833969 -0.547737
-94.0917 114.921 551.245 0.122437 -0.858351 -0.49824
-98.8447 117.529 543.3 0.029283 -0.854831 -0.518079
-35.2244 79.5527 510.194 0.112982 0.492446 -0.862979
-89.1714 80.2413 653.558 0.02923 -0.911718 -0.409775
-91.5098 112.183 555.016 0.0764889 -0.830643 -0.551527
-91.877 163.156 472.433 0.390692 -0.00223913 -0.920519
-83.2918 168.973 478.754 0.396817 0.342552 -0.851583
-90.6692 158.089 472.766 0.211138 -0.647779 -0.731986
-85.1153 162.058 474.74 0.392584 -0.0455501 -0.918587
-90.8421 157.616 475.214 0.235207 -0.696159 -0.678263
-20.1486 116.685 530.602 0.220593 0.377069 -0.899532
-65.0861 69.389 511.009 -0.494797 0.403721 -0.769536
-33.502 86.1256 514.884 0.19665 0.501383 -0.842582
-68.8299 61.5667 508.777 -0.84152 0.223508 -0.491822
-66.7809 62.6943 508.445 -0.703866 0.298265 -0.644679
-65.7676 61.245 519.803 -0.904626 0.18615 -0.383406
-68.3277 60.0426 519.799 -0.867438 0.22479 -0.443871
-65.9089 58.6406 518.219 -0.925273 0.224574 -0.305672
-67.4027 57.7076 505.683 -0.777545 0.272692 -0.566624
-66.9826 56.7755 516.252 -0.963544 0.203334 -0.173889
-25.0141 81.3647 513.748 0.25414 0.512405 -0.820277
-67.1637 54.6711 514.915 -0.964645 0.187339 -0.185378
-88.2551 76.5731 668.739 0.0852019 -0.995057 -0.0510198
-88.7787 79.3948 656.519 0.0343836 -0.926802 -0.373974
-10.3568 133.292 521.838 -0.00935169 -0.893977 -0.448015
-15.8604 130.863 524.349 0.0422563 -0.890129 -0.453746
-17.5149 131.894 523.513 0.0439339 -0.895283 -0.443326
-30.0764 122.845 532.723 0.0497523 0.341205 -0.938671
-29.8517 125.133 534.201 0.0637184 0.0525156 -0.996585
-108.482 74.7508 662.57 0.076014 -0.928914 -0.36241
-34.6488 124.814 533.733 0.0397138 0.181491 -0.98259
-115 73.6527 664.246 0.00912471 -0.964758 -0.26298
-117.551 74.0984 663.267 0.0272042 -0.961143 -0.274707
-37.0358 126.851 532.596 -0.00878927 -0.708512 -0.705644
-118 75.0636 660.563 0.0296091 -0.918554 -0.394184
-119.29 75.3091 662.221 0.010367 -0.941661 -0.336404
-39.2419 128.225 531.48 0.0185147 -0.882435 -0.470071
-44.0544 127.665 530.148 0.0146082 -0.876781 -0.480668
-46.2691 127.391 530.006 0.0122675 -0.86391 -0.503496
-87.0222 109.264 559.936 0.0684505 -0.845638 -0.529349
-91.9062 109.686 558.999 0.0452374 -0.85391 -0.518451
-94.3357 109.036 559.416 0.0564267 -0.863452 -0.501265
-91.324 115.128 551.106 0.0639689 -0.862021 -0.502819
-91.3063 118.44 544.395 0.0483038 -0.89421 -0.445033
-96.0724 118.612 543.275 0.0470369 -0.881858 -0.469163
-100.931 118.981 542.044 0.02032 -0.860162 -0.509615
-101.087 120.152 539.85 0.0122696 -0.875564 -0.482947
-37.658 80.8493 511.225 0.0762537 0.477488 -0.875323
-91.6388 80.499 655.169 0.0175995 -0.918756 -0.394432
-83.3211 171.525 480.163 0.389894 0.397453 -0.830671
-13.8585 114.93 532.137 0.382051 0.348363 -0.855967
-34.8874 81.6039 511.158 0.143064 0.495417 -0.856793
-66.704 61.1804 513.957 -0.984006 -0.100547 0.147044
-62.5771 60.7444 504.363 -0.344395 0.424753 -0.837244
-68.3158 55.6585 506.04 -0.915191 0.170873 -0.365005
-108.655 74.2785 665.019 0.0667013 -0.972913 -0.221339
-112.726 74.3562 664.202 0.0475073 -0.962812 -0.265963
-34.6905 127.681 531.969 0.0608506 -0.829008 -0.555916
-115.507 170.151 491.918 -0.877839 0.454712 -0.150451
-92.9682 157.991 473.605 0.196205 -0.692019 -0.694703
-44.0833 130.237 525.605 0.0243234 -0.912777 -0.407733
-85.343 159.218 474.38 0.310861 -0.526245 -0.791474
-84.2371 79.7015 657.478 0.0295641 -0.924651 -0.379666
-88.4985 78.7814 661.185 0.0678262 -0.930688 -0.359471
-117.64 73.4381 668.306 0.0090844 -0.995028 -0.0991785
-97.4874 116.631 544.529 0.0751989 -0.862782 -0.499952
-65.273 58.1252 516.327 -0.974344 0.176857 -0.139193
-117.467 73.9104 665.857 0.00968251 -0.984509 -0.175068
-68.379 66.4197 511.174 -0.827004 0.220386 -0.517198
-67.0957 59.5239 512.691 -0.992969 -0.0699669 0.0954877
-16.3629 124.409 535.32 0.159343 -0.290378 -0.943552
-17.1341 115.256 530.948 0.311194 0.349002 -0.883944
-69.8361 64.5301 511.727 -0.971604 -0.00386135 -0.236582
-65.778 59.2049 515.07 -0.995574 -0.0202601 0.091772
-29.2287 81.1929 512.907 0.226118 0.512135 -0.828606
-24.9848 78.8125 512.339 0.223299 0.536946 -0.813527
-55.9201 89.4907 595.62 -0.121649 -0.960196 -0.251445
-74.7917 99.797 576.913 -0.172242 -0.924023 -0.341342
-56.7784 88.0302 584.763 -0.500165 -0.859604 0.104481
-92.797 134.194 514.763 0.0432839 -0.878183 -0.476362
-8.69253 188.287 508.605 -0.156154 0.451719 -0.878388
-54.8206 144.046 498.416 -0.0176143 -0.876462 -0.481149
-55.2875 128.311 525.668 0.0406073 -0.918972 -0.392225
-56.7627 117.575 530.299 -0.194143 0.569429 -0.798786
-36.6833 73.3325 638.066 -0.395153 -0.874322 0.281807
-52.6324 83.9589 650.423 -0.128393 -0.987407 -0.0924295
-55.9556 82.8654 609.041 0.0510071 -0.858064 -0.511004
-61.6908 92.0647 520.573 -0.304833 0.38755 -0.86999
-111.21 137.378 509.381 0.0625218 -0.902369 -0.426405
-145.94 138.017 542.987 -0.487823 -0.647179 -0.585823
-154.721 143.698 538.665 0.0367551 -0.877486 -0.478192
-130.069 136.757 516.029 -0.89419 -0.176092 -0.411602
-130.043 133.648 516.928 -0.617487 -0.567054 -0.545124
-62.0761 84.9466 647.905 -0.110281 -0.980296 -0.163886
-37.324 72.7922 627.912 -0.130455 -0.918401 -0.373526
-75.3229 98.4714 566.173 -0.882415 -0.439547 0.167755
-75.9079 100.551 565.41 -0.897568 -0.438947 0.0411886
-84.2327 99.9473 574.404 0.0924839 -0.867663 -0.488475
-83.605 101.944 572.486 0.073058 -0.84065 -0.536628
-129.488 139.403 515.151 -0.945593 0.0249687 -0.324392
-130.264 132.172 518.534 -0.397592 -0.689812 -0.605046
-128.07 73.1805 670.685 0.0741676 -0.994976 -0.0672476
-63.3645 146.171 494.922 0.00394319 -0.889658 -0.45661
-145.377 147.956 529.018 -0.0370845 -0.883492 -0.466976
-124.161 159.433 502.104 -0.876544 0.150377 -0.457228
-145.383 146.852 531.255 -0.0864705 -0.881237 -0.464698
-145.395 144.643 535.729 -0.230945 -0.765936 -0.600005
-140.971 144.103 533.487 -0.467222 -0.643248 -0.606577
-138.719 143.251 531.93 -0.591265 -0.49722 -0.634964
-136.51 142.379 530.61 -0.678374 -0.398586 -0.617202
-123.538 148.405 501.926 -0.933937 0.169427 -0.314731
-124.164 148.065 504.539 -0.944775 0.138974 -0.296794
-124.453 145.915 502.702 -0.938902 0.0584602 -0.339183
-134.473 141.373 528.927 -0.785771 -0.238988 -0.57048
-132.776 140.262 526.893 -0.86363 -0.116325 -0.490522
-128.821 139.378 512.607 -0.93025 -0.0440282 -0.364276
-125.467 137.749 506.119 -0.489439 -0.675762 -0.551175
-123.469 137.151 507.349 -0.201886 -0.822544 -0.531662
-120.922 135.881 508.815 -0.0175891 -0.892829 -0.450052
-127.452 132.618 518.423 -0.206134 -0.776431 -0.595536
-120.714 135.013 511.368 -0.0163611 -0.934078 -0.356695
-120.716 134.593 513.992 -0.00693484 -0.93739 -0.348213
-120.55 133.896 516.748 0.0196717 -0.893162 -0.449304
-111.563 135.065 513.504 0.0272595 -0.914947 -0.402653
-53.7116 95.8684 520.237 -0.166958 0.427855 -0.888294
-56.7659 90.4783 590.443 -0.393389 -0.917698 -0.0554501
-55.9451 90.1083 592.845 -0.283802 -0.945969 -0.156839
-54.2189 89.2084 591.909 -0.345674 -0.935736 -0.070057
-53.5835 88.6687 597.158 -0.100611 -0.967614 -0.23152
-61.7904 82.6584 652.588 -0.0358083 -0.936145 -0.349787
-56.3617 86.5257 602.402 0.0954722 -0.891944 -0.441951
-70.8398 76.5133 549.086 -0.94895 -0.204948 0.23977
-71.1515 73.8568 547.326 -0.957354 -0.163743 0.238035
-52.7032 85.9935 588.537 -0.38412 -0.921855 0.051329
-54.6787 83.325 650.701 -0.078371 -0.986376 -0.14464
-52.2582 82.3149 654.828 -0.0636457 -0.962888 -0.262291
-51.1052 82.5157 609.775 0.0811327 -0.845952 -0.527051
-52.4487 78.5299 663.987 0.0529701 -0.983952 -0.170389
-49.5103 78.9044 670.29 0.0628555 -0.996566 0.0539095
-49.6782 79.2845 663.92 0.0215787 -0.986867 -0.16009
-72.2714 62.9909 531.676 -0.995509 -0.0223924 -0.0919812
-71.2699 59.1873 533.974 -0.993754 -0.0684263 0.0881539
-61.1579 64.1761 560.457 -0.834776 -0.313149 0.452864
-40.1694 74.1055 636.948 -0.405941 -0.860344 0.308253
-65.7515 56.5313 549.368 -0.884334 -0.22949 0.406556
-30.5047 71.8475 630.593 0.0599603 -0.922635 -0.380985
77.2994 112.839 565.324 0.310384 -0.841337 -0.44251
-60.2924 99.0587 522.838 -0.273014 0.402097 -0.873946
-69.5431 96.932 578.841 -0.517222 -0.853962 -0.0568323
-73.3738 96.8089 568.338 -0.840313 -0.466722 0.275761
-74.6506 96.9873 580.941 -0.0834184 -0.893626 -0.440991
-74.2915 100.416 571.011 -0.661018 -0.750216 0.0151686
-72.0369 105.178 532.683 -0.973095 0.0118488 -0.230098
-81.5674 100.926 574.373 0.0344423 -0.865658 -0.49945
-52.362 126.213 533.433 -0.0339769 -0.67193 -0.739835
-54.334 126.25 534.389 0.0374625 -0.693803 -0.71919
-13.9026 155.041 504.548 0.341424 0.110318 -0.933413
-55.0773 127.851 529.167 0.0737801 -0.916079 -0.394151
-47.6733 135.427 514 0.0292171 -0.89019 -0.454652
-13.8629 159.943 505.428 0.280414 -0.350172 -0.893727
-50.1029 134.777 514.418 0.0313825 -0.882504 -0.469257
-54.8314 134.028 515.675 0.055327 -0.861976 -0.503922
-8.04985 167.268 499.969 0.060194 -0.294807 -0.953659
-54.869 134.949 513.298 0.0471372 -0.863331 -0.502431
-54.7482 136.86 511.47 0.0502456 -0.875354 -0.480865
-12.9553 165.235 500.592 0.0879809 -0.447243 -0.890075
-52.0512 139.231 506.428 0.0364429 -0.871455 -0.48912
-20.0741 163.2 501.704 0.156548 -0.315419 -0.935951
-22.7885 162.327 501.514 0.203222 -0.167175 -0.964756
-11.6103 170.133 500.678 0.0117687 0.177125 -0.984118
-54.6278 140.286 505.054 0.0126427 -0.858649 -0.512408
-22.4569 164.951 500.506 0.0933461 -0.0752964 -0.992782
-54.6654 141.206 502.677 -0.000198183 -0.853069 -0.521798
-51.8395 144.353 498.277 0.0291612 -0.866267 -0.49873
-8.24971 177.937 503.646 -0.101377 0.426663 -0.898711
-10.8098 176.734 503.641 -0.119197 0.435975 -0.89203
-10.3296 179.035 504.629 -0.113046 0.425708 -0.897771
-59.1646 143.586 500.164 -0.0540252 -0.855106 -0.515631
-63.5956 142.758 501.631 0.0300787 -0.84576 -0.532714
-61.4517 145.697 496.531 -0.0314293 -0.890102 -0.454677
-30.9365 169.691 502.496 0.0408519 0.430107 -0.901853
-92.6596 128.041 525.734 -0.0311092 -0.829398 -0.557792
-90.1194 133.476 516.651 -0.000122428 -0.861811 -0.50723
-88.0508 138.255 506.795 -0.0495894 -0.868346 -0.493474
-89.9217 138.63 508.267 -0.058123 -0.869822 -0.48993
-92.3524 137.761 508.418 -0.0231683 -0.855314 -0.517591
-90.425 139.997 502.88 -0.0992688 -0.861622 -0.497749
-92.29 141.476 502.115 -0.0682804 -0.85097 -0.520758
-104.194 136.016 511.757 -0.0701744 -0.872179 -0.484127
-106.624 135.366 512.175 -0.0609551 -0.883182 -0.465053
-145.302 146.115 533.773 -0.178992 -0.819654 -0.544177
-125.576 133.28 518.398 -0.109029 -0.846424 -0.521229
-106.531 136.838 510.22 -0.0379503 -0.879772 -0.473878
-56.9117 94.3653 520.231 -0.200179 0.414635 -0.887697
-70.9576 78.4214 550.772 -0.933954 -0.270612 0.23345
-57.0995 84.327 648.954 -0.0999127 -0.989484 -0.104589
-52.2205 81.3947 657.206 -0.0194696 -0.950092 -0.311361
-32.6449 72.2523 628.75 0.0212626 -0.898814 -0.437814
-33.4199 70.5714 630.005 -0.0448571 -0.91894 -0.391839
-65.2112 95.1715 585.137 -0.281401 -0.956331 -0.0790234
-70.2586 98.4596 577.656 -0.494489 -0.863352 -0.100515
-79.1379 101.576 573.955 -0.0479431 -0.88865 -0.456074
-54.8292 126.483 531.473 0.0464443 -0.824109 -0.564524
-49.8823 136.253 512.813 0.0173968 -0.883708 -0.467716
-6.12774 176.746 503.362 -0.0691374 0.422086 -0.903916
-88.0309 134.022 515.883 0.00968716 -0.860018 -0.510171
-92.2148 139.636 506.87 -0.0269768 -0.865332 -0.500472
-122.805 158.219 499.719 -0.89206 0.0440455 -0.449765
-120.978 157.66 498.107 -0.888847 0.0100363 -0.458095
-143.096 144.741 534.889 -0.352516 -0.714062 -0.604853
-129.887 139.133 517.997 -0.943792 0.0813149 -0.320381
-131.588 139.403 525.28 -0.915455 0.0480009 -0.399548
-127.846 138.695 510.434 -0.858891 -0.315011 -0.403824
-125.427 137.157 508.539 -0.398267 -0.778056 -0.485812
-119.361 133.366 515.178 0.0301443 -0.924224 -0.380659
-61.2107 94.3654 521.561 -0.297065 0.388292 -0.872343
-59.2149 93.4471 520.368 -0.250729 0.405267 -0.879144
-55.8825 88.5706 597.998 0.00447145 -0.929417 -0.369003
-53.5083 86.8283 601.913 0.039095 -0.907573 -0.418071
-53.9196 81.5206 610.17 0.0519615 -0.851298 -0.522103
-52.1829 80.4746 659.583 -0.00115279 -0.948402 -0.317067
-71.3877 61.0953 535.66 -0.987268 -0.078797 0.13818
-62.8844 59.5501 556.38 -0.848629 -0.270303 0.454714
-63.2451 94.0303 586.417 -0.325207 -0.943527 -0.0632226
-125.089 73.4873 670.546 0.0759708 -0.995714 -0.0527406
-54.5902 139.366 507.432 0.0164413 -0.87605 -0.481939
-63.7507 145.599 497.37 0.0117192 -0.884931 -0.465574
-85.2603 134.777 515.816 0.00548985 -0.873545 -0.486713
-92.4184 133.378 517.491 0.0257041 -0.874079 -0.485103
-92.4747 140.364 504.338 -0.0481159 -0.85118 -0.522664
-55.9641 96.5064 520.099 -0.184132 0.401715 -0.897062
-71.648 76.5807 546.285 -0.965477 -0.162955 0.203224
-50.9103 87.1228 600.724 -0.0826238 -0.949637 -0.302263
-52.1273 82.8792 651.68 -0.107736 -0.983787 -0.143373
-54.1896 79.0135 634.863 -0.310035 -0.889461 0.335764
-51.1272 79.0149 671.831 0.0721662 -0.995533 0.0608856
-44.4891 78.302 639.902 -0.350262 -0.869039 0.34941
-37.0368 70.7801 632.036 -0.2555 -0.957057 -0.136972
-65.7222 53.9791 547.959 -0.878881 -0.244818 0.40943
-65.3415 94.6314 581.144 -0.450686 -0.892129 0.031435
-11.4604 158.151 506.239 0.313348 -0.232119 -0.920833
-53.7437 83.014 646.079 -0.186707 -0.978771 0.0845431
-61.2663 92.5947 584.918 -0.445134 -0.89373 0.0556922
-56.8542 89.8463 587.15 -0.485918 -0.871896 0.0606807
-52.9776 83.0386 648.18 -0.166491 -0.986042 0.00161419
-50.9397 82.0324 646.496 -0.247951 -0.956465 0.153933
-48.9018 81.0262 644.812 -0.278616 -0.928928 0.243857
-52.8337 77.7987 632.478 -0.308853 -0.903549 0.297
-34.4773 71.9583 639.181 -0.366993 -0.893597 0.258459
-64.3752 51.1079 548.93 -0.853114 -0.277101 0.442053
-65.6784 95.3431 582.687 -0.403683 -0.912796 -0.0619922
-72.4647 99.8338 576.54 -0.453526 -0.876268 -0.162692
-74.8389 101.576 572.625 -0.437855 -0.892754 -0.106175
-52.515 137.427 511.696 -0.0204846 -0.87597 -0.48193
-29.025 168.949 502.283 -0.00646447 0.375644 -0.926741
-71.934 78.8568 545.173 -0.959866 -0.216876 0.177824
-61.1734 78.7818 671.689 0.0549422 -0.9976 0.0421428
-93.4324 118.815 542.786 0.0534644 -0.892101 -0.448662
-16.9396 126.468 535.411 0.0535034 -0.613571 -0.787825
-68.4891 61.6589 512.698 -0.991741 -0.123375 0.0350444
-66.9642 66.7362 510.559 -0.667848 0.318615 -0.672654
-102.61 119.232 541.13 0.0293908 -0.864855 -0.501161
-102.43 121.072 539.456 0.0503518 -0.874976 -0.481542
-114.741 170.176 494.019 -0.852072 0.510996 -0.11339
-89.4373 157.625 473.702 0.255644 -0.701978 -0.664735
-13.0165 113.139 531.851 0.380774 0.345155 -0.857834
-31.5612 82.831 513.263 0.203057 0.517398 -0.831305
-65.6478 59.745 519.063 -0.897682 0.232987 -0.374011
-66.9838 56.4039 504.593 -0.715888 0.318575 -0.621301
-68.1785 55.9903 517.65 -0.874388 0.3022 -0.379632
-14.784 125.203 536.163 0.142692 -0.36304 -0.920783
-85.9846 79.2599 658.596 0.0454293 -0.935907 -0.349304
-14.6644 131.648 522.952 0.0369368 -0.887517 -0.459292
-114.276 73.7693 665.647 0.0214704 -0.982246 -0.186367
-37.98 128.041 529.356 0.0337804 -0.895048 -0.444688
-45.7584 127.407 531.407 0.0475206 -0.82048 -0.569696
-86.1406 110.717 559.026 0.0622618 -0.840341 -0.538471
-93.1022 108.901 560.396 0.0467159 -0.862068 -0.504635
-92.5199 114.342 552.503 0.0878 -0.840678 -0.534371
-90.1103 119.226 542.998 0.0351173 -0.900798 -0.432816
-97.3104 117.919 543.973 0.0580978 -0.860895 -0.505454
-99.9709 120.267 541.012 0.00536827 -0.873008 -0.487677
-36.5085 80.8984 510.805 0.0983664 0.483051 -0.870049
-92.7198 111.428 556.181 0.0730676 -0.841724 -0.534941
-118.477 76.082 659.773 0.0239823 -0.911563 -0.41046
-116.581 168.274 493.522 -0.874113 0.442873 -0.199476
-91.5431 161.892 472.008 0.382682 -0.124122 -0.915504
-91.7722 158.776 472.208 0.247451 -0.566342 -0.786146
-26.9762 80.5549 513.045 0.247084 0.514884 -0.82088
-90.2592 75.8552 667.336 0.0991067 -0.989755 -0.102774
-36.931 122.471 532.371 0.0082243 0.393524 -0.919278
-36.1809 127.532 530.848 0.0426147 -0.813505 -0.579995
-86.7223 159.164 473.456 0.316475 -0.501599 -0.805135
-62.0629 69.6098 509.785 -0.33273 0.438704 -0.834763
-68.6355 59.6587 508.014 -0.908144 0.167378 -0.383744
-67.7826 58.4689 519.023 -0.86826 0.277957 -0.410932
-64.0143 59.9244 504.104 -0.449008 0.401516 -0.798234
-64.5057 58.1984 504.145 -0.515902 0.371881 -0.771718
-85.6854 79.4643 655.866 0.0377379 -0.928249 -0.370039
-90.1616 78.1679 660.133 0.060731 -0.917058 -0.394103
-11.8798 132.372 523.118 0.0119114 -0.8877 -0.460268
-104.478 75.3704 663.483 0.092476 -0.945243 -0.312991
-40.947 127.704 529.728 0.0220387 -0.893211 -0.449097
-88.7147 109.545 558.788 0.0563942 -0.84493 -0.531895
-93.1091 115.606 549.847 0.102397 -0.870504 -0.481392
-97.8339 118.709 541.679 0.00852871 -0.871939 -0.489539
-102.207 117.526 546.002 0.00637216 -0.84586 -0.533367
-115.078 170.887 495.562 -0.825188 0.551959 -0.120027
-91.8652 157.303 474.163 0.211198 -0.708638 -0.673221
-84.2734 160.267 474.454 0.371537 -0.314169 -0.873647
-82.933 76.8859 668.46 0.0655542 -0.997654 -0.0197337
-19.3067 114.894 530.316 0.252808 0.354887 -0.90008
-69.2046 63.1865 511.513 -0.980435 0.020868 -0.195733
-31.4013 80.8309 512.276 0.194044 0.507472 -0.839535
-68.3403 57.4827 506.662 -0.937619 0.179489 -0.297747
-68.5229 55.1063 504.694 -0.845628 0.265924 -0.462815
-68.3597 53.8859 516.312 -0.900987 0.269549 -0.33995
-87.2558 80.315 655.239 0.0279052 -0.924383 -0.380445
-89.9968 79.7751 655.214 0.0315362 -0.923704 -0.381806
-16.3189 132.679 522.115 0.0524182 -0.886044 -0.460629
-106.057 74.5729 663.83 0.0780304 -0.950699 -0.300137
-31.2173 124.44 533.358 0.069263 0.202275 -0.976876
-109.337 74.0698 664.318 0.0651174 -0.966274 -0.249147
-115.253 74.1804 667.188 0.0118871 -0.987244 -0.158771
-114.103 74.2416 663.198 0.0256378 -0.950566 -0.309463
-35.6311 126.904 534.066 0.0535764 -0.349642 -0.93535
-116.229 74.6158 661.589 0.0280472 -0.934489 -0.354885
-45.1322 127.747 528.794 0.00174586 -0.898884 -0.438183
-93.1398 109.821 558.019 0.0571298 -0.855308 -0.514961
-35.2493 85.692 513.622 0.173525 0.487901 -0.855478
-86.3862 171.402 478.902 0.412287 0.380819 -0.827645
-84.5079 76.9044 670.701 0.073521 -0.996736 0.033336
-18.397 117.943 531.377 0.267242 0.392242 -0.880186
-65.8018 70.9106 511.609 -0.503146 0.389387 -0.771506
-63.7639 69.9043 509.926 -0.369181 0.431161 -0.823289
-67.7224 61.7078 507.657 -0.745955 0.300573 -0.594313
-67.0409 61.8921 515.499 -0.983972 -0.129739 0.122336
-118.234 73.8737 667.327 0.0115995 -0.993452 -0.113662
-87.8976 111.134 558.234 0.0609117 -0.835251 -0.546485
-91.018 164.653 472.578 0.429184 0.167719 -0.887509
-33.2116 84.6777 514.319 0.192357 0.507824 -0.83971
-67.3867 60.9475 520.397 -0.864425 0.209502 -0.457032
-66.0214 61.4133 507.516 -0.694068 0.331933 -0.63882
-24.7237 79.9168 513.183 0.244682 0.521546 -0.817387
-29.6048 123.501 533.495 0.0894998 0.277043 -0.95668
44.5684 201.851 509.332 0.146891 -0.322293 -0.935174
67.4394 199.178 508.321 -0.182049 0.338181 -0.923305
25.17 173.881 500.391 0.0393901 0.0900104 -0.995162
68.994 208.894 509.148 -0.0728451 -0.190033 -0.979071
48.2144 199.078 509.463 0.00926969 0.0354015 -0.99933
27.2872 185.434 505.354 -0.0525397 0.324617 -0.944385
22.1671 183.029 505.346 -0.059131 0.3486 -0.935405
38.3615 195.109 508.819 -0.00845989 0.14418 -0.989515
28.6857 192.428 507.619 0.0168782 0.229398 -0.973186
9.95746 192.379 508.737 -0.0777413 0.0813111 -0.993652
4.59334 192.158 508.316 -0.0667286 0.28573 -0.955984
75.9423 148.802 541.198 0.0633558 -0.428673 -0.901235
80.3873 149.6 539.964 -0.0810893 -0.674178 -0.734104
68.9985 209.723 507.47 -0.0249399 -0.209368 -0.977519
59.1368 204.097 510.181 0.0456594 -0.200493 -0.97863
59.2803 207.121 509.141 0.128714 -0.502486 -0.85495
56.7202 205.919 509.137 0.154059 -0.421313 -0.893734
46.4799 201.109 509.12 0.0735976 -0.232465 -0.969816
25.1653 186.624 505.638 -0.0422705 0.295724 -0.954338
39.0101 197.054 509.035 0.0381014 0.0224716 -0.999021
20.0451 184.219 505.63 -0.0635204 0.34397 -0.93683
22.6052 185.421 505.634 -0.0615865 0.304875 -0.950399
30.299 199.802 508.134 0.0873493 -0.351403 -0.932141
9.51934 189.986 508.449 -0.0412033 0.242288 -0.969329
10.5247 195.052 508.816 -0.130572 0.0727885 -0.988763
10.8381 197.992 507.636 -0.183096 0.223051 -0.957457
32.8192 176.998 501.055 -0.0991873 0.300442 -0.948629
20.3728 173.562 499.922 0.0105897 0.127902 -0.99173
27.9358 187.379 505.571 -0.0319436 0.313267 -0.949128
54.7202 206.017 509.627 0.144765 -0.396557 -0.906524
17.9231 185.409 505.914 -0.0761204 0.336944 -0.938443
22.2843 172.82 499.71 0.0623984 -0.00726753 -0.998025
39.6587 198.999 509.252 0.137272 -0.241525 -0.960636
24.7009 170.998 500.754 0.1179 -0.367979 -0.922329
30.6486 201.551 508.7 0.0931279 -0.409049 -0.907748
27.5655 189.827 506.629 -0.000133168 0.288857 -0.957372
5.99894 184.182 506.469 -0.0342419 0.374062 -0.926771
44.8339 203.784 508.499 0.229459 -0.449354 -0.863383
24.6403 200.213 506.384 -0.0129105 -0.344605 -0.938659
80.2944 148.128 541.919 0.0115273 -0.381401 -0.924338
81.9113 148.017 540.379 -0.038246 -0.498995 -0.86576
20.213 175.562 500.909 0.00240325 0.345066 -0.938575
51.4145 200.581 509.468 0.0600754 0.0252446 -0.997875
24.7272 184.231 505.35 -0.0567306 0.325014 -0.944006
40.9216 196.311 508.823 -0.0208289 0.148384 -0.98871
7.49446 193.465 508.671 -0.0781699 0.181586 -0.980263
5.71352 194.759 509.305 -0.161952 0.30683 -0.937884
78.4213 150.741 538.684 -0.0629354 -0.804208 -0.591007
27.1769 172.384 499.359 -0.00890219 -0.140459 -0.990047
66.1513 202.471 509.546 -0.087949 0.126566 -0.988052
61.3993 205.379 509.976 0.0542426 -0.294186 -0.954208
56.5767 202.894 510.177 0.0991322 -0.0722855 -0.992445
21.6027 180.908 504.148 -0.0451287 0.412783 -0.909711
46.9343 198.477 509.461 -0.00150348 0.102684 -0.994713
35.0666 199.907 508.695 0.0677096 -0.331149 -0.941146
16.4245 189.15 507.21 -0.104176 0.287311 -0.952155
24.7828 194.913 508.537 -0.0472664 0.0150781 -0.998769
27.5691 198.684 508.27 -0.0119786 -0.222491 -0.974861
30.5646 201.735 507.3 0.09185 -0.448623 -0.888989
27.9624 200.624 506.596 0.0299419 -0.365319 -0.930401
12.0794 191.189 508.453 -0.058392 0.169501 -0.983799
6.91721 188.876 507.745 -0.0189062 0.266887 -0.963542
33.1731 179.566 502.324 -0.127197 0.416822 -0.900045
29.4514 184.156 504.58 -0.0915229 0.369341 -0.924776
23.607 181.63 504.361 -0.0535147 0.389179 -0.919606
47.426 202.974 509.546 0.145559 -0.271325 -0.951417
37.2422 200.821 508.208 0.0719577 -0.409069 -0.909662
27.0018 196.011 508.191 -0.0247451 -0.0790456 -0.996564
32.5742 200.782 507.531 0.0863156 -0.487449 -0.868875
16.7615 191.201 508.174 -0.0935996 0.243306 -0.965423
8.27361 195.962 509.309 -0.252242 0.253022 -0.933999
78.3873 149.698 540.454 0.0248756 -0.650113 -0.75943
78.0333 147.121 541.565 0.0425594 -0.259581 -0.964783
57.2253 204.839 510.394 0.101077 -0.262702 -0.959568
57.5793 207.416 509.282 0.117474 -0.569938 -0.813247
54.6652 203.637 510.389 0.123817 -0.180021 -0.975839
36.0119 193.459 508.743 0.00170101 0.226099 -0.974103
75.8423 151.376 539.934 -0.0160108 -0.757183 -0.653006
77.0437 145.072 540.998 0.0931763 -0.00255796 -0.995646
32.0089 201.164 504.638 0.110699 -0.483516 -0.868307
13.9909 190.446 508.241 -0.0678679 0.254002 -0.96482
21.6357 170.875 499.493 0.10446 -0.24212 -0.964607
66.6066 208.152 510.266 -0.0392564 -0.226065 -0.973321
23.5564 180.078 503.445 -0.0449329 0.430675 -0.901388
27.6576 182.986 504.296 -0.0846102 0.364049 -0.927529
26.3532 194.066 507.974 -0.0384242 0.112716 -0.992884
0.382867 192.802 509.368 -0.146619 0.42059 -0.895325
10.6232 197.612 509.385 -0.219167 0.311403 -0.924659
68.3062 191.248 504.607 -0.289419 0.429862 -0.855252
73.8668 196.461 503.47 -0.404728 0.403664 -0.820518
69.0139 196.385 507.145 -0.259558 0.406137 -0.876175
52.5897 205.563 509.695 0.130154 -0.329686 -0.935076
15.1526 184.655 505.981 -0.0579245 0.36713 -0.928364
32.122 198.416 508.199 0.0825221 -0.282176 -0.955807
11.4308 189.244 508.237 -0.0550356 0.265148 -0.962636
3.15343 193.557 509.301 -0.13227 0.388234 -0.912019
69.873 197.882 507.29 -0.272336 0.370361 -0.888068
67.3129 196.679 507.286 -0.203557 0.385437 -0.900002
27.7583 177.789 502.178 -0.0886466 0.39199 -0.915689
30.8076 191.238 507.335 0.0103008 0.2598 -0.965607
16.0116 186.152 506.126 -0.0765436 0.334952 -0.939121
10.681 184.195 506.189 -0.0611286 0.390099 -0.918742
13.4516 184.949 506.122 -0.061646 0.370722 -0.926696
11.1611 186.495 507.177 -0.0599349 0.34783 -0.93564
12.9557 195.974 509.03 -0.100254 0.027837 -0.994572
29.5619 197.213 508.195 0.0369847 -0.151722 -0.987731
-173.07 159.411 557.551 -0.984073 0.0719249 0.162565
81.5866 142.888 540.081 -0.00176823 0.205663 -0.978621
51.9541 206.091 508.017 0.177096 -0.505588 -0.844404
31.4734 196.471 507.983 0.0381531 -0.108015 -0.993417
7.93568 182.835 505.461 -0.0537544 0.416475 -0.907556
2.53009 191.007 508.289 -0.0663544 0.302896 -0.950711
11.6756 195.373 509.028 -0.121811 0.0527843 -0.991149
11.9012 197.805 508.441 -0.181038 0.145496 -0.972654
72.5296 193.072 503.283 -0.380781 0.407228 -0.830163
