ply
format ascii 1.0
element vertex 891
property float x
property float y
property float z
property float nx
property float ny
property float nz
end_header
-56.6842 -24.7514 464.51 -0.710779 -0.591506 -0.380675
-57.9265 -25.0753 465.673 -0.704496 -0.597387 -0.383162
-58.4941 -26.1637 468.49 -0.663578 -0.626808 -0.408383
-8.27728 -27.6363 477.585 0.52996 -0.763674 -0.368706
-9.76054 -29.0756 478.179 0.506404 -0.789605 -0.346525
-8.17521 -28.2709 479.667 0.528746 -0.783786 -0.325742
-53.7611 -36.5341 481.184 -0.617482 -0.768531 -0.167561
-60.6791 -29.1138 475.941 -0.682206 -0.631851 -0.367912
-4.15209 -26.2997 481.791 0.598935 -0.756522 -0.262586
-6.40882 -27.9021 482.374 0.575045 -0.774772 -0.262778
-8.34852 -29.9802 482.876 0.53102 -0.812314 -0.241171
-11.0966 -31.5454 483.374 0.49225 -0.845127 -0.208448
-54.0537 -37.2658 483.617 -0.562856 -0.808905 -0.1699
-8.81908 -30.4849 485.387 0.518915 -0.836042 -0.178217
-56.1304 -35.4294 482.597 -0.555229 -0.797082 -0.237446
-61.2748 -29.6786 478.659 -0.691621 -0.654072 -0.306351
-62.4054 -27.6843 477.534 -0.72155 -0.606547 -0.333866
-4.41112 -27.3333 484.81 0.614611 -0.766056 -0.188181
-40.1764 -46.5926 492.979 -0.0983763 -0.993465 0.0578772
-44.1854 -42.9686 490.279 -0.575266 -0.817364 0.03139
-69.869 46.4229 525.08 -0.943645 -0.178691 0.278574
-69.9069 48.8102 526.349 -0.951891 -0.189756 0.240616
-67.5923 40.9238 533.076 -0.9491 -0.208232 0.236322
-68.7517 46.1137 530.273 -0.972975 -0.17306 0.152871
-68.2691 45.1633 532.961 -0.963811 -0.186249 0.190737
-67.6535 43.6559 534.632 -0.940543 -0.203327 0.272097
51.3872 101.181 580.661 0.0654583 -0.873669 -0.482097
53.2388 101.51 581.87 0.0819653 -0.870201 -0.485832
25.4532 101.815 576.923 0.0165567 -0.881603 -0.471702
23.4801 102.182 578.3 -0.017447 -0.871724 -0.489687
25.1646 100.41 579.95 0.0350843 -0.874201 -0.484296
29.552 102.024 580.787 0.083788 -0.882337 -0.463099
24.6637 99.2449 582.1 0.0317799 -0.891515 -0.451874
23.9716 98.7834 584.587 0.0292624 -0.885964 -0.462831
23.3072 97.4347 587.458 0.0151764 -0.883834 -0.467554
21.2839 97.0137 588.189 -0.0182078 -0.881617 -0.471615
24.737 95.0045 590.889 0.0300933 -0.88906 -0.456801
26.3702 94.0197 592.789 0.0474549 -0.879106 -0.474258
20.2141 94.0677 593.106 -0.0095116 -0.879039 -0.476655
17.8337 93.3002 593.789 -0.0502249 -0.895599 -0.442018
15.764 93.5688 595.093 -0.0606172 -0.904007 -0.423199
17.4541 92.3453 596.558 -0.062333 -0.901175 -0.42895
78.4085 109.055 607.426 0.503308 -0.838392 -0.209237
76.0789 107.015 608.239 0.694355 -0.714862 -0.0827288
77.455 108.057 609.569 0.475994 -0.84093 -0.257424
79.6924 108.295 611.453 0.270492 -0.874203 -0.403241
76.849 107.22 612.129 0.386747 -0.859445 -0.334336
74.4372 105.007 612.949 0.632619 -0.756263 -0.166912
70.5209 99.2724 613.475 0.809085 -0.58107 0.087968
72.7682 103.143 613.944 0.655195 -0.747323 -0.110578
76.344 106.026 615.127 0.320281 -0.873284 -0.367144
72.3219 102.784 616.377 0.626695 -0.763989 -0.153542
99.5852 98.9159 630.669 0.0817625 -0.860452 -0.502929
94.8449 96.1084 632.735 -0.00496134 -0.858705 -0.512445
96.444 94.155 634.014 -0.0205829 -0.859855 -0.510123
96.2258 93.5721 636.6 -0.011368 -0.871866 -0.489613
-3.0994 77.3544 625.61 -0.0162342 -0.885081 -0.465154
95.6941 92.5232 638.635 -0.0182281 -0.880982 -0.472798
93.9607 93.6803 637.392 -0.0584065 -0.870859 -0.48805
0.455243 75.346 628.705 -0.0674214 -0.879347 -0.471384
97.341 91.2333 640.322 -0.014487 -0.877933 -0.478565
95.0007 91.2881 641.134 -0.0345817 -0.868638 -0.494239
-3.92167 74.9706 630.743 -0.00984134 -0.899908 -0.435969
93.3823 90.6972 642.394 -0.0901224 -0.87981 -0.466704
92.4312 92.1244 642.635 -0.07959 -0.881737 -0.464978
94.5969 90.1873 643.98 -0.0675301 -0.879145 -0.471745
-2.29946 73.8491 632.225 -0.0603821 -0.89062 -0.450723
7.40071 71.3416 634.867 -0.0293054 -0.872328 -0.488043
88.4408 90.2354 644.296 0.000636022 -0.894313 -0.447442
-2.89135 72.6147 635.12 -0.0482412 -0.879905 -0.472694
65.9939 88.6478 643.952 0.119819 -0.883862 -0.452141
-3.46207 71.5292 637.218 -0.0336754 -0.861379 -0.506845
-4.55223 72.7658 635.967 -0.0202486 -0.880544 -0.473531
63.753 87.7218 644.74 0.164395 -0.915725 -0.366636
65.2382 87.4258 646.818 0.0852477 -0.932637 -0.350601
-3.81559 70.5443 639.576 -0.0111207 -0.83962 -0.54306
-6.2016 69.2279 640.444 0.00290558 -0.836706 -0.547645
72.6382 85.7955 650.4 0.0653717 -0.887907 -0.455354
-8.20638 68.2423 641.411 -0.00197813 -0.844906 -0.534911
70.6437 84.9375 651.757 0.042093 -0.892546 -0.448987
-10.5224 68.443 642.145 -0.0391737 -0.867937 -0.495126
-8.97756 66.6904 643.799 -0.0523685 -0.880565 -0.471023
72.7743 84.9494 653.177 0.0640615 -0.908494 -0.412959
66.2117 84.0704 653.231 0.0341916 -0.889347 -0.455953
68.2925 83.0975 654.753 0.0679498 -0.907836 -0.413783
61.645 83.1828 654.985 0.0726022 -0.89558 -0.438936
27.7205 60.9571 654.116 0.00702831 -0.900679 -0.434428
33.6692 59.4112 656.315 0.155553 -0.869092 -0.469555
31.5898 60.0373 656.848 0.0643143 -0.887064 -0.457145
32.7303 58.3226 658.756 0.115707 -0.900607 -0.418949
33.9145 57.227 659.839 0.207889 -0.9047 -0.371887
34.9289 58.5055 660.419 0.274157 -0.901959 -0.333629
31.9838 57.5361 661.057 0.0943731 -0.918703 -0.383508
29.9558 56.6908 661.91 0.0399266 -0.906965 -0.419309
29.4961 58.0809 662.236 0.032778 -0.904366 -0.425497
31.7375 57.0416 663.864 0.159967 -0.931966 -0.325345
20.9699 60.825 667.652 -0.463265 -0.395013 0.793316
9.82675 69.8887 665.438 -0.442027 -0.62532 0.643107
22.7402 61.2462 669.374 -0.420442 -0.381996 0.822987
20.9361 62.947 668.781 -0.4636 -0.378802 0.80099
15.1235 67.6364 667.173 -0.467811 -0.579535 0.667302
19.6574 64.3991 668.966 -0.501893 -0.4541 0.736136
13.3843 69.6702 668.318 -0.448727 -0.708879 0.544183
11.5834 70.6149 667.374 -0.463898 -0.689605 0.556097
5.60738 72.7146 667.546 -0.313764 -0.841616 0.439585
16.8153 68.4965 671.514 -0.431447 -0.705347 0.56244
7.66344 73.6991 669.826 -0.309193 -0.870413 0.383119
18.9909 69.152 673.448 -0.433977 -0.672005 0.600061
-15.8505 74.9867 674.973 0.0537149 -0.944347 0.324535
-13.9319 76.163 674.197 0.0804473 -0.979549 0.184422
-12.9808 74.7357 673.955 0.0838037 -0.992235 0.0919075
-14.9715 75.953 672.263 0.0431048 -0.997163 -0.0617147
-17.3835 75.566 670.342 0.0477698 -0.974166 -0.220722
-22.5652 77.1667 668.31 -0.0106239 -0.9499 -0.312374
-20.422 76.8144 666.87 -0.0259601 -0.966731 -0.254474
12.5429 105.431 572.335 -0.0100224 -0.874163 -0.485529
1.18965 104.018 569.099 0.734455 -0.582407 0.348393
2.46362 105.695 568.347 0.625036 -0.720389 0.300615
7.41102 108.616 568.083 0.113695 -0.941973 -0.31585
5.77013 108.071 565.948 0.396981 -0.917091 -0.0367424
-0.225695 61.7522 546.926 0.857741 -0.330041 0.39415
-2.64708 54.8973 546.156 0.726491 -0.411521 0.550329
-1.17054 57.211 544.508 0.849495 -0.357767 0.387764
2.23205 65.8976 540.385 0.872425 -0.354334 0.336635
-61.8368 -15.0501 498.691 -0.566657 -0.390133 0.725738
-67.7438 -7.07531 493.167 -0.914926 -0.113622 0.387298
-68.0149 -6.65382 490.988 -0.885928 -0.0470063 0.461435
-17.9424 -21.0097 504.711 0.0554391 -0.105127 0.992912
-22.9126 -23.8354 505.15 0.0100456 -0.0543166 0.998473
-21.6703 -23.5116 503.988 0.017176 -0.0560498 0.99828
-16.1815 -25.5778 504.69 0.0907168 -0.200272 0.975531
-16.769 -27.8619 504.142 0.115862 -0.365817 0.923447
-16.9528 -30.4889 503.071 0.243804 -0.634584 0.733391
-14.0571 -29.0334 502.652 0.241682 -0.637329 0.731711
-11.6022 -28.2341 502.535 0.256387 -0.614777 0.745865
-23.166 -34.6586 501.865 0.299201 -0.711031 0.636329
-18.254 -32.1831 501.61 0.31601 -0.713554 0.625283
-12.0303 -29.9475 501.314 0.29835 -0.75459 0.584449
-7.17108 -27.6555 500.694 0.453447 -0.691895 0.561843
-19.6669 -32.7323 500.119 0.340145 -0.764176 0.548029
-21.8857 -34.4938 500.412 0.333342 -0.781162 0.527891
-7.85436 -29.3106 499.503 0.413724 -0.800725 0.433211
-30.83 -39.2184 499.458 0.355797 -0.704012 0.614634
-20.2972 -34.7952 498.441 0.354176 -0.834579 0.421945
-9.29278 -30.6299 497.264 0.396299 -0.859216 0.323565
-23.1486 -37.2885 494.7 0.408493 -0.884065 0.227074
-28.2335 -40.134 495.402 0.453165 -0.842488 0.291299
-25.8437 -39.6115 491.603 0.463847 -0.880015 0.102079
-6.98578 -16.6203 463.111 0.593128 -0.648987 -0.47646
-8.72342 -17.4261 461.03 0.601131 -0.650015 -0.464889
-10.5616 -19.5035 461.928 0.596154 -0.665661 -0.448884
-12.1402 -21.1826 461.493 0.628449 -0.662292 -0.407948
-12.3175 -23.4111 461.543 0.61748 -0.68577 -0.385277
-51.4364 -48.666 472.271 -0.924629 -0.223174 0.308632
-46.85 -61.9502 465.898 -0.0901171 -0.988928 0.117901
-44.2601 -60.7262 465.183 -0.137225 -0.971949 -0.191009
-46.3042 -60.6053 463.32 0.179768 -0.983164 0.0327331
-41.5277 -63.4788 468.196 -0.100125 -0.994968 0.00361233
-39.809 -63.4847 470.031 -0.00184872 -0.979352 0.202152
-50.3979 -57.5765 463.803 -0.833473 -0.17121 0.525366
-51.0117 -49.4437 461.235 -0.936967 -0.346799 -0.0426989
-38.2733 -61.9644 471.235 0.105036 -0.941016 0.321646
-47.3138 -56.0998 467.223 -0.812115 -0.496973 0.305756
-52.6822 -48.0435 460.577 -0.947583 -0.31546 -0.0507092
-51.8703 -47.4019 462.054 -0.943066 -0.328497 -0.0521255
-6.55377 -18.8441 465.534 0.593762 -0.667044 -0.449998
-5.81713 -21.0656 469.142 0.547562 -0.702895 -0.453999
-2.55939 -16.4359 467.032 0.552389 -0.675853 -0.487943
-51.4208 -37.486 475.617 -0.933916 -0.354745 0.0442413
-30.2828 -45.6848 485.168 0.498895 -0.337035 0.798443
-23.8188 -38.2737 483.388 0.698717 -0.651706 0.295084
-21.5621 -36.6714 482.805 0.632447 -0.771636 0.0677368
-30.1709 -42.6871 485.836 0.574023 -0.548985 0.607547
-26.5669 -39.1388 490.102 0.483228 -0.87065 0.0919685
-70.8553 16.8862 500.101 -0.956947 -0.249446 0.148422
-70.2207 15.2993 501.627 -0.954735 -0.254563 0.153877
-71.3047 21.7399 504.843 -0.96011 -0.183691 0.210823
-11.5007 32.8816 526.836 0.51121 -0.51727 0.686365
-12.5296 31.5665 531.248 0.800038 -0.599286 0.0282249
-9.313 37.1113 529.778 0.739383 -0.529424 0.41596
-8.50114 37.7529 531.255 0.782479 -0.57327 0.243081
-9.84792 35.6383 532.237 0.818211 -0.565481 0.10374
13.6237 104.483 573.914 0.012286 -0.85928 -0.511358
11.9628 104.634 574.761 -0.00721447 -0.849758 -0.527123
2.29428 104.505 574.716 0.0508691 -0.922389 -0.382897
-8.5431 96.8518 575.196 0.402425 -0.233208 0.88525
5.25599 102.533 577.331 -0.0379054 -0.829439 -0.55731
3.01749 104.032 576.217 -0.0351231 -0.846966 -0.530486
0.945388 101.876 579.423 -0.071003 -0.800663 -0.594892
-0.627146 101.23 578.423 0.0438182 -0.875239 -0.481703
-1.80141 100.484 580.974 -0.0645757 -0.807218 -0.58671
-3.25736 99.7071 581.209 -0.0243809 -0.876391 -0.480983
-4.20845 101.134 581.45 -0.0799542 -0.833089 -0.54733
-2.04276 99.1973 582.795 -0.0287873 -0.852201 -0.522421
-0.325868 98.1175 584.758 0.00962563 -0.881776 -0.47157
-2.56185 98.4008 585.458 -0.00276517 -0.872002 -0.489495
3.00237 97.1184 588.036 0.00951954 -0.903188 -0.429139
96.6957 118.132 596.81 0.375906 -0.773494 -0.510296
94.382 116.768 597.829 0.23242 -0.807376 -0.542333
-1.19429 95.9837 589.257 0.065669 -0.875535 -0.478672
97.8692 118.537 599.037 0.415251 -0.74951 -0.51556
39.4532 91.8389 597.99 0.04208 -0.871399 -0.488766
93.3557 115.333 600.203 0.153811 -0.819375 -0.552238
41.7754 90.2446 599.167 0.0523591 -0.859175 -0.508995
95.5942 113.833 601.317 0.278133 -0.773086 -0.570071
39.01 90.6092 600.614 0.00761814 -0.878194 -0.478245
91.1441 113.334 603.304 -0.016697 -0.834638 -0.550546
36.8339 89.7828 601.069 0.0147382 -0.896097 -0.443613
62.1262 87.4504 606.802 0.238452 -0.876986 -0.417177
88.8462 112.647 604.527 -0.00188099 -0.846368 -0.532596
63.7593 86.4656 608.703 0.332698 -0.874866 -0.352024
96.3319 110.341 608.299 0.293073 -0.832688 -0.469829
50.2737 86.1565 607.109 0.0252524 -0.852689 -0.521809
51.3244 85.659 608.666 0.0400105 -0.856058 -0.515329
98.4752 111.785 610.275 0.36183 -0.797174 -0.483314
49.2474 84.7207 609.483 0.0338305 -0.85519 -0.517209
96.1298 109.069 610.883 0.244192 -0.848597 -0.469311
54.9002 84.5526 612.036 0.0644253 -0.880578 -0.469502
48.7852 83.6855 611.711 0.0505228 -0.853692 -0.518322
50.3456 82.2629 613.842 0.0866555 -0.873637 -0.4788
97.8405 104.357 618.967 0.168556 -0.806933 -0.566082
61.2433 82.8525 618.77 0.648528 -0.756459 -0.0847432
99.6003 105.83 618.849 0.2263 -0.807519 -0.544703
81.7056 104.107 618.601 0.0112719 -0.874003 -0.485789
83.3958 102.883 620.066 0.0109358 -0.882718 -0.469776
86.6281 101.125 623.174 0.0194396 -0.874998 -0.483736
84.4103 100.52 624.362 0.0370372 -0.861408 -0.506562
74.448 99.8559 623.424 0.216929 -0.870283 -0.442209
76.154 99.3088 625.094 0.113377 -0.860932 -0.495926
77.7872 98.324 626.995 0.110709 -0.859351 -0.499259
63.6557 91.8068 626.422 0.801014 -0.589724 0.102965
73.3445 97.5381 628.222 0.0778613 -0.890543 -0.448185
58.4965 82.3939 628.608 0.852634 -0.505586 0.131903
49.4379 74.6315 630.528 0.257452 -0.87638 -0.407034
62.1539 91.0846 628.917 0.815287 -0.574218 0.0747126
50.4106 73.4707 632.248 0.3189 -0.874836 -0.364642
68.904 96.8597 630.243 0.222213 -0.899482 -0.376235
56.8491 80.7962 631.563 0.835621 -0.531466 0.138857
61.619 89.6116 631.375 0.81964 -0.568859 0.0677533
59.3147 85.9799 631.342 0.869756 -0.465973 0.162461
36.6027 73.4119 630.666 -0.0509281 -0.868455 -0.493146
70.5612 95.4261 632.228 0.0987077 -0.888899 -0.447342
38.3087 72.8649 632.336 -0.0437015 -0.877898 -0.476848
72.7997 93.9268 633.342 0.0206225 -0.882137 -0.470542
60.3608 88.6113 632.332 0.832827 -0.543052 0.107211
36.0043 72.2342 633.2 -0.0332803 -0.872702 -0.487117
70.2398 94.0573 634.084 0.0645903 -0.887406 -0.456441
75.7312 92.3371 636.892 0.0615962 -0.903652 -0.423815
35.5408 70.8042 635.685 -0.0228033 -0.871988 -0.488997
69.637 93.3557 636.685 0.0419305 -0.890621 -0.452809
37.3355 69.4619 637.229 -0.0151041 -0.874323 -0.485109
71.3849 91.9974 638.346 0.0350766 -0.907751 -0.418039
34.8985 69.9736 638.065 -0.00437451 -0.864969 -0.501806
69.0815 92.3403 639.464 0.0565953 -0.900124 -0.431942
32.7005 68.7907 638.885 0.00631538 -0.863821 -0.503759
56.5469 84.6193 640.906 0.786609 -0.613683 0.0681073
34.0033 68.9101 640.826 0.026988 -0.878155 -0.477613
30.3682 67.8299 639.794 0.0429021 -0.858262 -0.511415
36.058 67.4896 642.303 0.00403551 -0.876219 -0.481896
37.7703 66.1628 643.742 0.00555804 -0.881351 -0.472429
57.3017 85.4996 642.818 0.67248 -0.739892 -0.0181786
53.7394 80.8675 643.742 0.849083 -0.498769 0.174033
101.535 87.5218 649.79 -0.0824874 -0.88362 -0.46088
55.8822 82.9472 644.031 0.751191 -0.656836 0.0654137
37.4849 65.0201 646.473 0.0313742 -0.912097 -0.408772
13.3985 65.9293 644.929 -0.0408993 -0.870844 -0.489856
94.6562 85.328 654.301 -0.141704 -0.899111 -0.41415
15.199 64.5803 646.19 -0.0113419 -0.862724 -0.505549
96.2925 83.5872 655.851 -0.197423 -0.897074 -0.395325
12.6889 65.0015 647.066 -0.045243 -0.856362 -0.514391
93.9923 84.4643 656.791 -0.17267 -0.9062 -0.385987
10.2381 63.7938 648.555 -0.0694088 -0.857509 -0.509765
4.29455 64.7161 648.584 -0.0946022 -0.887026 -0.451924
100.828 82.4334 660.519 -0.298931 -0.864097 -0.404941
5.99506 63.3488 650.348 -0.100317 -0.879819 -0.464603
-6.21846 63.6338 651.081 -0.189449 -0.978917 0.0763583
-4.45581 63.416 652.961 -0.217184 -0.963758 0.154926
-3.36703 62.7595 654.228 -0.366738 -0.885707 0.284652
-4.95511 63.3484 654.846 -0.376102 -0.84829 0.372762
-3.12172 64.5649 655.567 -0.372445 -0.71196 0.595313
0.79085 63.7115 658.076 -0.469129 -0.616511 0.632323
-1.01819 65.5102 657.16 -0.475868 -0.532085 0.700311
-8.87101 71.9601 654.781 -0.470784 -0.422459 0.774526
2.87926 61.9196 658.948 -0.492013 -0.688154 0.533261
-4.60831 68.7534 656.98 -0.470432 -0.443239 0.763042
19.4453 56.6505 662.853 -0.163052 -0.986408 -0.02034
0.564596 66.283 658.551 -0.487121 -0.442119 0.753156
3.00594 67.3311 660.591 -0.467772 -0.393445 0.791448
-5.33875 73.3331 658.507 -0.514698 -0.633352 0.577885
-16.6175 77.4113 657.422 -0.255204 -0.937844 0.235201
-15.0603 77.9513 659.871 -0.159316 -0.982537 0.0961261
-17.0537 76.918 660.75 -0.144095 -0.989227 0.0258042
-11.4845 76.8448 663.24 -0.16547 -0.983829 0.0685635
-14.1123 77.7467 664.124 -0.0919014 -0.995326 -0.0296654
-15.808 77.301 664.912 -0.069275 -0.992618 -0.0995524
-21.8456 77.8509 665.351 -0.0603209 -0.977377 -0.202719
-20.1827 74.445 675.468 0.0358096 -0.940109 0.338987
-13.4983 75.5561 675.351 0.059632 -0.906214 0.418594
-15.5699 76.287 673.914 0.0242815 -0.974217 0.224303
-13.0598 75.7787 672.656 0.0279883 -0.99944 -0.0183397
-18.735 75.6423 669.952 0.0346541 -0.972333 -0.231014
-20.3992 76.9056 668.353 -0.016318 -0.957362 -0.288429
-22.0409 76.8588 666.443 -0.0431411 -0.962906 -0.266366
1.22132 105.371 569.51 0.642818 -0.687296 0.338244
8.27792 107.079 570.645 -0.00174505 -0.908283 -0.418352
14.3826 105.183 572.769 0.0189035 -0.870209 -0.49232
1.15798 102.665 568.689 0.728007 -0.476619 0.492788
5.32991 108.746 567.816 0.314888 -0.94511 -0.0872558
2.56173 104.541 567.271 0.710663 -0.613168 0.344938
-0.428212 65.5717 549.78 0.806857 -0.337154 0.485087
0.021167 60.718 545.038 0.886032 -0.316151 0.33911
-0.99963 56.495 543.201 0.874861 -0.350035 0.334803
-2.30527 53.4654 543.542 0.829648 -0.371953 0.416335
-68.17 -5.2614 492.5 -0.917601 -0.0849615 0.388316
-68.2492 -8.64363 491.474 -0.876264 -0.0524191 0.478972
-16.0151 -21.2544 504.638 0.0594938 -0.0940402 0.993789
-20.1962 -23.6231 504.242 0.046128 -0.0812401 0.995627
-18.5559 -25.3116 504.807 0.0892922 -0.150305 0.984599
-18.5488 -28.01 504.565 0.149106 -0.310026 0.938963
-15.8371 -26.6637 504.182 0.111006 -0.34082 0.933552
-18.4512 -30.5232 502.894 0.255733 -0.587293 0.767911
-12.7306 -29.0353 502.827 0.263954 -0.596085 0.758295
-7.64464 -26.6823 502.394 0.372949 -0.573531 0.729364
-16.4983 -31.3825 501.516 0.314322 -0.71912 0.619732
-13.9291 -30.3949 501.311 0.283836 -0.75978 0.584954
-31.4396 -38.2818 501.046 0.311476 -0.635144 0.706806
-20.2473 -34.1558 500.331 0.342952 -0.784909 0.516045
-9.85793 -29.9861 499.515 0.367967 -0.820892 0.436733
-19.3251 -34.1643 497.505 0.374994 -0.842351 0.38707
-7.8437 -30.366 497.5 0.447348 -0.837141 0.314761
-22.1877 -35.3263 498.423 0.369308 -0.818813 0.439496
-23.4334 -36.0952 496.878 0.385239 -0.848651 0.362467
-28.4776 -39.2767 497.196 0.41052 -0.823445 0.391677
-25.6097 -39.0654 493.439 0.443917 -0.877465 0.181638
-7.27699 -18.3714 464.033 0.596735 -0.651942 -0.467845
-12.5559 -22.9074 463.149 0.61748 -0.68577 -0.385277
-11.9851 -22.575 459.981 0.625998 -0.66944 -0.399969
-52.5335 -50.9801 470.239 -0.907958 -0.400369 0.123763
-44.9381 -61.7406 466.142 -0.255676 -0.963883 0.0745642
-47.24 -61.856 464.265 0.0939077 -0.995564 -0.00588264
-44.3281 -60.3032 463.795 -0.000676673 -0.981165 -0.193171
-37.785 -58.1894 461.197 0.187485 -0.91536 -0.356323
-42.8453 -63.0244 467.775 -0.169689 -0.985492 -0.00325018
-38.1366 -62.5372 470.19 0.111489 -0.97179 0.207831
-48.8012 -58.7802 465.819 -0.733149 -0.281304 0.619161
-40.4161 -64.0441 470.947 -0.0609407 -0.960151 0.272758
-40.0463 -62.2651 471.551 -0.0595151 -0.920749 0.38559
-47.2589 -57.32 466.368 -0.779895 -0.550954 0.29701
-51.6994 -48.1179 460.747 -0.945016 -0.323507 -0.0478233
-51.0627 -48.7233 462.692 -0.932593 -0.358956 -0.0376891
-52.8531 -47.3275 461.884 -0.947991 -0.313417 -0.0555254
-4.89472 -18.0661 466.09 0.561815 -0.678237 -0.473666
-3.83337 -18.1126 467.784 0.549458 -0.685663 -0.477453
-1.69057 -16.0329 468.073 0.554908 -0.678157 -0.48185
-1.04016 -16.9434 469.804 0.560932 -0.690588 -0.456556
-21.7733 -36.6934 481.068 0.690797 -0.713203 0.118919
-23.4625 -38.9689 481.998 0.756534 -0.536762 0.373554
-23.0441 -36.898 482.449 0.633048 -0.765101 0.117774
-30.663 -44.7313 486.318 0.489131 -0.494418 0.718542
-22.3209 -37.3707 483.95 0.605484 -0.780268 0.15675
-70.3726 15.9357 502.789 -0.956282 -0.246644 0.157136
-71.0642 17.7613 501.699 -0.955252 -0.249033 0.15961
-11.7021 33.852 528.038 0.614808 -0.643345 0.456199
-10.6028 34.7581 530.325 0.73089 -0.642595 0.229937
-11.747 33.2805 530.411 0.785507 -0.600104 0.151175
-9.68648 37.1904 531.982 0.82301 -0.557466 0.109023
-12.4117 31.6084 533.535 0.815817 -0.578084 -0.0161793
2.47891 64.8634 538.497 0.861258 -0.360312 0.358342
11.6582 104.632 573.575 -0.00488091 -0.861723 -0.507356
13.7403 104.352 575.149 0.00863388 -0.850146 -0.526477
-6.95502 96.2629 574.578 0.477271 -0.193357 0.85722
-9.4378 94.6861 575.5 0.36403 -0.231671 0.902114
3.32687 102.901 576.877 -0.0352195 -0.812525 -0.581861
-9.7126 96.9657 576.128 0.37143 -0.358811 0.856326
0.710508 101.794 578.289 -0.0436413 -0.818045 -0.573496
-1.07594 102.088 579.042 -0.0127249 -0.832001 -0.554628
0.327909 100.322 581.341 -0.0433024 -0.849659 -0.525551
-9.52259 105.083 578.592 -0.0058963 -0.855552 -0.517682
-5.60979 101.684 580.966 -0.111977 -0.80838 -0.577913
-0.0772397 99.0485 583.133 -0.00243617 -0.871011 -0.491257
-2.37511 98.3612 584.357 -0.00479996 -0.869499 -0.493912
-0.432527 98.2396 585.825 0.0206986 -0.885029 -0.465076
1.03685 97.2671 587.698 0.0370325 -0.898677 -0.437045
94.803 118.719 596.242 0.242708 -0.81613 -0.524427
-3.15981 96.1325 588.918 0.0491724 -0.873693 -0.483986
96.2906 116.858 598.603 0.304766 -0.800258 -0.516435
41.363 91.7535 598.287 0.0524708 -0.864908 -0.499181
99.8663 119.741 599.786 0.435826 -0.737485 -0.515918
95.3212 115.184 600.541 0.238905 -0.798458 -0.552621
93.5363 114.186 601.182 0.148224 -0.801122 -0.579856
40.968 90.6072 600.47 0.0343779 -0.860301 -0.508627
39.8416 91.7463 599.24 0.031053 -0.870186 -0.491744
34.6797 89.7115 600.253 0.0401252 -0.901311 -0.43131
99.2017 118.069 602.911 0.364073 -0.758134 -0.541003
89.3181 113.325 603.07 -0.00164776 -0.839016 -0.544104
90.8038 112.16 604.763 -0.0123356 -0.842878 -0.537963
64.1645 87.7395 606.91 0.316913 -0.874113 -0.368093
61.6437 86.3218 608.123 0.246693 -0.876845 -0.412655
84.1326 111.231 604.687 0.171488 -0.872662 -0.457223
64.1368 86.9057 609.659 0.375728 -0.871531 -0.31506
51.9116 86.0325 607.391 0.0317535 -0.861189 -0.507291
97.6633 111.144 608.799 0.314647 -0.826983 -0.465936
49.5227 85.7954 608.356 0.0233759 -0.847681 -0.529992
96.421 110.82 609.962 0.297147 -0.836296 -0.460774
95.4066 109.541 609.382 0.214677 -0.861956 -0.459288
51.2857 85.0097 609.591 0.0474553 -0.856271 -0.514342
97.6198 109.634 611.342 0.28978 -0.820125 -0.493378
52.7709 84.7137 611.669 0.0648153 -0.867283 -0.493577
50.5141 83.1114 612.251 0.0607714 -0.870015 -0.489265
48.4929 82.4918 613.474 0.0570842 -0.868119 -0.493063
98.3857 106.34 617.264 0.206324 -0.800183 -0.563149
60.25 82.476 618.463 0.570842 -0.804326 -0.164919
83.5073 103.97 618.911 0.0136636 -0.87587 -0.482354
81.3579 103.079 619.578 0.019743 -0.874949 -0.483812
84.8264 101.261 622.863 0.0285995 -0.876458 -0.480627
86.5433 100.182 624.827 0.0157344 -0.864416 -0.502532
72.4825 100.005 623.085 0.302129 -0.870935 -0.387543
62.8692 89.5736 624.099 0.865507 -0.460788 0.196399
78.2761 99.5029 625.265 0.116388 -0.860082 -0.496703
75.8501 98.3534 626.439 0.104521 -0.870885 -0.480243
63.9311 92.8815 625.295 0.803726 -0.588189 0.0897669
71.6043 97.7589 628.464 0.125133 -0.896998 -0.423954
58.18 82.2343 630.376 0.861444 -0.485098 0.150312
51.0759 74.5075 630.81 0.333763 -0.877181 -0.34519
73.1186 96.5116 629.673 0.0506343 -0.883157 -0.466337
60.0815 87.0174 630.3 0.872859 -0.464702 0.148892
48.6712 73.594 631.57 0.223013 -0.881965 -0.415214
67.1264 96.5473 630.017 0.409612 -0.865103 -0.289508
61.8944 90.6863 630.248 0.797018 -0.602861 0.0363521
38.5967 73.1438 630.786 -0.0600396 -0.872747 -0.484467
72.3872 95.4357 632.462 0.0349294 -0.877614 -0.478094
59.0552 85.5816 632.674 0.870052 -0.468115 0.154524
36.3431 73.0136 631.998 -0.0440411 -0.869177 -0.492536
71.9796 93.7482 634.481 0.0184357 -0.88807 -0.459338
37.9763 72.0288 633.898 -0.0237087 -0.881594 -0.471413
39.7343 70.0339 635.221 -0.0151709 -0.871074 -0.490918
73.5983 92.6758 636.427 0.0381163 -0.900257 -0.433687
37.007 70.3544 635.837 -0.0201675 -0.868023 -0.496114
71.0383 92.8063 637.169 0.0347006 -0.901264 -0.431878
69.1481 92.1769 638.414 0.0489087 -0.903124 -0.426585
35.6191 69.1549 637.46 -0.00381715 -0.870911 -0.491426
70.8953 92.2769 639.736 0.0411791 -0.910755 -0.410889
36.4879 69.5578 638.5 0.00108349 -0.873123 -0.487498
30.8797 68.845 638.846 0.0413187 -0.853714 -0.5191
34.2193 67.7982 642.037 0.0365052 -0.874149 -0.484284
99.8169 87.6315 648.587 -0.0841348 -0.888177 -0.451734
56.3032 84.8975 642.444 0.744631 -0.666199 0.041262
39.919 65.7107 644.213 0.0597576 -0.896008 -0.439998
53.464 79.7928 644.869 0.855499 -0.47872 0.197356
37.4425 66.484 644.9 0.00625068 -0.896635 -0.442725
39.4234 64.5659 646.439 0.0641934 -0.917473 -0.392585
15.1949 65.5674 645.171 -0.0198797 -0.86431 -0.502566
96.4041 84.6743 654.696 -0.195299 -0.890639 -0.410634
12.7955 64.8794 645.999 -0.042875 -0.865983 -0.498231
94.3587 85.0888 655.923 -0.171879 -0.903768 -0.391997
14.7381 64.7577 647.467 -0.00868866 -0.858157 -0.513315
95.8124 83.7094 657.379 -0.193889 -0.908582 -0.369982
8.4364 63.9302 648.244 -0.0540114 -0.864355 -0.499974
6.4331 64.5569 649.074 -0.0716954 -0.87282 -0.482748
100.561 80.8282 661.363 -0.296364 -0.871015 -0.391793
4.00527 63.3517 650.086 -0.0972316 -0.881035 -0.462951
-8.00744 63.9466 650.676 -0.285005 -0.935424 0.209173
0.131999 64.6858 652.483 -0.250663 -0.960164 -0.123505
-2.54861 63.7632 653.294 -0.245919 -0.964634 0.0948959
-4.967 62.7244 653.656 -0.31053 -0.91456 0.259136
-3.15339 63.212 655.156 -0.376429 -0.827931 0.41573
-4.88704 64.9202 655.141 -0.390411 -0.733167 0.556818
-0.760566 63.9683 657.35 -0.509193 -0.591855 0.624844
-5.35149 67.4443 655.993 -0.465321 -0.432766 0.772134
4.51719 61.7956 659.231 -0.431751 -0.749168 0.502334
0.253863 65.2468 657.93 -0.485395 -0.530027 0.695315
-3.00061 68.0738 657.391 -0.442854 -0.455068 0.772524
17.4798 56.7993 662.515 -0.172496 -0.982235 0.0738937
-1.18861 66.7112 658.087 -0.463882 -0.459295 0.757537
-5.28815 70.15 656.815 -0.489094 -0.45321 0.745243
-6.73062 71.6145 656.972 -0.528999 -0.495965 0.688606
4.67109 67.0379 661.429 -0.458537 -0.414778 0.785941
-14.8134 76.9171 657.983 -0.22982 -0.930923 0.28384
-16.862 78.0877 659.561 -0.164004 -0.984809 0.0570355
-15.2556 76.9592 660.963 -0.134727 -0.989686 0.0486833
-13.7335 76.9682 662.764 -0.124623 -0.991708 0.031373
-17.6098 77.4374 664.601 -0.0829842 -0.987938 -0.13074
-19.9828 77.8767 665.772 -0.0609236 -0.981868 -0.17951
-19.4645 74.8086 674.215 0.0359194 -0.98769 0.152245
-17.5291 74.9238 672.875 0.0484103 -0.998697 0.0161639
-19.2245 75.9217 671.341 0.0497834 -0.985517 -0.162104
-26.2957 77.3519 667.338 0.0115864 -0.946194 -0.323392
-24.391 77.271 666.484 -0.00945715 -0.957726 -0.287527
8.48996 105.798 571.805 -0.0265321 -0.884902 -0.465021
15.1572 106.558 571.83 0.0225058 -0.89403 -0.447441
3.85153 106.895 566.724 0.612055 -0.739313 0.280724
-0.592749 69.2321 552.344 0.777282 -0.379088 0.50212
-0.526315 66.7254 550.857 0.786197 -0.344283 0.51319
-3.49292 57.1622 549.108 0.634454 -0.432635 0.640543
-1.62628 59.1203 547.993 0.742923 -0.406625 0.531716
1.64969 66.8517 544.186 0.891174 -0.312365 0.328993
0.327126 60.4266 543.133 0.901625 -0.313297 0.298189
-0.797056 57.132 542.304 0.897871 -0.330023 0.291397
-68.8394 0.185031 492.872 -0.948977 -0.130923 0.286883
-68.9027 -2.52075 492.051 -0.925009 -0.0924752 0.36852
-20.5925 -19.5273 505.389 0.0345622 -0.174082 0.984124
-21.607 -20.8058 504.809 0.0020528 -0.147337 0.989084
-20.6559 -22.2331 504.568 0.0327356 -0.0891729 0.995478
-18.2488 -22.8839 504.091 0.0556675 -0.0808123 0.995174
-20.4874 -25.3743 505.163 0.0672303 -0.0906405 0.993612
-22.8315 -26.8783 504.819 0.0573105 -0.144341 0.987867
-20.0593 -28.1173 504.426 0.154439 -0.301689 0.940815
-22.8777 -32.2077 503.238 0.184029 -0.57021 0.800621
-20.2295 -31.0493 503.141 0.223937 -0.554745 0.801318
-8.47035 -27.7408 502.292 0.356897 -0.641417 0.679124
-20.4748 -32.8547 501.802 0.309716 -0.710751 0.631593
-10.0345 -28.9165 501.01 0.347283 -0.751282 0.561222
-16.0437 -32.2762 499.961 0.344774 -0.79961 0.491685
-13.5246 -31.178 499.743 0.31329 -0.813459 0.490034
-11.1085 -30.3024 498.76 0.338206 -0.842494 0.419309
-22.8242 -36.0905 499.251 0.372309 -0.806377 0.459503
-12.1229 -31.5809 498.18 0.360749 -0.851807 0.379848
-17.8404 -33.8249 497.896 0.371922 -0.830462 0.414738
-6.93254 -29.6655 496.948 0.488175 -0.824886 0.28504
-26.7046 -38.9761 496.881 0.429891 -0.840488 0.32981
-24.0775 -37.308 496.54 0.37967 -0.866857 0.323126
-25.9545 -38.7188 495.002 0.406644 -0.874883 0.263098
-29.8547 -41.043 493.584 0.479611 -0.852675 0.207169
-27.4516 -39.7515 493 0.465689 -0.867863 0.173052
-24.8672 -38.1739 492.474 0.429684 -0.891673 0.142446
-52.3626 -51.6961 468.932 -0.887563 -0.45836 0.0462405
-51.3814 -49.8644 464.04 -0.921983 -0.385251 -0.0391141
-51.0375 -61.9864 464.987 -0.450795 -0.73642 0.504449
-49.0799 -62.6134 463.98 -0.0294727 -0.986071 0.163693
-44.0868 -59.0169 461.974 0.140507 -0.970787 -0.194502
-39.9144 -58.0282 460.831 0.170847 -0.926954 -0.334017
-43.4207 -62.231 469.101 -0.377504 -0.88946 0.257588
-47.0018 -59.347 466.939 -0.595941 -0.572626 0.562986
-48.5305 -56.5715 465.218 -0.852148 -0.399238 0.33831
-49.6565 -54.9474 463.607 -0.94524 -0.312899 -0.0928138
-51.3308 -53.0475 462.348 -0.961378 -0.271148 0.0472355
-41.9956 -62.019 471.161 -0.322005 -0.855208 0.406118
-45.2207 -61.0207 468.662 -0.525091 -0.777347 0.346426
-45.7555 -58.5039 468.935 -0.691941 -0.669989 0.268946
-48.6351 -54.1607 466.294 -0.909669 -0.408729 0.0737799
-8.23289 -21.7947 468.078 0.58163 -0.691194 -0.428902
-5.97616 -20.1923 467.495 0.56061 -0.6857 -0.464255
-3.67433 -18.9859 469.431 0.550423 -0.689629 -0.470581
-2.3711 -18.3815 470.992 0.561824 -0.694831 -0.448958
-3.57227 -19.6205 471.513 0.558043 -0.699573 -0.446302
-20.9628 -35.5839 480.394 0.656173 -0.754504 -0.0126801
-31.4618 -43.3029 487.152 0.538267 -0.668012 0.513837
-22.1747 -37.2575 485.514 0.51971 -0.849496 0.0908686
-30.5613 -41.5471 488.603 0.569799 -0.750103 0.33567
-33.1456 -43.1246 489.13 0.470944 -0.790371 0.391823
-28.8236 -40.7412 490.685 0.509293 -0.849261 0.139195
-23.53 -38.2477 490.585 0.427194 -0.900782 0.0780797
-70.5467 17.4077 504.447 -0.955886 -0.238741 0.171126
-71.1655 19.671 503.126 -0.959093 -0.218894 0.179515
-7.81069 32.7417 527.013 0.389551 -0.495533 0.776336
-13.7765 31.4859 527.227 0.637791 -0.558489 0.530389
-7.66085 35.5802 527.39 0.444537 -0.452869 0.772849
-12.6158 32.8775 529.37 0.773754 -0.58974 0.231324
-14.0354 30.3252 530.583 0.79677 -0.602896 0.0409199
-11.0238 32.8078 531.912 0.817091 -0.574183 0.0517406
-11.3973 32.8869 534.115 0.817725 -0.575511 0.01059
10.1841 104.744 573.321 -0.0301831 -0.858972 -0.511133
8.0318 104.932 574.084 -0.0713484 -0.856498 -0.511195
5.58833 103.369 575.769 -0.0623699 -0.831181 -0.552492
-0.285798 104.89 576.08 0.009038 -0.908039 -0.418788
1.39775 103.268 576.424 0.0511757 -0.884778 -0.463194
2.95812 101.846 578.555 -0.0123758 -0.81907 -0.573561
4.8097 102.174 579.765 -0.0127655 -0.830291 -0.557184
2.4232 100.373 581.013 -0.00445342 -0.850957 -0.525216
-7.821 101.851 580.585 -0.139656 -0.829787 -0.540324
-9.24961 103.732 579.368 -0.0576231 -0.85514 -0.515185
2.05208 98.8873 583.5 0.0240918 -0.88299 -0.468773
3.52146 97.9149 585.372 0.00297676 -0.893731 -0.448594
1.36919 98.1032 586.136 0.0266402 -0.898615 -0.437929
-0.646579 97.6162 587.286 0.0368499 -0.898073 -0.4383
-3.1126 96.2513 587.712 0.0522605 -0.880749 -0.470691
2.59722 95.8445 589.829 0.0249134 -0.879672 -0.474928
35.8214 91.5649 596.9 0.0343493 -0.881326 -0.471258
95.5808 115.582 599.209 0.255786 -0.791985 -0.554377
97.3754 116.149 600.855 0.315945 -0.769044 -0.555653
37.353 90.5793 598.406 0.0313855 -0.871388 -0.489589
35.5624 90.5313 599.919 0.0379558 -0.888023 -0.458231
84.9429 113.778 601.102 0.310696 -0.870255 -0.382263
87.3259 113.712 602.597 0.0830757 -0.850994 -0.518563
40.765 89.4853 601.747 -0.00988916 -0.869398 -0.494013
58.1951 87.748 606.125 0.0632199 -0.868907 -0.490922
84.8424 112.507 604.08 0.167216 -0.863461 -0.475892
59.8129 86.5718 607.44 0.0835165 -0.883723 -0.460498
90.5205 110.747 605.787 -0.0135317 -0.848871 -0.528427
98.4459 112.858 607.962 0.391814 -0.782608 -0.483742
92.2265 110.2 607.457 0.0702211 -0.863967 -0.498629
53.7133 85.8961 607.701 0.0277377 -0.870784 -0.490884
93.9953 109.2 609.155 0.181476 -0.870334 -0.457805
55.5831 85.3367 609.4 0.0548729 -0.871416 -0.487466
53.415 84.8485 609.958 0.0589319 -0.867905 -0.493223
91.216 109.441 610.037 0.0276654 -0.867027 -0.497492
50.9692 84.8501 611.359 0.0507362 -0.864227 -0.500537
97.8675 109.875 612.964 0.256266 -0.837151 -0.483224
52.6435 82.9502 612.618 0.0799124 -0.882555 -0.46337
54.0886 81.8318 614.568 0.0850616 -0.882798 -0.461988
98.4451 108.526 614.926 0.279571 -0.805672 -0.522238
52.1244 82.1536 615.282 0.0859362 -0.87956 -0.467962
85.6367 103.809 619.278 0.0266022 -0.887466 -0.460105
87.2545 102.633 620.593 0.0182268 -0.886651 -0.46208
85.1176 103.013 621.942 0.026699 -0.883319 -0.468011
82.8184 102.152 622.113 0.0348666 -0.875812 -0.481391
80.7026 100.565 623.853 0.0831401 -0.853535 -0.514359
72.223 99.6064 624.417 0.262415 -0.890342 -0.372062
62.6666 88.9367 624.996 0.86993 -0.455477 0.189109
73.8941 98.4624 626.028 0.11181 -0.878316 -0.464822
77.382 97.0501 628.787 0.0980231 -0.865686 -0.490897
64.9859 94.898 628.919 0.658146 -0.746701 -0.0963424
60.8166 86.7021 628.847 0.871624 -0.456514 0.178512
74.9203 96.3753 629.983 0.0712699 -0.875488 -0.477955
46.526 73.0787 630.998 0.094622 -0.87339 -0.477741
40.6975 73.1019 631.371 -0.0266204 -0.883585 -0.467513
74.4559 94.9096 633.021 0.0582076 -0.871509 -0.486913
42.2397 72.5673 633.013 -0.00585966 -0.886687 -0.462333
58.9096 84.7061 633.134 0.871568 -0.463758 0.159055
74.0143 93.4169 634.928 0.0434581 -0.89438 -0.445192
39.8023 72.0384 634.132 -0.0200741 -0.884352 -0.466388
57.5217 83.5066 634.757 0.872544 -0.459499 0.165913
71.8002 92.6347 636.215 0.0303118 -0.891256 -0.452486
37.6123 69.8399 635.05 -0.0200514 -0.867603 -0.496853
56.2883 82.0168 637.325 0.869586 -0.464077 0.168682
74.9816 91.7027 639.109 0.0536275 -0.914519 -0.400972
40.9242 69.6399 637.888 0.0433317 -0.888585 -0.456661
53.1596 76.7778 639.403 0.8572 -0.495396 0.140679
39.4362 69.3347 639.008 0.0194286 -0.885476 -0.464278
55.428 81.5501 640.146 0.85432 -0.494771 0.159181
28.7695 69.0883 638.207 0.038494 -0.84976 -0.525762
55.0576 80.8732 641.999 0.856101 -0.48987 0.164676
26.7647 68.1027 639.174 0.0143429 -0.854241 -0.519679
39.9635 67.3507 642.459 0.0385207 -0.886933 -0.460289
33.6254 66.3043 643.352 0.0353431 -0.883125 -0.467805
98.8351 86.2485 650.135 -0.118712 -0.887378 -0.445498
35.8064 66.5192 644.667 0.0228796 -0.886822 -0.461545
98.5843 84.9385 652.197 -0.169883 -0.875894 -0.451607
33.4357 65.3941 646.121 0.0395775 -0.895272 -0.443759
97.1392 84.3589 653.243 -0.190027 -0.88084 -0.433602
9.37598 66.192 644.374 -0.0507775 -0.87696 -0.477874
90.5233 85.7971 653.886 -0.0412665 -0.915371 -0.400492
10.9938 65.0158 645.689 -0.0536272 -0.868077 -0.493525
92.2293 85.25 655.556 -0.0758698 -0.916286 -0.393272
8.58347 65.1006 646.639 -0.0467412 -0.862056 -0.504654
89.9368 84.3578 656.237 -0.0080187 -0.915353 -0.402573
14.242 63.9341 649.001 -0.00167997 -0.858125 -0.513438
12.6404 62.2821 649.697 -0.0521717 -0.869935 -0.490399
0.363507 65.0136 647.907 -0.0360133 -0.91442 -0.403162
97.2009 82.6295 660.396 -0.248193 -0.88123 -0.402285
98.9541 81.0663 661.515 -0.279514 -0.869137 -0.408011
2.22273 63.6106 649.472 -0.102588 -0.896274 -0.431472
-0.260677 64.1755 650.846 -0.137195 -0.954817 -0.263632
96.7965 81.4595 662.821 -0.231151 -0.88327 -0.407926
-2.19277 63.5064 651.677 -0.135836 -0.978244 -0.156801
-8.42438 64.3346 652.212 -0.378918 -0.8675 0.322279
-6.27734 62.8236 653.43 -0.26262 -0.930588 0.255022
-6.63496 65.0816 654.136 -0.42069 -0.723568 0.547239
-6.78463 68.1683 655.18 -0.469616 -0.429816 0.771181
-8.99131 69.493 654.395 -0.470673 -0.419516 0.776191
-6.88612 70.1411 655.75 -0.485486 -0.402187 0.77624
15.735 56.697 661.769 -0.245046 -0.969127 0.0273058
3.89369 63.1981 659.528 -0.445478 -0.588782 0.674451
-2.59941 69.5286 658.654 -0.449013 -0.50483 0.737247
-4.79976 71.1239 657.952 -0.506863 -0.522615 0.685538
-6.45326 72.9488 657.425 -0.530403 -0.552861 0.642664
4.52121 66.3044 660.204 -0.450207 -0.406246 0.795159
-8.60289 74.748 657.994 -0.436226 -0.759325 0.482839
-3.22954 72.1197 659.907 -0.477926 -0.630583 0.611517
-12.5994 77.1144 658.438 -0.217312 -0.941057 0.259205
-10.9654 77.6413 660.576 -0.207693 -0.960557 0.184918
-13.2063 76.7154 661.364 -0.162071 -0.983431 0.0812175
-15.4156 77.1424 662.563 -0.102716 -0.99459 -0.0155134
-13.4508 76.1852 663.536 -0.0975666 -0.995194 -0.00835377
-17.3882 77.9947 663.56 -0.102272 -0.992531 -0.0665081
-11.7294 76.8937 665.668 -0.116358 -0.99319 -0.00587457
-25.8741 78.5485 664.825 -0.020829 -0.961938 -0.272473
-17.6523 75.1231 674.662 0.0471168 -0.960884 0.272915
-19.2155 74.7559 672.746 0.0362101 -0.999339 -0.00311393
-17.1142 75.8401 671.853 0.0628458 -0.987912 -0.141705
-24.5271 77.3773 667.883 -0.000784531 -0.947425 -0.319976
-26.1927 77.4074 666.173 0.00114509 -0.949704 -0.313146
10.5164 105.58 571.759 -0.0398423 -0.874485 -0.483413
3.28552 107.423 568.274 0.489706 -0.862181 0.129742
6.39311 107.304 563.963 0.625851 -0.768273 0.134412
-0.624418 67.8792 551.933 0.777938 -0.36298 0.512892
-2.81799 55.6133 547.463 0.710052 -0.410561 0.572071
-1.4174 58.2452 546.396 0.772656 -0.400578 0.492484
1.95036 66.3349 542.213 0.890554 -0.323551 0.319731
-69.2326 -0.931534 491.711 -0.933961 -0.0829664 0.34761
-22.279 -19.6951 505.26 -0.00291199 -0.168962 0.985618
-22.2313 -22.4399 504.762 -0.00236818 -0.0791196 0.996862
-20.0315 -20.5989 504.615 0.0328925 -0.139776 0.989637
-21.9615 -25.2627 504.909 0.0282185 -0.0779376 0.996559
-16.1086 -23.5779 504.751 0.0615399 -0.107093 0.992343
-20.5191 -26.7272 504.752 0.107666 -0.197849 0.974302
-20.8095 -32.1264 503.081 0.250569 -0.599276 0.760318
-10.2433 -28.0414 502.607 0.293077 -0.631958 0.71745
-22.6144 -33.4622 502.142 0.275174 -0.695532 0.663713
-19.8378 -32.0164 501.426 0.291047 -0.689036 0.663717
-8.29945 -28.4567 500.985 0.389814 -0.7251 0.567692
-23.014 -35.295 500.703 0.332598 -0.773971 0.538839
-17.991 -33.0154 500.111 0.359222 -0.781919 0.509472
-11.9349 -30.7515 499.816 0.343788 -0.825243 0.448088
-6.94321 -28.6102 498.951 0.488727 -0.781633 0.38755
-16.103 -33.2403 498.109 0.362016 -0.836689 0.410968
-13.4382 -32.2863 497.629 0.358187 -0.857414 0.369516
-11.2965 -31.1318 497.124 0.365394 -0.864415 0.34536
-26.1246 -37.899 496.941 0.391644 -0.85554 0.338625
-26.5907 -39.4534 496.01 0.430005 -0.851934 0.298837
-24.277 -38.0897 494.991 0.420372 -0.869261 0.260138
-28.3389 -40.7102 493.792 0.480532 -0.855732 0.191865
-23.3583 -37.6885 492.788 0.411577 -0.897036 0.16103
-5.73866 -11.4459 458.144 0.584695 -0.64589 -0.490875
-50.6112 -51.662 466.656 -0.910455 -0.413273 -0.0166385
-49.1269 -61.6793 465.452 -0.393836 -0.757226 0.521059
-47.9632 -61.3833 462.764 0.148629 -0.980651 0.127408
-46.1979 -59.7437 462.096 0.16188 -0.986728 0.0127603
-43.4498 -58.1785 461.598 0.1319 -0.968447 -0.211456
-50.9998 -62.7509 463.546 -0.0471277 -0.963891 0.262092
-41.7319 -58.5683 460.315 0.259439 -0.923855 -0.281397
-39.5694 -63.2724 468.339 0.047735 -0.998784 -0.012298
-50.9257 -59.753 464.926 -0.714223 -0.320879 0.622031
-41.8515 -63.2832 469.768 -0.254827 -0.936382 0.241355
-46.8736 -60.7647 467.541 -0.513628 -0.670894 0.534872
-48.5191 -55.3121 464.721 -0.904601 -0.423705 -0.0465881
-45.0877 -59.5343 469.669 -0.593509 -0.733009 0.332333
-46.786 -57.913 468.285 -0.75005 -0.610816 0.253629
-7.32053 -19.8816 466.576 0.595807 -0.681526 -0.424896
-2.2279 -19.9312 472.433 0.56909 -0.705025 -0.423175
-63.6915 -14.3668 462.496 -0.742608 -0.548515 -0.384271
-33.2509 -43.7008 487.519 0.44053 -0.679773 0.586381
-30.6452 -41.8004 487.01 0.572498 -0.705499 0.417753
-31.0826 -42.6403 489.462 0.516404 -0.7899 0.330735
-22.6188 -37.5473 490.033 0.415 -0.908386 0.0510958
-24.8028 -38.7119 490.386 0.431073 -0.899373 0.072833
-27.5714 -39.8195 491.204 0.487759 -0.865694 0.112544
-29.6792 -41.3654 491.833 0.495117 -0.856884 0.143558
-70.6828 18.7206 505.814 -0.958705 -0.206338 0.195728
-71.3364 20.387 504.433 -0.958442 -0.201811 0.201647
-15.4587 28.6975 526.315 0.624551 -0.534096 0.569805
-9.49188 32.7993 526.953 0.400561 -0.513947 0.758558
-12.274 31.4456 526.756 0.513925 -0.492452 0.702404
-7.03734 34.1777 527.092 0.425251 -0.464705 0.776666
-9.83803 35.536 527.703 0.464057 -0.530713 0.709221
-14.6447 30.3205 528.21 0.744186 -0.583953 0.324325
-13.6303 31.599 528.79 0.734676 -0.62755 0.257744
-10.9921 34.1607 532.323 0.806338 -0.591046 0.0220014
9.96092 104.564 574.538 -0.0427111 -0.853449 -0.519424
3.88368 104.089 575.151 0.0139333 -0.866422 -0.499118
1.61616 104.582 575.733 0.0109342 -0.891351 -0.453182
4.92364 101.697 578.893 -0.0127654 -0.830291 -0.557184
-0.754512 103.457 577.187 0.0149354 -0.834296 -0.551114
2.84418 102.323 579.426 -0.0114042 -0.819661 -0.572735
4.38872 100.224 581.352 0.000850369 -0.859544 -0.511061
-7.84828 103.183 579.852 -0.0622545 -0.834447 -0.547561
3.8538 98.751 583.81 0.00408088 -0.883008 -0.469341
-9.59779 102.22 580.725 -0.076548 -0.856535 -0.510381
1.47222 98.1587 584.971 0.016313 -0.889035 -0.457549
3.33472 97.9544 586.474 0.00664621 -0.902901 -0.429798
-2.70612 97.6982 586.972 0.0291285 -0.880013 -0.474056
-1.63846 96.1397 587.966 0.0647646 -0.880792 -0.469053
0.631701 95.9933 589.49 0.0464967 -0.880551 -0.471665
97.9831 118.06 598.166 0.414131 -0.75285 -0.511579
37.3827 91.6726 597.237 0.0416148 -0.878373 -0.476161
94.1066 115.694 598.955 0.189614 -0.822075 -0.536879
35.0975 90.1896 598.037 0.0350359 -0.87979 -0.47407
37.0729 90.6386 600.058 0.0233355 -0.887085 -0.461016
98.0416 115.915 602.792 0.351161 -0.766073 -0.538348
96.8816 113.761 602.672 0.326301 -0.778101 -0.536737
85.4568 113.543 602.445 0.220151 -0.870299 -0.440582
38.6357 89.6464 601.38 -0.00256327 -0.890227 -0.45551
98.7648 115.443 604.293 0.410591 -0.752432 -0.515034
60.1606 87.5992 606.464 0.0935447 -0.871971 -0.480536
40.9651 87.6969 602.752 -0.0317039 -0.875463 -0.482244
86.8807 112.796 604.189 0.0390446 -0.856386 -0.514858
57.9921 86.6261 607.402 0.0660659 -0.880423 -0.469564
97.0857 112.492 606.837 0.380022 -0.785221 -0.488887
94.192 110.051 607.796 0.1564 -0.865289 -0.476249
55.6788 85.7474 608.04 0.0480262 -0.881392 -0.469937
91.9779 109.269 609.083 0.0763034 -0.874852 -0.478342
53.4538 85.4979 609.033 0.0439996 -0.867004 -0.496354
55.2167 84.7122 610.268 0.0564903 -0.869263 -0.491111
54.7491 83.5102 613.046 0.0668565 -0.885614 -0.459585
52.1983 82.034 614.21 0.0899884 -0.874038 -0.47745
99.3139 108.929 615.966 0.279484 -0.80338 -0.525803
98.2995 107.651 615.386 0.255302 -0.805871 -0.534222
54.0899 82.0049 615.621 0.0886497 -0.8825 -0.461882
87.766 103.648 619.645 0.0306852 -0.887702 -0.459394
85.2371 102.702 620.521 0.0319868 -0.892718 -0.44948
87.0831 102.864 622.281 0.0197351 -0.87972 -0.475083
80.7906 102.314 622.141 0.0568896 -0.868815 -0.491857
82.4157 100.494 624.116 0.0591205 -0.857858 -0.510475
74.0247 99.47 624.727 0.183078 -0.87773 -0.4428
71.9515 98.7008 625.595 0.216315 -0.89478 -0.39061
58.7666 83.2431 627.413 0.855335 -0.50015 0.135099
75.4165 97.1989 628.449 0.0826715 -0.868856 -0.488114
64.7018 94.4381 627.413 0.726894 -0.686117 -0.0294693
63.3392 91.6471 628.189 0.784431 -0.616338 0.0692492
77.0497 96.2141 630.35 0.0910752 -0.870798 -0.483131
44.7243 73.2151 630.688 0.042786 -0.884362 -0.464838
64.1828 93.6416 630.076 0.661776 -0.74463 -0.0870524
42.701 72.7941 631.419 0.00361367 -0.886047 -0.463582
76.3741 95.0747 633.181 0.0858559 -0.872077 -0.481778
40.1103 72.7285 632.647 -0.0313924 -0.888438 -0.457923
42.1144 71.7852 634.382 -0.00478775 -0.886877 -0.461981
76.0284 93.56 635.113 0.0677323 -0.89521 -0.440468
57.6673 84.3822 634.297 0.871925 -0.463568 0.157645
69.6599 93.3286 635.555 0.0462432 -0.896084 -0.441469
41.6091 70.6837 636.832 0.0155585 -0.890116 -0.455469
39.1938 69.3192 637.455 0.0014277 -0.876967 -0.480549
75.9521 92.4344 638.015 0.0599845 -0.914016 -0.401218
72.9862 91.3399 638.719 0.0360258 -0.916183 -0.399138
55.7603 82.3862 638.584 0.867715 -0.471508 0.157328
40.9103 69.2231 639.262 0.0615741 -0.88642 -0.458767
75.4331 91.6379 640.679 0.0585837 -0.914064 -0.401316
26.9486 69.1425 638.169 0.00622988 -0.844295 -0.535842
40.5551 68.4141 641.954 0.0565194 -0.886774 -0.458735
28.5664 67.9663 639.484 0.0404018 -0.860262 -0.508249
38.4166 67.0245 642.436 0.00976692 -0.878254 -0.478094
36.4008 66.5375 643.587 0.00630373 -0.878082 -0.478469
33.7208 66.5441 644.38 0.0217343 -0.886677 -0.461877
100.752 85.8079 650.627 -0.130679 -0.880979 -0.454752
99.7282 86.7973 651.098 -0.130679 -0.880979 -0.454751
100.685 84.9601 652.612 -0.166068 -0.885223 -0.434514
35.2338 65.4354 646.333 0.0292829 -0.904567 -0.425324
11.1969 66.1377 644.412 -0.0575051 -0.876366 -0.478201
92.763 85.5104 654.049 -0.0895949 -0.915982 -0.391088
9.51967 65.1273 645.435 -0.0523225 -0.870373 -0.489605
8.56858 66.5546 645.676 -0.0413552 -0.873614 -0.484859
90.4276 85.3864 655.246 -0.00539049 -0.915362 -0.402596
10.8908 64.9603 646.853 -0.0568681 -0.855793 -0.514183
92.068 84.5167 656.593 -0.0693761 -0.914812 -0.397877
12.3595 63.2944 648.819 -0.0483879 -0.858079 -0.511233
14.2783 62.1581 649.979 -0.00728176 -0.871914 -0.489606
2.4259 64.8539 648.1 -0.0598139 -0.89638 -0.439232
97.1999 81.6594 661.157 -0.233525 -0.875286 -0.423486
0.0753358 63.9831 648.958 -0.0473508 -0.918607 -0.392324
1.5164 63.7373 651.118 -0.182255 -0.919646 -0.347901
98.2706 81.3479 663.075 -0.269755 -0.882826 -0.384513
-4.56778 63.6862 651.268 -0.132747 -0.990885 -0.0228975
-6.57985 63.8027 652.663 -0.309469 -0.926045 0.216032
-8.34925 65.3785 653.29 -0.401635 -0.719317 0.56681
-8.15416 68.543 655.025 -0.49876 -0.419948 0.75821
-8.39097 70.6635 655.363 -0.4877 -0.395665 0.778202
13.9333 56.8334 661.459 -0.30157 -0.946836 0.112061
2.54932 63.5088 658.609 -0.486727 -0.590164 0.644052
-8.72676 73.3597 656.246 -0.458351 -0.578553 0.674678
2.44888 66.227 659.402 -0.472771 -0.426872 0.770888
12.1244 57.6734 662.483 -0.45044 -0.806045 0.383921
4.35185 64.4142 660.357 -0.46773 -0.423708 0.775693
-3.17966 70.9975 658.73 -0.468243 -0.547961 0.693172
-6.72459 74.2125 658.5 -0.500394 -0.699103 0.510745
-9.03555 75.6205 657.345 -0.425377 -0.762312 0.487785
-4.86376 72.7454 659.711 -0.50504 -0.669759 0.544388
-10.8137 76.6861 658.537 -0.293072 -0.896889 0.331207
-12.7672 77.7777 660.266 -0.177666 -0.970902 0.160574
-11.2408 76.5666 661.703 -0.205063 -0.974379 0.0923785
-17.2173 77.2787 662.253 -0.0997675 -0.99365 -0.052014
-11.4129 76.07 663.961 -0.149255 -0.987966 0.040582
-15.5865 77.8583 663.87 -0.0903449 -0.99465 -0.0500848
-14.0387 76.97 665.324 -0.0631005 -0.996567 -0.0535876
-23.9955 78.2093 665.256 -0.0396203 -0.971179 -0.235034
-1.66008 76.0289 676.736 -0.0316512 -0.805308 0.592011
-3.47069 74.9759 674.379 -0.0211482 -0.955812 0.293218
-10.7009 76.4249 670.65 -0.0167902 -0.996561 -0.0811447
-8.96272 77.4585 669.546 -0.105013 -0.991168 -0.0809887
-4.05184 96.4357 572.568 0.615187 -0.220709 0.756857
-2.76203 98.7889 572.021 0.682919 -0.33656 0.648344
-2.8412 95.4067 570.995 0.661839 -0.247402 0.707645
16.8909 106.845 570.752 0.0144265 -0.910939 -0.412289
19.2798 107.082 569.787 -0.0252105 -0.919853 -0.391452
17.41 107.641 568.088 -0.00616236 -0.915676 -0.40187
15.8897 108.706 566.158 -0.0295304 -0.908011 -0.417905
-5.19931 86.8012 569.088 0.551441 -0.455807 0.698679
-3.90004 86.8864 567.49 0.606886 -0.418635 0.675599
12.3079 109.959 563.282 0.133918 -0.929042 -0.344888
16.2825 111.172 561.416 0.0464812 -0.868961 -0.492693
14.9041 111.694 559.802 0.185662 -0.912931 -0.363437
-4.54902 76.5111 562.759 0.450192 -0.474623 0.756347
-8.66272 73.6838 562.163 0.264291 -0.537716 0.800632
-5.89103 75.2574 562.123 0.353416 -0.516415 0.780008
-1.37757 78.4622 560.957 0.669408 -0.378581 0.639194
-6.41742 72.6601 560.493 0.34733 -0.54561 0.762674
-1.31642 75.73 559.402 0.648915 -0.426545 0.630055
-6.45132 70.4528 559.326 0.365693 -0.520849 0.771353
-7.75535 69.04 558.399 0.370594 -0.475527 0.797831
0.288811 75.5239 555.899 0.809825 -0.34535 0.474254
-8.1231 63.7859 556.256 0.336283 -0.478059 0.811402
-3.90631 66.9575 555.223 0.539476 -0.43353 0.721816
-16.2467 43.4026 545.625 0.191071 -0.43195 0.881425
