ply
format ascii 1.0
element vertex 898
property float x
property float y
property float z
property float nx
property float ny
property float nz
end_header
-124.677 82.0377 650.222 0.0426877 -0.878482 -0.475865
-40.2137 81.9773 566.148 0.0298685 -0.584028 0.811184
-18.152 74.2756 557.888 0.205772 -0.542044 0.814768
-64.4782 79.382 618.08 -0.126994 -0.97016 -0.206547
0.746729 70.7053 545.137 0.865758 -0.33172 0.374734
-11.8982 80.2551 560.209 0.282901 -0.510849 0.811788
2.67236 78.2138 544.732 0.984172 -0.0811224 0.157561
0.0742698 75.831 550.548 0.797402 -0.337787 0.500051
-9.62728 79.5383 558.952 0.306403 -0.478863 0.822683
-16.2362 87.0087 566.024 0.386347 -0.562919 0.730656
2.47966 85.1548 547.189 0.993168 -0.114176 0.0241197
-53.0874 76.9817 632.674 -0.30659 -0.931057 0.197825
-61.5927 81.4914 638.804 -0.293237 -0.926948 0.234051
90.7639 117.51 576.672 0.89352 -0.273777 0.355906
65.5322 99.1877 587.382 0.0539044 -0.855541 -0.514921
61.2834 122.6 544.085 0.136758 -0.828511 -0.543016
57.462 124.466 542.163 0.0867808 -0.815724 -0.571895
-121.712 92.6988 603.341 -0.274345 -0.925066 0.262656
-37.1191 -35.2329 502.914 0.0567949 -0.824371 0.563194
-34.4361 -37.5678 499.545 0.0923792 -0.86246 0.497624
-2.80858 75.2999 523.092 0.774474 0.249306 -0.581409
-75.5972 83.3119 627.576 -0.302068 -0.920597 0.2475
-26.5595 118.699 532.871 0.194016 0.0636554 -0.978931
-10.3291 81.9221 560.303 0.31543 -0.492988 0.810843
-59.1985 78.5542 629.686 -0.297467 -0.93784 0.1788
-55.0532 76.9357 631.734 -0.312198 -0.931894 0.184678
82.0811 104.692 579.234 0.291581 -0.896331 -0.334023
69.8392 97.2388 589.136 0.0532666 -0.854216 -0.517182
68.4238 125.24 544.024 0.135463 -0.716218 -0.684603
66.8486 122.937 545.197 0.148212 -0.753924 -0.640024
62.0242 120.337 549.845 -0.00813326 -0.897901 -0.440123
38.9065 152.428 528.092 0.261002 -0.635091 -0.727006
44.5037 110.517 564.98 0.0142636 -0.877072 -0.480147
34.1515 156.009 520.041 0.0628405 -0.785819 -0.615255
40.2563 111.859 562.626 -0.0212797 -0.876839 -0.480313
31.7124 159.814 517.243 0.0542921 -0.827185 -0.559301
31.4125 161.927 511.384 0.112363 -0.875721 -0.46956
33.9178 105.179 574.081 0.0412247 -0.865681 -0.498896
35.4993 111.747 561.587 0.01864 -0.858167 -0.513032
29.709 108.345 566.061 0.0301111 -0.879892 -0.474218
-5.22587 156.884 507.665 0.503509 0.0138088 -0.86388
-58.2413 82.677 649.556 -0.173825 -0.982839 -0.0617494
-68.3596 74.1832 671.131 -0.0373947 -0.967135 -0.2515
-117.246 91.6885 605.223 -0.293637 -0.928614 0.226832
-153.516 77.8317 653.025 -0.112523 -0.905614 -0.408903
-40.0363 -37.7861 498.502 0.00187274 -0.86099 0.508618
-47.7174 -36.5125 500.407 -0.0678081 -0.82635 0.559059
-45.4612 -38.6003 497.12 -0.0136611 -0.812778 0.582414
-43.314 -55.9503 484.437 0.0864147 -0.799071 0.594993
-138.452 78.1009 657.414 0.0782693 -0.891768 -0.445672
-133.53 78.2174 658.285 0.00536871 -0.910313 -0.413886
-129.065 79.013 654.76 -0.0154221 -0.908303 -0.418029
-86.5158 95.8713 581.977 0.0842255 -0.920675 -0.381134
-81.7691 96.5837 583.186 0.0569773 -0.908381 -0.414244
-129.195 73.7622 672.841 0.0155452 -0.966307 -0.256924
-70.0639 84.1465 608.252 -0.0378729 -0.897696 -0.438985
-2.78526 81.8168 525.916 0.75703 0.243037 -0.606496
-18.1757 76.7611 559.412 0.235754 -0.551942 0.799862
-65.5603 80.2157 616.047 -0.0962818 -0.942355 -0.320465
-0.929641 70.4408 546.954 0.78993 -0.402274 0.462803
-60.6766 85.0585 605.597 0.0409051 -0.853046 -0.52023
0.898477 72.5949 546.323 0.867745 -0.330325 0.371353
1.75115 75.2747 545.739 0.937414 -0.208419 0.278955
-22.341 83.1463 566.214 0.204486 -0.585871 0.784182
1.87091 83.9442 541.606 0.996441 0.0545694 -0.0642526
-12.4483 84.5285 562.746 0.322126 -0.512858 0.795746
-2.25547 87.69 559.946 0.642051 -0.357262 0.678332
2.44164 156.748 512.382 0.4116 -0.251377 -0.876011
-51.4141 79.8728 658.421 -0.0278538 -0.925805 -0.376974
-58.4311 83.2789 609.41 -0.00499181 -0.859852 -0.510519
-30.4831 125.869 531.505 0.15923 -0.487669 -0.858385
79.6656 106.011 574.912 0.0359976 -0.878627 -0.47615
67.8235 97.052 590.984 0.0326162 -0.858948 -0.511023
67.5391 129.341 539.29 0.329637 -0.425784 -0.842643
63.6396 120.663 548.136 0.0546567 -0.874795 -0.481401
56.1942 127.7 537.032 0.161384 -0.750585 -0.640763
40.6538 153.271 526.524 0.189392 -0.770331 -0.608868
42.1919 110.531 564.494 -0.0177395 -0.875353 -0.483159
33.5182 160.458 515.563 0.0670738 -0.841104 -0.536698
32.5015 109.063 566.639 0.0429627 -0.876473 -0.479531
-144.099 85.0975 643.616 0.184253 -0.875563 -0.446588
-36.2803 -37.0981 500.72 0.0610128 -0.854711 0.515507
-36.8972 -37.626 499.11 0.051596 -0.871075 0.488432
-136.174 78.0696 657.173 0.0405492 -0.903164 -0.427377
-84.4815 96.1766 582.495 0.063822 -0.915549 -0.397111
-83.5749 95.9389 584.866 0.0552563 -0.90918 -0.412721
-75.0942 97.0887 579.841 -0.0111776 -0.931413 -0.363793
-67.7244 81.8831 611.98 -0.0585771 -0.907427 -0.416107
-73.3874 83.0213 627.757 -0.312571 -0.917909 0.244423
-19.55 84.2707 566.173 0.3059 -0.592375 0.74533
-10.6041 84.0588 561.572 0.330854 -0.493642 0.804272
-1.78841 85.6008 558.619 0.632278 -0.351475 0.690427
72.2886 97.8475 587.459 0.0382589 -0.850577 -0.524458
62.0457 128.267 538.331 0.321697 -0.603329 -0.729729
59.5627 124.346 540.258 0.159311 -0.78106 -0.603793
37.0361 156.455 520.902 0.119387 -0.807779 -0.577269
36.6302 105.587 574.771 -0.00356158 -0.852524 -0.522677
-3.2976 154.87 508.519 0.505407 0.1257 -0.853676
-42.7487 -38.1932 497.811 -0.0163926 -0.845446 0.533809
-131.811 78.5175 656.182 -0.0218307 -0.916761 -0.398839
-79.0567 96.9908 583.876 0.0165519 -0.922048 -0.386721
-38.8248 75.8388 561.416 0.033276 -0.583399 0.811504
-0.536712 80.0746 552.859 0.798191 -0.307526 0.517995
2.08311 84.9698 551.751 0.934817 -0.206791 0.28871
47.1475 157.691 520.618 0.0891208 -0.850004 -0.519182
-2.18534 72.1989 522.473 0.794086 0.235996 -0.56012
-0.639015 73.1775 524.51 0.895277 0.167368 -0.412877
-47.8331 81.3756 655.779 -0.157101 -0.976353 -0.148504
-49.2954 80.6593 650.362 -0.248736 -0.965541 0.0765579
-81.1139 97.803 579.894 0.035248 -0.933748 -0.356191
-77.7906 82.2373 619.45 -0.285292 -0.956598 0.0594079
0.121483 76.2776 531.279 0.963875 0.0424366 -0.262952
-1.46498 82.7615 527.896 0.813727 0.247734 -0.525809
1.58379 76.994 536.696 0.98449 0.0195536 -0.174348
-60.9351 80.4124 615.142 -0.0405895 -0.913243 -0.405388
-23.0212 109.522 530.176 0.23231 0.273917 -0.933275
-59.9297 78.196 626.977 -0.26382 -0.961015 0.0827564
1.45962 84.1942 538.731 0.982884 0.109055 -0.148478
31.1669 107.693 567.476 0.0435231 -0.880378 -0.472272
29.6124 107.397 569.412 0.00461962 -0.89 -0.455938
-3.76921 152.372 507.5 0.562764 0.297472 -0.771238
-2.3656 147.605 504.798 0.546392 0.12463 -0.828205
-111.683 88.4793 601.192 -0.191303 -0.981369 -0.0178604
-142.104 90.1292 632.813 0.174404 -0.859241 -0.480925
-152.251 78.8935 650.328 -0.034849 -0.883977 -0.466229
-110.221 89.1956 606.61 -0.27178 -0.938129 0.214593
-127.686 78.0991 658.569 0.0306741 -0.932191 -0.360665
-106.656 91.8447 617.111 -0.301218 -0.90727 0.293478
-34.7243 108.388 527.578 0.205195 0.269614 -0.940853
-0.121691 75.2462 527.051 0.929797 0.126613 -0.345611
1.34061 75.9625 532.468 0.96799 0.0388009 -0.247971
-26.5871 109.609 529.65 0.2084 0.267119 -0.94086
-75.7196 84.1642 630.45 -0.303889 -0.925136 0.227541
-107.706 88.1422 604.593 -0.184151 -0.978264 0.0953294
-106.975 88.5004 607.302 -0.217771 -0.95241 0.213287
86.9786 110.468 581.209 0.874833 -0.26043 0.408465
84.5188 109.261 570.589 0.0904515 -0.863726 -0.495778
83.8255 109.375 568.176 0.017505 -0.833664 -0.551995
74.1578 98.1488 588.145 0.102802 -0.863613 -0.493563
67.5514 99.7091 585.661 0.0285664 -0.846231 -0.532049
64.8389 99.3019 584.97 0.0549135 -0.857341 -0.511812
69.4871 123.377 546.014 0.094778 -0.761554 -0.641134
67.2732 125.815 542.413 0.186256 -0.705032 -0.68428
63.2128 122.716 542.811 0.183928 -0.783664 -0.593331
61.658 124.682 541.002 0.191539 -0.765398 -0.614393
42.1817 159.892 516.622 0.0451214 -0.855432 -0.515945
35.6603 154.929 521.992 0.115139 -0.801021 -0.587459
1.09228 100.232 563.536 0.785346 -0.342691 0.515553
1.37748 98.0247 562.029 0.798121 -0.351042 0.489665
-56.2527 81.6056 653.96 -0.0864228 -0.958784 -0.270672
-139.779 87.8629 639.5 0.119076 -0.901748 -0.415538
-109.29 88.2782 602.05 -0.165794 -0.98576 -0.0280898
-109.509 88.0177 599.682 -0.121757 -0.984749 -0.124275
-145.433 87.3883 635.92 0.172493 -0.883461 -0.435594
-155.688 81.9876 647.524 -0.238059 -0.838718 -0.489775
-41.9099 -40.0583 495.616 0.0513852 -0.830409 0.554779
-136.776 80.7186 652.186 0.0455901 -0.886057 -0.461329
-107.28 89.2632 609.499 -0.247035 -0.932124 0.264799
-131.854 80.8351 653.057 -0.033061 -0.87802 -0.477481
-130.467 77.4326 658.301 -0.00340517 -0.926146 -0.377151
-133.82 73.5655 673.746 0.0395307 -0.96388 -0.263389
-125.293 76.0921 664.834 0.0203099 -0.91713 -0.398071
-123.426 74.5049 667.124 -0.00517231 -0.937573 -0.34775
-1.48611 77.5311 525.271 0.820504 0.182577 -0.5417
-70.7877 82.6679 611.965 -0.0841299 -0.915559 -0.393286
-23.2962 76.5522 560.822 0.204746 -0.589702 0.781237
-24.8368 80.8011 564.367 0.145131 -0.593558 0.791597
-62.4969 79.4309 616.062 -0.0366418 -0.934065 -0.355217
1.90321 79.1891 536.32 0.981291 0.0356842 -0.189196
-11.4478 77.5225 558.603 0.259972 -0.491228 0.83133
-55.6392 78.2195 618.801 -0.0557684 -0.934294 -0.352115
1.17093 78.1742 549.204 0.911526 -0.217336 0.349122
-25.2362 128.857 527.479 -0.0128388 -0.871147 -0.490855
-14.6179 112.463 534.533 0.384767 0.296173 -0.874206
0.651914 80.6475 551.232 0.874295 -0.278994 0.397204
1.93136 83.0802 550.565 0.936498 -0.223235 0.270441
45.4692 104.424 575.492 0.005349 -0.819392 -0.573209
-64.558 79.8598 658.648 0.00394969 -0.894555 -0.44694
-105.192 89.8249 612.553 -0.259646 -0.915775 0.306497
-51.6879 80.8604 649.504 -0.216692 -0.973446 0.0738038
-52.4191 80.5022 646.796 -0.265554 -0.952386 0.149808
-44.3881 -35.5774 502.707 -0.0579373 -0.829658 0.555258
-40.0657 -40.528 494.442 0.091815 -0.829087 0.551529
-58.2683 77.6368 625.126 -0.231757 -0.972663 -0.0146792
-54.5571 77.3857 620.835 -0.0726657 -0.949578 -0.304995
-1.60686 157.053 510.727 0.467255 -0.0974447 -0.878736
-41.0867 72.699 559.119 0.0338229 -0.583137 0.811669
-78.4015 98.2101 580.585 0.00260623 -0.928628 -0.371004
-21.0252 75.8354 559.565 0.232676 -0.568777 0.788894
-2.89794 84.7871 526.538 0.7179 0.333504 -0.61106
73.2101 99.7286 586.592 0.0468777 -0.858479 -0.510701
59.5527 122.083 545.975 0.0647264 -0.87935 -0.471756
59.0144 122.272 543.634 0.0807903 -0.84962 -0.52117
36.6254 154.492 524.25 0.178206 -0.78646 -0.591374
38.0466 112.15 562.446 -0.0137302 -0.863739 -0.503753
-55.1706 80.7718 655.994 -0.0219032 -0.943964 -0.32932
-38.9633 -34.7632 504.088 0.0118431 -0.828684 0.559592
-131.871 73.07 672.178 0.0254673 -0.96525 -0.260084
-130.932 73.3766 674.099 0.0226345 -0.970166 -0.241382
-62.4824 84.4136 607.277 0.0156202 -0.870592 -0.491758
-13.6454 86.9001 564.601 0.359667 -0.53624 0.763601
2.15158 87.0351 545.921 0.994342 -0.0562009 -0.090137
2.63141 87.0444 548.375 0.99069 -0.128389 0.0452716
84.3723 110.574 585.591 0.884786 -0.215668 0.413086
80.2139 108.086 571.537 -0.0118824 -0.829066 -0.559024
66.267 127.593 540.972 0.272878 -0.605498 -0.747603
42.837 159.305 518.738 0.0576248 -0.850247 -0.523219
42.2989 107.87 569.986 -0.0204121 -0.888809 -0.457823
32.2563 107.545 570.524 0.0505532 -0.892315 -0.448574
-59.8643 80.3158 657.321 0.000840854 -0.902879 -0.429893
-60.5196 80.9025 655.205 -0.00320796 -0.921878 -0.387466
-144.526 87.1505 638.291 0.193462 -0.897899 -0.395411
-45.2564 -36.4542 500.842 -0.0566075 -0.830831 0.553639
-39.1975 -39.6512 496.307 0.0644352 -0.873109 0.483248
-135.694 79.8849 654.219 0.0212894 -0.890264 -0.454947
-127.98 73.738 668.086 0.0096904 -0.955067 -0.296231
-127.038 73.2151 670.485 -0.00805382 -0.961336 -0.275259
-35.2735 74.3807 559.912 0.0432111 -0.583641 0.810861
-1.50981 80.0166 526.794 0.833715 0.205008 -0.512729
-0.032024 80.7359 529.254 0.900523 0.143263 -0.410529
-16.3315 76.2914 558.238 0.221069 -0.541527 0.811096
-59.0608 81.3166 613.039 -0.0364791 -0.891413 -0.451722
-21.1338 81.2327 564.049 0.281631 -0.58682 0.759162
2.16143 81.8104 537.38 0.983269 0.0916519 -0.157421
2.14594 81.8075 540.338 0.99539 0.0609694 -0.0740327
-29.6067 128.375 528.132 0.0341033 -0.823439 -0.56638
-55.6636 78.4613 636.127 -0.303798 -0.91727 0.257529
86.6799 115.091 584.001 0.859243 -0.385926 0.335802
86.8334 112.438 580.619 0.876302 -0.209421 0.433864
82.2711 109.079 570.112 0.0106446 -0.842474 -0.538631
70.6905 99.8691 586.269 0.050081 -0.855033 -0.51615
66.2938 101.139 583.965 0.0819069 -0.873191 -0.480447
64.7582 128.674 539.022 0.358518 -0.517801 -0.776754
63.2819 127.008 540.01 0.291208 -0.651546 -0.700489
56.7027 121.564 545.311 0.0132673 -0.893427 -0.449012
44.7726 157.977 520.606 0.0718698 -0.848641 -0.524064
47.1535 102.747 577.105 0.0375602 -0.835847 -0.547676
40.1246 158.898 518.047 0.0924607 -0.835577 -0.541537
43.2595 104.715 575.312 -0.0142564 -0.82574 -0.563871
33.9063 154.491 523.926 0.197196 -0.742478 -0.640188
39.1141 106.333 573.264 -0.00988299 -0.854034 -0.520123
35.7623 111.545 563.954 0.0347614 -0.857486 -0.513332
-2.90275 159.597 508.525 0.376073 -0.32351 -0.86828
0.0363873 97.6051 563.923 0.697145 -0.410138 0.588027
-57.0833 80.9822 657.59 -0.0248366 -0.909885 -0.414117
-57.3347 82.4393 651.927 -0.140846 -0.973979 -0.177557
-62.7522 80.5047 656.968 0.0117536 -0.905919 -0.423288
-141.565 87.678 638.898 0.156495 -0.901717 -0.403008
-113.832 89.7118 604.563 -0.287413 -0.934514 0.209945
-147.239 86.7434 637.6 0.122575 -0.887178 -0.444849
-153.577 80.0638 649.055 -0.103161 -0.874292 -0.474312
-156.268 83.5191 646.001 -0.261751 -0.823125 -0.503936
-41.9197 -34.8337 504.157 -0.0282038 -0.824688 0.564884
-47.1005 -35.9845 502.016 -0.0672864 -0.83095 0.552263
-138.379 80.0212 654.064 0.0710323 -0.896478 -0.437357
-133.422 82.7165 649.416 -0.00959677 -0.86141 -0.50782
-129.606 72.9542 670.105 0.00799415 -0.965041 -0.261976
-76.3974 97.1415 582.031 -0.0218597 -0.927554 -0.373049
-65.741 84.4224 606.556 -0.000778401 -0.884177 -0.467152
-5.14607 86.1923 525.852 0.54522 0.425824 -0.722087
0.867682 78.2257 530.82 0.950524 0.0605611 -0.30469
-79.3312 84.6804 628.403 -0.303016 -0.923104 0.236772
-13.4821 77.2172 558.085 0.239615 -0.513306 0.824076
2.29945 77.3492 542.363 0.996118 -0.053801 0.0696752
-57.148 79.3003 616.851 -0.060984 -0.913405 -0.402458
-31.4917 127.419 529.727 0.0707175 -0.741387 -0.667341
-0.403959 78.0203 551.618 0.813662 -0.300537 0.497626
-62.7498 80.0123 631.19 -0.329899 -0.917669 0.221473
-61.8971 80.8861 636.013 -0.315167 -0.918714 0.237979
-26.3895 130.26 525.39 -0.0307418 -0.880708 -0.472661
-14.7175 114.004 535.464 0.402928 0.279684 -0.87145
-29.8487 75.1949 561.293 0.0651205 -0.590377 0.804497
-121.682 73.77 672.288 -0.0259247 -0.969242 -0.244739
46.7439 155.762 524.304 0.101455 -0.858458 -0.502749
-122.344 73.6712 669.158 -0.0348545 -0.94403 -0.328012
22.8035 86.016 607.303 -0.0371892 -0.875077 -0.482552
38.4061 75.5254 670.931 0.713271 -0.294152 0.636175
-107.765 135.824 513.024 -0.185358 -0.780949 -0.596456
46.5487 65.1454 648.693 0.713688 -0.694823 0.0887108
25.4744 54.2914 667.631 -0.114189 -0.985895 -0.12236
12.5729 85.6001 608.151 0.0753725 -0.83302 -0.548084
-7.06479 82.9001 610.609 0.0474761 -0.826133 -0.561471
-50.0269 141.611 502.457 0.0638603 -0.87766 -0.475011
44.7983 75.7903 659.572 0.860693 -0.42792 0.275848
33.8103 55.8241 662.224 0.100014 -0.861438 -0.497917
-9.09878 34.571 499.411 0.638178 0.368708 -0.675857
2.86126 -3.21141 480.505 0.782966 0.449125 -0.430408
34.9988 55.7221 664.132 0.221982 -0.855214 -0.468329
3.22914 83.5744 610.325 -0.0812721 -0.820198 -0.566278
-98.4536 135.791 509.777 -0.0742198 -0.870495 -0.486548
-10.2183 33.3453 497.291 0.651541 0.393112 -0.648813
0.687971 -4.57396 475.365 0.712265 0.269188 -0.648241
1.87878 -3.91845 477.541 0.754065 0.317355 -0.575041
-39.9362 142.338 501.976 0.0672946 -0.886615 -0.457587
-52.5406 153.893 480.961 0.258565 -0.622604 -0.738586
-58.1874 157.277 477.977 0.351018 -0.283921 -0.892286
-61.1512 156.521 477.031 0.243971 -0.510667 -0.824438
-81.2873 140.237 503.448 0.0716116 -0.894479 -0.441339
-20.9391 1.42322 516.22 0.425318 -0.558553 0.712126
-10.6892 -2.01545 509.847 0.58382 -0.157227 0.796514
-23.587 -2.95748 516.652 0.385198 -0.234585 0.89252
-0.378382 1.34329 480.408 0.708178 0.643882 -0.289655
0.0318587 -2.01729 476.434 0.757888 0.394785 -0.519375
-3.18874 -0.259195 470.672 0.625117 0.235391 -0.744191
-5.72569 -1.26224 469.644 0.571435 0.11851 -0.812045
-7.43192 -3.44786 470.393 0.545783 -0.00440668 -0.837915
-5.75255 -5.5816 471.33 0.527192 -0.00208666 -0.849744
-11.1104 3.45916 515.513 0.529241 -0.686429 0.498717
-13.0916 3.41024 517.531 0.395935 -0.724782 0.56385
-11.5225 5.07722 517.625 0.470364 -0.666791 0.578054
-11.2784 36.2355 498.303 0.638956 0.366481 -0.676333
-3.90284 35.5058 503.792 0.721001 0.261244 -0.641802
-4.26422 37.8267 504.567 0.70433 0.251028 -0.664006
-111.134 139.177 509.798 -0.332292 -0.771755 -0.542196
-105.982 135.78 513.287 -0.1231 -0.814874 -0.566416
-103.071 136.28 511.697 -0.141339 -0.847026 -0.512416
-94.9344 144.725 492.14 0.0598974 -0.888856 -0.454254
-92.4733 144.783 492.575 0.083887 -0.900299 -0.427111
-87.7266 145.495 493.784 0.0574672 -0.89403 -0.444306
-84.7235 138.351 506.47 0.0950196 -0.861165 -0.499366
-21.5622 81.1791 614.503 0.0173792 -0.879079 -0.47636
-19.1645 81.581 612.572 0.00374902 -0.871335 -0.490674
-16.6349 81.8985 612.586 0.00265973 -0.841872 -0.539671
-14.098 84.7075 608.207 0.0138769 -0.862838 -0.50529
-12.7336 82.4225 609.987 0.00757762 -0.84927 -0.527904
-9.52587 82.8419 610.173 0.0158645 -0.843254 -0.53728
-3.61409 89.7686 598.801 -0.0397998 -0.87126 -0.489205
-4.50169 83.235 611.349 0.0377079 -0.814311 -0.579202
0.714128 86.4337 606.934 -0.0560732 -0.878787 -0.473909
2.14709 84.4081 608.292 -0.110404 -0.852645 -0.510693
7.95891 96.9434 588.699 0.0657301 -0.847931 -0.526016
10.7882 96.9532 589.164 0.0353916 -0.853395 -0.520062
12.7214 95.3968 590.694 0.0139833 -0.839011 -0.543934
15.4504 87.2151 605.068 0.0133278 -0.856689 -0.515662
16.9592 86.1343 607.019 0.0189791 -0.853742 -0.52035
19.8471 85.9455 607.372 0.00123075 -0.865727 -0.500515
21.4625 86.2714 605.662 -0.0348597 -0.875439 -0.482071
31.3113 55.2935 661.492 0.102998 -0.88575 -0.452591
33.1171 55.9383 659.812 0.124031 -0.858124 -0.498236
36.1874 58.101 657.098 0.179842 -0.854958 -0.486522
37.8327 60.2567 656.122 0.32179 -0.850226 -0.416615
39.3871 60.5527 654.187 0.306253 -0.853626 -0.421346
41.6122 58.9152 658.479 0.686246 -0.681605 -0.253932
36.3387 57.2908 672.423 0.798788 -0.261534 0.541791
46.4569 65.7846 650.848 0.843671 -0.479814 0.240826
45.2068 66.0939 655.575 0.902217 -0.263017 0.341797
45.2971 70.6716 654.453 0.903069 -0.166483 0.395917
41.8806 76.2965 668.414 0.645036 -0.594898 0.479608
45.7153 78.9057 666.296 0.494926 -0.841917 0.214996
-63.1169 156.475 476.091 0.253239 -0.541796 -0.801453
-66.1876 156.575 475.061 0.281167 -0.605622 -0.744424
-67.595 157.857 474.04 0.274935 -0.513742 -0.812699
-69.0535 160.626 472.345 0.355258 -0.216696 -0.909304
5.23832 -3.4154 484.32 0.797924 0.546365 -0.254564
-2.19974 2.5014 479.639 0.700196 0.66335 -0.263992
-3.53788 -5.41523 472.186 0.570073 0.0383075 -0.8207
-11.9116 38.8786 499.232 0.615727 0.331843 -0.714675
-122.266 138.562 517.684 -0.402755 -0.665652 -0.628248
-116.421 135.27 518.387 -0.338822 -0.688196 -0.64155
-104.642 141.399 500.368 -0.211878 -0.877708 -0.42981
-103.064 140.577 501.897 -0.156022 -0.900761 -0.405324
-89.5475 145.067 493.225 0.0657448 -0.898742 -0.433521
-10.4485 86.4696 605.143 0.0554884 -0.864938 -0.498802
19.5573 88.5171 601.203 -0.042485 -0.884027 -0.4655
34.7066 62.3979 672.927 0.810595 0.0695077 0.581468
41.8569 78.782 669.938 0.460944 -0.658968 0.594383
-83.6414 137.517 508.504 0.0883645 -0.852213 -0.515678
-2.21166 36.1015 506.21 0.831848 0.199511 -0.517903
-102.485 135.434 514.234 -0.0963889 -0.824403 -0.557735
19.0693 89.1904 602.723 -0.0350547 -0.885546 -0.463227
29.4369 54.3893 663.595 0.00211081 -0.936626 -0.350325
40.7205 60.0679 656.475 0.540547 -0.779392 -0.316792
-0.14173 0.321168 478.633 0.741178 0.572984 -0.349777
-118.929 138.815 516.011 -0.391361 -0.675784 -0.624621
-1.39599 83.3777 611.23 -0.00719026 -0.807061 -0.590424
45.5413 69.879 652.031 0.906071 -0.202882 0.371313
-78.4451 138.671 507.687 0.00775073 -0.874225 -0.48546
-53.1885 155.165 479.86 0.296151 -0.492072 -0.818633
-71.2931 159.087 471.43 0.285786 -0.474243 -0.832719
-72.2603 157.033 472.578 0.176386 -0.694179 -0.697856
-10.9031 -0.304927 509.678 0.6127 -0.272252 0.741942
-12.1825 -2.73763 510.345 0.537491 -0.142007 0.831226
-7.72074 -5.85611 470.051 0.509192 -0.0700506 -0.857798
-100.663 136.082 509.596 -0.118371 -0.868833 -0.480747
-84.9374 143.673 495.487 0.0437602 -0.880103 -0.472761
-86.3538 137.11 507.813 0.0501783 -0.862761 -0.503116
-2.89748 85.144 610.295 0.04105 -0.820701 -0.569881
9.77964 98.5032 587.386 0.035494 -0.866407 -0.498076
33.4418 61.3362 675.624 0.758699 0.000851738 0.651441
46.2431 67.4952 650.68 0.873214 -0.408725 0.265407
43.4359 75.2244 661.491 0.83971 -0.446959 0.308407
27.4557 54.3404 665.613 -0.052164 -0.971857 -0.229723
-4.67287 52.6532 540.865 0.638267 -0.35364 0.683779
76.7656 167.326 509.626 0.0569337 -0.905388 -0.42075
-9.94418 47.3807 541.509 0.291114 -0.43976 0.849626
-110.542 75.0705 665.418 0.0557194 -0.893262 -0.44607
73.0785 162.83 516.138 0.100643 -0.87003 -0.482617
-2.52826 43.0192 532.331 0.770447 -0.326792 0.547374
-117.285 77.9181 658.37 0.00923108 -0.910068 -0.414355
-96.3173 88.0403 639.558 -0.0579048 -0.903109 -0.425488
79.478 167.733 510.317 0.0857186 -0.9362 -0.340855
-93.3825 77.0248 663.481 0.0546475 -0.928315 -0.367756
85.1707 162.114 520.23 0.146694 -0.820063 -0.553152
56.6048 164.673 510.251 0.0510498 -0.896065 -0.440977
52.2462 165.886 508.313 0.0391956 -0.822635 -0.567218
28.5439 119.999 547.36 0.0781925 -0.872777 -0.481816
20.1389 125.212 536.756 0.0102956 -0.899067 -0.43769
5.50959 121.769 544.114 -0.0618274 -0.931237 -0.35913
-2.14632 40.0272 531.147 0.75784 -0.347525 0.552182
-7.25121 38.0153 535.006 0.533983 -0.426372 0.730115
-119.335 77.6098 660.81 -0.0313437 -0.922524 -0.384665
-115.121 76.2506 662.437 0.0241222 -0.912674 -0.407977
-109.696 77.0648 663.818 0.0638746 -0.90747 -0.415232
-98.2985 87.9914 641.576 -0.0271594 -0.904922 -0.42471
-105.551 75.4463 665.867 0.0625785 -0.887425 -0.456684
1.70795 69.7937 534.661 0.98556 0.0158535 -0.168583
-94.2217 86.1135 644.047 -0.0333716 -0.922709 -0.38405
-90.9215 78.8889 658.509 0.0308459 -0.911035 -0.411174
-86.2735 77.9681 661.068 0.0282161 -0.917973 -0.395638
53.6257 164.288 509.629 0.0517189 -0.869748 -0.490778
1.70918 114.943 546.411 0.868213 0.0169615 -0.495902
-11.0629 42.981 539.808 0.290555 -0.44611 0.846501
-3.70267 37.9887 531.221 0.709026 -0.331566 0.622372
-178.531 109.68 628.246 -0.526586 -0.749732 -0.40076
-155.699 101.659 612.807 -0.269825 -0.9535 -0.134286
-11.7647 45.3648 541.159 0.231804 -0.442905 0.866084
-7.7728 48.2046 541.183 0.402228 -0.417535 0.814787
-3.78094 51.0444 541.206 0.648213 -0.371681 0.664584
-0.214329 58.1358 539.429 0.832278 -0.284694 0.475671
-96.1256 76.8308 663.509 0.0133342 -0.930378 -0.366359
-87.2414 80.438 654.727 0.00443228 -0.87363 -0.486571
-79.4312 74.9479 672.173 -0.0142232 -0.986031 -0.165952
83.9671 160.626 521.49 0.128779 -0.820755 -0.556576
82.8311 164.377 516.501 0.176608 -0.840228 -0.512666
80.8279 160.466 520.882 0.089073 -0.849688 -0.519709
79.5704 161.895 519.186 0.127117 -0.84417 -0.520786
78.3772 167.537 508.24 0.0561005 -0.936508 -0.346128
74.0921 161.509 517.762 0.100446 -0.877174 -0.469548
71.806 163.344 514.076 0.101133 -0.875115 -0.473229
70.0002 162.7 515.756 0.0906967 -0.872686 -0.479785
60.43 163.504 512.326 0.0608886 -0.91013 -0.409824
55.9264 167.435 504.531 0.0193032 -0.799917 -0.5998
51.1112 164.657 509.151 0.0542224 -0.846292 -0.529953
27.2438 118.766 548.366 0.0537026 -0.877248 -0.477023
24.8056 118.193 549.592 0.0333605 -0.884433 -0.465473
25.3663 122.76 540.838 0.0159661 -0.8681 -0.496132
23.4307 124.087 538.97 0.0129348 -0.882292 -0.470525
21.5179 126.104 535.159 0.0281595 -0.899615 -0.435776
21.0381 126.094 532.705 0.0229948 -0.90354 -0.427887
19.6051 128.12 531.347 0.0186621 -0.898991 -0.43757
16.9997 125.052 536.148 0.0297788 -0.904433 -0.425575
14.7899 125.342 535.968 0.018556 -0.897139 -0.441358
8.63423 116.946 553.507 0.0342367 -0.872296 -0.487778
6.27599 116.374 555.142 0.285341 -0.805482 -0.519403
7.01842 120.688 546.064 -0.093059 -0.922171 -0.375421
-6.53561 40.1765 535.265 0.577205 -0.417025 0.702086
0.779849 40.5297 526.599 0.932248 -0.192108 0.306606
-11.0391 40.4955 538.284 0.312436 -0.444807 0.839363
-5.81407 38.1193 533.644 0.603789 -0.412129 0.682341
-0.179738 38.7052 527.099 0.893958 -0.217304 0.391942
-155.927 101.999 610.609 -0.262527 -0.959488 -0.102281
-3.15332 43.1738 534.694 0.724289 -0.367377 0.583473
-3.75724 48.5589 539.683 0.674592 -0.343783 0.653253
1.81098 57.363 530.001 0.999815 -0.0152102 0.0117382
1.36056 58.2897 537.015 0.900829 -0.247588 0.356661
-110.413 81.6894 652.325 0.0134255 -0.883642 -0.46797
-114.039 75.4169 664.47 0.0372739 -0.898961 -0.436439
0.590219 60.4142 538.788 0.881136 -0.21113 0.423112
1.61434 67.1161 533.712 0.988902 -0.024959 -0.146458
-105.909 77.7586 660.12 0.0212604 -0.924302 -0.381071
-109.117 75.5334 665.341 0.0699813 -0.894487 -0.441583
-99.9289 86.7505 642.919 0.0114884 -0.908064 -0.418675
1.56266 71.7635 534.071 0.97403 0.0463854 -0.221617
2.18088 67.5305 536.31 0.995836 -0.0878047 0.0245029
-93.0711 85.5391 645.658 -0.00599485 -0.932917 -0.360042
-94.5331 77.5992 661.87 0.0344985 -0.927156 -0.373084
-92.5519 77.6481 659.852 0.0494522 -0.912496 -0.406086
-89.8395 78.0552 660.542 0.0336619 -0.920594 -0.389067
-85.1458 78.5112 659.215 0.0217415 -0.918558 -0.394687
-81.0926 75.5072 674.024 -0.00819801 -0.992075 -0.125379
59.1725 164.934 510.631 0.068166 -0.902693 -0.424852
58.2659 165.171 508.26 0.0296347 -0.851762 -0.523091
22.8513 125.619 537.447 0.0267917 -0.895196 -0.444867
-3.45205 47.7961 537.486 0.714908 -0.355501 0.602101
0.9346 57.1687 532.109 0.983254 -0.113961 0.142214
1.66575 57.5269 534.818 0.954814 -0.179189 0.23711
30.1213 119.178 548.888 0.0854055 -0.883184 -0.461185
-1.78137 37.9788 529.473 0.787954 -0.28411 0.54627
-103.781 76.3763 664.158 0.0248153 -0.920427 -0.390126
-102.838 75.8534 666.557 0.048756 -0.91251 -0.406137
86.4068 160.855 521.908 0.130491 -0.811933 -0.56898
-155.805 101.147 607.735 -0.230826 -0.972746 0.0220167
-84.0638 77.6775 661.248 -0.00816181 -0.908856 -0.41703
11.131 116.719 553.97 -0.118662 -0.892507 -0.435145
22.4608 84.7194 609.413 -0.00041112 -0.888903 -0.458096
46.4518 79.4107 664.554 0.54038 -0.83387 0.112475
45.6522 78.7932 662.267 0.690048 -0.712375 0.127893
38.344 79.1255 671.948 0.572609 -0.466236 0.674347
38.8306 62.7726 650.721 0.0879113 -0.907312 -0.411165
15.0547 83.8563 610.049 0.0553982 -0.844222 -0.533124
7.86059 91.2423 599.201 0.12017 -0.849411 -0.513867
7.63209 91.5819 597.003 0.106482 -0.835279 -0.539417
-19.6287 76.1569 623.383 0.00506054 -0.892838 -0.45035
-86.628 136.073 509.501 0.0452804 -0.861098 -0.506418
-89.1285 143.915 497.325 0.0293166 -0.88745 -0.459972
-94.4086 143.247 496.254 0.0778754 -0.909988 -0.407255
-108.132 142.431 500.436 -0.326932 -0.831064 -0.449943
-118.684 133.498 521.078 -0.360866 -0.681766 -0.636373
-128.378 141.503 519.683 -0.384099 -0.674908 -0.630053
-14.7841 5.76956 519.891 0.343529 -0.666851 0.661285
-7.52165 5.86639 508.688 0.812711 -0.461675 0.355468
-2.57008 -6.07917 473.121 0.574917 0.0827284 -0.814019
-82.5283 133.078 515.435 0.0728803 -0.858367 -0.507833
-66.2643 158.804 474.048 0.351978 -0.38633 -0.852561
38.8018 77.0783 671.357 0.655789 -0.364027 0.661381
39.3004 74.7471 669.808 0.735175 -0.352612 0.57895
32.2977 65.7701 674.608 0.768707 -0.081444 0.634394
33.9591 65.2108 672.757 0.77989 -0.0144167 0.62575
38.3035 62.3167 667.537 0.89016 0.0900322 0.446664
43.5622 63.701 649.69 0.431234 -0.890889 -0.142669
16.7921 82.4359 614.198 0.0825695 -0.829322 -0.552636
11.1503 87.6276 604.821 0.0709414 -0.835011 -0.545641
-12.6331 89.4101 599.683 0.0177284 -0.873401 -0.48668
-85.1192 134.992 511.451 0.052922 -0.866893 -0.495677
0.619756 44.7403 513.164 0.929128 0.10074 -0.355769
-112.879 143.086 504.215 -0.401786 -0.798696 -0.447943
-126.236 137.779 520.705 -0.395197 -0.662078 -0.636767
-11.5133 32.7156 495.509 0.641723 0.413018 -0.646226
-9.88309 2.4615 512.729 0.657674 -0.560111 0.503727
-65.2073 156.597 476.024 0.259977 -0.586782 -0.766876
48.1258 79.5379 662.731 0.486879 -0.873051 -0.0270297
41.4849 74.7435 667.988 0.729093 -0.480644 0.487242
42.7881 74.6906 665.797 0.775595 -0.507416 0.375476
42.735 74.4342 663.261 0.829461 -0.439495 0.344729
39.5274 72.209 668.482 0.81672 -0.295644 0.495543
39.6884 69.786 664.452 0.869538 -0.260165 0.419784
36.1917 65.6086 670.994 0.824268 -0.0765832 0.560996
37.7388 65.2191 668.044 0.88794 -0.063794 0.455514
40.9016 64.6995 661.721 0.907017 -0.106807 0.407324
45.2812 63.9408 647.865 0.464172 -0.876131 -0.130151
42.7495 63.9841 647.165 0.21526 -0.93342 -0.287038
39.6613 61.59 652.499 0.232924 -0.905102 -0.355719
34.1837 53.2958 670.211 0.106365 -0.924115 0.367013
38.1753 63.3592 648.605 0.0292071 -0.901046 -0.432738
27.039 54.4435 667.188 -0.0902619 -0.9784 -0.185975
20.7619 83.2193 611.177 0.0386242 -0.88186 -0.469927
19.5729 84.9082 609.06 0.0242604 -0.866206 -0.499099
16.6851 85.0971 608.707 0.0399265 -0.850145 -0.525032
13.9041 84.4307 608.438 0.0774133 -0.840797 -0.535787
12.9665 86.4685 606.576 0.064725 -0.834925 -0.546545
11.899 92.285 595.758 0.014019 -0.860821 -0.508714
9.41507 91.5383 597.265 0.0693399 -0.848195 -0.525126
3.39631 87.2728 603.146 0.0209981 -0.872041 -0.488982
0.912404 86.5262 604.653 -0.0504391 -0.895766 -0.441655
-1.00038 88.5424 600.842 -0.0464993 -0.886798 -0.459813
-5.53313 82.5077 610.616 0.0520016 -0.814187 -0.57827
-5.14574 90.161 598.794 -0.0165305 -0.872501 -0.488332
-7.60683 90.1027 598.358 0.0128293 -0.875446 -0.483146
-10.3877 87.6304 603.497 0.0461078 -0.863319 -0.502547
-10.746 89.9427 597.75 0.0465065 -0.874984 -0.481912
-20.7107 76.9906 621.35 0.00428743 -0.890814 -0.454348
-22.2196 78.0714 619.399 0.00486403 -0.874173 -0.48559
-85.8291 144.826 493.484 0.054715 -0.89472 -0.443263
-87.574 144.211 495.389 0.0363534 -0.886191 -0.461892
-93.2427 141.928 500.175 0.0549317 -0.893846 -0.444997
-89.7862 144.273 494.871 0.0565849 -0.896927 -0.438542
-98.4847 139.397 504.878 -0.0159481 -0.894618 -0.446548
-92.7831 144.031 494.235 0.0869374 -0.908613 -0.408491
-95.6353 143.935 493.91 0.0572833 -0.897426 -0.43743
-100.268 139.441 504.615 -0.0671016 -0.899559 -0.431614
-123.836 140.069 517.17 -0.406335 -0.676112 -0.614625
-124.911 141.589 516.151 -0.402616 -0.680494 -0.612232
-16.8747 6.34739 521.486 0.295864 -0.634083 0.714425
-7.43066 6.59519 511.52 0.788825 -0.550803 0.272709
-14.372 4.15149 517.778 0.327468 -0.731699 0.597813
-2.43476 0.787387 471.438 0.653461 0.329971 -0.681254
-3.4042 4.18747 480.479 0.662652 0.705242 -0.252043
-18.0039 -3.73675 513.526 0.448221 -0.0945562 0.888908
-10.5073 1.24806 510.105 0.6736 -0.369849 0.639903
-20.3606 3.06574 517.323 0.375639 -0.643951 0.6665
-79.9457 135.458 512.578 0.090661 -0.864658 -0.494113
-64.1541 160.054 475.159 0.403062 -0.136626 -0.904917
-63.7136 164.352 476.687 0.444614 0.15347 -0.882477
-53.9113 148.706 489.4 0.0912018 -0.860394 -0.501402
-48.0432 140.685 504.383 0.0831913 -0.870611 -0.484888
-46.5343 139.604 506.333 0.110486 -0.874598 -0.472092
-42.8493 141.61 503.228 0.0971194 -0.881575 -0.461945
-17.6474 76.2058 621.365 -0.00577703 -0.895509 -0.445006
-64.7141 171.358 480.83 0.458958 0.354125 -0.814833
-8.1484 -2.43506 469.714 0.546749 -0.0188936 -0.837084
-88.1295 137.839 508.565 0.0030208 -0.865881 -0.500241
40.4395 79.0047 671.029 0.482083 -0.582642 0.654311
-44.904 140.845 504.991 0.112226 -0.867254 -0.485052
-67.583 160.66 473.79 0.386713 -0.123641 -0.913874
-9.99027 3.77278 514.307 0.622793 -0.656826 0.425098
-109.953 141.783 505.074 -0.354641 -0.823707 -0.442421
-101.845 140.262 503.086 -0.109326 -0.903705 -0.413964
41.543 63.1797 651.412 0.32359 -0.914112 -0.244312
42.0381 61.8421 657.977 0.864622 -0.502423 -0.000504498
43.2566 64.2449 657.084 0.875736 -0.389949 0.284651
29.1887 65.1781 678.479 0.692286 -0.111896 0.712895
38.1449 82.207 673.81 0.488532 -0.456456 0.743629
0.14233 -5.67207 473.811 0.669568 0.157361 -0.72589
49.3927 81.2842 662.035 0.392946 -0.910575 -0.128247
-8.58897 6.26519 514.092 0.730049 -0.589712 0.345352
35.6972 62.4224 671.918 0.822415 0.059389 0.565779
-15.1983 -8.72986 512.69 0.420553 -0.00784534 0.907234
-2.32642 89.7128 599.569 -0.043013 -0.878746 -0.475347
88.3482 107.555 615.189 0.0180377 -0.884943 -0.465351
88.531 105.839 621.274 0.0408762 -0.897293 -0.439538
103.287 116.831 616.206 0.998031 -0.052018 -0.0350344
100.618 114.243 658.617 0.931545 0.331804 0.148762
67.6336 86.0165 651.317 0.000350305 -0.880002 -0.47497
64.6918 89.1229 648.009 0.0213325 -0.859905 -0.510008
58.7522 83.3621 659.382 0.0658865 -0.93582 -0.346266
77.1476 107.119 613.102 0.430749 -0.873596 -0.226463
79.9286 107.785 613.371 0.285198 -0.898532 -0.333619
78.7753 106.781 618.491 0.189697 -0.91419 -0.358151
83.776 109.421 613.223 0.0766752 -0.88717 -0.455027
86.7178 106.315 616.532 -0.00326248 -0.901976 -0.431774
92.45 107.051 617.718 0.0571215 -0.889702 -0.452954
97.4916 106.998 618.702 0.145454 -0.844043 -0.516173
100.433 103.892 622.01 0.426573 -0.795374 -0.4306
101.461 105.976 621.088 0.699046 -0.622084 -0.352629
102.741 108.408 620.421 0.888126 -0.404234 -0.218694
103.547 114.691 617.896 0.995833 -0.0712523 -0.0569206
103.088 120.222 623.195 0.999265 0.0369853 0.0100281
105.02 95.7358 658.03 0.997609 0.0411853 -0.0554912
102.623 113.613 649.668 0.949335 0.289559 0.122138
104.631 94.4305 669.014 0.996077 0.0873711 0.0140055
101.99 109.47 661.831 0.9425 0.311792 0.120331
67.831 89.283 648.617 0.00106784 -0.863627 -0.50413
102.481 110.548 618.732 0.921731 -0.33421 -0.196762
102.906 119.823 617.391 0.999862 0.0165597 0.00144401
62.2505 89.3913 647.303 0.104851 -0.881002 -0.461348
57.4156 84.4812 657.601 0.162925 -0.942194 -0.292789
74.5522 106.315 612.186 0.613974 -0.787004 -0.0604999
65.8963 85.631 652.576 0.0108795 -0.901476 -0.432692
75.4003 106.275 614.67 0.467365 -0.869871 -0.15778
76.4997 106.585 617.408 0.306796 -0.910523 -0.27717
80.7666 107.288 616.164 0.143109 -0.909385 -0.390562
85.7116 108.093 615.092 0.0146952 -0.89206 -0.451678
91.2509 108.282 615.91 0.0641017 -0.889728 -0.451968
93.407 100.545 628.41 0.0758168 -0.86188 -0.501412
99.2343 105.123 620.202 0.328695 -0.789608 -0.518149
102.893 110.298 621.607 0.969326 -0.221201 -0.107132
102.89 119.82 620.349 0.999779 0.0210063 0.000334636
103.142 105.722 663.862 0.951791 0.285654 0.111784
104.462 96.77 670.227 0.988229 0.148698 0.0359383
101.365 109.625 664.195 0.938041 0.323593 0.123961
68.9057 87.7637 649.635 0.010687 -0.868346 -0.495843
98.4352 134.459 629.214 0.929972 0.303199 0.207899
70.8485 90.7331 641.704 -0.0513287 -0.871405 -0.487872
80.8985 91.744 642.18 0.0420229 -0.8547 -0.517419
84.4955 88.051 647.604 -0.0207461 -0.875128 -0.483446
90.805 84.7651 653.719 0.0264671 -0.890992 -0.453246
100.404 93.9263 639.58 0.308779 -0.82892 -0.466418
102.568 92.2589 643.646 0.58848 -0.695927 -0.411554
103.779 92.6264 648.809 0.896889 -0.348031 -0.272882
104.5 103.627 643.837 0.999886 -0.00812185 0.0127418
104.347 108.085 641.812 0.996195 0.0796314 -0.0354028
104.289 95.3777 655.322 0.997607 0.00584013 -0.0688897
99.3655 131.736 630.061 0.934661 0.289577 0.206285
103.606 112.952 647.644 0.964613 0.244261 0.0992902
102.469 125.295 626.014 0.971971 0.200825 0.122232
100.631 129.624 627.784 0.94446 0.269479 0.188088
69.8717 101.419 622.834 0.583609 -0.787928 -0.196394
70.3896 101.372 625.654 0.408666 -0.855675 -0.317509
71.6348 90.0292 644.243 -0.0542585 -0.899431 -0.433682
72.5246 89.739 647.29 -0.0120319 -0.905117 -0.424992
76.3802 90.6921 643.17 0.0395878 -0.888702 -0.456772
81.9805 90.9103 644.213 0.0172456 -0.857335 -0.51447
86.4125 91.6175 642.8 0.014111 -0.833489 -0.552356
89.4156 84.4731 655.487 0.0199844 -0.897966 -0.439612
95.0408 89.0742 647.576 0.0546454 -0.858789 -0.509406
95.6961 88.4875 649.692 0.0628713 -0.848169 -0.525982
101.369 93.4899 641.838 0.490401 -0.763632 -0.419968
102.789 94.4078 644.41 0.791831 -0.521592 -0.317719
103.307 94.3606 647.23 0.932825 -0.292057 -0.211045
104.182 94.8649 650.25 0.974718 -0.158817 -0.157166
104.235 95.1213 652.786 0.995704 -0.0234503 -0.0895739
103.875 103.781 646.2 0.999658 0.0206747 0.0159953
103.424 112.552 641.84 0.987261 0.158461 0.0143766
103.657 112.669 644.714 0.975927 0.210128 0.0584165
74.3198 90.3326 645.102 -0.000340539 -0.908231 -0.418469
84.0376 91.9041 642.788 0.0224148 -0.829375 -0.558242
93.7833 90.5038 645.881 0.0524281 -0.867908 -0.49395
102.011 129.148 621.198 0.967936 0.201748 0.149659
101.551 127.044 627.138 0.95576 0.253012 0.150027
104.339 110.574 640.378 0.994667 0.0959964 -0.0377012
78.4934 91.2587 641.294 0.0626308 -0.855555 -0.513909
79.4987 93.2561 640.512 0.0644112 -0.832864 -0.549717
97.6441 89.05 647.984 0.0885818 -0.860921 -0.500968
103.899 101.296 644.676 0.999164 -0.0408112 -0.002507
72.2487 102.398 623.54 0.368458 -0.874333 -0.315879
89.4551 92.0328 643.155 0.0373566 -0.832609 -0.5526
87.9317 89.9367 644.582 0.0236717 -0.839897 -0.54223
102.838 122.674 624.661 0.992043 0.109404 0.062304
89.7353 120.291 585.442 0.693756 -0.72018 -0.00652215
90.4498 120.324 587.83 0.542383 -0.821873 -0.1742
98.8723 114.448 604.546 0.423178 -0.795465 -0.433769
99.778 162.388 572.735 0.962596 0.232291 0.139462
103.646 128.319 599.823 0.998378 0.0266254 -0.0503191
102.783 129.395 588.1 0.972768 -0.190025 -0.132712
97.6733 115.679 602.738 0.274173 -0.864476 -0.421319
96.2701 114.05 603.997 0.175117 -0.87237 -0.456403
94.5101 125.229 582.024 0.623031 -0.734852 -0.268002
86.6026 117.63 588.117 0.720221 -0.68763 0.0918991
85.003 115.647 588.811 0.781875 -0.595181 0.185556
102.926 131.839 608.782 0.994541 0.0802319 0.0667099
103.429 129.363 609.712 0.996308 0.0701912 0.0494325
102.851 131.77 587.399 0.998305 -0.0387721 -0.0433993
103.005 127.312 589.423 0.933691 -0.316939 -0.166645
102.525 127.302 586.97 0.842701 -0.453017 -0.290914
96.7373 126.081 582.91 0.52679 -0.755213 -0.390059
86.626 116.202 586.453 0.805021 -0.558989 0.198678
103.59 128.983 607.134 0.998954 0.0415497 0.0190961
102.858 128.625 604.426 0.99973 0.0230142 0.00320896
95.9577 126.38 580.004 0.658685 -0.704929 -0.263077
91.6004 119.749 589.441 0.470078 -0.844597 -0.256285
97.7024 125.645 585.168 0.479957 -0.766575 -0.426619
93.9858 113.445 605.505 0.0484865 -0.899533 -0.434153
102.295 132.184 589.34 0.999753 -0.000178417 -0.0222064
102.706 131.934 592.216 0.998859 0.0411179 -0.0243049
103.024 135.278 602.024 0.989086 0.140737 -0.0436211
102.338 137.665 600.417 0.984875 0.166467 -0.0480698
100.666 150.672 589.181 0.954717 0.259215 0.146022
101.65 150.011 587.157 0.972839 0.205996 0.105597
101.858 137.656 597.964 0.98899 0.143885 -0.0345696
103.4 126.621 605.652 0.999884 0.013776 0.00647714
104.033 123.978 604.723 0.995583 -0.0924215 -0.0164853
103.033 119.719 608.263 0.971284 -0.212262 -0.107484
102.69 132.989 595.034 0.994992 0.0834068 -0.0550923
102.679 115.62 610.624 0.888041 -0.388074 -0.246541
101.536 115.512 605.04 0.701625 -0.634279 -0.324673
100.98 128.453 582.805 0.755521 -0.541953 -0.36807
99.4497 126.489 583.601 0.568835 -0.70985 -0.41538
93.3305 114.032 603.39 0.0639631 -0.894832 -0.441797
92.0145 115.66 601.807 0.106527 -0.894017 -0.435184
89.2921 112.989 606.833 0.0607184 -0.904998 -0.421061
88.6368 113.576 604.717 0.120683 -0.916536 -0.381311
86.8895 112.732 606.284 0.135487 -0.922982 -0.360204
89.1243 117.198 594.877 0.366355 -0.888601 -0.275994
84.0602 112.722 605.819 0.235601 -0.930739 -0.279673
88.3397 117.268 592.126 0.491559 -0.855628 -0.162086
83.4666 112.476 603.083 0.357076 -0.918642 -0.169096
86.4653 116.363 594.228 0.520977 -0.838665 -0.15882
81.5257 111.948 605.129 0.392682 -0.901633 -0.181267
82.4809 112.403 600.627 0.516482 -0.85408 -0.0615848
81.605 111.899 597.607 0.707693 -0.703308 0.0672964
78.5619 111.192 604.183 0.599831 -0.799508 -0.0314789
102.648 119.226 605.725 0.920841 -0.346558 -0.178745
99.8374 114.012 606.804 0.541174 -0.724038 -0.427668
78.3209 110.845 601.956 0.689725 -0.715531 0.110882
103.17 133.308 602.615 0.994509 0.0984268 -0.0355641
101.583 139.792 599.232 0.979466 0.200866 -0.0172754
103.477 124.392 606.664 0.998027 -0.061113 -0.0143891
102.484 134.327 596.02 0.992384 0.113715 -0.0473636
92.3628 112.89 607.863 0.0440368 -0.893919 -0.44606
80.3707 111.153 599.516 0.690456 -0.71231 0.126039
101.977 127.034 584.938 0.806539 -0.502293 -0.311764
99.9117 150.994 593.403 0.943768 0.279555 0.176495
83.0833 106.142 616.428 0.0264386 -0.906122 -0.42219
100.207 112.687 661.149 0.938429 0.316885 0.137605
102.775 112.328 651.274 0.950595 0.276103 0.141904
102.478 108.797 660.312 0.943608 0.307492 0.12269
75.7914 106.915 612.757 0.493323 -0.853615 -0.167253
67.6254 88.505 649.883 0.0137907 -0.86268 -0.505562
76.2256 105.548 619.096 0.276156 -0.900295 -0.336461
82.4957 110.162 613.471 0.122509 -0.893113 -0.432829
91.0377 107.274 617.823 0.049987 -0.900682 -0.431594
100.425 106.38 620.576 0.477588 -0.750024 -0.457573
102.86 120.252 615.869 0.99993 0.0106109 -0.00527406
102.982 118.506 621.728 0.999954 0.0077938 -0.00559233
103.294 104.437 665.467 0.953268 0.281086 0.110769
104.63 97.6045 668.595 0.986611 0.156718 0.0451461
100.639 104.67 620.744 0.452532 -0.760562 -0.465575
102.499 108.509 663.298 0.941741 0.313774 0.121117
61.9666 88.4854 648.952 0.100437 -0.86792 -0.486443
58.8888 84.2875 657.721 0.0790444 -0.944013 -0.320298
56.8341 83.5222 659.485 0.154364 -0.941817 -0.298584
73.9097 105.326 613.844 0.585764 -0.80806 -0.0626078
65.9571 86.7918 650.929 0.0139047 -0.878555 -0.477439
67.428 85.2386 652.583 -0.0192072 -0.890662 -0.45426
76.8735 106.082 614.79 0.378896 -0.89765 -0.225082
81.0896 108.258 614.324 0.149693 -0.910696 -0.385
84.0502 110.458 611.536 0.101226 -0.892067 -0.440421
85.0641 106.875 616.904 -0.0159623 -0.904645 -0.425867
86.992 107.352 614.844 0.0140791 -0.888083 -0.459468
89.1561 105.685 618.91 0.0355683 -0.911252 -0.410311
92.6439 107.777 616.142 0.0791765 -0.878731 -0.470705
93.0035 107.32 618.763 0.0295827 -0.883598 -0.46731
93.8197 102.058 626.622 0.00416332 -0.864063 -0.503367
94.9172 100.324 628.401 0.0447762 -0.875224 -0.481641
98.9602 104.086 621.89 0.206016 -0.850489 -0.483969
101.187 104.938 622.776 0.667706 -0.665288 -0.334007
102.764 109.097 618.478 0.865706 -0.417606 -0.275967
103.426 109.196 621.609 0.955382 -0.250717 -0.156159
102.74 111.582 620.002 0.970389 -0.212393 -0.115043
103.341 113.913 619.162 0.994541 -0.0886859 -0.0549879
103.188 118.372 617.137 0.999941 -0.00674918 -0.0084991
103.217 121.114 621.197 0.999132 0.0414848 0.0039105
104.997 95.0474 659.974 0.998054 0.0459828 -0.0421185
104.905 95.4678 667.326 0.995775 0.0898529 0.0189112
101.281 111.168 662.167 0.938087 0.318695 0.135747
104.889 95.4649 670.284 0.991743 0.123334 0.0351481
64.3262 88.9438 646.654 0.0508655 -0.878007 -0.475937
64.6858 88.487 649.276 0.0223719 -0.853227 -0.521059
77.912 106.362 617.303 0.238043 -0.909927 -0.339658
78.2599 105.853 619.614 0.165972 -0.902875 -0.396572
88.3253 106.867 617.132 0.0371163 -0.906577 -0.420406
97.7657 108.036 617.014 0.19739 -0.840262 -0.504972
103.348 117.992 614.56 0.997687 -0.0483914 -0.0477453
100.435 112.348 663.347 0.935152 0.32437 0.142387
69.5531 89.1184 648.322 -0.00987748 -0.872879 -0.487836
69.7042 100.585 624.466 0.536632 -0.816056 -0.214659
82.2547 91.9476 642.525 0.0233693 -0.845335 -0.533726
86.4 90.3291 644.574 0.01469 -0.840275 -0.541961
96.1606 89.8438 648.033 0.0611797 -0.857586 -0.510688
101.212 92.0553 643.301 0.440674 -0.771556 -0.458811
102.743 94.8369 642.889 0.72784 -0.606828 -0.319387
104.205 95.5533 648.307 0.972636 -0.180393 -0.146418
104.15 104.819 644.512 0.999491 0.019783 0.0250438
104.388 93.8369 654.391 0.994324 -0.0428532 -0.0973853
103.523 111.321 646.037 0.979891 0.18216 0.0814316
94.6372 87.6565 649.128 0.0530885 -0.847478 -0.528168
98.4736 133.345 629.72 0.930351 0.300025 0.210791
103.378 113.51 640.249 0.987148 0.158916 0.0168854
70.9385 101.331 622.558 0.561725 -0.79915 -0.214064
71.5618 89.271 646.135 -0.0367444 -0.900095 -0.434142
73.2182 89.8437 644.505 -0.0126572 -0.90868 -0.417302
76.6544 91.7293 641.482 0.0395275 -0.861709 -0.50586
77.9119 90.2997 643.177 0.0303844 -0.88275 -0.46886
80.6243 90.7068 643.868 0.0133389 -0.86452 -0.502422
84.7697 89.0883 645.917 -0.0110502 -0.847745 -0.530288
89.5247 85.5063 653.967 0.0204329 -0.892129 -0.451318
100.678 94.9636 637.892 0.310092 -0.806389 -0.503567
103.322 93.3055 644.412 0.796836 -0.523954 -0.300873
103.947 93.4609 647.176 0.901389 -0.359247 -0.241743
104.533 93.673 649.574 0.956048 -0.235764 -0.174321
103.018 124.195 623.058 0.989598 0.131073 0.0593005
104.226 102.59 645.525 0.999932 -0.00716071 0.00919063
102.492 125.983 624.071 0.977848 0.177074 0.111619
104.073 107.048 643.5 0.998687 0.0506753 0.0074798
104.563 96.4149 653.634 0.997509 0.00611361 -0.0702697
103.919 111.506 641.475 0.992334 0.123555 -0.0026589
101.805 128.37 622.464 0.969562 0.204398 0.1348
101.709 128.479 625.675 0.951948 0.253426 0.171961
74.1248 89.6059 646.875 -0.0105753 -0.901346 -0.43297
83.4604 90.3111 643.967 0.00442476 -0.851141 -0.524919
94.0574 91.5411 644.193 0.0503637 -0.846411 -0.530143
103.817 111.317 639.091 0.994535 0.0947939 -0.0437424
79.8566 94.4097 638.909 0.0534614 -0.814943 -0.57707
97.2862 87.8964 649.587 0.0931164 -0.847962 -0.521813
104.138 102.618 642.96 0.999699 -0.0239737 -0.00514569
71.9364 101.667 625.197 0.370265 -0.864141 -0.34083
88.3277 90.9425 643.013 0.0303479 -0.830905 -0.555586
104.111 100.078 670.623 0.967854 0.239203 0.0777251
64.5475 84.307 658.652 -0.0430501 -0.934545 -0.35323
79.0521 109.397 610.072 0.437364 -0.856875 -0.272906
99.5404 112.286 610.435 0.475105 -0.753364 -0.454662
102.716 114.068 621.525 0.998182 -0.0435156 -0.0417093
103.196 114.077 623.979 0.999608 -0.0213127 -0.0181646
100.641 116.738 651.267 0.920812 0.356426 0.158322
63.6053 84.8299 656.253 -0.0244328 -0.931359 -0.363283
102.219 112.742 653.215 0.940962 0.3 0.156816
76.9876 109.524 605.074 0.684962 -0.728398 0.0162047
78.204 109.436 607.588 0.556565 -0.809817 -0.185557
80.4312 110.289 608.474 0.418304 -0.86455 -0.278524
88.0885 111.501 608.092 0.0738918 -0.897768 -0.434226
88.9342 111.233 610.238 0.0458456 -0.866138 -0.497697
90.2527 109.834 612.159 0.0587109 -0.868833 -0.491612
93.9401 112.068 609.391 0.0609138 -0.894832 -0.442227
102.604 109.696 615.858 0.78593 -0.507672 -0.352963
103.09 115.37 613.499 0.95175 -0.242572 -0.187965
103.524 112.197 625.246 0.999753 -0.0150249 -0.0163474
103.419 114.795 627.023 0.9999 -0.00964785 0.0103454
104.928 92.9822 665.803 0.999742 0.0221489 0.00495344
100.267 117.241 653.885 0.919745 0.355747 0.165869
101.448 114.867 654.988 0.930178 0.325815 0.169156
104.621 101.899 661.753 0.982949 0.179651 0.0391966
105.111 91.2659 671.887 0.999395 0.0246077 0.0245916
103.554 100.492 672.564 0.962058 0.252636 0.103048
102.807 101.499 677.801 0.949597 0.27148 0.156729
62.3149 85.7151 655.008 0.00820257 -0.932142 -0.362001
40.5177 94.2611 686.342 0.221507 -0.747902 0.625761
80.9723 106.26 620.305 0.065621 -0.888709 -0.453751
75.6086 108.632 606.672 0.732975 -0.680167 -0.0109325
66.2214 84.4342 656.83 -0.0516457 -0.927312 -0.370708
82.0582 112.164 607.639 0.287887 -0.912439 -0.290821
86.4748 110.586 609.757 0.0847083 -0.876883 -0.473182
92.1343 111.423 611.072 0.0545831 -0.870373 -0.489358
92.6216 97.406 633.345 0.087071 -0.849768 -0.519917
100.057 108.235 615.139 0.411621 -0.780184 -0.471042
101.336 110.667 614.472 0.68752 -0.607466 -0.397872
102.984 113.052 613.835 0.897934 -0.359115 -0.254462
103.35 109.619 626.004 0.991578 -0.098741 -0.0838064
103.332 117.022 627.983 0.999272 0.031043 0.0221856
