ply
format ascii 1.0
element vertex 886
property float x
property float y
property float z
property float nx
property float ny
property float nz
end_header
-2.69907 101.029 580.298 0.0725155 -0.800228 -0.595296
4.90113 103.184 577.009 -0.0724272 -0.785451 -0.614672
7.90461 103.052 577.141 -0.0143676 -0.825189 -0.564674
-34.0206 83.3867 612.124 -0.00949218 -0.8986 -0.438665
-31.4317 82.8707 611.92 -0.00830695 -0.893321 -0.449343
-32.1886 82.5774 614.337 -0.0134457 -0.882901 -0.469367
-32.7033 80.982 616.258 -0.00317075 -0.868744 -0.495251
-9.39178 88.9851 602.601 0.0530214 -0.878209 -0.475329
-19.0342 83.192 611.084 0.0372482 -0.898635 -0.437112
-16.7486 84.2979 611.313 0.0277696 -0.902662 -0.429454
-17.3036 82.9195 613.317 0.0238509 -0.906883 -0.420707
-15.4518 81.9959 615.302 -0.0160614 -0.90707 -0.420672
-12.9642 82.0168 615.118 -0.00501013 -0.894365 -0.44731
-13.4392 81.3367 617.679 -0.0468651 -0.879764 -0.473096
-14.0939 79.3779 619.478 -0.0709881 -0.879115 -0.471294
-24.2367 75.366 628.282 0.0910379 -0.884638 -0.457304
-21.5926 75.4408 628.168 0.0530406 -0.886183 -0.46029
-16.6982 75.9165 627.966 -0.0335665 -0.886751 -0.461027
-22.248 74.6143 630.69 0.078463 -0.883255 -0.462281
-18.1508 73.8719 631.952 -0.0516765 -0.870351 -0.489712
-9.03432 76.0264 627.724 0.00308075 -0.907803 -0.419387
-6.6672 75.5659 627.065 -0.0338602 -0.901274 -0.431924
15.8096 165.032 508.007 0.087533 -0.443964 -0.891759
-6.95628 99.2329 576.885 0.569209 -0.32113 0.756886
-1.84011 107.24 574.494 0.306318 -0.943429 -0.126925
99.3529 121.523 595.162 0.714923 -0.612642 -0.336978
100.952 131.1 588.274 0.993593 -0.0807233 -0.0790997
100.394 128.533 587.684 0.930169 -0.31867 -0.182303
94.5109 122.885 586.128 0.533865 -0.790742 -0.299525
93.0737 123.153 584.118 0.625298 -0.7548 -0.198193
91.736 121.505 585.775 0.650946 -0.740317 -0.16793
93.3879 123.569 581.164 0.731736 -0.67861 -0.0636413
51.2407 97.4138 589.925 -0.0503102 -0.894539 -0.444149
48.8339 96.959 589.944 -0.0386964 -0.903948 -0.425888
-71.6692 93.099 588.095 0.0420309 -0.83481 -0.548932
-68.4545 96.8059 583.966 0.0420337 -0.862802 -0.503792
-70.8414 96.8087 584.305 0.0168033 -0.846593 -0.531975
-69.9684 97.3729 582.04 0.0126877 -0.844828 -0.534888
-81.8614 93.7515 588.965 0.0352087 -0.849969 -0.525655
-86.675 92.8418 589.002 0.0864477 -0.870723 -0.484115
-91.3279 92.1964 589.432 0.0215022 -0.873396 -0.486536
-90.974 93.5275 587.118 0.0180788 -0.864524 -0.502267
-89.9579 94.6467 584.676 0.0348812 -0.868539 -0.494392
-86.781 97.4665 580.841 0.0757453 -0.871487 -0.484534
-88.3912 98.2203 579.083 0.0629407 -0.867092 -0.494155
-134.786 96.2896 603.834 -0.397619 -0.582137 0.709236
-88.4328 100.185 576.93 0.0747161 -0.848881 -0.523276
-134.583 94.0722 602.697 -0.396149 -0.58136 0.710694
-131.652 92.8383 602.327 -0.37746 -0.664381 0.645075
-86.5053 102.285 573.03 0.0477849 -0.869406 -0.491782
-89.4148 102.287 572.946 0.0762812 -0.854572 -0.513699
-91.2578 101.059 573.255 0.0672853 -0.845421 -0.529845
-91.307 103.428 571.044 0.0622063 -0.861402 -0.504101
-96.2549 101.098 572.729 -0.000808636 -0.867967 -0.496622
-93.078 103.917 568.894 0.0571843 -0.862578 -0.502682
-128.681 90.9683 591.549 -0.0182499 -0.91199 -0.409806
-95.6059 104.114 569.16 0.0427215 -0.868003 -0.494717
-131.088 90.5135 591.567 -0.0346922 -0.917055 -0.397249
-94.9702 105.058 566.991 0.0528732 -0.881798 -0.468654
-130.66 91.8335 589.655 -0.0194 -0.888136 -0.45917
-99.2691 105.744 565.108 0.0540544 -0.889413 -0.453897
-103.967 105.105 565.297 0.0181704 -0.889305 -0.456954
-102.932 107.374 561.055 -0.00391372 -0.873886 -0.486114
-99.9162 109.929 556.827 -0.101617 -0.924701 -0.366882
-101.232 110.582 554.805 -0.110241 -0.929108 -0.352994
-111.377 109.413 557.623 0.0153809 -0.889794 -0.456102
-114.179 109.592 557.802 0.0199501 -0.900271 -0.434871
-116.586 109.137 557.82 0.0383448 -0.894234 -0.445955
-116.071 110.733 555.9 0.0144953 -0.894771 -0.446289
-117.4 111.1 554.287 -0.0159476 -0.881204 -0.472467
-120.652 111.805 553.871 -0.0101014 -0.868697 -0.495242
-129.105 109.467 558.905 -0.0587889 -0.843436 -0.534003
-131.512 109.012 558.924 -0.0288096 -0.80964 -0.586219
-131.158 110.343 556.61 -0.138828 -0.813013 -0.565453
-19.282 -20.1037 507.785 -0.0429536 -0.0778118 0.996042
-17.1055 -18.0605 507.852 0.00522872 -0.0636632 0.997958
0.230411 -12.1248 503.761 0.430662 0.198309 0.880457
0.94557 -9.34974 502.874 0.49332 0.208149 0.844576
-9.79509 -8.78132 506.889 0.365754 -0.0647803 0.928454
2.8017 -6.04994 501.166 0.589339 0.264829 0.763247
-8.20131 -6.97913 506.297 0.438402 -0.0564247 0.897006
-10.2667 -6.44766 507.421 0.449287 -0.127367 0.884262
-5.36129 -3.36247 505.246 0.568439 0.0554603 0.820854
-10.8921 -3.65019 508.341 0.552069 -0.269188 0.78915
-9.17034 -1.77088 508.28 0.655077 -0.211521 0.72535
-10.9339 -1.16844 509.87 0.639643 -0.352794 0.68293
-23.3561 -2.17918 517.546 0.292162 -0.646412 0.704835
-24.4177 -0.87318 519.647 0.221686 -0.58063 0.783405
-25.0318 1.31797 520.652 0.197829 -0.56993 0.797523
-19.3089 1.72138 518.356 0.305738 -0.604012 0.735998
-23.118 3.31296 521.39 0.207032 -0.545159 0.812366
-25.4539 3.62481 522.455 0.127581 -0.519549 0.844862
-66.4015 95.9297 586.261 0.0545003 -0.85731 -0.511907
-67.2179 94.2633 587.717 0.0694335 -0.851523 -0.5197
-64.6503 94.9825 588.091 0.0412337 -0.863947 -0.501891
41.5093 137.664 529.905 0.348755 -0.250558 -0.903101
26.8289 118.611 547.889 -0.0406219 -0.903664 -0.426311
26.4007 117.291 549.802 -0.0479517 -0.898355 -0.436646
28.7879 117.863 550.136 -0.0456238 -0.89107 -0.451567
37.4206 120.348 545.142 -0.00438613 -0.899569 -0.436757
40.1993 119.914 544.615 -0.0744263 -0.904388 -0.420169
41.8407 119.011 546.778 -0.0699669 -0.909696 -0.409338
36.29 118.266 549.552 0.0962662 -0.835511 -0.540975
41.0838 118.718 549.195 -0.0289846 -0.888736 -0.457502
43.8937 118.135 549.073 -0.0980713 -0.891257 -0.442767
33.2124 112.435 559.828 -0.0464864 -0.891172 -0.451278
33.078 111.015 561.476 -0.0620845 -0.884448 -0.462491
31.7081 108.564 566.232 -0.0499056 -0.889269 -0.454655
36.2447 108.939 565.65 0.0163762 -0.903658 -0.427941
29.1649 104.787 574.907 -0.0634587 -0.895069 -0.441389
16.4703 100.879 584.008 0.041846 -0.85231 -0.521361
31.5321 104.326 574.248 -0.0325616 -0.892484 -0.449902
28.2472 104.229 576.931 -0.0555171 -0.896831 -0.438876
27.6323 102.729 578.956 -0.0222706 -0.908404 -0.4175
26.5014 100.528 583.107 0.0164653 -0.911651 -0.410636
31.081 101.203 582.899 -0.00602263 -0.916122 -0.400853
38.2871 101.727 578.323 0.0124901 -0.904923 -0.425392
36.8859 102.075 580.254 -0.0275471 -0.912818 -0.407436
36.4516 100.611 582.372 -0.052312 -0.917957 -0.393216
38.8584 101.066 582.353 -0.0553063 -0.899404 -0.433605
41.3864 100.87 582.086 -0.0271774 -0.880877 -0.472565
44.4782 99.9005 582.11 -0.0228743 -0.870172 -0.492218
46.7015 101.304 581.528 -0.0536311 -0.876033 -0.47926
45.9226 99.8043 583.874 -0.00908364 -0.888614 -0.458565
45.0496 99.24 586.139 -0.0424874 -0.907592 -0.417698
47.6384 98.724 585.936 -0.00548914 -0.90903 -0.416694
43.1157 97.5631 590.605 -0.0768382 -0.901162 -0.426617
49.4085 98.2194 587.587 -0.0242081 -0.899335 -0.43659
99.3744 122.058 593.096 0.720288 -0.617822 -0.315405
100.949 131.044 586.404 0.98731 -0.115334 -0.109169
-84.5274 92.4707 589.009 0.0899045 -0.862788 -0.497509
-135.109 99.1581 605.218 -0.397712 -0.670951 0.625819
-102.283 110.39 557.487 -0.0927865 -0.911324 -0.401098
-19.9153 -17.4776 507.974 -0.0288302 -0.0943457 0.995122
-17.6003 1.52915 519.695 0.310782 -0.585315 0.74888
-20.2494 2.37635 520.209 0.264346 -0.577467 0.772434
40.5974 133.766 531.629 0.29725 -0.383427 -0.874429
36.2834 119.88 547.832 0.0738983 -0.863501 -0.498903
34.7242 111.12 562.004 -0.0351576 -0.87918 -0.475192
92.7508 112.32 573.082 0.900159 -0.245919 0.359496
93.1247 114.685 571.762 0.90237 -0.207462 0.377741
95.7156 120.642 568.814 0.901486 -0.173272 0.396609
93.2485 111.788 570.69 0.890603 -0.409335 0.198169
89.844 107.793 570.105 0.44912 -0.846745 -0.285155
37.3875 91.9853 600.099 0.0243616 -0.934992 -0.353832
38.1848 92.0616 597.6 -0.0129988 -0.909567 -0.415355
-130.562 101.832 613.863 -0.166241 -0.984807 -0.0501967
-82.0784 90.3458 594.104 0.0395054 -0.855083 -0.516984
-81.4906 91.9113 591.961 0.0267135 -0.845836 -0.532773
-83.8974 91.4565 591.979 0.0804355 -0.859617 -0.504568
-92.409 88.321 596.726 0.0309488 -0.895789 -0.443401
-73.0836 99.2336 579.263 0.00499735 -0.882583 -0.47013
-78.8358 98.322 581.468 0.0516962 -0.886726 -0.459396
-136.154 102.592 607.79 -0.316217 -0.871001 0.375983
-80.1641 98.6891 579.855 0.0758294 -0.898617 -0.432131
-100.356 91.4408 590.836 0.035929 -0.878241 -0.476867
-76.6269 100.651 574.753 0.0191436 -0.944516 -0.327908
-102.365 92.3104 588.782 0.031334 -0.879863 -0.474194
-98.8076 95.3051 584.674 0.0382564 -0.86449 -0.501192
-97.2616 97.2113 580.424 0.0207468 -0.872077 -0.488929
-104.999 97.1313 580.887 -0.000398554 -0.872692 -0.488271
-106.255 99.2162 576.816 0.000251858 -0.862179 -0.506603
-117.275 96.159 581.476 -0.0149618 -0.867716 -0.496836
-108.662 98.7613 576.835 0.00044926 -0.872887 -0.487922
-120.367 97.1286 581.453 -0.00814664 -0.876492 -0.481348
-110.039 101.497 573.012 -0.00765624 -0.873001 -0.487658
-115.489 99.6432 575.217 -0.00444028 -0.876663 -0.481085
-115.095 101.89 573.545 0.00862165 -0.880334 -0.474276
-117.502 101.435 573.563 0.0235979 -0.886393 -0.462332
-112.939 104.149 567.322 -0.009588 -0.887327 -0.461041
-112.834 106.054 564.724 -0.0169284 -0.879323 -0.475926
-111.342 107.872 560.344 -0.0249523 -0.888127 -0.458921
-113.93 108.403 561.046 0.0065951 -0.88902 -0.457821
-107.721 112.453 549.414 -0.0447345 -0.936238 -0.348508
-109.492 112.942 547.263 -0.0699453 -0.942828 -0.325857
-117.973 114.64 548.744 -0.112613 -0.913848 -0.390128
-122.07 113.626 549.407 -0.0596596 -0.871913 -0.486013
-128.144 112.861 551.136 -0.173636 -0.818251 -0.54801
-28.3442 -11.3526 507.939 -0.0569195 -0.518208 0.853359
-20.1713 -6.09717 511.24 0.246001 -0.616737 0.747742
-14.0579 -1.0013 512.946 0.543419 -0.564939 0.620919
-11.5131 0.930533 513.15 0.691845 -0.48773 0.532419
-8.8008 6.81207 510.627 0.889856 -0.406394 0.207366
-4.65241 14.9032 506.03 0.942025 -0.299026 -0.152222
-82.5199 88.7205 595.803 0.0127458 -0.872393 -0.488638
-80.6769 89.9488 595.494 0.00387322 -0.844656 -0.535295
-128.529 101.073 616.511 -0.0796182 -0.967391 -0.240447
-77.5851 88.9792 595.518 -0.0103619 -0.842208 -0.539052
37.8464 123.397 540.37 -0.0141266 -0.840195 -0.5421
39.9316 123.323 539.566 -0.000110216 -0.811291 -0.584643
49.8408 124.756 539.636 0.18426 -0.630873 -0.75369
54.6184 125.866 539.861 0.209844 -0.606638 -0.766783
54.2003 123.745 541.396 0.216995 -0.658082 -0.721
21.4813 107.66 570.263 -0.0459179 -0.920676 -0.387617
18.266 106.378 574.48 0.0301487 -0.887762 -0.459314
19.9709 106.129 573.949 -0.00824589 -0.880951 -0.473135
22.9416 105.811 574.22 -0.0310155 -0.88661 -0.461477
24.8697 104.469 575.861 -0.0587713 -0.876017 -0.478686
18.6142 100.451 582.145 0.000872078 -0.882533 -0.47025
41.5454 108.279 568.761 0.0485629 -0.888972 -0.45538
37.9881 105.285 572.869 0.0300457 -0.886708 -0.461353
40.5161 105.089 572.602 0.0300103 -0.889786 -0.45539
39.5656 104.344 574.766 0.0362308 -0.905411 -0.422988
23.7173 95.7878 590.831 0.0845063 -0.88398 -0.459824
25.0456 95.4207 592.444 0.0965424 -0.885875 -0.453768
32.8615 97.9467 590.302 -0.01184 -0.905239 -0.424738
35.7445 97.334 589.959 -0.03656 -0.895304 -0.443953
34.7744 96.707 592.475 -0.0373311 -0.878453 -0.476368
34.4729 95.4453 594.296 -0.0805657 -0.854624 -0.512959
33.0481 92.8879 598.298 -0.0372197 -0.872101 -0.487909
35.5357 92.9088 598.114 -0.0286984 -0.888601 -0.457783
-103.487 95.8158 583.063 0.0188035 -0.860571 -0.508983
-102.263 96.5594 580.365 0.0239288 -0.862557 -0.505393
-106.683 97.8961 578.729 -0.0235489 -0.869985 -0.492515
-118.412 95.6908 584.166 -0.00655285 -0.860363 -0.50964
-2.18961 -14.6512 505.179 0.312213 0.147802 0.938444
-2.33777 4.60511 499.919 0.724136 0.288191 0.626557
-4.71101 14.7398 503.406 0.965914 -0.231001 -0.116829
-128.555 102.229 614.471 -0.164959 -0.983442 -0.0750383
40.9381 127.726 535.554 0.13423 -0.670524 -0.729644
25.6063 97.5084 590.597 0.0910934 -0.893023 -0.440696
22.737 86.4804 612.773 -0.00966145 -0.866421 -0.499221
-6.13553 73.9901 630.454 -0.0239284 -0.886233 -0.462621
-3.10613 73.3178 629.666 -0.0173746 -0.886472 -0.462456
-8.66347 74.1862 630.72 0.009802 -0.87706 -0.48028
8.33671 -12.5564 493.731 0.967388 -0.245928 -0.060661
8.02064 -12.3153 496.372 0.97903 -0.171311 0.110238
7.58643 -14.4636 497.868 0.966341 -0.198459 0.163701
7.10191 -11.8595 498.86 0.921207 -0.0125711 0.388869
-1.33242 29.5606 514.538 0.987623 -0.135793 0.0784901
22.8142 171.842 505.648 0.013309 -0.432763 -0.90141
25.0242 171.173 506.466 -0.00312154 -0.450019 -0.893013
26.3032 173.175 505.868 -0.0116636 -0.443348 -0.896274
-93.5128 80.8762 612.372 -0.271123 -0.962222 0.0249191
-93.803 81.0332 614.507 -0.367777 -0.875374 0.313783
-91.6554 80.6621 614.514 -0.37209 -0.901169 0.222358
-83.9901 78.5072 612.825 -0.103813 -0.941457 -0.320753
-89.2221 79.9608 616.535 -0.392149 -0.861816 0.321702
-84.5862 78.4782 615.635 -0.24144 -0.969154 -0.0494639
-85.7387 78.8184 618.212 -0.358677 -0.887872 0.288156
-80.1661 77.1415 617.271 -0.129436 -0.984609 -0.117439
-83.0054 77.9012 617.922 -0.290075 -0.953554 0.0811823
-3.46145 102.525 571.966 0.804507 -0.361232 0.471466
-4.13693 100.665 573.494 0.828581 -0.240528 0.50557
-1.94843 104.761 571.538 0.703102 -0.591399 0.394836
-0.398179 106.109 572.119 0.480676 -0.87296 0.0830108
2.58946 107.918 572.86 0.12643 -0.929445 -0.346624
-6.77106 101.738 581.488 0.0466327 -0.834839 -0.548516
-3.84005 100.504 581.118 0.0697318 -0.82127 -0.566263
4.18647 105.093 576.017 -0.0606681 -0.823701 -0.56377
3.41261 102.671 577.964 -0.0832157 -0.775384 -0.625984
3.14393 100.89 580.291 -0.0404521 -0.805367 -0.591394
-35.7629 82.754 613.136 0.015024 -0.890626 -0.454489
-36.2379 82.0739 615.697 0.0409499 -0.862126 -0.505037
-33.7099 81.8778 615.431 -0.00236992 -0.873586 -0.486664
-31.182 81.6816 615.164 -0.0118753 -0.880747 -0.473439
-28.5329 80.8344 614.65 0.000529271 -0.892677 -0.450697
-13.9557 86.8862 605.882 0.0236128 -0.900789 -0.433614
-14.5719 85.824 607.698 0.035687 -0.89694 -0.44071
-15.3124 85.4475 610.206 0.0336879 -0.89639 -0.441985
-12.5713 84.8784 610.485 0.0286456 -0.891673 -0.451773
-15.8762 81.9816 613.788 -0.00640994 -0.900673 -0.434449
-10.8879 84.0948 612.02 0.0375849 -0.889067 -0.456233
-11.4429 82.7164 614.024 0.0193818 -0.885718 -0.463819
-19.7174 77.4715 624.761 0.0135493 -0.883921 -0.46744
-19.7566 75.9409 627.08 0.0131574 -0.888978 -0.457761
-21.1056 73.8716 631.316 0.048948 -0.883538 -0.465795
-16.5689 74.246 630.734 -0.0652134 -0.87613 -0.477644
-10.5556 75.3268 628.818 0.00899725 -0.889993 -0.455886
-11.2311 73.467 630.346 0.0122314 -0.861023 -0.508419
24.7635 86.7604 613.027 -0.0356979 -0.858868 -0.510951
22.9924 87.2499 610.877 -0.0207476 -0.884501 -0.466076
-92.462 81.0693 609.69 -0.0961973 -0.955041 -0.280432
-26.9528 100.826 582.091 0.0889459 -0.903377 0.419522
-78.0185 76.7704 617.278 -0.0425068 -0.964025 -0.26239
-24.7655 101.37 582.738 -0.00287485 -0.982194 -0.187846
-4.85209 97.8901 574.381 0.774193 -0.00480875 0.632931
-5.3366 100.494 575.373 0.69741 -0.354244 0.623001
92.7175 110.982 571.875 0.874921 -0.429509 0.223685
93.4062 113.147 570.56 0.894279 -0.333452 0.298454
88.2821 107.307 571.157 0.321746 -0.907452 -0.270205
39.0901 92.2745 598.995 0.0109122 -0.929401 -0.368909
36.4212 92.6641 599.189 0.00960343 -0.919078 -0.393958
37.3389 93.2217 597.165 -0.0272319 -0.879673 -0.474799
-128.798 101.805 612.947 -0.197811 -0.972699 0.121359
-80.3231 91.2799 593.181 0.0166321 -0.853975 -0.520049
-83.0118 91.2117 593.055 0.0491327 -0.850586 -0.523535
-82.3761 92.1561 590.886 0.0581423 -0.855354 -0.514771
-93.8908 87.9612 597.787 0.0265347 -0.896757 -0.441728
-71.9767 98.2426 579.986 -0.0126399 -0.872784 -0.487944
-74.6258 99.0898 580.5 0.0229082 -0.882983 -0.468846
-77.3145 99.0216 580.374 0.0449453 -0.888792 -0.456101
-78.6428 99.3887 578.761 0.0616277 -0.893576 -0.444662
-137.079 101.921 606.075 -0.35082 -0.807253 0.474625
-78.1678 100.069 576.2 0.0667346 -0.904669 -0.420857
-99.0923 92.0629 589.518 0.0228182 -0.880105 -0.474231
-101.86 91.8908 590.13 0.0365245 -0.879552 -0.474399
-100.529 92.8106 587.694 0.0282549 -0.87758 -0.478596
-100.772 94.7278 585.23 0.0324701 -0.865645 -0.499604
-99.1091 96.329 581.435 0.0365954 -0.869677 -0.492263
-103.992 96.2355 581.715 0.0044271 -0.866994 -0.498298
-103.752 97.8134 579.706 0.0252216 -0.866471 -0.49859
-105.248 98.3204 577.643 0.00985307 -0.861701 -0.50732
-107.796 98.6345 578.263 -0.0215791 -0.87053 -0.491641
-118.796 95.4594 582.57 -0.0195879 -0.859656 -0.510497
-107.141 99.4609 575.741 0.00894672 -0.867204 -0.497873
-111.561 100.798 574.105 -0.0118157 -0.866841 -0.498445
-116.617 101.19 574.638 0.00875963 -0.876935 -0.480528
-116.142 101.87 572.077 0.0198234 -0.888549 -0.458354
-111.385 105.036 566.089 -0.0287495 -0.88651 -0.461815
-114.027 105.46 566.037 0.00309962 -0.882248 -0.470775
-113.366 107.63 561.336 0.00207958 -0.882789 -0.469764
-112.789 108.928 560.226 -0.00856038 -0.892918 -0.450138
-124.323 104.275 566.806 0.0574302 -0.873351 -0.483694
-119.22 113.958 549.926 -0.0606738 -0.889624 -0.452646
-126.844 113.631 550.085 -0.126264 -0.837696 -0.53134
-129.591 113.917 551.017 -0.230241 -0.797073 -0.558269
-29.7605 -10.4548 507.915 -0.0134154 -0.640318 0.767993
-1.04863 -14.1265 504.359 0.357857 0.166187 0.918869
-20.8126 -7.81132 509.983 0.153896 -0.520835 0.839671
-2.80327 5.94013 499.211 0.756784 0.268908 0.595791
-3.57712 3.51879 501.157 0.726945 0.238342 0.644006
-4.5044 6.24528 501.612 0.825801 0.145261 0.544933
-12.5366 -0.301678 511.852 0.619834 -0.493594 0.610057
-8.44723 7.56756 507.64 0.923467 -0.261087 0.281145
-9.28507 3.34124 510.934 0.853414 -0.332063 0.40177
-4.74133 16.3566 503.179 0.952877 -0.227427 -0.200754
-5.13486 14.1102 504.852 0.956586 -0.274204 -0.0987683
-3.93435 16.0079 504.992 0.940866 -0.276538 -0.195699
-8.67884 7.88783 512.4 0.838401 -0.506008 0.202585
-84.0412 88.0209 596.896 0.0101063 -0.884649 -0.466147
-127.052 101.779 615.177 -0.137748 -0.989683 -0.0394092
-129.696 101.705 615.291 -0.107577 -0.979122 -0.172475
-79.1064 88.2796 596.611 -0.0107304 -0.838364 -0.545005
39.2069 123.832 538.883 0.0088518 -0.796223 -0.604939
38.5711 122.888 541.052 -0.0151193 -0.84351 -0.5369
48.6506 126.6 538.246 0.202202 -0.602081 -0.772407
48.3025 121.928 540.26 0.12416 -0.73121 -0.670758
53.0051 124.889 540.161 0.210952 -0.634542 -0.743542
20.9208 107.489 568.826 -0.0450574 -0.924 -0.379728
20.0624 107.729 571.138 6.99413e-05 -0.913324 -0.407234
22.9738 106.613 571.121 -0.0708097 -0.911291 -0.405628
19.407 106.903 573.659 0.00436133 -0.889461 -0.456991
18.7315 105.043 575.187 -0.00811356 -0.879582 -0.475678
24.7486 105.87 572.931 -0.0873667 -0.898313 -0.430582
26.2389 105.099 574.877 -0.0936026 -0.88618 -0.453789
39.5498 105.767 571.693 0.0231836 -0.89111 -0.453195
38.9948 104.389 573.696 0.0253515 -0.891221 -0.452861
38.3722 105.516 574.465 0.0181568 -0.896557 -0.442557
41.4016 104.844 573.678 0.0408053 -0.892367 -0.449461
24.6747 97.2609 589.448 0.0642607 -0.882599 -0.465715
24.039 96.3165 591.617 0.0811551 -0.884102 -0.460193
26.6473 96.2525 591.547 0.079386 -0.890695 -0.447617
34.307 98.1584 588.974 -0.02123 -0.902769 -0.429602
33.9085 96.8339 591.047 -0.0285229 -0.888575 -0.457843
36.4761 97.5531 591.421 -0.0310225 -0.893654 -0.447683
32.9188 94.5584 595.529 -0.0540861 -0.844191 -0.533307
35.1876 93.5363 595.288 -0.0671525 -0.851814 -0.519522
31.5268 92.1883 599.392 -0.0151501 -0.889146 -0.457373
92.2266 114.009 573.433 0.891108 -0.158696 0.425137
-108.668 96.8027 581.974 -0.0350791 -0.866227 -0.498418
-118.564 97.4415 580.504 -0.0168479 -0.874458 -0.484809
-114.175 100.718 574.38 -0.0125985 -0.867535 -0.497217
-113.057 106.087 563.521 -0.0163668 -0.876941 -0.480319
-109.195 112.898 548.868 -0.03896 -0.935883 -0.350149
-123.873 113.313 550.356 -0.0638019 -0.859456 -0.507213
-128.195 115.211 548.302 -0.240348 -0.782942 -0.57379
-10.3375 -11.0058 507.759 0.285231 -0.0449802 0.957403
-78.8737 90.2617 594.546 -0.0160643 -0.843327 -0.537161
48.8209 123.58 540.209 0.160256 -0.678246 -0.717147
40.4044 107.755 569.581 0.0394886 -0.888126 -0.457901
93.677 120.593 572.652 0.889475 -0.252662 0.380784
94.8764 120.188 570.099 0.88951 -0.197555 0.412
94.1811 117.871 571.307 0.888216 -0.153642 0.432973
93.4284 110.783 569.384 0.840158 -0.534308 0.0930037
91.454 109.114 568.769 0.546198 -0.80317 -0.237879
92.0125 110.856 567.156 0.594262 -0.768991 -0.235595
35.6246 91.4554 600.965 0.0314217 -0.938164 -0.344761
33.3786 91.2648 601.377 0.0179381 -0.935216 -0.353622
34.0144 92.2092 599.208 -0.029549 -0.890741 -0.45355
-126.389 100.589 612.778 -0.284382 -0.904707 0.317226
-83.6873 89.352 594.583 0.042341 -0.864424 -0.500977
-131.487 102.312 613.494 -0.150962 -0.98541 -0.0786017
-90.7073 89.1671 595.672 0.0248792 -0.88776 -0.459635
-85.1039 90.5574 593.078 0.0656325 -0.867978 -0.492247
-77.3864 97.3038 582.832 0.03559 -0.868979 -0.493568
-74.6522 100.246 578.46 0.0479408 -0.884724 -0.463643
-75.761 100.524 576.181 0.0304442 -0.925726 -0.376968
-81.2104 98.6695 578.387 0.056171 -0.886913 -0.458509
-95.8879 93.1697 587.673 0.0236888 -0.869693 -0.493025
-97.8009 94.4093 585.501 0.0401725 -0.869681 -0.491977
-103.371 93.2062 587.955 0.0289531 -0.875313 -0.48269
-93.4867 97.6973 578.976 0.0205699 -0.882975 -0.46897
-95.5719 97.7711 579.78 0.00676583 -0.879587 -0.475691
-104.628 95.2911 583.883 -0.00145457 -0.862573 -0.505931
-107.035 94.8363 583.902 -0.0213476 -0.860836 -0.508435
-106.52 96.4317 581.981 -0.0254852 -0.871586 -0.48958
-108.412 97.5722 580.079 -0.0252215 -0.875269 -0.482977
-110.94 97.7684 580.345 -0.0130005 -0.876995 -0.480324
-115.754 96.8586 580.382 -0.00971475 -0.869601 -0.49366
-109.803 98.2366 577.655 -0.0106827 -0.877062 -0.480258
-115.239 98.454 578.461 -0.0207875 -0.867068 -0.497756
-114.603 99.3984 576.293 -0.01622 -0.872207 -0.488867
-111.207 102.129 571.792 -0.0102595 -0.873227 -0.487205
-112.817 102.883 570.034 0.0113893 -0.886899 -0.461823
-108.524 106.27 563.239 -0.0335012 -0.877697 -0.478044
-111.031 106.367 563.775 -0.0421282 -0.880955 -0.471321
-115.966 106.108 564.06 0.0312617 -0.880656 -0.472723
-110.395 107.311 561.607 -0.0295904 -0.879377 -0.475205
-115.451 107.703 562.14 0.0215668 -0.880837 -0.472928
-120.52 106.024 564.072 0.0417606 -0.886978 -0.45992
-107.216 112.033 550.762 -0.0495641 -0.936104 -0.348215
-110.966 113.388 546.718 -0.0902887 -0.940341 -0.328035
-116.056 114.706 547.491 -0.126469 -0.923441 -0.362303
-127.197 112.3 552.398 -0.116196 -0.842151 -0.526575
-123.801 115.031 547.897 -0.127507 -0.853488 -0.505272
-125.532 116.435 546.388 -0.207493 -0.823067 -0.528685
-27.5108 -10.2078 509.374 0.0358083 -0.633993 0.772509
-6.63612 -17.4576 506.342 0.186592 0.0431399 0.98149
-25.5856 -8.81917 510.197 0.0968778 -0.630377 0.77022
-28.474 -8.34023 511.057 0.155946 -0.792166 0.590046
-4.34039 -14.9518 506.262 0.250578 0.101362 0.962775
-7.15184 -14.7048 506.929 0.229772 0.0462514 0.972145
-4.11087 8.49172 499.939 0.877828 0.174025 0.446243
-15.5792 -1.70092 514.04 0.44593 -0.633 0.632817
-8.15066 5.22123 506.552 0.89839 -0.117108 0.423298
-8.6776 2.76394 508.209 0.84962 -0.159438 0.502718
-4.91273 13.5412 501.749 0.999205 -0.0279999 0.028383
-8.89154 5.58768 509.261 0.908263 -0.262895 0.325491
-9.7188 5.67881 511.978 0.86044 -0.406251 0.307576
-10.2927 3.28596 513.611 0.764177 -0.464774 0.447235
-7.3411 9.53576 510.743 0.841073 -0.533009 0.0921819
-9.23318 5.37706 513.68 0.810434 -0.487465 0.324923
-81.9163 88.8625 596.733 -0.00557328 -0.859936 -0.510371
-82.021 86.9575 599.331 -0.060639 -0.871483 -0.486662
-127.925 101.215 617.441 -0.0468037 -0.94352 -0.327994
42.1283 125.882 536.944 0.0969323 -0.695472 -0.711986
41.3797 124.052 538.694 0.0178145 -0.751076 -0.659976
44.4008 124.917 538.573 0.0815107 -0.684592 -0.724355
46.6288 124.678 538.776 0.132486 -0.65159 -0.746912
51.6956 128.037 537.306 0.222209 -0.521203 -0.823997
51.5229 125.72 538.936 0.205649 -0.599685 -0.773361
50.8474 123.86 540.464 0.190599 -0.644853 -0.74016
53.7461 127.123 538.354 0.206794 -0.584667 -0.784475
50.515 121.297 542.324 0.151061 -0.749925 -0.644044
17.1213 105.797 573.43 0.0469949 -0.891583 -0.450413
21.7741 106.442 573 -0.0375973 -0.890903 -0.452635
21.7022 104.724 575.458 -0.0260764 -0.877641 -0.478609
23.1516 103.706 576.823 -0.0436188 -0.876642 -0.479162
36.9815 106.18 572.042 0.00860307 -0.883897 -0.467603
42.552 107.384 569.588 0.0496804 -0.889232 -0.454751
42.0374 105.788 571.509 0.0357279 -0.889065 -0.456384
44.359 106.693 571.477 0.0410726 -0.878246 -0.476441
27.9993 98.2734 587.406 0.0286824 -0.893846 -0.447455
27.2424 97.98 589.822 0.0531467 -0.902578 -0.427233
29.7257 97.7905 589.315 0.0318877 -0.905827 -0.422447
37.2721 99.377 586.685 -0.0656727 -0.914287 -0.399708
36.9511 98.2331 588.86 -0.0429604 -0.906307 -0.420431
39.3579 98.688 588.841 -0.0430126 -0.91176 -0.408465
29.8762 93.1592 597.717 -0.0178462 -0.853975 -0.520008
34.3644 93.7941 597.234 -0.0646056 -0.866321 -0.495293
91.3979 111.481 574.625 0.872869 -0.279982 0.399638
93.2824 116.044 571.631 0.891932 -0.20199 0.404546
-135.39 102.998 609.114 -0.229694 -0.956034 0.182316
-113.954 102.414 572.724 -0.00201027 -0.87824 -0.478216
-5.1723 3.98135 503.197 0.776447 0.11062 0.620398
-16.2378 -1.43265 516.038 0.393888 -0.666238 0.633229
-10.2361 6.32931 514.722 0.753883 -0.523591 0.396879
-81.3789 89.2453 594.982 0.0209612 -0.853667 -0.520398
52.9067 122.561 542.192 0.212954 -0.697037 -0.684682
90.5937 110.676 576.344 0.871822 -0.300532 0.38679
91.3676 113.098 574.398 0.885392 -0.198749 0.420214
93.9389 119.173 571.803 0.889641 -0.190082 0.41522
91.8521 110.494 573.406 0.837873 -0.452517 0.305282
92.5693 109.872 570.349 0.789387 -0.612051 0.0475576
92.664 110.377 568.06 0.666135 -0.730993 -0.148031
34.1033 90.7557 602.059 0.0262728 -0.943186 -0.331225
34.8999 91.9644 600.283 0.0188125 -0.932587 -0.360454
32.4931 91.5096 600.302 -0.0159968 -0.913162 -0.407282
-85.2086 88.6524 595.676 0.027574 -0.885182 -0.464427
-86.94 90.0572 594.167 0.0479368 -0.878979 -0.474445
-89.186 89.8667 594.578 0.0296227 -0.881458 -0.471332
-75.8651 98.0034 581.739 0.0193474 -0.87946 -0.475579
-75.7932 99.7212 579.28 0.0436472 -0.883685 -0.466043
-74.5608 100.079 577.262 0.0207844 -0.910389 -0.413231
-77.1215 100.088 577.668 0.0692681 -0.898798 -0.432855
-79.6891 99.3692 577.293 0.0465577 -0.894087 -0.445467
-97.4301 92.5691 588.497 0.0274116 -0.875116 -0.483137
-99.0403 93.323 586.739 0.0381569 -0.866806 -0.497183
-102.125 93.8883 586.773 0.0297004 -0.871162 -0.490097
-94.4934 98.5931 578.148 0.00519657 -0.879352 -0.476144
-106.149 94.5915 584.977 -0.00393769 -0.861426 -0.507868
-105.513 95.5359 582.808 -0.0118003 -0.864902 -0.501802
-108.02 95.6329 583.345 -0.0225477 -0.86206 -0.506304
-109.933 96.8726 581.172 -0.0212829 -0.875787 -0.482228
-109.278 98.2746 579.324 -0.0232982 -0.876332 -0.481144
-115.37 97.09 581.979 -0.00428725 -0.873881 -0.486121
-114.232 97.5583 579.289 -0.0189904 -0.869305 -0.493911
-116.76 97.7544 579.555 -0.00984482 -0.871443 -0.490397
-112.507 101.358 572.842 -0.00632578 -0.87253 -0.48852
-114.62 102.57 570.983 0.0234498 -0.886216 -0.462678
-109.863 105.735 564.995 -0.0386652 -0.884499 -0.464938
-109.89 106.891 562.955 -0.0427392 -0.875165 -0.481933
-111.916 106.611 562.7 -0.0334994 -0.879715 -0.474319
-114.719 106.79 562.879 0.0214399 -0.881213 -0.472234
-116.972 107.004 563.233 0.0328041 -0.881207 -0.471591
-119.379 106.549 563.252 0.0416757 -0.889839 -0.454368
-108.724 113.405 550.456 -0.0411777 -0.934503 -0.353564
-114.915 115.231 546.67 -0.122115 -0.929293 -0.348572
-112.266 114.384 546.156 -0.119892 -0.936643 -0.32913
-125.112 112.226 551.594 -0.0886545 -0.846332 -0.525227
-125.322 114.331 548.991 -0.115399 -0.843974 -0.523823
-127.054 115.736 547.482 -0.233393 -0.783636 -0.57571
-29.1173 -9.39754 509.486 0.0461412 -0.753829 0.655448
-27.1495 -8.76383 510.8 0.162575 -0.761133 0.62789
-4.41555 10.0911 499.624 0.902544 0.185752 0.388471
-5.20261 5.59819 502.97 0.847617 0.0292157 0.529804
-7.45808 3.39259 506.65 0.83513 -0.044699 0.548234
-17.1005 -2.40054 515.133 0.372468 -0.669214 0.642978
-8.44969 3.9971 509.62 0.898841 -0.250961 0.359309
-15.0968 -0.907939 515.218 0.456171 -0.649189 0.608656
-5.38458 15.2993 501.607 0.993579 -0.106346 -0.0386181
-8.2663 8.86516 509.027 0.884527 -0.438705 0.158584
-9.71563 4.58408 512.501 0.837851 -0.423903 0.343967
-9.43758 6.88118 513.26 0.827924 -0.485967 0.279959
-10.3937 4.97026 514.853 0.737607 -0.51698 0.434358
-8.48207 9.01104 511.563 0.840952 -0.528048 0.118174
-83.2768 88.4272 598.219 -0.0255297 -0.876109 -0.481437
-125.906 101.382 613.956 -0.174824 -0.977631 0.11694
-80.6277 87.58 597.705 -0.0425907 -0.851968 -0.52186
-81.765 87.1117 600.395 -0.0715453 -0.875022 -0.478766
40.9622 124.766 537.96 0.0386111 -0.744857 -0.666105
43.135 124.987 537.771 0.0743541 -0.691183 -0.718844
48.0098 125.58 537.922 0.185887 -0.614414 -0.766774
47.1748 123.475 539.68 0.134116 -0.686666 -0.714494
49.9599 126.985 537.875 0.210041 -0.575395 -0.790445
49.6144 122.351 541.136 0.131186 -0.718752 -0.682778
51.5948 122.138 541.316 0.196999 -0.695001 -0.691495
51.3394 121.369 543.212 0.156115 -0.75862 -0.632554
18.4296 106.746 572.383 0.0308681 -0.893149 -0.4487
20.548 107.427 572.839 -0.0119409 -0.896496 -0.442891
23.1971 106.58 572.325 -0.0658509 -0.901711 -0.427294
20.1809 104.025 576.552 -0.0118009 -0.867874 -0.496644
21.6303 103.007 577.917 -0.0120727 -0.874196 -0.485423
21.5584 101.289 580.375 0.0037734 -0.898011 -0.439956
40.9789 106.519 570.687 0.0368679 -0.893261 -0.448025
43.1783 106.313 570.688 0.0412901 -0.88465 -0.464425
42.9229 105.543 572.584 0.0250557 -0.889752 -0.455755
26.196 97.9605 588.354 0.0538356 -0.885537 -0.461438
28.5833 98.5332 588.689 0.0374204 -0.900997 -0.432208
28.0522 97.0209 590.518 0.0481873 -0.897544 -0.438285
35.7836 98.8646 587.64 -0.0427956 -0.910982 -0.410221
38.7097 98.5526 587.67 -0.0506942 -0.920453 -0.387551
37.5219 98.1879 589.929 -0.0410154 -0.904941 -0.423555
31.6183 93.7882 596.58 -0.0477177 -0.846623 -0.530049
35.8895 94.2399 595.801 -0.0699356 -0.858513 -0.508
94.8376 120.999 571.479 0.892313 -0.235509 0.385114
-96.5351 94.3394 586.302 0.0291932 -0.869195 -0.493607
-94.6277 97.1726 579.796 0.00589492 -0.878106 -0.47843
-112.702 100.273 574.925 -0.0209329 -0.869675 -0.49318
-26.3074 -9.98041 509.365 0.051689 -0.586785 0.808091
-6.2161 -16.3673 506.71 0.211489 0.0596413 0.975559
-6.25841 3.56356 504.771 0.814745 0.0417176 0.578317
-8.60487 6.20851 507.771 0.908552 -0.251425 0.333644
52.9458 125.858 538.26 0.21295 -0.599857 -0.771249
52.1132 123.79 541.265 0.209896 -0.652374 -0.728252
43.6967 107.965 570.638 0.0480202 -0.885761 -0.46165
24.0028 86.4106 613.574 -0.0344572 -0.856725 -0.514621
24.4797 86.4338 611.327 -0.019668 -0.87943 -0.475622
21.7707 87.1591 611.863 -0.0038423 -0.880374 -0.474264
-4.64701 74.5024 629.499 -0.0393261 -0.89018 -0.453909
-10.1848 73.4866 631.814 0.0320218 -0.864405 -0.501776
8.42562 -14.0099 496.582 0.969915 -0.236012 0.05969
7.54757 -13.6522 499.247 0.9299 -0.0470901 0.364786
-91.0271 81.4935 608.605 -0.0675433 -0.911898 -0.404821
-94.8494 81.0136 613.039 -0.283734 -0.934314 0.215761
-92.9175 80.7884 615.582 -0.412356 -0.817211 0.402652
-82.4688 79.2068 611.732 -0.00868371 -0.905361 -0.424554
-88.5789 81.0181 618.106 -0.413294 -0.79109 0.45096
-83.5796 77.5824 616.462 -0.250388 -0.96803 -0.0149468
-78.6448 77.8411 616.177 0.0244046 -0.95543 -0.294207
-84.0773 78.115 618.854 -0.36642 -0.874264 0.318431
-79.1595 76.2457 618.098 -0.137185 -0.985708 -0.0977747
-27.5899 101.629 582.023 0.0489177 -0.985021 0.16535
-25.5262 101.02 583.285 0.000903174 -0.956063 -0.29316
-2.38291 103.347 570.334 0.783827 -0.408772 0.467463
-2.80499 105.654 572.137 0.665527 -0.658359 0.35162
-3.40193 103.898 572.927 0.702409 -0.598193 0.38573
1.66426 107.247 571.144 0.334428 -0.936667 -0.103979
-0.24053 107.468 571.988 0.441884 -0.897068 0.00262934
0.625403 107.341 573.416 0.174847 -0.94829 -0.264903
-5.24976 102.438 580.394 0.0242604 -0.803765 -0.594452
5.10667 105.688 575.24 -0.0628897 -0.836104 -0.544954
-5.36135 99.8047 582.212 0.0557371 -0.866298 -0.496408
1.9241 102.159 578.918 -0.0801351 -0.777152 -0.624191
4.86201 101.653 579.328 -0.0381188 -0.816341 -0.576311
-37.2842 82.0544 614.229 0.067005 -0.871669 -0.485493
-34.7165 82.7735 614.604 -0.00652179 -0.879717 -0.475452
-35.5056 81.1606 616.436 0.0365863 -0.85502 -0.517303
-29.6805 81.9235 613.75 -0.0198522 -0.886604 -0.462103
-12.4344 87.5859 604.788 0.0474924 -0.889472 -0.454516
-16.1128 85.2422 609.144 0.0401091 -0.889648 -0.454882
-13.7665 86.0226 609.25 0.0277325 -0.891686 -0.451803
-14.0598 84.366 611.439 0.0247701 -0.892957 -0.44946
-12.3493 83.517 613.093 0.0254994 -0.896338 -0.442637
-9.35776 82.6426 613.22 0.0252 -0.887475 -0.460166
-10.5574 82.4716 615.099 0.0166262 -0.875166 -0.483537
-17.2784 78.7288 621.643 -0.0462981 -0.870461 -0.490054
-21.2387 76.7719 625.854 0.0413917 -0.884813 -0.464104
-18.268 76.4533 626.125 -0.0109248 -0.888726 -0.458308
-19.2054 76.0136 628.502 0.00423726 -0.889258 -0.457387
-19.7364 74.5012 630.332 0.0205586 -0.889914 -0.455664
-8.0579 76.2303 624.641 -0.00079231 -0.910346 -0.413846
-15.0476 74.9457 629.64 -0.0499123 -0.872786 -0.485545
-12.0769 74.6271 629.911 -0.0091615 -0.872517 -0.488498
-9.7098 74.1666 629.252 -0.000402269 -0.877846 -0.478942
7.42271 -13.0576 497.625 0.964509 -0.155308 0.213546
-1.42697 28.5383 513.143 0.988701 -0.118966 0.091197
23.1813 169.945 506.774 0.0146028 -0.443708 -0.896053
-92.2123 79.8801 612.934 -0.268268 -0.963165 0.0185988
-85.7272 77.9535 616.455 -0.272115 -0.959855 0.0680494
-25.1288 101.04 581.412 0.0639636 -0.863786 0.499783
-3.2324 99.1513 572.869 0.852278 -0.0856325 0.516032
-15.1156 82.3314 613.241 0.00139787 -0.89838 -0.439217
0.820348 74.9597 667.265 -0.288923 -0.897454 0.333316
-1.40802 75.7648 667.423 -0.268974 -0.9357 0.228294
-13.0733 75.0474 672.682 0.0301133 -0.972861 0.229421
-11.5602 76.7665 668.572 -0.0211571 -0.990611 -0.135065
1.10132 69.987 662.646 -0.462853 -0.558542 0.68833
-16.2038 76.0527 668.514 -0.037978 -0.952821 -0.301146
-7.73888 72.6604 659.374 -0.418736 -0.585313 0.694312
-12.7229 74.7706 657.449 -0.426803 -0.600043 0.6766
-12.0775 72.4308 656.85 -0.433318 -0.526015 0.731809
1.52286 75.9167 627.84 0.0826286 -0.887513 -0.453314
15.1627 83.7847 615.142 0.0613964 -0.88755 -0.456602
18.438 87.1661 610.889 0.0724269 -0.869376 -0.488815
5.6474 4.82455 490.137 0.843484 0.38964 0.369751
5.15556 -3.28273 497.067 0.766313 0.330335 0.551038
4.66364 -6.09077 499.158 0.727267 0.277714 0.62766
-65.165 93.3871 590.012 0.074847 -0.861633 -0.501982
-67.0432 89.5018 596.069 0.060923 -0.875289 -0.479747
-72.3022 88.6104 598.058 0.0772434 -0.840197 -0.536751
31.7132 158.216 517.539 0.115165 -0.789473 -0.602885
-65.0591 88.7624 598.173 0.0218232 -0.877901 -0.478345
-57.0817 90.4203 595.7 0.0477992 -0.845256 -0.53222
-57.5964 88.8249 597.621 0.0463141 -0.856958 -0.5133
-59.0288 86.6718 601.566 0.037067 -0.901763 -0.430639
-56.0581 86.3533 601.837 0.107148 -0.886453 -0.450245
-47.848 89.9934 597.299 0.0451795 -0.890646 -0.452447
-29.6643 96.671 586.633 0.00331488 -0.855486 -0.517816
-28.4968 96.0396 587.853 0.0233977 -0.789173 -0.613725
-25.5261 95.721 588.124 0.0144468 -0.798003 -0.60248
-26.693 95.7373 589.864 0.0155589 -0.819689 -0.572597
-27.4732 91.9725 593.99 0.0563716 -0.877054 -0.477072
-28.1897 91.4622 596.324 0.0719635 -0.876779 -0.475478
-25.4648 91.1029 596.045 0.0524799 -0.883956 -0.464616
-17.8052 93.0088 593.472 0.0410537 -0.878185 -0.476555
-18.2394 91.5456 595.589 0.0271599 -0.900153 -0.434726
-16.1146 92.3871 595.426 0.0488126 -0.890195 -0.452957
-13.1439 92.0686 595.697 0.045939 -0.887319 -0.458861
-8.65187 92.4497 594.874 -0.0191575 -0.892938 -0.449772
-8.34345 90.9068 597.059 -0.0110494 -0.900361 -0.435004
-9.92344 90.5609 599.212 0.036926 -0.892916 -0.448706
-6.98396 90.391 599.077 -0.000653932 -0.910871 -0.412691
13.4277 99.4794 586.195 0.085994 -0.851182 -0.517778
1.49959 92.5804 594.449 0.156622 -0.864802 -0.477062
6.82787 95.0855 592.491 0.076444 -0.924489 -0.373466
8.43808 94.3317 594.248 0.0177214 -0.905327 -0.424346
11.4088 94.0131 594.519 0.00907736 -0.904536 -0.4263
14.1562 93.7275 593.587 0.0614511 -0.892308 -0.447225
10.4911 93.4555 596.543 -0.00588803 -0.888191 -0.459436
9.93602 92.0771 598.547 0.0245323 -0.872223 -0.488493
9.46174 90.2647 600.385 0.0562484 -0.866176 -0.496563
9.05992 89.5548 602.725 0.0853599 -0.877235 -0.472411
11.2328 89.7751 602.535 0.0949839 -0.881401 -0.46272
7.08009 85.6191 608.73 0.0450663 -0.920684 -0.387698
1.51267 85.2946 611.567 0.0408947 -0.901347 -0.431162
8.91104 85.2514 610.859 0.0814452 -0.901852 -0.424299
11.3387 85.1505 610.696 0.0907767 -0.892537 -0.441743
16.8278 87.9199 609.131 0.11849 -0.883093 -0.45399
16.1523 86.0602 610.659 0.118072 -0.864185 -0.489125
6.01452 2.92793 491.263 0.83878 0.361889 0.406797
3.8575 -4.0153 499.365 0.670015 0.31543 0.672
35.5031 168.492 506.526 -0.00468753 -0.492028 -0.870567
-61.6928 92.5924 589.762 0.00615975 -0.861251 -0.508143
36.5854 169.37 506.765 -0.00797894 -0.491884 -0.870624
-62.2492 88.1795 598.051 0.00402344 -0.87323 -0.487292
-26.7977 93.8323 592.462 0.0308699 -0.861968 -0.506022
5.69063 94.6173 595.181 0.109212 -0.894639 -0.433236
5.90248 85.3679 611.503 0.0307361 -0.906585 -0.420902
4.6309 83.4791 615.841 0.037777 -0.873942 -0.48456
2.4672 73.9324 667.07 -0.346632 -0.815768 0.462999
-3.05045 75.7162 668.765 -0.215162 -0.971541 0.0990622
-8.18709 76.5425 669.463 -0.0313699 -0.999507 -0.00132435
-13.0815 76.0668 669.666 0.0154368 -0.991868 -0.126328
-0.626288 71.4484 663.006 -0.436567 -0.623621 0.648465
-15.8838 76.2455 669.844 0.0180334 -0.986878 -0.160458
-11.9341 77.7281 665.192 -0.166599 -0.978965 -0.117785
-2.67552 72.3811 662.581 -0.442494 -0.648927 0.618945
-5.10882 73.0824 660.56 -0.41318 -0.628753 0.65875
-9.6273 73.8575 659.342 -0.417921 -0.630374 0.654195
-11.5157 75.0545 659.31 -0.419529 -0.689246 0.590707
-9.70667 72.0267 658.061 -0.432482 -0.54307 0.719746
-7.89762 68.999 656.811 -0.416582 -0.52744 0.74045
-0.155009 74.8835 628.677 0.05133 -0.893184 -0.446752
19.7266 85.8836 611.861 0.0270154 -0.863111 -0.504292
14.156 84.6805 614.315 0.0674031 -0.87956 -0.47099
6.38164 1.0313 492.389 0.838623 0.338298 0.426926
6.41766 -3.40904 495.999 0.841031 0.28552 0.459505
6.13205 -8.37803 498.823 0.798986 0.215008 0.561599
-66.6863 92.6875 591.106 0.091352 -0.859017 -0.503731
-66.919 90.7053 593.171 0.0729338 -0.863797 -0.498534
-71.4299 87.354 599.565 0.110953 -0.841644 -0.528512
30.1458 157.024 518.559 0.156961 -0.741887 -0.651895
-69.623 86.6635 601.454 0.143404 -0.85232 -0.502977
29.7984 155.27 520.306 0.216032 -0.620934 -0.753505
-57.9672 90.6651 594.625 0.0341481 -0.860537 -0.508243
-61.6456 88.3215 598.982 -0.00809849 -0.872229 -0.489031
-59.1177 88.1253 598.715 0.0312639 -0.8689 -0.493999
-54.2441 88.7001 598.242 0.105371 -0.87512 -0.472294
-54.5368 87.0529 600.744 0.140273 -0.881833 -0.450216
-49.6066 89.6739 598.489 0.0791878 -0.895 -0.438981
-26.582 98.9856 585.087 0.0183129 -0.89122 -0.453202
-28.5233 97.1957 585.813 0.00877243 -0.914511 -0.404465
-27.0083 96.552 586.899 0.0319521 -0.853906 -0.519445
-27.3294 95.4081 589.073 0.0209711 -0.813086 -0.581765
-22.5157 96.3178 589.036 -0.0215911 -0.806712 -0.590551
-32.0371 89.8737 597.271 0.0234433 -0.887529 -0.460155
-29.711 90.7625 597.418 0.0614273 -0.884775 -0.461952
-30.1853 88.9502 599.256 0.0507114 -0.895521 -0.442121
-22.2887 91.0421 596.949 0.00790285 -0.903684 -0.428126
-19.7607 90.8459 596.683 0.00874174 -0.905055 -0.425206
-20.7307 90.8025 599.146 -0.00347483 -0.895914 -0.444213
-8.77675 94.1041 592.284 -0.0164939 -0.883162 -0.468779
-10.2254 92.2643 596.407 0.0174998 -0.890507 -0.454633
-7.20247 91.4315 596.239 -0.0542411 -0.902731 -0.426773
-5.55188 90.4606 597.914 -0.0341242 -0.917855 -0.395447
0.0394575 91.5647 595.73 0.125635 -0.870421 -0.476007
8.70428 95.3686 591.32 0.0183176 -0.921574 -0.387769
10.7163 95.3246 590.738 0.0594619 -0.901587 -0.428491
9.95938 95.0313 593.155 -0.00523195 -0.911655 -0.410923
9.88748 93.3135 595.613 -0.000606239 -0.895315 -0.445434
14.3189 94.0201 594.914 0.0686285 -0.888415 -0.453882
4.89783 88.1658 603.666 0.00662254 -0.888638 -0.458562
7.30465 88.6207 603.648 0.0443021 -0.882521 -0.468182
6.50805 87.412 605.424 0.0238933 -0.896375 -0.442653
6.03307 86.7319 607.985 0.0127328 -0.912525 -0.408823
2.35469 84.3883 612.342 0.047481 -0.904383 -0.424073
4.55397 85.2188 612.58 0.0282458 -0.90255 -0.429658
4.6896 83.1254 614.782 0.0293443 -0.881556 -0.471167
12.0627 85.7738 612.102 0.0984947 -0.889255 -0.446682
14.631 85.3606 611.753 0.100315 -0.867916 -0.486477
9.1948 85.578 612.56 0.0673853 -0.893048 -0.444887
-5.41758 76.1767 669.424 -0.122052 -0.991858 0.0363477
-5.44406 77.3328 667.384 -0.199964 -0.979485 0.0249874
-4.82148 76.2057 666.615 -0.222777 -0.963211 0.150319
-7.21982 76.8148 666.868 -0.180772 -0.983301 0.0209926
-3.8223 75.197 663.702 -0.370288 -0.820531 0.435448
-9.00428 77.1623 664.883 -0.25833 -0.953177 0.157225
-8.2424 76.5337 662.066 -0.365122 -0.820693 0.439487
-5.69171 75.1249 661.97 -0.390894 -0.764405 0.512725
-10.6875 77.616 662.466 -0.313178 -0.908284 0.277379
-2.07361 69.0694 659.472 -0.443648 -0.52022 0.729758
-1.10459 63.8612 657.488 -0.403951 -0.759592 0.509749
-3.71771 65.5673 656.773 -0.379487 -0.680234 0.627113
-0.730471 62.1756 655.711 -0.295984 -0.931359 0.212049
9.12601 79.7498 622.451 0.0675822 -0.84433 -0.531544
10.5988 81.6859 618.423 0.0922028 -0.863947 -0.49507
10.933 83.1348 616.462 0.0917735 -0.875239 -0.474904
6.74876 -0.865323 493.515 0.837174 0.32358 0.440947
4.9852 -0.262883 495.105 0.771812 0.373323 0.51472
1.85162 3.18843 496.611 0.697842 0.404704 0.590957
-69.8897 91.0239 592.9 0.0752307 -0.876512 -0.475465
-69.9288 89.4933 595.219 0.0744599 -0.867872 -0.491176
-65.358 92.3203 592.718 0.0653009 -0.857663 -0.510049
-62.5169 91.5888 593.002 0.0268202 -0.861829 -0.50649
39.5752 162.484 510.175 0.0126879 -0.734111 -0.678911
-59.9805 92.4566 592.971 0.0300957 -0.868418 -0.494919
39.6016 161.327 512.215 0.031768 -0.830844 -0.555598
-60.547 90.6961 594.897 0.016942 -0.858943 -0.511792
-67.095 86.4674 601.188 0.0926232 -0.865764 -0.491806
-64.7078 87.0401 601.522 0.0481134 -0.87594 -0.480014
-62.1394 86.627 601.173 0.00988912 -0.883926 -0.467522
-63.2975 86.2578 603.593 0.0395439 -0.88923 -0.455749
-63.4318 84.8373 605.24 0.0819058 -0.880635 -0.466663
-40.5562 93.6909 591.825 0.00618232 -0.852107 -0.523331
-37.5527 93.5596 591.957 -0.00170491 -0.85725 -0.514897
-36.1033 92.5415 593.322 0.00692598 -0.868076 -0.496384
-30.1704 93.49 591.209 0.00895897 -0.841385 -0.540362
-31.5224 91.4691 595.35 0.0340279 -0.867111 -0.496951
-20.5024 94.5263 590.691 0.00534421 -0.849814 -0.527056
-20.9009 93.2018 592.763 0.00816255 -0.874789 -0.484435
-28.1412 90.2257 599.258 0.0660527 -0.890168 -0.45082
-25.1705 89.9072 599.529 0.0640052 -0.893447 -0.444585
-23.0456 90.7488 599.366 0.0318049 -0.89068 -0.453517
-23.5603 89.1534 601.287 0.0395095 -0.891006 -0.452269
-0.824597 95.8772 589.363 0.0489471 -0.879461 -0.473448
-3.77955 93.0057 593.778 -0.0263891 -0.879907 -0.474413
-1.22886 91.5969 593.682 0.113721 -0.868473 -0.482516
-2.50928 91.8599 595.726 0.047275 -0.897905 -0.437643
-3.06432 90.4815 597.73 -0.00625841 -0.921275 -0.388861
11.5129 96.5333 588.962 0.077923 -0.878771 -0.47084
13.7589 96.7239 588.55 0.0876493 -0.861625 -0.499919
13.2839 96.0438 591.112 0.0646453 -0.888544 -0.454214
19.0675 96.997 588.612 0.0725567 -0.862544 -0.500753
17.6991 95.6291 593.148 0.0803692 -0.898985 -0.430542
4.28189 87.6791 606.156 0.00830265 -0.90494 -0.425458
9.07568 88.1311 605.798 0.0890163 -0.883965 -0.459001
11.3217 88.3217 605.387 0.158796 -0.894229 -0.418495
13.8893 89.0409 605.761 0.149382 -0.892517 -0.425557
13.3746 87.4455 607.682 0.161001 -0.891648 -0.423134
9.0245 84.3585 614.468 0.0585848 -0.889731 -0.452709
11.5884 83.9613 613.94 0.093922 -0.882795 -0.460274
-4.24398 70.6531 659.294 -0.432828 -0.527935 0.730715
-2.3138 66.9744 657.797 -0.433984 -0.620523 0.653153
40.6838 167.505 507.615 0.0326652 -0.538474 -0.842009
40.4871 166.382 508.451 0.0322855 -0.553473 -0.832241
-22.5289 94.2463 590.436 -0.0075007 -0.836479 -0.547947
-5.78458 95.027 589.844 -0.0200799 -0.865038 -0.501305
-5.83251 93.8819 591.483 -0.0282245 -0.86701 -0.497491
4.00659 86.452 607.731 0.00100754 -0.908127 -0.418694
-6.8405 76.0387 670.1 -0.0551708 -0.998436 0.00899606
-9.76126 76.1194 670.477 -0.00288951 -0.9986 0.0528098
-14.6028 75.3672 670.759 0.0546643 -0.997215 -0.0507284
-2.31421 73.8251 664.008 -0.41414 -0.746725 0.520472
-0.707731 73.0148 663.895 -0.40589 -0.720756 0.561929
-13.1747 77.3099 666.491 -0.101428 -0.957012 -0.271736
-10.3826 77.0177 665.799 -0.172555 -0.982913 -0.064076
-6.17416 74.3319 660.791 -0.417579 -0.667519 0.616478
-11.2755 77.1495 660.984 -0.361254 -0.846227 0.391656
-9.05281 75.6351 660.669 -0.413149 -0.747607 0.519992
-7.5363 70.443 658.238 -0.429983 -0.513432 0.742632
-9.78604 70.196 656.779 -0.420691 -0.513653 0.747783
-1.42276 74.3005 629.588 0.0270496 -0.891581 -0.452052
18.2053 85.184 612.954 0.0747153 -0.846777 -0.526675
15.3954 85.7668 613.076 0.0986862 -0.860727 -0.49941
7.11588 -2.76195 494.641 0.872626 0.283626 0.397594
6.77032 -7.396 497.901 0.831411 0.224253 0.508396
6.31561 -9.32635 499.387 0.802329 0.180506 0.568933
-68.3684 91.7235 591.807 0.0882845 -0.861764 -0.499569
-70.0203 89.6599 596.418 0.0814966 -0.855372 -0.511564
-69.7119 88.117 598.603 0.103277 -0.851973 -0.513299
28.7917 156.166 519.478 0.198321 -0.653781 -0.730232
-68.1017 87.3631 600.36 0.108903 -0.866053 -0.487947
-59.287 89.4466 595.667 0.0291221 -0.850296 -0.525499
-60.1243 89.0211 597.888 0.0159193 -0.857782 -0.513767
-60.639 87.4257 599.809 0.00463789 -0.885709 -0.464217
-55.1668 88.0671 597.773 0.0899035 -0.871279 -0.482484
-55.9861 88.0711 599.379 0.10371 -0.875251 -0.472419
-53.0154 87.7525 599.65 0.110678 -0.886556 -0.449187
-50.7986 88.9952 599.688 0.102908 -0.893414 -0.437288
-27.723 98.4609 585.907 0.0218327 -0.8738 -0.485795
-25.1326 97.9675 586.451 0.0100065 -0.835811 -0.548925
-28.8507 94.7085 590.167 0.0174044 -0.82773 -0.560857
-23.4624 96.8787 587.773 -0.00774889 -0.816633 -0.577105
-23.9159 94.9672 589.882 0.00445507 -0.827454 -0.561515
-30.5158 90.5733 596.178 0.0378135 -0.873807 -0.484801
-31.1516 89.6289 598.346 0.0412825 -0.88876 -0.45651
-20.7674 91.7417 595.855 0.00496077 -0.907939 -0.419074
-20.9017 90.3212 597.503 0.0110998 -0.900235 -0.435263
-19.1572 90.9879 597.613 -0.00173005 -0.900398 -0.435064
-10.1459 93.4744 593.268 0.00718364 -0.883595 -0.468198
-11.574 91.5318 597.537 0.0346273 -0.890012 -0.45462
-5.68117 92.1311 595.145 -0.0618412 -0.895719 -0.440299
-4.03058 91.1603 596.82 -0.0155147 -0.916916 -0.398778
-1.54302 91.1811 596.636 0.0428473 -0.90216 -0.429268
9.97202 95.9516 590.408 0.0439719 -0.906168 -0.420627
8.81468 94.4501 592.105 0.0238523 -0.92239 -0.385524
11.4479 95.5437 592.2 0.0300554 -0.906768 -0.420557
8.74651 92.7888 596.433 0.0229118 -0.884805 -0.465398
12.7976 93.3205 596.008 0.0435159 -0.893058 -0.447832
6.41914 88.8654 602.573 0.0324582 -0.872347 -0.487809
5.78335 87.921 604.741 0.0274311 -0.894422 -0.446383
8.02935 88.1116 604.33 0.0650349 -0.891514 -0.448301
4.19705 86.2318 609.074 0.021107 -0.914547 -0.403928
3.87599 85.0879 611.248 0.0275973 -0.905943 -0.4225
3.26004 84.6012 613.737 0.0283756 -0.89636 -0.442417
5.89774 84.3603 613.138 0.0284631 -0.901068 -0.432743
13.584 86.4734 611.009 0.129208 -0.88133 -0.454492
8.05383 85.0533 613.38 0.0356654 -0.896374 -0.441862
13.1097 84.6609 612.847 0.0800113 -0.87745 -0.472948
1.66313 72.6107 665.106 -0.410946 -0.706208 0.576536
-6.1324 71.8501 659.262 -0.430245 -0.540527 0.722994
7.28623 -5.78179 496.604 0.863331 0.238639 0.444648
30.9393 155.795 519.485 0.186866 -0.665007 -0.723082
90.003 119.457 580.225 0.881968 -0.429682 0.193664
