ply
format ascii 1.0
comment VCGLIB generated
element vertex 863
property float x
property float y
property float z
property float nx
property float ny
property float nz
element face 0
property list uchar int vertex_indices
end_header
-7.6484 -5.02573 513.201 -0.042032 -0.618904 0.784341 
-37.1192 140.59 505.203 -0.0897951 -0.926413 -0.365644 
-49.2612 134.849 513.505 0.0797006 -0.864416 -0.49642 
-61.5946 121.233 530.453 -0.591571 0.0237386 -0.805903 
-75.3383 71.8533 675.504 0.0116066 -0.608894 -0.793167 
-56.0429 78.0908 662.552 0.0184043 -0.976771 -0.213495 
-55.6456 81.6604 653.436 0.0225022 -0.860089 -0.509647 
-55.2767 83.6344 651.417 0.0477002 -0.854224 -0.517712 
-55.3275 85.1414 644.195 -0.20935 -0.977692 -0.0170718 
-46.1176 82.4883 652.421 -0.0378701 -0.964635 -0.260856 
-75.8438 77.2226 624.93 -0.376974 -0.67496 0.634287 
-50.5792 83.7288 642.839 -0.230244 -0.929363 0.28857 
-46.0774 83.8746 645.067 -0.203145 -0.959597 0.194692 
-41.4476 82.8264 649.246 -0.255028 -0.965243 -0.0571654 
-71.8741 75.0668 623.82 -0.194666 -0.980637 -0.0213508 
-66.847 77.5883 618.883 0.00183512 -0.855151 -0.518376 
-66.6188 79.1261 616.862 0.052056 -0.824309 -0.563742 
-18.6379 78.3086 657.54 -0.186038 -0.976077 0.112533 
-57.559 77.0876 620.145 -0.0313453 -0.866862 -0.497561 
-56.9627 78.76 617.798 -0.0527365 -0.841917 -0.537025 
-20.6475 67.8677 647.696 -0.426235 -0.584756 0.690207 
-21.3208 66.7268 642.173 -0.151636 -0.982027 -0.112378 
7.26018 62.0383 659.464 -0.394368 -0.652684 0.646899 
16.7558 64.3478 664.439 -0.443663 -0.351222 0.824504 
16.2029 59.1449 662.231 -0.480482 -0.724985 0.493491 
-63.6608 62.973 506.087 -0.841702 0.269408 -0.467929 
-65.1841 55.9758 505.62 -0.820755 0.267211 -0.504936 
-66.2152 50.812 503.553 -0.819307 0.247455 -0.517206 
-70.3573 27.8034 516.01 -0.958026 -0.151561 0.243343 
-69.837 26.14 517.649 -0.908723 -0.183507 0.374897 
-66.1285 45.2866 501.832 -0.843681 0.186729 -0.503323 
-70.6884 24.8271 512.161 -0.999373 -0.0170118 0.0310569 
-70.8673 22.8157 513.889 -0.953327 -0.129997 0.272522 
-70.7638 24.2509 506.381 -0.990001 0.139044 0.023754 
-71.0202 20.0113 510.005 -0.990416 0.0344554 0.13375 
-71.0477 17.4923 511.796 -0.955023 -0.0561331 0.291171 
-69.1325 30.894 501.55 -0.923241 0.187137 -0.335569 
-70.5161 26.6679 504.735 -0.991295 0.115803 -0.062645 
-70.5207 23.5469 501.246 -0.957197 0.166932 -0.236446 
-64.9958 33.4756 495.94 -0.851113 0.210893 -0.480762 
-4.40808 -24.1613 505.849 0.292607 -0.772232 0.56395 
-48.8379 -9.49982 510.093 -0.173644 -0.597658 0.782721 
-34.9623 140.587 503.65 -0.131152 -0.973302 -0.188369 
-39.4049 139.947 506.497 -0.00390301 -0.869615 -0.493715 
-49.061 140.313 505.561 0.0429054 -0.862353 -0.504487 
-50.1725 132.377 518.202 -0.0623614 -0.767496 -0.638013 
-50.2951 130.92 519.966 -0.182836 -0.750954 -0.634538 
-62.8943 66.3923 673.908 -0.0227034 -0.268007 -0.963149 
-70.5388 74.2475 673.579 0.0816298 -0.832198 -0.548436 
-70.5396 72.408 675.272 0.00608344 -0.551245 -0.834321 
-75.3969 73.7578 671.421 0.11672 -0.921636 -0.370087 
17.6863 57.6342 662.362 -0.482869 -0.790137 0.377521 
22.7221 57.3761 665.333 -0.367763 -0.882595 0.292875 
-64.1337 59.9932 505.704 -0.848216 0.268188 -0.456733 
-0.181528 -23.459 505.211 0.295573 -0.909465 0.292422 
-36.7969 -8.6979 514.661 -0.0290376 -0.557908 0.829395 
-41.9786 -10.4603 512.941 -0.236854 -0.624688 0.744087 
-46.6685 -11.0024 510.184 -0.244463 -0.625313 0.741095 
-65.1011 80.8008 657.076 -0.0936217 -0.937509 -0.335129 
-43.6144 82.8497 645.431 -0.332052 -0.893265 0.303015 
-41.8335 82.7295 646.778 -0.339815 -0.919948 0.195502 
-52.4914 77.3133 619.181 -0.00324855 -0.882379 -0.470528 
19.9123 57.484 664.046 -0.395535 -0.792719 0.463841 
-70.7587 22.2152 511.464 -0.994289 0.0151827 0.105637 
-65.0521 40.5935 498.506 -0.838699 0.172185 -0.516658 
-2.4887 -24.0868 504.06 0.302622 -0.898969 0.316662 
-39.2461 -9.91231 514.079 -0.144898 -0.550027 0.822481 
-44.5447 -11.1184 511.511 -0.329763 -0.668555 0.666551 
-49.4259 -11.8656 508.555 -0.0854249 -0.59729 0.797463 
-30.2628 140.678 503.013 -0.203961 -0.888727 -0.410566 
-50.5898 82.0955 652.73 -0.0189112 -0.897588 -0.440429 
-70.3868 12.7046 508.268 -0.967565 -0.219779 0.124558 
-41.8182 164.985 484.823 0.306312 -0.373475 -0.875608 
-44.5897 138.866 506.945 0.0186171 -0.82654 -0.56257 
-47.0598 138.863 506.251 0.013501 -0.839411 -0.543329 
-65.2559 50.0518 501.104 -0.851712 0.24628 -0.462529 
-62.955 25.8437 525.599 -0.757955 -0.389485 0.523264 
-65.2268 25.3184 524.658 -0.630622 -0.390916 0.670448 
-67.0626 128.858 525.741 0.0436639 -0.885502 -0.462579 
-69.556 128.291 524.533 0.0552034 -0.896779 -0.439022 
-18.4668 77.5744 654.773 -0.31509 -0.851259 0.419615 
-18.5802 66.7662 640.224 -0.0161981 -0.918107 -0.396002 
-47.4379 141.634 502.42 0.0304534 -0.929398 -0.36782 
-68.3874 84.7491 650.141 -0.00403087 -0.838599 -0.544734 
-50.5024 -15.3426 461.659 -0.46831 -0.191863 -0.862481 
-67.5785 -14.2281 473.198 -0.888863 0.107906 -0.445285 
-66.3108 -11.0399 495.564 -0.951477 -0.275541 0.136999 
-68.329 82.6604 652.105 0.0213781 -0.850681 -0.525248 
-63.6181 85.9797 644.688 -0.11867 -0.951707 -0.283145 
-48.6994 83.5766 608.416 -0.103359 -0.897952 -0.427785 
-52.0422 -6.52337 511.996 -0.137462 -0.46827 0.872827 
-49.7494 -12.7158 460.526 -0.486335 -0.158177 -0.859336 
-45.3961 -12.6219 458.12 -0.438798 -0.164684 -0.883366 
-0.109068 -27.5742 494.169 0.429454 -0.841704 0.327267 
-0.267535 -27.9727 491.373 0.428045 -0.859218 0.280218 
2.06746 -27.8037 489.786 0.419524 -0.856952 0.299389 
-81.404 139.411 500.727 0.0143429 -0.87985 -0.475035 
-67.7231 88.1168 641.397 -0.117478 -0.963637 -0.240004 
-49.4806 84.5134 645.169 -0.190872 -0.977795 0.0865137 
67.8639 119.315 548.069 0.0857823 -0.993181 0.0789436 
-45.509 -14.3449 458.61 -0.426671 -0.212875 -0.878997 
-53.706 -10.5267 461.869 -0.410125 -0.210403 -0.887428 
-63.799 -13.8299 469.35 -0.696011 -0.127216 -0.706672 
-62.7781 -9.56548 466.896 -0.72165 0.0090137 -0.692199 
-61.3667 145.232 495.543 -0.0201878 -0.912657 -0.408227 
-61.0112 143.736 497.166 0.0196923 -0.89191 -0.451783 
-86.2326 91.9222 637.254 -0.248819 -0.860292 -0.444956 
-81.702 90.3486 636.506 -0.131111 -0.958403 -0.253522 
-68.1787 86.8806 643.745 -0.0393348 -0.927988 -0.370528 
-58.7149 85.8201 644.576 -0.179706 -0.963329 -0.199256 
-53.9787 85.0359 648.688 -0.0896644 -0.964474 -0.248497 
-49.5799 83.621 647.448 -0.164542 -0.976151 -0.141614 
-50.7673 83.2055 610.375 0.0159403 -0.875474 -0.483002 
-50.5391 84.7434 608.354 -0.0272776 -0.900068 -0.434896 
-46.0974 83.5437 607.2 -0.105867 -0.891852 -0.439763 
-83.8282 138.696 502.755 0.0436789 -0.877033 -0.47844 
64.4499 117.768 551.702 0.153032 -0.930674 -0.332305 
-70.1786 13.7939 505.12 -0.981936 -0.181149 0.054649 
-68.6875 7.11136 508.492 -0.916225 -0.232408 0.326371 
-68.0649 5.41377 510.487 -0.825013 -0.323668 0.463242 
-64.4206 28.8707 491.676 -0.849008 0.249532 -0.465747 
-65.3446 27.407 492.89 -0.836428 0.269594 -0.477187 
-64.274 1.55306 510.823 -0.567975 -0.617703 0.543918 
-64.9008 24.065 489.407 -0.844936 0.213851 -0.490255 
-69.2191 5.48317 497.666 -0.982473 -0.117794 -0.14447 
-60.5097 -2.98723 511.257 -0.564229 -0.473507 0.67634 
-68.0883 12.3971 492.086 -0.882088 0.0881334 -0.462766 
-68.6071 9.884 493.785 -0.938309 -0.0478566 -0.342469 
-68.862 7.66653 495.904 -0.96828 -0.114338 -0.222171 
-51.7794 -9.04888 510.433 -0.119228 -0.522279 0.844399 
-54.6864 -12.852 463.329 -0.431222 -0.234851 -0.871144 
-63.5883 -11.5548 468.013 -0.713239 -0.0230483 -0.700542 
-68.7072 -16.163 475.112 -0.903752 0.0403301 -0.426152 
-65.7273 -11.5505 488.808 -0.957583 0.159463 0.240013 
-66.9411 -4.17046 490.328 -0.957592 -0.282084 -0.0587092 
-40.887 144.584 496.62 0.202767 -0.776581 -0.596496 
-42.8039 142.785 499.489 0.0334563 -0.968558 -0.246528 
-43.0651 141.134 504.389 0.00682929 -0.871448 -0.490441 
-52.2951 142.984 498.568 -0.0379589 -0.947504 -0.317483 
-56.9947 142.893 499.205 0.0610005 -0.87348 -0.483024 
-75.3956 146.097 492.637 0.156271 -0.833327 -0.530232 
-82.0786 88.8207 638.414 -0.0836651 -0.916512 -0.39116 
-86.2234 90.4293 637.108 -0.238829 -0.849292 -0.470811 
-86.5633 89.8053 639.482 -0.170858 -0.861211 -0.478668 
-86.7486 88.4826 641.589 -0.0604285 -0.857355 -0.511167 
-86.7791 86.4611 643.428 -0.134682 -0.879452 -0.456536 
-89.1141 86.2921 645.016 0.0624332 -0.890824 -0.450039 
-86.9093 82.6895 652.916 -0.0743577 -0.837602 -0.541197 
-87.5335 80.7081 654.307 -0.0216017 -0.833808 -0.551632 
-67.568 -12.7759 484.079 -0.88509 0.424756 0.190259 
-82.8044 80.5523 656.207 0.0531949 -0.882459 -0.467372 
-69.0149 4.86215 492.02 -0.969932 0.0547397 -0.237142 
-80.7222 137.22 507.797 0.107066 -0.910932 -0.398422 
-57.0155 -6.82793 511.367 -0.337189 -0.446482 0.828829 
-68.0344 7.1874 490.56 -0.935728 0.0791562 -0.343725 
-89.5837 82.1402 653.963 0.0517934 -0.792417 -0.607777 
-86.7925 85.999 645.88 -0.139481 -0.892668 -0.42859 
-88.6577 89.3678 640.974 -0.0617314 -0.852461 -0.519134 
-83.6314 90.0498 637.731 -0.198922 -0.893224 -0.403213 
-80.8799 138.661 503.308 0.0318218 -0.893248 -0.448437 
-61.9224 141.263 501.863 0.0272435 -0.838582 -0.544094 
-52.2655 142.737 501.105 0.0463078 -0.847315 -0.529069 
-37.9387 144.548 497.173 0.101097 -0.648598 -0.754387 
-66.4194 -10.4394 497.989 -0.900352 -0.367956 0.232324 
-65.1961 -11.0882 493.839 -0.969438 -0.227228 0.0925042 
-68.4044 -13.5689 475.834 -0.910509 0.271373 -0.311978 
-64.7568 -9.39069 468.414 -0.794474 0.0869208 -0.601045 
-66.1668 -13.6832 471.133 -0.810441 -0.0307631 -0.585012 
-61.8203 -14.0046 467.832 -0.587072 -0.186108 -0.787852 
-55.7731 -9.05826 462.135 -0.42208 -0.223613 -0.878547 
-2.51426 -29.9882 487.853 0.418416 -0.85329 0.311166 
-47.2824 -12.3989 459.149 -0.46668 -0.142549 -0.872863 
-52.1981 -12.7341 462.277 -0.455394 -0.195872 -0.868476 
-68.276 -2.36319 490.027 -0.967531 -0.225098 -0.114955 
-68.9467 2.32254 490.59 -0.9722 0.0239374 -0.232926 
-68.7763 7.55675 492.91 -0.959781 0.0135554 -0.280422 
-70.0525 7.81536 497.738 -0.969718 -0.160955 -0.183687 
-69.4405 12.2162 493.857 -0.914617 -0.00417355 -0.4043 
-69.5539 17.062 495.677 -0.916412 0.149443 -0.371289 
-63.7232 1.48212 513.305 -0.559188 -0.618627 0.551915 
-70.405 8.753 502.99 -0.986451 -0.146523 0.0737915 
-69.8342 9.31485 508.72 -0.947476 -0.218062 0.233961 
73.3046 117.455 545.164 0.165461 -0.983025 0.0792677 
67.3982 117.732 552.256 0.0683653 -0.927187 -0.368308 
-46.2459 83.1248 609.772 -0.106816 -0.894223 -0.43469 
-50.8666 82.3131 612.654 0.0261184 -0.815026 -0.578835 
-53.2312 82.391 611.703 0.0627128 -0.83279 -0.550025 
-49.5504 83.3741 649.985 -0.137525 -0.936908 -0.321387 
-60.9865 85.6999 646.01 -0.127097 -0.945569 -0.299577 
-68.1499 84.7941 647.975 0.0208236 -0.880665 -0.473282 
-54.6301 142.815 500.155 0.0412644 -0.872367 -0.487106 
-42.5139 157.632 488.056 0.322317 -0.408851 -0.853787 
-67.4096 -12.3774 486.875 -0.901105 0.360938 0.240279 
-56.4377 -12.9788 464.52 -0.463064 -0.2436 -0.852192 
-2.10805 -28.6454 493.004 0.423881 -0.859938 0.284308 
-65.0979 25.9591 490.579 -0.840214 0.23458 -0.488889 
-63.9315 31.3862 492.243 -0.860203 0.247464 -0.445883 
-67.1127 26.5183 495.025 -0.853929 0.25085 -0.455938 
-43.4362 83.0169 611.059 -0.0771432 -0.897682 -0.433838 
-68.1526 -14.6577 486.169 -0.853591 0.447923 0.265984 
-41.3682 83.3879 609.1 0.047315 -0.865465 -0.498729 
-41.4183 82.0219 611.086 0.00991724 -0.896852 -0.44222 
66.2587 113.722 558.973 -0.0341841 -0.879963 -0.47381 
85.4533 115.635 569.773 0.59041 -0.791635 -0.157261 
-175.799 149.504 556.146 -0.989008 -0.136337 -0.0572389 
-173.971 136.394 563.634 -0.992525 -0.121646 -0.00978067 
-172.687 131.626 562.81 -0.886438 -0.395299 -0.240762 
-164.748 93.684 584.938 -0.883289 -0.281753 -0.37472 
-163.104 132.797 556.556 0.0544603 -0.908859 -0.413533 
-160.867 132.837 557.437 0.0499811 -0.860029 -0.507791 
-106.774 94.7878 630.021 -0.12574 -0.879901 -0.458219 
-104.465 95.3194 625.284 -0.22577 -0.971549 -0.0715505 
-102.187 95.0559 621.258 -0.400712 -0.876484 0.266845 
-148.63 121.128 558.651 -0.914331 0.167351 -0.368772 
-70.373 91.7352 530.148 -0.820204 0.15894 -0.549549 
-71.0478 86.9153 528.011 -0.888764 0.12177 -0.441895 
69.1434 88.2387 648.287 0.254409 -0.894982 -0.366446 
74.8277 93.0391 641.2 0.206374 -0.874586 -0.438758 
-64.1516 87.4702 519.315 -0.713463 0.280289 -0.642191 
91.6685 120.04 573.085 0.63822 -0.758157 -0.133695 
64.1512 113.251 560.232 -0.0350407 -0.868127 -0.495104 
54.8506 112.121 560.92 0.103657 -0.890855 -0.442304 
46.7471 110.83 563.352 0.023141 -0.892617 -0.450222 
44.4398 110.638 562.08 0.0527402 -0.942556 -0.329858 
-90.7642 137.489 504.393 -0.0550117 -0.87587 -0.479401 
-102.329 139.169 500.159 -0.0442433 -0.84523 -0.532569 
-100.421 136.016 505.151 0.160747 -0.894929 -0.416247 
-96.5457 129.214 520.208 0.050705 -0.896855 -0.439408 
-101.345 128.231 523.124 -0.0358734 -0.900397 -0.433588 
-103.709 128.309 522.174 -0.00703418 -0.878375 -0.477921 
-63.2016 96.0076 585.885 0.0302856 -0.892703 -0.449628 
-67.9575 95.2392 588.888 -0.0370527 -0.902401 -0.429301 
-70.322 95.3171 587.938 -0.0242794 -0.913872 -0.405275 
-77.2202 97.8332 580.578 0.185221 -0.846728 -0.498744 
-88.6533 99.6614 576.554 -0.00630407 -0.891074 -0.453815 
-88.7835 95.8897 586.041 0.0245701 -0.929969 -0.366816 
-87.3205 92.7661 590.695 -0.0278886 -0.848352 -0.528697 
-94.0784 91.7307 592.299 0.0472553 -0.856141 -0.514577 
-105.515 94.0565 588.324 -0.075254 -0.85528 -0.512672 
-108.514 89.9307 596.45 -0.0255927 -0.923502 -0.382739 
-139.385 107.829 558.234 -0.00284303 -0.892054 -0.451919 
-142.338 103.826 566.484 0.0160921 -0.916645 -0.399379 
-144.64 103.77 565.191 0.0080516 -0.897123 -0.441708 
-100.083 92.7741 620.748 -0.380345 -0.681895 0.624786 
51.6803 109.808 564.411 0.0279816 -0.863722 -0.503192 
-100.62 134.231 509.709 0.0974292 -0.893184 -0.439011 
-81.2429 99.672 578.636 0.0283071 -0.808984 -0.587148 
-86.3595 100.508 575.23 0.0769261 -0.897614 -0.434018 
-106.27 90.2204 594.994 0.0043741 -0.922083 -0.386966 
-136.921 108.644 556.905 0.0885456 -0.859884 -0.502751 
-173.787 134.16 562.512 -0.971098 -0.219277 -0.0942715 
-173.773 136.339 560.769 -0.980172 -0.196436 -0.0260084 
-162.189 93.4359 583.636 -0.414139 -0.67467 -0.61099 
-165.191 132.227 558.151 0.0809481 -0.877652 -0.472414 
-104.712 96.2146 621.236 -0.314938 -0.931007 0.1845 
-149.548 116.645 559.342 -0.908716 0.222359 -0.353259 
-148.878 118.344 557.989 -0.912671 0.213335 -0.348596 
63.9909 85.6162 649.668 0.450254 -0.862259 -0.231905 
-70.5752 89.282 528.959 -0.849749 0.129994 -0.510909 
56.6018 112.248 559.73 0.138139 -0.891221 -0.432022 
-90.7355 135.403 508.624 -0.0273395 -0.899285 -0.436507 
-99.9943 139.338 498.572 0.0451944 -0.876059 -0.480081 
-100.031 138.312 500.509 0.0962925 -0.869233 -0.484934 
-101.373 130.317 518.894 -0.0227074 -0.923294 -0.383423 
-101.018 128.822 520.517 -0.0412058 -0.893637 -0.446895 
-67.9871 95.4862 586.35 -0.00722124 -0.907982 -0.418948 
-86.3592 96.6046 584.013 -0.0647966 -0.940111 -0.334652 
-97.0771 89.5912 595.85 -0.000440456 -0.890849 -0.4543 
-141.721 105.821 561.514 0.0619752 -0.838072 -0.542027 
-174.02 138.431 559.055 -0.979068 -0.203532 0.000791165 
-165.796 130.445 559.906 0.0583881 -0.837523 -0.543274 
-150.127 114.381 560.771 -0.927053 0.179536 -0.32915 
-72.1369 85.1906 531.896 -0.932644 -0.00158175 -0.360795 
-71.4234 87.7178 530.065 -0.888058 0.103941 -0.447827 
64.9624 90.1683 633.941 0.564543 -0.801366 -0.197747 
57.8097 114.272 557.942 0.159346 -0.91637 -0.367253 
-175.481 144.59 555.04 -0.993857 -0.109934 0.0127453 
-163.167 90.3684 589.852 -0.411936 -0.854311 0.316956 
-174.246 140.295 554.509 -0.98266 -0.185412 -0.000988998 
-162.999 90.1318 587.134 -0.334099 -0.932845 -0.134828 
-162.998 91.9713 585.441 -0.315287 -0.851707 -0.418557 
-174.177 139.595 551.386 -0.96747 -0.242687 -0.0714472 
-174.031 135.415 553.047 -0.827494 -0.530994 -0.182479 
-158.497 90.7065 586.677 0.0350082 -0.915108 -0.401686 
-165.711 132.38 555.511 0.0851265 -0.928586 -0.361222 
-160.883 133.117 555.133 0.0814827 -0.919381 -0.384836 
-104.396 95.1721 628.52 -0.157294 -0.943159 -0.292761 
-104.584 95.0205 623.187 -0.267107 -0.962227 0.0526578 
-150.195 116.921 562.201 -0.923003 0.203985 -0.326276 
-100.168 95.165 622.558 -0.278645 -0.915547 0.290053 
-149.265 116.408 557.214 -0.906368 0.200965 -0.371632 
-72.868 87.4886 532.325 -0.922161 0.0205456 -0.38626 
64.1505 88.5881 636.359 0.562788 -0.807216 -0.177966 
56.1545 84.3035 631.7 0.57096 -0.80154 -0.177591 
53.5026 83.3373 627.695 0.570387 -0.795371 -0.205045 
66.0305 112.184 560.993 -0.0584682 -0.856082 -0.513522 
61.5592 113.63 559.61 0.069235 -0.889262 -0.452127 
47.381 112.605 553.763 0.253061 -0.965558 0.0604884 
47.0738 111.42 560.746 0.0767575 -0.931142 -0.356488 
-85.8302 138.307 503.758 0.03239 -0.863006 -0.504154 
-86.2929 136.042 505.777 0.0583874 -0.894221 -0.443802 
-102.934 135.797 504.37 0.0800595 -0.870811 -0.485054 
-98.9103 129.292 519.258 -0.0205949 -0.903427 -0.428247 
-101.801 125.155 527.165 0.100285 -0.865019 -0.491615 
-58.7069 95.125 587.783 0.0540069 -0.8928 -0.447204 
-65.5232 96.3007 585.021 -0.00814686 -0.902842 -0.429896 
-79.8091 97.715 579.907 0.071725 -0.834547 -0.546248 
-86.4176 98.938 577.245 0.0491185 -0.879404 -0.473535 
-87.1712 95.0245 586.43 -0.040515 -0.900986 -0.431953 
-89.2399 92.8139 590.082 0.00531715 -0.838444 -0.544962 
-92.1983 92.503 591.367 0.0463907 -0.834121 -0.549627 
-91.932 90.4615 593.431 0.0461305 -0.893016 -0.447654 
-97.0267 91.7663 591.746 0.0173184 -0.872784 -0.487799 
-108.107 94.436 587.701 0.0483579 -0.895248 -0.442937 
-106.327 90.6368 592.434 -0.0311461 -0.882693 -0.468917 
-137.149 107.106 558.926 0.111403 -0.888472 -0.445204 
-141.761 108.117 557.541 -0.0321732 -0.861814 -0.506203 
-142.532 104.241 563.932 0.0691289 -0.868211 -0.491356 
-174.195 137.607 553.459 -0.946849 -0.314342 -0.0683137 
-104.924 93.6594 617.081 -0.477359 -0.55537 0.68095 
-100.36 94.469 620.522 -0.405137 -0.785953 0.467056 
66.0496 87.4801 647.855 0.432403 -0.86254 -0.262779 
63.3977 86.514 643.851 0.528521 -0.825086 -0.199746 
68.5631 88.7409 645.387 0.383252 -0.87246 -0.303202 
60.7458 85.5479 639.847 0.57904 -0.799273 -0.160856 
52.7498 81.2633 635.188 0.608315 -0.775474 -0.169097 
71.4338 92.185 641.156 0.351937 -0.859567 -0.37052 
73.9473 93.4458 638.688 0.292469 -0.881695 -0.370237 
52.232 73.5347 666.364 0.587485 -0.768193 -0.254442 
41.3855 66.4991 662.259 0.598255 -0.743712 -0.298302 
-144.381 108.187 555.963 -0.11024 -0.854266 -0.508012 
-99.5389 93.8223 632.372 0.0572223 -0.931342 -0.359622 
-102.064 88.8982 598.521 -0.082158 -0.882954 -0.462215 
-173.656 132.04 567.099 -0.982309 -0.145881 -0.117425 
-174.721 140.205 558.841 -0.983895 -0.175198 0.0354573 
-74.8171 87.4165 536.381 -0.969112 0.00192228 -0.246613 
38.8128 65.7322 659.653 0.574021 -0.767152 -0.286319 
-53.8292 95.2658 589.514 -0.0474704 -0.8442 -0.533922 
-58.459 96.314 585.335 0.0432006 -0.899506 -0.434768 
42.7954 78.0912 623.566 0.229577 -0.882207 -0.411103 
47.3667 79.1318 625.781 0.439375 -0.855068 -0.275333 
-149.326 113.223 555.525 -0.870511 -0.0933406 -0.483216 
-175.628 148.77 553.38 -0.996155 -0.083451 -0.0266602 
-24.5513 100.87 580.259 0.122618 -0.990677 -0.0593693 
-28.4819 24.554 534.846 0.0643409 -0.346896 0.935694 
18.2708 105.906 565.668 0.290014 -0.923795 0.249991 
-108.684 63.2723 675.518 0.0168998 -0.108195 -0.993986 
-22.1128 88.6679 600.818 0.0873825 -0.834745 -0.543659 
-32.3281 100.169 580.085 -0.083254 -0.985855 0.145458 
-29.6072 100.435 580.966 0.0227962 -0.981942 -0.187802 
-29.9442 98.9449 579.051 0.0996115 -0.856157 0.507023 
-28.6738 38.5906 538.579 0.135661 -0.39714 0.907676 
-25.7492 29.3983 536.862 -0.0354481 -0.279879 0.959381 
-35.1334 17.7666 531.898 0.0546933 -0.451032 0.890831 
-8.47757 22.7107 527.536 -0.0402203 -0.203816 0.978183 
-27.389 -57.7042 478.548 0.331253 -0.897822 0.290151 
-39.9746 -59.5544 462.356 0.106938 -0.91626 -0.386047 
-25.7079 -59.8224 469.455 0.448188 -0.891546 -0.0653681 
-49.7258 -50.3304 461.594 -0.768951 -0.278041 -0.57568 
-59.9281 -31.4869 473.794 -0.575666 -0.564473 -0.59159 
-59.7932 6.52624 475.522 -0.852256 0.254405 -0.457098 
-62.0158 7.03818 479.867 -0.838615 0.215778 -0.500165 
-32.3399 72.5863 674.155 0.082062 -0.915417 -0.394054 
-33.1058 16.1985 530.934 0.169655 -0.579204 0.797333 
-27.7618 19.5171 531.588 0.252641 -0.567873 0.783386 
-32.7235 77.8173 618.704 0.0221107 -0.865145 -0.501034 
-31.9683 85.4098 606.133 0.045496 -0.880854 -0.471196 
-27.1399 86.1464 605.755 0.0175945 -0.897311 -0.441048 
-24.4486 86.6594 604.098 -0.00716403 -0.92041 -0.390888 
-22.1136 86.8285 602.511 0.0701633 -0.891179 -0.448194 
-43.091 33.8411 538.285 -0.00434584 -0.447158 0.894444 
-31.5429 38.8255 539.423 0.151014 -0.453664 0.878285 
-47.0022 26.1733 534.234 -0.0836622 -0.355047 0.931097 
-45.0103 26.216 535.069 -0.139973 -0.341622 0.929356 
-56.1251 -22.4848 465.857 -0.477253 -0.267912 -0.836931 
-20.7524 -39.4675 487.734 0.463031 -0.7928 0.396321 
-28.7355 -59.986 467.504 0.316041 -0.911667 -0.262645 
-44.3373 -58.7082 458.549 -0.0808458 -0.899661 -0.429039 
-47.0848 -59.4695 459.886 -0.420418 -0.83237 -0.361121 
-47.5228 -50.3092 459.797 -0.692515 -0.100922 -0.71431 
-52.022 -52.2393 465.573 -0.884261 -0.318844 -0.341206 
-51.6649 -50.056 463.811 -0.878579 -0.253706 -0.404638 
-51.0546 -45.8352 462.638 -0.899217 0.0403612 -0.435638 
-60.1285 9.26782 476.581 -0.842981 0.238223 -0.482321 
-10.5908 101.991 578.235 0.104943 -0.989071 -0.103568 
-94.4983 81.5872 651.714 0.222547 -0.87789 -0.424007 
-105.934 83.913 647.739 -0.0452378 -0.873033 -0.485558 
-102.217 78.5527 658.308 0.0547567 -0.881788 -0.468456 
-106.639 79.6482 654.229 0.0726506 -0.864478 -0.497393 
-107.245 74.1918 664.937 -0.00330979 -0.918563 -0.395261 
-107.8 72.0631 669.564 -0.02198 -0.926094 -0.376653 
-31.3892 74.7296 672.842 0.118784 -0.910851 -0.395274 
-48.2532 -30.6415 465.858 -0.667165 -0.141269 -0.731392 
4.10243 104.493 572.396 0.303509 -0.95134 0.0532424 
3.34013 103.359 573.674 0.243529 -0.968544 -0.051152 
-34.526 81.0523 613.457 0.089581 -0.8408 -0.533883 
-32.2671 80.893 614.663 0.037849 -0.825155 -0.563637 
-29.1288 85.3857 606.906 0.00824722 -0.882806 -0.469666 
-22.084 86.5815 605.048 0.0655997 -0.911081 -0.406974 
-24.2592 89.9371 599.686 0.027919 -0.846678 -0.531373 
-48.8371 15.5442 529.772 -0.110981 -0.465146 0.87825 
-46.8614 16.0513 530.423 -0.105552 -0.450363 0.886585 
-32.9466 18.4365 532.036 0.123335 -0.489549 0.863209 
-64.7697 6.84323 483.985 -0.849181 0.18542 -0.494481 
-58.2327 -22.9554 467.117 -0.537106 -0.308755 -0.784976 
-50.5248 -30.7617 467.292 -0.54052 -0.325176 -0.77595 
-47.0836 -62.7854 468.943 -0.42256 -0.878782 0.22178 
-44.5269 -62.3529 470.167 -0.1692 -0.942066 0.289626 
-44.4366 -59.6006 460.827 -0.0416623 -0.936163 -0.349088 
-52.0805 -50.2729 466.012 -0.942194 -0.19833 -0.270067 
-58.116 -27.8033 501.424 -0.364366 -0.0878995 0.927098 
-59.0291 11.892 477.217 -0.834223 0.243296 -0.494853 
13.5088 106.133 568.767 0.141871 -0.988455 0.0531915 
9.02016 105.776 571.576 0.14628 -0.988333 -0.0424209 
6.79374 105.006 570.739 0.289924 -0.943876 0.158246 
-96.9326 80.5257 655.581 0.0769354 -0.904901 -0.418612 
-99.6535 80.2597 654.7 0.0081233 -0.921721 -0.387769 
-104.096 79.62 657.547 0.0673155 -0.868762 -0.490634 
-106.233 79.3962 656.269 0.0817148 -0.866974 -0.491608 
-108.954 79.1303 655.388 0.0587764 -0.880267 -0.470824 
-109.48 74.9151 664.245 -0.0474924 -0.911944 -0.407557 
-30.6899 90.4123 597.836 0.0225037 -0.893142 -0.449211 
-19.5324 -55.5172 472.068 0.465025 -0.876038 0.127704 
-64.7079 4.68576 483.216 -0.851176 0.183013 -0.49194 
-60.0418 3.7424 474.859 -0.859295 0.32226 -0.397191 
-107.016 75.7297 662.917 0.0252374 -0.904804 -0.42508 
-97.1323 80.8046 653.048 0.111134 -0.911967 -0.394926 
-96.734 82.3105 651.023 0.167761 -0.884376 -0.435587 
-1.1917 102.174 576.961 0.0868053 -0.976006 -0.199691 
-56.2864 -29.4273 502.052 -0.303374 -0.201854 0.931246 
-51.0804 -48.1742 461.721 -0.807471 -0.168429 -0.565351 
-44.8174 -63.2058 467.444 -0.130819 -0.983189 -0.127382 
-44.6353 -61.3854 465.385 -0.0264708 -0.919187 -0.392932 
-9.25093 18.8379 525.986 -0.0578356 -0.215435 0.974804 
-25.9691 23.9753 534.07 0.124594 -0.429137 0.894605 
-47.7496 13.59 529.274 -0.0946911 -0.496923 0.862613 
-44.9587 23.5277 534.018 -0.124558 -0.362065 0.923794 
-21.3008 90.2481 598.401 0.100241 -0.845886 -0.523859 
-30.7316 85.347 608.576 0.0263334 -0.877552 -0.478758 
-31.8966 83.5385 610.45 0.0438399 -0.853443 -0.519339 
-48.3713 -52.4866 461.467 -0.841882 -0.14866 -0.518783 
-25.1522 99.4529 582.165 0.0605768 -0.958996 -0.276872 
-101.613 80.0856 655.789 -0.0167606 -0.895113 -0.445525 
-63.6814 6.72851 481.794 -0.84685 0.179904 -0.50048 
-21.3287 -45.2344 485.012 0.337903 -0.548671 0.76471 
-39.6082 -58.8639 460.449 0.151532 -0.907158 -0.39256 
-57.7721 -33.3292 473.935 -0.436122 -0.690344 -0.577255 
-57.5814 -31.5272 471.95 -0.469564 -0.583166 -0.662893 
-56.3883 -24.8687 467.106 -0.502012 -0.329231 -0.799744 
-41.4319 142.802 499.409 -0.0339035 -0.961267 -0.273524 
-52.4583 85.3488 648.438 -0.144894 -0.970201 -0.194203 
-48.5061 142.442 500.934 -0.0132145 -0.930661 -0.365644 
-62.3729 -10.6149 467.381 -0.678695 -0.0616337 -0.731829 
-41.7843 151.655 491.013 0.307074 -0.451826 -0.837591 
-60.2985 144.424 497.028 0.0178541 -0.909044 -0.416318 
-62.0793 144.544 495.681 -0.0309329 -0.89597 -0.443036 
-87.0338 92.5281 636.14 -0.240278 -0.895125 -0.375524 
-85.2545 88.729 640.873 -0.135379 -0.869847 -0.474382 
-68.7167 8.0922 491.543 -0.943421 0.0151781 -0.33125 
-69.0738 5.90885 493.305 -0.97702 -0.0128769 -0.21276 
-51.055 -11.9529 461.207 -0.453921 -0.166489 -0.87535 
-46.3851 -11.6147 458.032 -0.446332 -0.152246 -0.881822 
-68.8454 -15.205 476.271 -0.935089 0.158557 -0.316966 
-38.0272 145.842 495.921 0.179717 -0.574128 -0.798799 
-68.7229 86.9379 644.841 -0.02598 -0.929518 -0.367861 
-51.9348 83.121 611.168 0.0482495 -0.852954 -0.519752 
-42.635 82.4109 612.173 -0.0289821 -0.905532 -0.423286 
66.33 118.54 550.77 0.10884 -0.968566 -0.223683 
-61.1027 -1.53659 511.799 -0.534727 -0.543986 0.646643 
-0.900942 -28.4612 492.909 0.42733 -0.85935 0.280903 
3.94759 -27.0314 488.854 0.42052 -0.855082 0.303312 
-55.0116 -9.76381 462.55 -0.431873 -0.211522 -0.876781 
-63.8167 -9.00455 467.948 -0.768842 0.0609786 -0.636525 
-43.7074 142.997 500.702 0.0801559 -0.964071 -0.253265 
-53.3337 143.545 499.62 -0.0212698 -0.933561 -0.357788 
-53.6908 141.361 501.382 0.0884022 -0.82388 -0.559827 
-62.9906 142.071 500.377 0.0621517 -0.85026 -0.52268 
-81.9779 139.287 501.97 0.00863128 -0.879056 -0.47664 
-82.593 89.06 639.363 -0.0971181 -0.903076 -0.418357 
-87.5895 88.5599 642.46 -0.06078 -0.848981 -0.524916 
-88.1954 83.1035 653.168 -0.0799007 -0.818252 -0.56928 
-86.1941 81.6533 653.857 -0.0459873 -0.818099 -0.573235 
-83.8725 81.3602 654.721 0.0271736 -0.847422 -0.530224 
-60.7817 -14.5656 466.78 -0.537206 -0.205351 -0.818072 
-88.313 85.6861 646.13 0.00786509 -0.901001 -0.433745 
-87.8607 86.8069 644.394 -0.00261483 -0.889999 -0.455954 
-85.7109 85.6532 644.914 -0.197487 -0.853527 -0.482172 
-87.2496 89.184 640.086 -0.100742 -0.841681 -0.530494 
-82.8202 89.7905 637.006 -0.185907 -0.933813 -0.305665 
-76.4638 146.905 491.152 0.123776 -0.87317 -0.471438 
-58.0629 143.7 497.72 0.0378807 -0.929407 -0.367106 
-51.8107 142.134 500.45 0.0263886 -0.892042 -0.451182 
-44.1333 141.942 502.904 0.0770823 -0.911729 -0.403494 
-41.3649 160.703 487.553 0.320556 -0.392244 -0.8622 
-39.7441 156.505 489.491 0.318112 -0.420786 -0.849555 
-44.003 145.714 493.417 0.2534 -0.620522 -0.742119 
-65.7371 -11.3442 497.006 -0.903487 -0.36798 0.219775 
-67.5148 -3.86615 488.887 -0.954365 -0.25816 -0.150136 
-64.5006 -11.9598 493.089 -0.975061 -0.0544822 0.215144 
-67.2218 -12.7786 485.848 -0.893643 0.378478 0.241158 
-64.579 -10.1385 469.226 -0.788327 0.0935095 -0.60811 
-65.3182 -15.0047 470.141 -0.714137 -0.10714 -0.691758 
-52.5477 -8.94926 461.221 -0.410077 -0.198964 -0.890084 
-55.5776 -14.6314 464.349 -0.451565 -0.210338 -0.867091 
-46.8214 -13.9974 458.397 -0.445818 -0.194489 -0.873739 
-67.3563 -3.46763 491.682 -0.96144 -0.274839 -0.00980478 
-68.6208 1.07388 489.676 -0.970736 -0.0470068 -0.235505 
-53.2843 -7.55362 511.319 -0.142857 -0.479361 0.865913 
-59.3522 -3.24928 512.301 -0.526452 -0.422686 0.737689 
-68.9728 10.9225 492.727 -0.924197 -0.0337003 -0.380426 
-69.6077 6.86558 498.922 -0.974911 -0.168261 -0.145727 
-68.7604 13.8328 493.35 -0.872204 0.0645468 -0.484864 
-63.2684 0.878918 512.65 -0.587993 -0.620337 0.519082 
-65.0188 2.5916 512.148 -0.591607 -0.579104 0.560928 
-69.8745 7.62035 504.91 -0.975502 -0.142345 0.167733 
-66.4074 25.3801 493.001 -0.842649 0.237811 -0.483102 
-67.0099 4.57267 511.74 -0.725297 -0.422398 0.543621 
-69.2115 7.97243 507.183 -0.963448 -0.172319 0.205121 
-66.0269 28.3118 493.873 -0.845338 0.271555 -0.460067 
-69.1684 8.44555 510.237 -0.905052 -0.263798 0.333603 
65.5181 116.96 553.188 0.116047 -0.893305 -0.434212 
-82.7601 137.888 504.24 0.057993 -0.886803 -0.458495 
-42.6646 82.6579 609.636 0.019746 -0.88645 -0.462403 
-45.0292 82.7358 608.686 -0.105412 -0.897998 -0.427185 
-47.3577 83.8783 608.154 -0.121803 -0.879778 -0.459515 
-51.6073 85.5513 606.869 -0.0219516 -0.897128 -0.441225 
-49.6992 82.3976 611.86 -0.0208377 -0.840984 -0.540659 
-52.2686 81.5017 613.445 0.0288987 -0.796124 -0.604444 
-48.7788 83.0151 648.562 -0.164594 -0.95703 -0.238753 
-50.6185 84.1819 648.5 -0.178012 -0.964588 -0.194631 
-50.8468 82.6441 650.52 -0.115792 -0.916566 -0.382752 
-55.2813 85.1169 647.2 -0.0741043 -0.991102 -0.110573 
-57.5404 85.2762 645.994 -0.128519 -0.968431 -0.213597 
-64.4193 86.5856 643.574 -0.126981 -0.953747 -0.272473 
-66.7042 87.7825 643.175 -0.0792206 -0.952127 -0.295261 
-68.9403 87.4755 642.058 -0.0298323 -0.933189 -0.358147 
-69.2181 85.602 646.49 0.0282034 -0.895141 -0.444889 
-50.9076 -14.2932 461.174 -0.478741 -0.182123 -0.858859 
-69.1893 83.5156 650.72 -0.00455676 -0.827418 -0.561568 
-80.2775 89.8846 637.922 -0.0284573 -0.956111 -0.291618 
-88.5603 81.0597 655.102 0.00842498 -0.814473 -0.58014 
-67.9845 -15.0181 474.407 -0.898929 0.0743737 -0.431734 
-54.9712 -7.82469 461.556 -0.425205 -0.223034 -0.877187 
-1.8716 -30.9927 486.171 0.402105 -0.856512 0.323572 
-68.4404 6.39732 491.768 -0.95162 0.0611023 -0.301141 
-69.1428 6.60896 496.428 -0.977036 -0.124545 -0.172886 
-69.8739 8.90704 496.857 -0.966798 -0.132912 -0.218256 
-69.5168 11.0904 495.095 -0.939719 -0.0635921 -0.335982 
-63.4756 25.4404 489.13 -0.830031 0.238187 -0.504298 
-63.6912 30.3204 490.593 -0.851173 0.225588 -0.473935 
75.4822 119.617 545.448 0.207397 -0.94556 -0.250806 
-59.855 84.9408 647.341 -0.0782456 -0.911469 -0.403859 
-67.3192 83.9413 651.627 -0.0323244 -0.860269 -0.508815 
-57.6625 -8.14703 511.115 -0.456127 -0.450165 0.767658 
-68.7855 -14.1041 484.457 -0.886549 0.429892 0.170947 
-40.3 82.58 610.586 0.0401144 -0.877458 -0.477973 
67.9106 112.956 560.061 0.0229908 -0.866184 -0.499196 
-174.238 137.516 562.417 -0.992989 -0.118098 -0.00502254 
-174.326 139.729 560.318 -0.985085 -0.169109 0.0317785 
-173.406 131.505 565.73 -0.967157 -0.21598 -0.134015 
-174.668 141.565 558.645 -0.983889 -0.173098 0.0447193 
-173.734 135.519 562.315 -0.979004 -0.191935 -0.0686504 
-174.484 139.331 557.522 -0.979876 -0.195731 0.0391555 
-163.994 90.9079 588.272 -0.477587 -0.877335 -0.0468357 
-174.537 138.707 554.752 -0.975017 -0.221118 -0.0211582 
-171.642 130.537 561.333 -0.620311 -0.663716 -0.417966 
-174.985 140.768 553.053 -0.978971 -0.198332 -0.0477502 
-174.623 138.706 551.896 -0.966564 -0.242594 -0.0830726 
-163.617 92.7038 583.726 -0.726462 -0.448788 -0.520425 
-161.388 92.83 584.75 -0.173951 -0.820582 -0.544413 
-166.864 131.252 558.42 0.0371268 -0.869197 -0.49307 
-164.246 131.46 559.208 0.0634962 -0.83275 -0.549996 
-166.58 133.056 553.676 0.0356477 -0.930187 -0.365352 
-161.922 133.678 556.185 0.0890653 -0.903487 -0.419259 
-105.651 93.9858 631.336 -0.0814048 -0.858948 -0.505551 
-159.815 132.309 556.618 0.0536331 -0.873332 -0.484164 
-103.249 94.4529 630.131 -0.1003 -0.934965 -0.340265 
-105.266 95.9253 624.17 -0.240918 -0.969006 -0.0546464 
-105.748 95.2962 618.564 -0.410467 -0.827235 0.383664 
-101.309 95.5757 621.134 -0.399985 -0.864187 0.305276 
-106.97 91.4602 614.887 -0.437546 -0.302259 0.846873 
-99.318 93.5947 621.542 -0.330084 -0.805291 0.492494 
-74.1348 86.5117 535.398 -0.95953 -0.00207183 -0.281598 
-71.442 90.7036 530.355 -0.854324 0.120987 -0.505464 
-71.9583 86.2822 531.015 -0.921046 0.05098 -0.386102 
-70.1381 85.7089 526.701 -0.879369 0.190332 -0.436444 
62.8837 87.6111 639.431 0.549851 -0.81523 -0.181835 
72.9476 92.2668 642.132 0.269876 -0.875616 -0.400579 
65.5758 89.9636 636.082 0.548089 -0.811513 -0.202596 
52.0773 81.9619 627.972 0.568779 -0.794836 -0.211486 
60.491 114.438 558.124 0.103916 -0.912533 -0.395581 
57.0862 111.398 561.612 0.15166 -0.867482 -0.473787 
48.142 110.613 562.231 0.0134672 -0.893027 -0.449801 
45.4209 109.918 564.034 -0.0130713 -0.897359 -0.441107 
-91.8324 138.297 502.908 -0.0404602 -0.873148 -0.485773 
-100.934 138.952 499.038 0.0229333 -0.871408 -0.490023 
-101.384 136.905 503.409 0.0827108 -0.868444 -0.488839 
-102.074 134.942 505.755 0.0960609 -0.909694 -0.404015 
-102.044 134.695 508.292 0.0662241 -0.922717 -0.379748 
-97.6139 130.022 518.723 0.0366273 -0.900899 -0.43248 
-97.8421 128.484 520.743 0.0145173 -0.895811 -0.444199 
-99.9497 128.014 522.003 -0.00743377 -0.907672 -0.419615 
-102.641 127.501 523.659 0.00124267 -0.879425 -0.476036 
-102.869 125.963 525.68 0.0951483 -0.863079 -0.496025 
-57.394 96.0037 586.868 0.0381404 -0.901256 -0.431605 
-59.9829 95.8856 586.197 0.0590132 -0.899926 -0.432031 
-64.2697 96.8155 584.4 -0.000520305 -0.878706 -0.477362 
-64.455 95.4928 586.507 -0.0182593 -0.892432 -0.450813 
-66.9189 94.6783 587.836 -0.0297504 -0.899638 -0.435622 
-69.2539 94.5092 589.423 -0.029619 -0.896168 -0.442725 
-78.7112 97.0891 581.245 0.130923 -0.861768 -0.490118 
-85.3486 99.9696 577.038 0.0602807 -0.870027 -0.489305 
-87.4858 99.7459 575.76 0.0170875 -0.902758 -0.42981 
-85.4426 95.9978 585.717 -0.0822682 -0.930216 -0.357674 
-88.2393 95.8323 584.945 0.0262549 -0.942741 -0.33249 
-88.2098 95.5854 587.482 -0.00377523 -0.899215 -0.437491 
-88.4388 92.208 591.196 0.017603 -0.830513 -0.556721 
-106.243 102.607 569.262 0.126763 -0.895025 -0.427622 
-90.9303 91.563 592.502 0.0502104 -0.849766 -0.524764 
-98.0949 92.5742 590.26 0.0397565 -0.889286 -0.455621 
-98.0937 90.6572 594.468 -0.0106239 -0.878699 -0.477258 
-107.038 93.6281 589.186 -0.0167174 -0.829822 -0.557778 
-105.23 89.582 596.457 -0.0155638 -0.909651 -0.415082 
-135.853 107.836 558.391 0.0778112 -0.899289 -0.430377 
-138.217 107.914 557.441 0.0506936 -0.865445 -0.498432 
-107.537 89.2434 598.066 -0.0178407 -0.902724 -0.429851 
-142.689 109.361 556.057 -0.0450095 -0.859313 -0.509466 
-142.973 107.145 560.443 0.0108257 -0.856709 -0.515686 
-141.435 103.615 565.27 0.0687643 -0.893096 -0.444579 
-143.601 103.209 564.14 0.0180864 -0.893045 -0.449604 
-143.69 103.252 566.785 0.0382947 -0.914604 -0.402533 
-101.363 93.4191 619.775 -0.477692 -0.640855 0.600929 
50.5526 110.252 563.219 0.0131553 -0.866226 -0.49948 
-98.9968 135.123 509.251 0.159578 -0.876032 -0.455086 
-82.3705 100.116 577.444 0.0344466 -0.821313 -0.569437 
-102.865 89.5041 597.407 -0.0675429 -0.89074 -0.449467 
-103.645 93.0144 618.054 -0.455419 -0.588583 0.667954 
-105.513 96.8205 620.122 -0.331254 -0.922059 0.200195 
-147.582 119.074 557.454 -0.906732 0.189969 -0.376496 
65.2376 85.9 650.272 0.392994 -0.882549 -0.258192 
-69.4201 91.3572 528.359 -0.812172 0.189691 -0.55172 
54.6299 82.0356 634.255 0.586904 -0.794804 -0.154372 
62.8245 88.105 634.357 0.577338 -0.798933 -0.168481 
-91.8036 136.21 507.138 -0.0520674 -0.899143 -0.434548 
-98.5996 138.692 500.135 0.107684 -0.875488 -0.47109 
-102.214 130.824 517.081 -0.00785934 -0.93892 -0.344046 
-140.385 106.65 561.678 0.04078 -0.868605 -0.493823 
-150.077 114.828 559.631 -0.912146 0.179522 -0.368459 
41.2862 65.6067 664.538 0.595346 -0.75495 -0.274981 
-69.0941 98.0339 582.473 -0.01051 -0.877017 -0.480345 
-71.9768 89.2681 531.306 -0.882877 0.0843151 -0.461973 
73.0469 93.1592 639.853 0.330219 -0.864759 -0.378348 
64.863 112.099 561.787 -0.0550966 -0.847283 -0.528276 
55.9188 111.314 562.406 0.125148 -0.870965 -0.47514 
46.2135 112.52 554.557 0.252098 -0.96685 0.0405956 
46.1734 111.134 561.911 0.0520226 -0.918381 -0.392263 
40.5051 66.9057 659.747 0.583891 -0.763999 -0.274549 
51.5093 72.5003 668.341 0.591978 -0.757982 -0.273906 
-101.261 138.361 501.645 0.0373001 -0.853322 -0.520049 
-102.413 129.039 521.639 -0.0594827 -0.894518 -0.443057 
-59.7259 95.3371 588.407 0.068887 -0.879007 -0.471807 
-69.0257 96.0471 587.402 -0.0281067 -0.916818 -0.398316 
-78.2853 98.1434 579.044 0.130035 -0.805417 -0.578268 
-87.5851 98.8535 578.039 -0.0122911 -0.885195 -0.465058 
-93.0102 90.9228 593.784 0.0564735 -0.897556 -0.437269 
-106.583 94.8644 586.838 -0.0272951 -0.906308 -0.421736 
-137.99 107.183 559.797 0.0914109 -0.898698 -0.428936 
-161.79 131.986 558.088 0.0147894 -0.866955 -0.498168 
-105.702 95.935 629.201 -0.160731 -0.913625 -0.373436 
-151.126 115.042 562.522 -0.921399 0.212017 -0.325687 
-149.561 117.41 560.665 -0.916481 0.206047 -0.342939 
-72.6902 86.7408 533.137 -0.928651 0.0147024 -0.370663 
62.0516 85.3378 645.526 0.545832 -0.812266 -0.205651 
67.3957 88.6564 646.18 0.409097 -0.87263 -0.266753 
52.6907 81.7572 630.113 0.575723 -0.794437 -0.193426 
58.0347 85.0757 630.768 0.57952 -0.794053 -0.183403 
-164.45 96.914 584.461 -0.930395 -0.00781499 -0.366475 
-100.607 94.6302 630.886 -0.0175278 -0.960879 -0.276412 
-84.2839 137.46 505.103 0.0698173 -0.878574 -0.472477 
-87.2291 136.998 504.501 0.0391136 -0.872142 -0.487687 
-175.544 148.223 554.705 -0.995726 -0.0890954 -0.0243263 
67.2963 87.7639 648.459 0.350211 -0.88887 -0.295402 
-88.438 94.0475 589.503 -0.0195959 -0.86082 -0.508532 
-148.484 114.556 555.645 -0.887154 0.122197 -0.445001 
42.2913 79.2903 622.112 0.165058 -0.851127 -0.498336 
44.3392 78.9682 623.83 0.296542 -0.882276 -0.365584 
47.5453 80.2235 624.9 0.419012 -0.864889 -0.276398 
48.792 80.5073 625.504 0.470963 -0.848238 -0.242251 
-54.8974 96.0737 588.028 -0.0113805 -0.872093 -0.489207 
-78.972 135.078 510.984 0.0556465 -0.85711 -0.512118 
-78.6744 136.898 509.515 0.0530129 -0.894628 -0.443656 
-84.9407 82.1681 653.236 -0.0262535 -0.846411 -0.531883 
-56.0199 85.5891 645.744 -0.0991462 -0.985668 -0.13649 
-49.5742 143.25 499.449 -0.0778274 -0.946083 -0.314437 
-69.2657 19.9455 497.038 -0.91062 0.202573 -0.360187 
-63.0089 29.4156 489.61 -0.843771 0.211257 -0.493376 
-52.204 -15.0232 461.71 -0.474829 -0.180051 -0.861463 
-54.539 -15.1923 463.297 -0.448946 -0.19414 -0.872214 
-62.0495 28.6554 487.16 -0.83137 0.211109 -0.514059 
-52.69 -17.8521 463.213 -0.455173 -0.205935 -0.866261 
-83.7494 91.5904 633.941 -0.286292 -0.953171 -0.0974743 
-72.6509 86.4878 644.055 -0.0318565 -0.906567 -0.420858 
-65.6861 85.6087 646.647 -0.0719995 -0.90285 -0.423885 
-65.814 87.2316 642.011 -0.146013 -0.969589 -0.19641 
-56.4259 84.799 646.953 -0.0289365 -0.980802 -0.192849 
-49.7786 81.8362 652.006 -0.0421215 -0.919967 -0.389727 
-52.9037 84.8213 607.404 -0.00594152 -0.887599 -0.460579 
-50.5687 84.9903 605.817 -0.064003 -0.898195 -0.434914 
-85.9646 140.312 499.784 0.00396326 -0.873387 -0.48701 
66.2299 115.808 554.742 0.0532688 -0.875575 -0.480137 
-61.245 35.9602 487.862 -0.864827 0.22852 -0.44705 
-62.5844 27.2198 488.111 -0.831313 0.221244 -0.509873 
-58.691 -7.23952 510.329 -0.521774 -0.434724 0.734007 
-2.93954 -29.632 491.045 0.423322 -0.870221 0.25202 
-51.6877 -10.6019 461.05 -0.417224 -0.17616 -0.891567 
-62.7587 -18.1385 468.952 -0.582733 -0.235164 -0.777895 
-61.8079 -15.9952 467.639 -0.560901 -0.214168 -0.799701 
-65.2117 -8.96859 489.841 -0.994135 -0.0934895 0.0543541 
-44.02 152.379 490.321 0.290351 -0.463894 -0.836958 
-41.6414 138.831 507.498 0.0527298 -0.828049 -0.558171 
-50.7425 141.326 501.936 0.0709004 -0.893177 -0.44408 
-83.2733 140.825 498.128 0.0306836 -0.893408 -0.448196 
-83.8884 90.5984 635.521 -0.243105 -0.947585 -0.207323 
-88.5584 90.2602 638.695 -0.115562 -0.833592 -0.540157 
-84.6428 84.8454 646.399 -0.222403 -0.88554 -0.407868 
-85.2875 80.9203 655.365 -0.00217165 -0.864165 -0.503204 
-85.3971 79.0923 657.277 0.0216455 -0.897713 -0.440048 
-41.2998 81.4011 614.03 -0.0255194 -0.894154 -0.447031 
69.4862 118.796 546.62 0.112741 -0.979288 0.16818 
-70.6164 19.5157 498.785 -0.955759 0.163074 -0.24481 
-70.3188 9.85682 495.674 -0.954412 -0.131325 -0.268051 
-68.7773 5.34937 494.942 -0.989667 -0.0327996 -0.139582 
-60.7085 -5.32487 509.455 -0.642039 -0.44073 0.62733 
-42.9634 -15.2394 457.64 -0.392942 -0.252038 -0.884349 
-42.871 155.449 489.819 0.310687 -0.420339 -0.852519 
-66.2552 81.1783 655.418 -0.0587676 -0.923098 -0.380049 
-47.5599 82.9156 642.784 -0.312448 -0.872561 0.375518 
23.0287 57.2738 666.403 -0.410579 -0.794957 0.446618 
-67.6033 -2.5725 487.634 -0.952061 -0.146543 -0.268525 
-67.2462 -0.389144 485.872 -0.926445 -0.0468358 -0.373504 
-70.3139 86.5794 644.982 0.0340936 -0.91144 -0.410018 
-67.5654 86.6759 645.886 -0.00844744 -0.919713 -0.3925 
-58.8778 84.2536 648.958 -0.0268851 -0.880828 -0.472672 
-56.1293 84.3501 649.861 0.0310715 -0.88546 -0.463676 
-47.371 81.9735 653.042 0.0390075 -0.943845 -0.328077 
-55.1894 84.1787 608.698 0.0882114 -0.865806 -0.492544 
-53.003 83.9289 609.683 0.0313216 -0.873384 -0.486025 
-48.2041 84.9125 606.767 -0.0800779 -0.888683 -0.451476 
69.1782 115.772 555.296 0.0397829 -0.872665 -0.486696 
-70.1103 11.5307 506.87 -0.970424 -0.205246 0.127088 
-64.6016 29.6873 493.596 -0.85438 0.264716 -0.44717 
-68.353 2.53029 509.126 -0.731852 -0.495093 0.468268 
-66.6135 3.08755 510.737 -0.683656 -0.51328 0.518804 
-65.9891 24.1797 491.599 -0.834964 0.209879 -0.508711 
-60.2486 29.2284 484.831 -0.850976 0.192579 -0.488624 
-58.4262 -4.92009 511.175 -0.497428 -0.436343 0.74978 
-68.3204 9.45544 491.326 -0.926217 0.040265 -0.374835 
-69.0368 -0.0627823 492.723 -0.973653 -0.22513 -0.0362823 
-67.988 -0.0198001 488.222 -0.953469 -0.0694649 -0.293381 
-56.4171 -11.0895 463.176 -0.442931 -0.227775 -0.867139 
-63.6516 -16.1702 469.318 -0.625352 -0.217732 -0.749352 
-61.3789 -11.4487 466.549 -0.590657 -0.165008 -0.789871 
-65.5671 -11.7479 469.869 -0.799874 0.0546803 -0.597671 
-66.1122 -9.25509 491.006 -0.985132 -0.17124 0.0138706 
-50.1292 141.121 504.076 0.10823 -0.882609 -0.457479 
-52.6227 140.553 502.868 0.144143 -0.850945 -0.505089 
-64.0588 142.879 498.892 0.0937868 -0.866999 -0.489404 
-83.3726 139.933 500.407 0.0092896 -0.883066 -0.469157 
-86.0743 91.8785 634.962 -0.33709 -0.90878 -0.245944 
-83.9942 88.3943 639.919 -0.119704 -0.878047 -0.463363 
-90.794 90.9836 638.004 -0.0411214 -0.825528 -0.562861 
-84.8047 84.0867 649.02 -0.189434 -0.907586 -0.374703 
-86.7371 84.4079 647.892 -0.213272 -0.908362 -0.359714 
-87.2765 80.1595 656.516 0.00974292 -0.857022 -0.515187 
-70.865 -18.256 486.836 -0.910731 0.360084 0.202259 
-88.1224 91.8455 636.776 -0.192838 -0.853318 -0.484419 
-59.2304 143.616 498.513 0.0442022 -0.897159 -0.439491 
-65.0484 -11.1585 491.36 -0.990647 -0.000883794 0.136444 
-67.5534 -1.57349 492.854 -0.959072 -0.283163 -4.45253e-05 
-68.176 0.124095 490.859 -0.977758 -0.191338 -0.0859023 
-70.0059 8.88312 505.691 -0.976281 -0.145982 0.159892 
-70.2688 11.1322 504.074 -0.988029 -0.118177 0.0991586 
-48.4028 83.1276 611.325 -0.112517 -0.874822 -0.471197 
-60.9569 85.4529 648.547 -0.0549893 -0.879818 -0.472119 
-65.4579 87.1465 644.626 -0.0756747 -0.943333 -0.323104 
-38.5782 152.911 492.083 0.305923 -0.436699 -0.845994 
2.85933 -26.9167 491.045 0.419556 -0.857597 0.297489 
-65.9682 3.69837 512.759 -0.660954 -0.494438 0.564509 
-47.9075 84.4635 609.676 -0.116669 -0.896469 -0.42747 
-69.7952 -15.3849 484.935 -0.891874 0.409604 0.191797 
-39.2319 81.7721 612.071 -0.0275016 -0.884562 -0.465611 
-39.4601 80.2342 614.092 -0.025649 -0.892532 -0.450254 
-52.2782 89.9288 596.267 -0.0350758 -0.887812 -0.458868 
-52.05 91.4667 594.247 -0.0616141 -0.889105 -0.453537 
64.3506 116.875 553.981 0.099847 -0.891995 -0.440881 
64.3498 115.036 555.674 0.0637668 -0.893934 -0.443639 
-165.125 91.7272 589.531 -0.790263 -0.52634 0.313768 
-158.476 131.415 557.862 0.0727213 -0.851425 -0.519411 
-106.575 96.5727 625.463 -0.276612 -0.95581 -0.0995698 
-83.7994 136.61 506.985 0.101095 -0.901499 -0.420807 
-89.6094 92.6211 592.038 0.0254689 -0.836468 -0.547424 
-107.282 101.328 572.007 0.0552135 -0.935876 -0.347976 
-174.013 129.856 568.861 -0.954533 -0.292389 -0.0580918 
-171.265 125.644 569.306 -0.578448 -0.762084 -0.290907 
-165.717 95.9371 587.533 -0.999354 0.00244696 -0.0358477 
-164.167 95.4501 583.461 -0.876977 -0.102267 -0.469525 
-159.445 123.492 573.235 -0.298375 -0.704257 -0.644201 
-160.775 131.119 559.489 -0.00321717 -0.845013 -0.534736 
-108.867 96.6188 627.136 -0.130559 -0.949975 -0.28373 
-106.503 96.5409 628.087 -0.21536 -0.928506 -0.302484 
-97.4313 94.293 631.112 0.0177153 -0.965503 -0.259787 
-95.0667 94.2151 632.062 -0.00889051 -0.975181 -0.221232 
61.6585 114.523 557.331 0.0949704 -0.911468 -0.400258 
56.9869 110.506 563.891 0.129818 -0.862592 -0.488961 
53.618 106.408 571.939 0.132524 -0.900633 -0.413881 
-84.8316 128.983 522.295 -0.0706742 -0.903835 -0.422004 
-96.3175 130.752 518.187 0.0434178 -0.906459 -0.420057 
-103.084 133.416 511.037 0.0009932769 -0.892914 -0.450226 
-105.369 133.583 510.213 0.0345418 -0.905205 -0.423569 
-112.655 132.373 511.967 0.0659982 -0.906059 -0.417973 
-54.385 91.2976 595.834 -0.0214073 -0.890234 -0.455001 
-52.4768 88.144 600.825 0.0351166 -0.894717 -0.44525 
-87.7832 106.027 565.701 -0.0131976 -0.800729 -0.598882 
-90.7896 101.277 573.583 -0.106019 -0.909225 -0.402578 
-97.4269 104.587 566.691 0.00143237 -0.876813 -0.48083 
-102.226 103.603 569.607 0.120017 -0.877683 -0.46397 
-104.571 103.332 568.229 0.146177 -0.884793 -0.442462 
-107.438 99.7587 576.651 0.0243439 -0.893962 -0.447482 
-107.651 95.6722 585.353 0.0480775 -0.935975 -0.348769 
-110.415 95.1911 584.386 0.120212 -0.930949 -0.344793 
-126.477 100.52 573.925 0.0509675 -0.832456 -0.551743 
-128.617 100.181 573.26 0.0327066 -0.835222 -0.548939 
-91.5515 89.5607 621.617 -0.434703 -0.415505 0.798992 
-136.094 99.1464 575.381 0.0212471 -0.916254 -0.400035 
-138.259 99.0922 574.081 0.0863579 -0.909287 -0.40711 
-172.859 127.832 569.084 -0.843851 -0.511707 -0.161465 
-163.787 97.7083 591.821 -0.784362 -0.0128494 0.620171 
-169.158 124.275 569.739 -0.23433 -0.901546 -0.363736 
-168.616 125.941 567.563 -0.157568 -0.895414 -0.41642 
-161.837 123.74 572.262 -0.0848259 -0.790463 -0.606608 
-163.546 128.678 562.713 0.0527497 -0.8864 -0.459906 
-159.273 127.715 564.277 0.0356321 -0.904369 -0.425261 
-99.7959 94.3709 630.162 -0.0167313 -0.972325 -0.233033 
-97.2335 94.2383 628.247 -0.0716557 -0.997209 -0.0209856 
-92.8311 93.4918 632.754 -0.0865286 -0.967865 -0.236114 
-97.8864 94.3434 625.408 -0.180818 -0.977143 0.111784 
-97.7152 93.6092 622.641 -0.308019 -0.859535 0.407828 
-95.661 92.7207 621.578 -0.325217 -0.681534 0.65555 
-88.29 93.1844 629.321 -0.342312 -0.935366 0.0889514 
-141.219 98.8586 572.851 0.070533 -0.853811 -0.515783 
60.8841 85.2533 646.319 0.545642 -0.819161 -0.176776 
60.7257 84.8548 643.523 0.564853 -0.801385 -0.196782 
63.6271 114.001 557.651 0.000133181 -0.902641 -0.430395 
63.547 111.718 562.75 -0.0087307 -0.849428 -0.527632 
63.1765 109.073 566.964 -0.0262624 -0.898299 -0.438599 
58.1544 110.59 563.097 0.0967508 -0.858444 -0.503699 
53.2158 106.775 569.287 0.0882293 -0.916112 -0.391094 
50.7916 106.06 571.314 -0.0410652 -0.919873 -0.39006 
-84.2947 135.274 508.635 0.109599 -0.911501 -0.396426 
-84.5826 132.943 513.633 -0.0219685 -0.8468 -0.531457 
-84.782 129.319 519.884 -0.0323851 -0.924977 -0.37864 
-88.8265 134.088 511.922 0.0446051 -0.882292 -0.468584 
-94.0818 130.029 518.879 0.097801 -0.900929 -0.422802 
