ply
format ascii 1.0
element vertex 887
property float x
property float y
property float z
property float nx
property float ny
property float nz
end_header
-176.664 159.107 548.465 -0.989428 0.0816803 0.119839
-172.317 170.518 552.812 -0.942041 0.243413 0.230888
-174.817 141.142 546.16 -0.876295 -0.46573 -0.123295
-173.7 143.398 565.805 -0.993965 -0.0298646 0.105554
-176.243 161.026 547.839 -0.985931 0.10527 0.129836
-172.234 136.66 548.67 -0.445634 -0.819897 -0.359415
-174.491 164.813 550.639 -0.951274 0.231578 0.203591
-175.761 148.12 545.349 -0.989586 -0.131252 0.0591045
-175.81 146.543 544.476 -0.980578 -0.194019 0.0286998
-176.775 148.417 537.991 -0.974085 -0.225854 -0.0121772
-174.27 138.448 563.033 -0.992864 -0.117269 0.0216481
-175.12 162.419 549.269 -0.973653 0.153519 0.168619
-176.342 157.872 546.094 -0.995781 0.0253172 0.0882012
-176.553 153.022 541.232 -0.998374 -0.0270685 0.0501632
-173.882 140.816 564.559 -0.99528 -0.064279 0.0727089
-174.608 140.048 563.314 -0.994746 -0.0887251 0.0510792
-175.893 162.464 548.087 -0.977262 0.142802 0.156735
-174.087 158.358 560.278 -0.965353 0.173186 0.195193
-176.137 161.748 546.528 -0.988888 0.0893121 0.118841
-170.928 137.09 548.536 -0.394911 -0.828377 -0.397286
-174.187 141.966 562.688 -0.993073 -0.0799188 0.0861307
-175.985 149.509 543.997 -0.99184 -0.112021 0.0608584
-176.2 158.835 544.347 -0.997148 0.0331141 0.0678208
-175.437 164.623 547.024 -0.972681 0.15497 0.172846
-173.72 168.169 550.26 -0.945804 0.23165 0.22758
-172.258 137.956 546.902 -0.503529 -0.796088 -0.335712
-173.195 138.134 549.213 -0.716324 -0.653622 -0.244249
-174.359 140.1 543.144 -0.697792 -0.673759 -0.243175
-176.613 154.484 541.917 -0.998703 -0.0198071 0.0469122
-173.964 167.453 548.702 -0.946618 0.229029 0.226847
-174.675 142.104 544.412 -0.861787 -0.495962 -0.106514
-176.631 157.159 543.58 -0.998893 0.0115596 0.0455979
-173.649 138.774 559.257 -0.958928 -0.280454 -0.0424515
-175.466 157.581 550.583 -0.988282 0.0447395 0.145933
-174.128 139.411 561.285 -0.98759 -0.155104 0.0246651
-172.456 166.156 556.121 -0.943129 0.249341 0.219858
-175.769 147.552 542.937 -0.978465 -0.202395 0.0405295
-172.481 171.175 551.253 -0.943126 0.238161 0.231933
-176.382 152.163 542.947 -0.997422 -0.0470931 0.0541451
-174.073 144.756 566.523 -0.99183 -0.0134078 0.126861
-175.133 143.145 547.428 -0.955801 -0.291966 -0.0346471
-176.267 154.953 546.782 -0.995971 -0.0266394 0.0856319
-174.63 142.712 549.901 -0.965863 -0.258641 -0.0145893
-173.756 139.621 545.409 -0.741139 -0.631787 -0.227062
-173.842 142.435 567.552 -0.993346 -0.014385 0.114268
-174.491 160.444 556.816 -0.964761 0.183762 0.188329
-174.014 142.201 565.12 -0.995605 -0.0466413 0.081215
-176.367 157.389 547.924 -0.995182 0.019805 0.096021
-176.558 159.829 547.154 -0.992568 0.0619904 0.104717
-175.033 162.536 550.486 -0.963964 0.189073 0.187151
-176.331 149.04 539.133 -0.982773 -0.184111 0.0161324
-174.44 164.69 552.292 -0.948589 0.229772 0.217679
-173.724 137.325 564.747 -0.992724 -0.119239 0.016749
-175.977 150.077 546.409 -0.991902 -0.0790402 0.0994093
-175.697 159.902 549.553 -0.984978 0.0977352 0.142356
-176.861 152.8 544.976 -0.996331 -0.0446577 0.073005
-176.488 149.941 541.524 -0.992975 -0.109653 0.044452
-173.669 142.67 569.984 -0.993374 0.0197628 0.113215
-173.783 139.88 566.15 -0.996278 -0.0594918 0.0623744
-174.114 140.616 548.216 -0.849469 -0.505951 -0.14972
-172.079 139.482 543.179 -0.478316 -0.80801 -0.343998
-173.587 137.318 567.616 -0.996035 -0.0645178 0.0612573
-175.729 154.761 548.818 -0.992767 -0.0290788 0.116481
-170.741 138.595 545.088 -0.331801 -0.876105 -0.349784
-172.771 160.59 561.614 -0.948323 0.225758 0.222972
-175.265 164.857 549.456 -0.955194 0.211824 0.206724
-174.996 146.139 555.764 -0.998033 -0.0543509 0.0312453
-171.617 142.932 535.961 -0.362936 -0.852211 -0.376846
-173.897 137.09 562.315 -0.974157 -0.218371 -0.0577187
-174.392 144.029 540.917 -0.828273 -0.524338 -0.197567
-174.533 141.497 557.824 -0.98993 -0.141515 0.0035908
-175.595 144.586 543.416 -0.944621 -0.327189 -0.0252806
-175.038 145.164 548.358 -0.985928 -0.163606 0.034352
-174.823 146.373 558.197 -0.998718 -0.0259088 0.0434863
-174.477 146.842 563.061 -0.992953 -0.00964921 0.118113
-175.484 155.277 553.89 -0.991605 0.0128408 0.128667
-174.212 141.831 540.294 -0.679871 -0.677021 -0.281812
-175.095 144.554 538.861 -0.807008 -0.551826 -0.210301
-176.123 146.921 537.678 -0.925043 -0.372595 -0.0739453
-175.852 145.534 546.016 -0.981474 -0.191126 0.0133916
-174.525 142.065 560.235 -0.993431 -0.100589 0.0545668
-175.528 147.622 547.573 -0.990063 -0.113435 0.083114
-175.055 148.694 557.167 -0.998196 -0.0145475 0.0582446
-174.78 155.684 558.94 -0.982423 0.11603 0.146223
-175.251 151.256 555.7 -0.997006 -0.0205212 0.0745524
-170.139 142.685 537.661 -0.238731 -0.889133 -0.390448
-170.326 130.807 561.434 -0.498443 -0.747343 -0.439355
-175.158 165.579 548.145 -0.958807 0.196751 0.204886
-173.474 161.115 559.557 -0.955885 0.210911 0.20445
-174.732 156.328 556.819 -0.985714 0.091689 0.141284
-171.759 141.97 537.708 -0.411549 -0.833486 -0.368685
-174.534 143.066 542.665 -0.84291 -0.510553 -0.169817
-174.509 140.201 559.592 -0.984764 -0.173807 0.00552198
-171.509 166.346 559.736 -0.939345 0.256898 0.227233
-175.137 145.176 557.512 -0.99785 -0.0564188 0.0333388
-175.309 152.311 554.369 -0.995604 -0.0226126 0.0908945
-174.218 141.063 541.397 -0.660109 -0.692129 -0.291914
-175.223 145.451 536.865 -0.829417 -0.537275 -0.152982
-175.855 145.935 538.987 -0.897502 -0.425023 -0.117669
-175.465 147.012 549.34 -0.992222 -0.0947246 0.0807682
-173.755 138.052 560.568 -0.964197 -0.258641 -0.0585595
-175.453 145.549 541.669 -0.947357 -0.318688 -0.0308618
-174.775 142.775 558.622 -0.994201 -0.103419 0.0294749
-175.408 146.157 547.157 -0.986059 -0.161113 0.0415941
-174.681 147.336 556.449 -0.998684 -0.024854 0.0448721
-175.196 147.732 558.914 -0.998204 -0.0133001 0.0584109
-175.443 156.285 552.351 -0.989805 0.029253 0.139395
-172.405 166.032 557.774 -0.941548 0.25173 0.223872
-170.468 129.845 563.181 -0.510713 -0.724385 -0.463075
-170.068 143.166 536.787 -0.226312 -0.887585 -0.401217
-160.773 176.016 516.719 -0.0920193 0.261008 -0.960941
-163.153 176.681 516.892 -0.105345 0.273351 -0.956128
-153.635 166.851 513.395 -0.048961 0.309785 -0.949545
-176.373 158.6 541.915 -0.998878 0.00873447 0.0465402
-162.114 167.711 514.325 -0.0483103 0.337377 -0.940129
-175.96 162.951 544.344 -0.989592 0.0790637 0.120236
-175.331 165.345 545.713 -0.971166 0.150445 0.184938
-174.702 167.738 547.082 -0.948266 0.221156 0.227777
-173.651 170.35 548.606 -0.94471 0.233168 0.230555
-176.022 151.36 524.222 -0.862625 -0.477888 -0.165835
-172.443 168.476 515.054 -0.292215 0.334888 -0.895802
-174.733 148.897 525.259 -0.65033 -0.71631 -0.252924
-176.694 153.65 523.254 -0.915666 -0.388098 -0.104579
-171.339 171.287 516.692 -0.277371 0.327936 -0.903063
-176.471 155.446 540.17 -0.998429 -0.00327506 0.0559431
-176.762 160.323 540.543 -0.996842 -0.00618823 0.0791703
-176.755 164.937 538.316 -0.989666 0.0395548 0.137826
-174.022 174.377 543.927 -0.946929 0.238889 0.215073
-172.337 147.712 524.915 -0.285513 -0.897124 -0.337123
-173.729 148.232 526.691 -0.527824 -0.802258 -0.278897
-168.302 169.165 514.625 -0.123939 0.350952 -0.928155
-176.725 154.363 532.686 -0.991235 -0.121548 0.0517701
-176.059 159.797 542.599 -0.997226 0.0261786 0.0696805
-176.192 165.272 543.314 -0.981638 0.113854 0.153047
-174.669 169.679 545.865 -0.951188 0.219431 0.217007
-176.645 171.719 517.644 -0.661106 0.278647 -0.69663
-177.052 165.199 540.915 -0.986486 0.0831973 0.14115
-177.812 172.517 519.706 -0.885598 0.211073 -0.41372
-175.228 173.836 536.664 -0.960101 0.215167 0.178632
-176.585 171.484 535.068 -0.970526 0.181752 0.158259
-176.792 150.481 535.121 -0.984913 -0.172972 -0.0052588
-176.379 154.832 537.55 -0.996973 -0.0280927 0.0725001
-174.079 146.794 526.443 -0.52902 -0.798264 -0.287944
-177.975 157.713 528.134 -0.996967 -0.0777487 0.00340897
-160.412 171.621 515.472 -0.05894 0.290368 -0.955098
-176.947 152.552 529.381 -0.961121 -0.26954 -0.0599511
-176.49 168.08 538.542 -0.977065 0.139466 0.160914
-168.786 164.333 513.069 -0.128378 0.322273 -0.937902
-176.153 148.699 529.422 -0.826297 -0.529284 -0.19259
-177.497 155.742 528.804 -0.992815 -0.119638 -0.00239299
-177.759 158.756 532.541 -0.994205 -0.0615474 0.0881345
-176.991 170.291 532.471 -0.981798 0.128656 0.139713
-173.378 143.6 533.897 -0.467829 -0.812357 -0.348156
-178.351 166.84 521.114 -0.996215 0.0222882 -0.0840192
-166.88 163.25 512.627 -0.0838027 0.287489 -0.954111
-175.108 147.587 531.374 -0.801586 -0.559434 -0.210934
-177.502 157.808 529.942 -0.996116 -0.0808925 0.0347877
-177.526 166.673 523.949 -0.99979 -0.00114559 0.0204405
-177.596 168.058 530.81 -0.991746 0.0779915 0.10177
-174.88 176.973 536.131 -0.95662 0.219138 0.191982
-173.862 177.645 538.872 -0.951983 0.23347 0.198039
-175.686 169.008 543.124 -0.964052 0.189544 0.186216
-177.236 163.262 535.256 -0.992995 0.00286996 0.118122
-174.55 172.827 540.55 -0.957651 0.215596 0.190845
-178.045 168.969 522.12 -0.99596 0.0602973 -0.0665398
-176.293 150.449 530.565 -0.906922 -0.404433 -0.118014
-165.019 174.927 516.92 -0.120474 0.277222 -0.953223
-174.454 145.484 532.558 -0.647237 -0.721406 -0.246288
-162.369 163.959 512.238 -0.0454785 0.285365 -0.957339
-171.156 146.383 528.742 -0.203442 -0.884287 -0.420295
-164.837 123.733 634.091 -0.93498 0.269978 0.230053
-167.713 122.922 623.683 -0.954068 0.226905 0.195621
-171.417 139.553 586.571 -0.961626 0.208992 0.177756
-173.323 143.139 574.848 -0.982593 0.0831848 0.166106
-168.381 123.689 621.19 -0.955244 0.225175 0.191846
-171.706 134.793 588.695 -0.978108 0.146121 0.148167
-169.501 144.14 588.871 -0.928285 0.286207 0.23743
-172.984 124.901 580.283 -0.978103 -0.206038 -0.0293869
-172.155 125.833 592.881 -0.997004 0.0494597 0.0594635
-172.681 124.562 583.173 -0.991032 -0.127073 0.0413403
-171.25 136.953 587.633 -0.968944 0.19223 0.155546
-171.927 122.413 584.149 -0.971432 -0.231347 -0.0529018
-170.534 143.832 584.04 -0.941916 0.23214 0.242705
-171.699 127.993 591.818 -0.99572 0.0489269 0.0784081
-172.655 127.435 582.277 -0.993256 -0.0832135 0.0807288
-171.813 125.203 587.983 -0.997426 -0.0521207 0.049244
-171.868 119.858 582.746 -0.855218 -0.450562 -0.256118
-172.328 125.599 590.449 -0.998535 0.00671205 0.0536836
-169.464 138.311 595.392 -0.940608 0.263747 0.213761
-170.358 136.298 594.211 -0.960369 0.206854 0.186825
-173.81 141.707 571.732 -0.994581 0.0338382 0.0983079
-170.555 138.859 592.745 -0.943828 0.256192 0.208695
-172.033 137.562 583.518 -0.975797 0.158421 0.15074
-173.52 136.831 571.359 -0.998033 -0.0380711 0.0498011
-173.796 128.106 577.976 -0.994321 -0.106394 0.00232361
-173.338 139.413 572.605 -0.995271 -0.000910238 0.0971356
-172.936 128.178 580.375 -0.995459 -0.0792639 0.0527087
-173.042 125.957 578.952 -0.982101 -0.18621 -0.028347
-173.347 137.066 573.791 -0.997307 0.00288304 0.0732824
-167.502 130.435 614.104 -0.926906 0.309148 0.212774
-166.906 130.888 616.69 -0.924751 0.31257 0.217109
-173.693 136.597 568.927 -0.996844 -0.0612893 0.0504617
-172.502 126.933 572.858 -0.867487 -0.440237 -0.231641
-173.191 141.754 574.287 -0.989871 0.0580192 0.12957
-171.583 124.451 573.854 -0.699118 -0.641661 -0.315445
-165.499 134.206 614.626 -0.92131 0.314175 0.229088
-168.588 127.582 613.017 -0.946407 0.266603 0.182309
-172.492 161.546 562.735 -0.943957 0.235381 0.23139
-171.937 140.444 541.431 -0.435737 -0.818085 -0.375327
-174.972 152.212 556.822 -0.995462 0.00892246 0.0947458
-173.097 142.856 535.799 -0.475674 -0.805505 -0.353405
-174.968 144.311 550.182 -0.988324 -0.144754 0.047553
-175.022 146.266 562.127 -0.994966 -0.0280518 0.0962081
-175.549 154.064 550.928 -0.991888 -0.0247887 0.124677
-172 163.946 561.236 -0.941559 0.246059 0.230049
-173.331 142.509 540.166 -0.64703 -0.698899 -0.304781
-174.039 136.128 564.063 -0.981242 -0.190664 -0.0284964
-175.145 144.608 555.1 -0.995983 -0.0870821 0.0208525
-175.139 154.812 555.761 -0.993377 0.0273435 0.111604
-175.014 158.772 554.136 -0.979527 0.10924 0.169098
-173.756 163.56 556.875 -0.952768 0.223991 0.205088
-174.841 159.007 556.569 -0.972035 0.158299 0.173464
-174.035 143.034 538.11 -0.654717 -0.691322 -0.305647
-176.083 149.355 547.719 -0.991462 -0.0866819 0.0974138
-175.435 156.853 554.763 -0.986457 0.0723943 0.147177
-174.699 145.031 559.756 -0.996257 -0.0558281 0.065992
-173.119 133.645 565.059 -0.955488 -0.270469 -0.117854
-175.467 144.212 540.359 -0.875677 -0.453857 -0.164933
-170.184 131.77 559.686 -0.499271 -0.766226 -0.404509
-166.433 120.545 631.634 -0.947074 0.240968 0.212099
-173.415 128.815 582.404 -0.994932 -0.0466124 0.0890878
-172.186 126.561 588.701 -0.997658 -0.0170239 0.0662401
-172.286 128.997 589.844 -0.99294 0.0349417 0.113356
-172.975 126.838 571.05 -0.8442 -0.487624 -0.222597
-171.5 147.407 576.774 -0.947836 0.209283 0.240431
-172.724 134.122 585.954 -0.986161 0.110942 0.1232
-167.505 123.397 625.678 -0.949063 0.233851 0.211173
-165.611 123.778 632.908 -0.93663 0.269657 0.223626
-171.955 124.24 589.731 -0.999192 -0.027955 0.0288759
-172.002 126.901 568.302 -0.684873 -0.643748 -0.341376
-172.179 119.76 591.823 -0.998983 -0.045087 0.0010143
-170.557 150.997 578.828 -0.923847 0.259486 0.281379
-171.039 129.658 597.367 -0.977135 0.164841 0.134292
-172.163 119.353 589.12 -0.984404 -0.14846 -0.0943893
-171.256 148.122 578.333 -0.935231 0.23354 0.266085
-172.517 146.735 574.033 -0.967792 0.158734 0.195402
-170.866 129.893 599.799 -0.970861 0.180926 0.157146
-173.044 144.095 575.97 -0.974871 0.113406 0.191746
-172.34 127.062 598.12 -0.987295 0.10209 0.121764
-173.54 131.727 565.685 -0.925844 -0.334804 -0.175266
-171.794 116.982 588.226 -0.955128 -0.231676 -0.184545
-167.113 139.151 602.34 -0.925874 0.297988 0.232292
-168.973 130.273 607.028 -0.945723 0.250595 0.206904
-169.21 103.45 619.705 -0.956118 -0.28848 -0.0511699
-170.056 113.582 620.639 -0.990569 0.036543 0.132055
-166.506 143.163 600.402 -0.921074 0.310812 0.234561
-170.558 112.515 615.432 -0.997092 -0.0481828 0.0590461
-168.818 113.352 627.288 -0.985798 0.0928049 0.139962
-168.869 138.764 597.979 -0.934769 0.281549 0.216649
-169.698 112.588 617.831 -0.995329 -0.00145733 0.0965338
-168.948 110.97 626.157 -0.991584 0.0483497 0.120096
-170.062 109.814 616.274 -0.995475 -0.0875143 0.0370264
-168.996 117.652 622.775 -0.978324 0.122561 0.166917
101.107 92.9312 659.284 0.480237 -0.845459 -0.233605
-177.315 159.379 533.683 -0.993303 -0.0455626 0.106176
-163.479 163.902 512.117 -0.0544726 0.272762 -0.960538
-161.151 163.037 511.829 -0.0389657 0.240957 -0.969753
-161.208 172.761 516.035 -0.0702716 0.287676 -0.955146
-167.676 164.39 513.19 -0.105071 0.311925 -0.944279
-172.919 144.382 532.076 -0.404858 -0.846262 -0.346311
-163.853 173.806 516.397 -0.105943 0.281784 -0.953611
-176.434 149.487 532.313 -0.912794 -0.387034 -0.130426
-177.07 153.894 527.822 -0.972969 -0.223909 -0.0565267
-177.644 156.845 531.689 -0.994385 -0.0820053 0.066878
-177.305 164.115 533.431 -0.994512 0.0260662 0.101326
-175.967 169.752 541.222 -0.962537 0.19128 0.192183
-174.48 174.442 539.156 -0.954667 0.226233 0.193469
-174.596 144.522 534.306 -0.66937 -0.702408 -0.242007
-177.798 158.916 525.95 -0.997945 -0.0638695 -0.00510783
-178.379 168.668 526.696 -0.997221 0.0276604 0.0691769
-178.071 166.096 523.016 -0.999984 0.000119429 0.00570636
-177.214 169.09 533.699 -0.983995 0.12585 0.126158
-177.864 168.272 524.23 -0.999471 0.0187659 0.0265512
-175.002 148.308 530.063 -0.754081 -0.6121 -0.238106
-174.563 176.47 537.596 -0.956674 0.223856 0.186184
-177.48 167.081 532.952 -0.990795 0.078611 0.110203
-176.484 147.91 531.441 -0.860828 -0.481606 -0.164412
-177.718 159.765 531.002 -0.997196 -0.0391311 0.0637897
-177.428 154.888 530.629 -0.992271 -0.117166 0.040871
-166.129 174.871 516.798 -0.116529 0.287092 -0.950789
-162.381 160.922 511.71 -0.0270832 0.120863 -0.9923
-171.262 145.661 530.053 -0.225653 -0.879763 -0.418447
-173.508 141.306 542.351 -0.664578 -0.687749 -0.292125
-175.306 145.91 550.463 -0.992945 -0.102747 0.0591906
-175.887 155.663 551.209 -0.992437 0.00182719 0.122745
-171.901 141.007 539.456 -0.456883 -0.807239 -0.373662
-172.942 134.848 562.875 -0.942017 -0.309613 -0.129397
-174.108 144.033 536.251 -0.648299 -0.712899 -0.267363
-175.11 143.349 551.93 -0.988262 -0.149592 0.0309947
-174.915 146.988 560.816 -0.996489 -0.0193597 0.081449
-175.188 154.169 557.882 -0.99203 0.0514674 0.115014
-174.664 160.21 554.384 -0.97079 0.152333 0.185367
-175.479 153.21 552.753 -0.994298 -0.02272 0.104191
-173.288 163.209 558.246 -0.949441 0.23233 0.211148
-174.63 144.178 561.581 -0.994799 -0.053452 0.0867048
-175.12 158.05 555.447 -0.980752 0.111572 0.160244
-175.411 146.558 540.129 -0.918657 -0.387772 -0.075506
-175.187 143.6 556.64 -0.995408 -0.0945766 0.0147542
-175.558 158.196 553.203 -0.982804 0.0815522 0.165668
-173.623 135.084 565.696 -0.976723 -0.212453 -0.0295792
-171.721 164.902 562.357 -0.938514 0.256195 0.231419
-174.865 152.934 555.511 -0.99574 0.00314281 0.0921527
-174 162.844 555.316 -0.951876 0.220962 0.212385
-170.043 132.732 557.939 -0.468666 -0.79399 -0.38721
105.394 93.6596 669.188 0.430419 -0.88746 -0.164784
-169.251 102.441 621.244 -0.939122 -0.335553 -0.0738449
-170.185 111.156 614.714 -0.995963 -0.0814886 0.0376394
-168.865 114.488 625.812 -0.983073 0.0910703 0.158976
-169.024 112.067 624.275 -0.990858 0.0387963 0.129212
-170.012 111.391 617.146 -0.996722 -0.0471099 0.0657728
-169.932 112.24 622.198 -0.991548 0.0124144 0.129149
-168.94 117.407 625.124 -0.974389 0.140334 0.175706
98.6437 92.102 657.483 0.461625 -0.852446 -0.245435
-169.079 129.551 608.339 -0.947903 0.245595 0.202885
-167.187 121.194 627.924 -0.949134 0.234713 0.209891
-172.521 127.794 587.064 -0.996285 -0.0246066 0.082532
-172.221 126.146 569.967 -0.694587 -0.635453 -0.337267
-171.872 127.758 589.386 -0.99575 0.00522063 0.0919464
-172.274 147.451 575.592 -0.954053 0.193371 0.22889
-172.867 145.298 573.786 -0.978285 0.111298 0.174848
-172.417 129.976 588.388 -0.992201 0.0426688 0.117122
-165.662 123.901 631.255 -0.93978 0.257801 0.224392
-172.096 123.278 591.478 -0.999693 -0.0175633 0.0174574
-171.945 120.108 587.456 -0.977739 -0.189292 -0.09053
-171.526 128.227 594.25 -0.991484 0.0876639 0.0963061
-170.1 153.156 577.765 -0.923633 0.252002 0.288787
-170.725 130.855 598.051 -0.971543 0.185919 0.146758
-172.335 132.4 587.326 -0.989827 0.0726832 0.122314
-172.963 128.375 568.845 -0.840286 -0.486438 -0.239369
-171.729 118.151 586.396 -0.936113 -0.30558 -0.174109
-171.187 150.304 576.678 -0.930945 0.245876 0.269974
-172.694 145.532 576.218 -0.962794 0.156097 0.220593
-170.938 145.919 580.578 -0.937082 0.220639 0.270548
-171.181 128.696 599.114 -0.979686 0.14622 0.137238
-171.256 118.246 588.203 -0.959886 -0.229622 -0.16091
-171.776 128.243 596.527 -0.987072 0.113647 0.11302
-172.321 118.798 593.571 -0.998479 -0.051489 0.019735
-168.342 120.529 622.314 -0.966016 0.185821 0.179674
-173.124 135.677 575.143 -0.997462 0.0199246 0.0683551
-174.007 135.4 568.242 -0.995441 -0.0910309 0.0284696
-173.147 135.473 570.641 -0.997903 -0.0483506 0.0430415
-173.496 142.904 572.416 -0.990789 0.0610114 0.120893
-169.745 139.055 593.49 -0.939031 0.264002 0.220282
-167.818 130.938 612.639 -0.929735 0.297472 0.217034
-166.626 130.144 618.592 -0.927764 0.305595 0.214164
-173.482 129.302 578.661 -0.996979 -0.0685628 0.0365052
-172.563 126.82 579.657 -0.986162 -0.165765 -0.00267134
-172.643 125.971 574.605 -0.865201 -0.455167 -0.210357
-172.11 136.88 585.234 -0.976617 0.166993 0.135398
-173.849 137.821 569.779 -0.996635 -0.042652 0.0700023
-173.437 140.349 571.014 -0.996223 0.00742522 0.0865132
-168.061 130.223 611.08 -0.935201 0.286881 0.207601
-173.212 126.856 577.336 -0.975313 -0.210636 -0.0663165
-173.917 140.986 573.042 -0.993447 0.0321321 0.109681
-172.612 140.181 573.85 -0.993257 0.0272736 0.112683
-165.448 134.082 616.279 -0.921654 0.316066 0.225067
-171.113 136.947 590.502 -0.961176 0.207707 0.181657
-171.176 125.033 571.919 -0.653454 -0.671668 -0.349085
-169.349 105.156 616.056 -0.953764 -0.293093 -0.0665696
-169.388 112.816 623.132 -0.991614 0.0306213 0.125557
-169.864 105.552 618.521 -0.986111 -0.166052 -0.00342741
-168.551 115.685 626.496 -0.978428 0.126967 0.162969
-166.553 139.363 605.363 -0.92285 0.30471 0.235583
-168.658 135.839 601.535 -0.936895 0.272617 0.218881
-169.642 132.739 603.754 -0.942346 0.260294 0.21031
-168.724 115.45 624.064 -0.982808 0.0934473 0.159237
-169.584 115.377 621.665 -0.985892 0.069947 0.152065
-170.408 114.629 612.031 -0.993935 -0.0540734 0.095758
-170.044 112.119 612.967 -0.99349 -0.0995839 0.0553259
102.655 92.8425 661.65 0.45633 -0.863906 -0.213144
-172.704 143.185 577.404 -0.972605 0.118861 0.19978
-172.69 129.584 583.648 -0.994334 -0.0317413 0.101452
-170.933 130.38 596.056 -0.97998 0.153736 0.126504
-171.547 130.657 593.297 -0.986832 0.113347 0.115395
-171.834 145.605 578.617 -0.949302 0.185161 0.25405
-172.508 132.165 584.894 -0.991839 0.0551134 0.114971
-166.731 123.353 626.861 -0.94434 0.247664 0.216528
-171.9 120.717 592.945 -0.999477 -0.0303509 0.0111438
-172.017 118.293 591.028 -0.992788 -0.106791 -0.0544761
-166.523 123.828 628.856 -0.943765 0.250178 0.216145
-170.482 148.078 579.516 -0.930057 0.240774 0.277526
-172.038 120.723 590.076 -0.998473 -0.0542974 -0.0102154
-171.861 127.864 566.555 -0.691274 -0.618143 -0.374218
-171.088 133.061 594.849 -0.973461 0.17132 0.151732
-165.644 126.206 627.948 -0.941723 0.257812 0.216082
-172.928 130.247 585.52 -0.993762 0.0195872 0.109786
-172.78 130.346 565.559 -0.86479 -0.426916 -0.264349
-169.465 148.749 582.257 -0.923052 0.263379 0.280368
-172.222 121.952 595.316 -0.997962 -0.0267932 0.0579218
-171.575 116.081 592.135 -0.986441 -0.145302 -0.0762966
-170.587 130.849 600.92 -0.9633 0.199553 0.179534
-171.845 126.062 598.182 -0.989916 0.0860341 0.11254
-171.747 115.847 589.703 -0.952309 -0.235665 -0.193831
-159.354 162.932 511.917 -0.0273066 0.232685 -0.972169
-176.538 155.934 536.427 -0.995169 -0.0344183 0.0919506
-176.274 161.754 543.659 -0.993824 0.0475512 0.100262
-157.816 168.999 514.238 -0.0573292 0.326411 -0.943488
-175.893 166.832 541.909 -0.979867 0.129771 0.151726
-174.635 171.62 544.647 -0.950772 0.224639 0.213471
-175.405 172.633 538.848 -0.959699 0.216236 0.179499
-158.62 165.725 513.515 -0.0438807 0.316693 -0.947513
-169.363 170.685 515.376 -0.159413 0.347233 -0.92413
-168.734 173.079 516.745 -0.137415 0.315069 -0.939068
-176.793 161.05 536.363 -0.992275 -0.0244884 0.12162
-176.65 151.444 533.373 -0.983094 -0.182363 -0.0164426
-177.646 168.984 517.773 -0.844742 0.205012 -0.494349
-176.663 151.974 538.051 -0.996806 -0.0746013 0.0284894
-177.289 171.089 518.675 -0.831628 0.241047 -0.500291
-176.62 161.285 538.795 -0.993487 -0.0146594 0.113
-176.945 158.386 534.883 -0.99257 -0.0444125 0.113278
-177.152 156.211 533.669 -0.994348 -0.0673526 0.0820664
-177.269 153.787 531.752 -0.990886 -0.129655 0.0365364
-170.907 167.374 514.571 -0.221841 0.333945 -0.916115
-176.896 150.928 528.301 -0.909234 -0.394091 -0.134113
-176.163 150.398 525.97 -0.857122 -0.481459 -0.183137
-174.591 149.859 523.512 -0.68725 -0.676498 -0.264647
-173.759 149.283 520.973 -0.408781 -0.827708 -0.384443
-176.421 170.261 536.888 -0.970427 0.183658 0.156658
-175.861 170.473 539.911 -0.964738 0.193317 0.178633
-172.151 148.461 523.13 -0.220183 -0.902803 -0.369413
-177.107 159.854 535.678 -0.992407 -0.035524 0.117752
-177.588 157.559 514.348 -0.869088 -0.125733 -0.478412
-177.157 173.215 529.871 -0.975191 0.151484 0.161414
-172.13 186.765 522.862 -0.59135 0.578999 -0.561307
-173.617 150.245 519.225 -0.400762 -0.83147 -0.384768
-177.369 162.771 516.091 -0.894141 0.0817563 -0.440259
-176.897 177.935 527.341 -0.971135 0.224241 0.0813157
-176.001 178.249 529.303 -0.963904 0.221498 0.147741
-175.011 152.31 517.96 -0.655431 -0.691553 -0.303588
-177.15 157.414 516.592 -0.938739 -0.143183 -0.313476
-169.795 174.599 517.496 -0.198797 0.318513 -0.926838
-174.876 184.011 524.556 -0.823675 0.506628 -0.25473
-176.022 177.029 519.76 -0.700675 0.317007 -0.639188
-173.512 165.582 514.518 -0.437599 0.297939 -0.848375
-177.322 160.047 515.281 -0.853396 0.0698542 -0.516561
-175.937 161.593 513.841 -0.701698 0.16579 -0.692917
-176.458 174.624 518.687 -0.681233 0.307762 -0.664232
-171.965 176.062 518.126 -0.316474 0.321151 -0.892584
-177.124 167.422 516.612 -0.801565 0.222758 -0.554862
-171.573 151.501 517.794 -0.251969 -0.874195 -0.415084
-172.276 135.651 550.209 -0.478046 -0.786196 -0.391623
-173.443 136.449 552.271 -0.791721 -0.56912 -0.221992
-171.496 134.919 552.349 -0.487504 -0.797334 -0.355807
-173.718 156.031 564.177 -0.956482 0.18919 0.222147
-126.694 187.513 518.945 -0.0114643 0.355062 -0.934772
-174.47 147.41 565.472 -0.987023 0.00669014 0.160441
-173.444 147.15 567.892 -0.980622 0.048264 0.189873
-173.891 155.796 561.745 -0.96921 0.165098 0.18269
-173.262 158.19 563.114 -0.9522 0.209449 0.222367
-174.175 138.949 556.564 -0.951697 -0.304939 -0.0358482
-174.363 149.632 566.895 -0.973976 0.0765793 0.213322
-176.44 154.719 544.349 -0.997898 -0.0176564 0.0623555
-171.927 156.658 568.101 -0.931328 0.21307 0.295347
-173.424 136.379 557.498 -0.883965 -0.452306 -0.118431
-143.235 175.113 515.354 -0.044922 0.28114 -0.958615
-145.986 175.76 515.487 -0.0446881 0.274465 -0.960558
-151.172 178.25 516.438 -0.0602802 0.296251 -0.953206
-153.922 178.896 516.571 -0.0665036 0.305677 -0.94981
-149.001 176.786 515.808 -0.0547759 0.281839 -0.957897
-152.824 175.916 516.164 -0.0688944 0.276154 -0.958641
-158.433 178.188 516.96 -0.064906 0.292476 -0.954068
-141.595 174.41 515.1 -0.0397121 0.283043 -0.958285
-147.361 176.083 515.554 -0.042997 0.272297 -0.961252
-152.547 178.573 516.504 -0.0636213 0.293774 -0.953755
-157.588 178.624 517.269 -0.0595667 0.308279 -0.949429
-146.661 178.958 516.049 -0.0492828 0.288006 -0.95636
-159.386 178.729 517.181 -0.067234 0.29804 -0.952183
-166.957 84.7594 659.38 -0.99727 -0.0719725 -0.016527
-165.956 102.433 654.316 -0.971298 0.187234 0.146709
-165.713 103.149 655.874 -0.960146 0.216372 0.176928
-166.132 84.5917 662.216 -0.999362 -0.00624997 0.0351506
-166.413 100.274 655.378 -0.978188 0.148963 0.144767
-163.224 118.789 646.377 -0.931809 0.275521 0.236261
-165.293 121.574 635.154 -0.936558 0.265333 0.229037
-166.528 87.246 661.166 -0.998635 -0.00161036 0.0522127
-166.971 98.3611 653.135 -0.989736 0.0943232 0.107362
-164.31 115.936 645.29 -0.939663 0.255545 0.227445
-166.411 98.5734 656.159 -0.981748 0.118917 0.148421
-164.731 103.579 659.052 -0.941659 0.248037 0.227501
-166.767 118.744 633.476 -0.948723 0.233156 0.213456
-166.026 110.689 642.834 -0.962822 0.186056 0.195848
-165.853 110.924 645.266 -0.954105 0.219715 0.203493
-168.813 76.9815 673.83 -0.554124 0.4142 -0.72207
-167.118 112.937 639.406 -0.965621 0.164929 0.200935
-168.184 79.3752 675.199 -0.700352 0.384838 -0.601171
-167.213 106.383 639.222 -0.987891 0.0829469 0.131113
-165.362 113.324 643.766 -0.949948 0.23138 0.209912
-166.915 110.577 640.03 -0.971841 0.148328 0.183093
-167.676 111.025 637.163 -0.974903 0.128633 0.181707
-174.848 73.5659 670.888 -0.276891 0.34434 -0.897085
-174.219 75.9596 672.257 -0.43799 0.442484 -0.782543
-167.832 114.795 630.643 -0.974333 0.15217 0.165892
-167.011 118.028 631.917 -0.953853 0.213115 0.211534
-167.884 110.55 635.167 -0.982217 0.0880555 0.165819
-166.662 115.097 638.343 -0.950365 0.220505 0.219508
-166.011 80.5806 669.172 -0.992771 0.0841373 -0.0856008
-163.503 113.463 651.433 -0.937473 0.272757 0.216214
-166.77 78.9267 672.778 -0.825952 0.296159 -0.479681
-164.486 113.033 648.255 -0.939488 0.259479 0.223679
-162.592 113.413 655.485 -0.929265 0.293554 0.224259
-167.221 114.884 635.319 -0.963744 0.195595 0.181496
-167.255 112.943 636.537 -0.971995 0.148069 0.182484
-168.115 112.871 634.138 -0.975395 0.13319 0.175682
-162.977 116.104 649.496 -0.935551 0.270371 0.227252
-166.873 118.022 634.786 -0.949055 0.235883 0.208935
-166.513 85.3821 660.522 -0.999089 -0.0275626 0.0325854
-166.692 99.3174 654.257 -0.985747 0.113009 0.124631
-165.434 104.105 656.995 -0.949927 0.238525 0.201852
-165.537 120.859 633.596 -0.941247 0.253666 0.222953
-166.505 85.9501 662.934 -0.998594 0.018485 0.0496741
-166.483 99.7924 656.252 -0.977955 0.141002 0.154022
-165.364 121.093 636.028 -0.937307 0.268035 0.222741
-163.715 116.389 647.877 -0.935929 0.268126 0.228355
-166.034 81.8765 667.404 -0.999624 0.0272183 -0.00327494
-164.101 110.342 654.244 -0.93945 0.271461 0.209147
-170.643 84.0144 676.983 -0.801349 0.419199 -0.426747
-167.974 113.833 632.39 -0.974694 0.150573 0.165227
-167.538 115.388 633.854 -0.962758 0.19621 0.186006
-167.742 111.512 633.42 -0.981164 0.111472 0.157771
-162.765 113.178 653.053 -0.932045 0.285839 0.222683
-168.019 77.5417 672.486 -0.754147 0.357256 -0.551027
-163.747 112.748 649.875 -0.938356 0.268146 0.218142
-166.905 114.381 636.784 -0.962907 0.192139 0.189456
-167.605 111.506 636.289 -0.975299 0.127675 0.180254
-166.152 79.6183 670.92 -0.947395 0.168074 -0.272387
-172.363 142.276 578.838 -0.968969 0.134794 0.207197
-167.293 120.472 629.235 -0.948687 0.237219 0.209093
-172.591 128.647 585.239 -0.995009 -0.0249527 0.0966103
-172.133 144.044 580.022 -0.95393 0.174217 0.244266
-170.695 146.634 582.137 -0.930289 0.250016 0.268429
-170.583 131.818 596.304 -0.972989 0.179725 0.144882
-172.922 129.384 567.306 -0.861615 -0.432495 -0.265646
-171.896 121.685 588.328 -0.997787 -0.0658464 -0.00918397
-171.377 129.757 594.914 -0.98633 0.126784 0.105255
-172.822 130.968 584.21 -0.993089 0.0301474 0.113426
-172.174 122.595 593.194 -0.999423 -0.0228619 0.0251386
-171.948 117.439 592.853 -0.997312 -0.0731004 -0.00497395
-171.719 128.826 564.807 -0.684557 -0.625221 -0.374807
-172.685 130.962 587.079 -0.992155 0.0436797 0.117133
-171.889 149.129 575.402 -0.942119 0.219346 0.253575
-172.441 131.678 588.637 -0.990136 0.0608428 0.126213
-172.006 119.995 594.255 -0.998557 -0.0386501 0.0372854
-171.433 117.043 590.388 -0.978186 -0.16574 -0.125225
-170.239 148.794 581.074 -0.92428 0.258633 0.280741
-171.889 114.884 591.45 -0.970039 -0.218097 -0.107043
-173.366 133.828 574.105 -0.999936 -0.00143215 0.0112574
-172.86 138.497 576.908 -0.990783 0.0473401 0.126915
-171.984 138.206 581.396 -0.978421 0.137171 0.154523
-173.204 128.392 573.795 -0.958192 -0.255086 -0.129609
-173.206 138.028 572.044 -0.997473 -0.0155615 0.0693253
-168.624 122.973 619.631 -0.958058 0.212051 0.192769
-170.448 139.581 591.434 -0.942867 0.261458 0.206499
-173.033 138.263 574.476 -0.995073 0.0161529 0.0978203
-173.655 129.068 576.229 -0.992831 -0.112857 -0.0393601
-173.092 140.818 575.878 -0.986313 0.0662438 0.150993
-173.662 135.869 573.107 -0.999063 -0.0149721 0.0406136
-172.36 124.28 578.161 -0.913111 -0.374797 -0.160483
-169.992 141.74 590.371 -0.932385 0.286112 0.220904
-170.621 139.346 589.002 -0.95138 0.24016 0.192871
-173.199 131.227 575.166 -0.998843 -0.0441638 -0.0190293
-171.724 123.489 575.602 -0.791013 -0.540928 -0.285824
-168.694 126.861 614.328 -0.943136 0.272323 0.190618
-173.156 129.036 571.674 -0.945555 -0.297449 -0.132099
-166.571 137.058 608.671 -0.921148 0.30613 0.240355
-173.23 131.955 570.986 -0.991763 -0.124889 -0.028429
-167.922 118.078 627.866 -0.964457 0.1846 0.189064
-173.361 132.695 575.961 -0.999811 0.000751867 0.01943
-172.985 133.081 580.591 -0.995113 0.0571358 0.0805272
-168.556 135.592 604.841 -0.929727 0.289358 0.227771
-172.837 137.201 578.676 -0.989645 0.0690499 0.12584
-168.481 132.673 605.529 -0.933922 0.279619 0.222717
-172.366 133.128 583.147 -0.990842 0.0799085 0.108842
-172.995 130.734 581.778 -0.995961 0.0251867 0.0861862
-173.057 132.19 573.418 -0.997343 -0.0672511 -0.0280001
-167.749 118.313 630.298 -0.956896 0.203842 0.206879
-168.378 115.919 628.928 -0.972648 0.155388 0.172657
-170.202 132.527 600.731 -0.953976 0.231897 0.190141
-173.333 130.833 579.325 -0.997889 -0.00667695 0.0646039
-167.291 133.579 610.702 -0.925823 0.297532 0.233082
-165.503 137.606 613.065 -0.919374 0.316263 0.233944
-172.519 128.997 569.987 -0.912645 -0.368389 -0.177113
-169.533 136.13 597.047 -0.949146 0.245005 0.197722
-173.634 134.041 567.524 -0.987486 -0.155256 -0.0276827
-168.286 120.284 624.664 -0.961382 0.191571 0.197599
-167.431 120.478 626.366 -0.95417 0.212909 0.210307
-173.007 134.7 577.284 -0.995555 0.0576305 0.074493
-165.676 137.372 610.633 -0.919164 0.314858 0.236649
-173.037 131.294 568.158 -0.95812 -0.259356 -0.121413
-172.774 134.114 569.923 -0.99788 -0.0641574 0.0108965
-167.467 136.745 606.709 -0.92377 0.300142 0.237833
-169.325 136.605 599.042 -0.942725 0.25922 0.209939
-172.598 135.448 582.117 -0.988322 0.102515 0.112743
-168.835 130.267 609.897 -0.936726 0.275046 0.216552
-170.973 126.175 570.561 -0.625703 -0.693645 -0.356867
-170.377 133.993 597.518 -0.960805 0.211188 0.17959
-173.175 137.3 576.223 -0.995761 0.0263802 0.0881194
-172.911 140.12 577.988 -0.981225 0.0898361 0.170664
-173.289 134.51 572.389 -0.999367 -0.0263285 0.0239076
-173.282 127.709 575.511 -0.968816 -0.22914 -0.0942931
-173.34 130.265 576.913 -0.998037 -0.0611962 0.0133465
-172.719 139.459 575.16 -0.991842 0.0325383 0.123253
-172.008 139.502 579.628 -0.980936 0.105677 0.163087
-172.785 125.009 576.353 -0.898702 -0.400039 -0.17973
-173.768 135.147 574.417 -0.998659 0.011951 0.0503709
-173.513 130.03 574.481 -0.991141 -0.116901 -0.0630361
-169.254 141.455 591.991 -0.931783 0.290813 0.217277
-167.991 126.335 616.384 -0.940934 0.26975 0.204643
-166.588 133.053 612.758 -0.927944 0.299708 0.221576
-173.029 139.231 569.859 -0.996482 -0.0233976 0.0804756
-171.866 122.526 577.349 -0.852023 -0.454127 -0.260436
-171.219 136.225 591.812 -0.963923 0.185052 0.191332
-169.958 133.243 602.289 -0.944937 0.257815 0.201558
-168.238 133.389 607.087 -0.929661 0.285874 0.232394
-173.316 136.338 577.971 -0.993593 0.0580657 0.0969658
-173.556 132.222 577.973 -0.997796 0.0247988 0.0615437
-172.456 136.411 580.37 -0.988339 0.0976578 0.116828
-168.236 116.882 627.181 -0.970802 0.156818 0.181527
-172.915 133.152 571.671 -0.99872 -0.0505867 2.78899e-05
-172.889 131.456 580.467 -0.995847 0.0344445 0.0842715
-172.26 133.849 581.836 -0.991387 0.083009 0.1013
-164.588 134.155 618.678 -0.923431 0.317037 0.216249
-167.782 135.548 606.024 -0.925596 0.297893 0.23352
-165.536 140.034 608.105 -0.917403 0.315859 0.242085
-169.432 135.883 600.353 -0.940907 0.260472 0.216445
-172.68 131.931 582.462 -0.994387 0.0450504 0.0957345
-173.372 130.993 572.734 -0.990384 -0.123039 -0.0632554
-172.921 130.317 570.3 -0.966815 -0.231275 -0.108536
-166.517 133.534 611.885 -0.927228 0.298334 0.226373
-170.096 133.249 599.42 -0.954401 0.23143 0.188571
-170.609 128.883 564.929 -0.536609 -0.739583 -0.406286
-177.366 155.002 523.83 -0.978794 -0.199784 -0.0452627
-172.83 145.145 530.214 -0.389105 -0.83871 -0.381004
-177.576 160.727 529.254 -0.999054 -0.035177 0.0255543
-177.421 166.026 534.283 -0.992083 0.0652247 0.107315
-178.237 169.63 524.948 -0.997891 0.0383709 0.0523625
-175.657 146.042 535.057 -0.810802 -0.562296 -0.162549
-173.906 147.029 528.875 -0.592046 -0.743292 -0.311446
-163.492 169.411 515.15 -0.0643527 0.337665 -0.939064
-176.154 148.743 534.215 -0.922901 -0.367874 -0.113676
-177.489 157.277 525.264 -0.993469 -0.112193 -0.0207673
-177.484 160.112 526.635 -0.999083 -0.0427576 -0.00213654
-177.875 167.229 526.058 -0.998331 0.00171782 0.0577287
-176.897 168.02 535.424 -0.984005 0.117184 0.134171
-177.774 164.989 527.007 -0.99879 -0.013612 0.0472481
-177.947 164.754 524.575 -0.998513 -0.0351895 0.0416363
-164.275 165.042 512.68 -0.0660853 0.314368 -0.946998
-176.818 165.547 536.548 -0.990798 0.0598106 0.121416
-177.429 165.458 531.872 -0.994748 0.0467803 0.0910349
-177.194 155.236 526.262 -0.984791 -0.166469 -0.0497505
-171.604 144.791 532.217 -0.277963 -0.88238 -0.379662
-174.037 174.741 541.837 -0.949826 0.234475 0.207006
-167.58 160.375 512.132 -0.0799672 0.137132 -0.98732
-162.583 173.084 516.102 -0.091681 0.287365 -0.953423
-163.914 160.647 511.434 -0.0307733 0.130364 -0.990989
-170.555 158.565 512.038 -0.146724 0.059273 -0.9874
-175.756 159.395 513.218 -0.61916 0.0891683 -0.780186
-177.861 160.371 517.591 -0.977473 -0.0256345 -0.2095
-177.512 161.94 532.217 -0.996111 0.000538565 0.0881091
-177.75 171.062 528.065 -0.989776 0.0844976 0.114903
-176.613 179.86 523.846 -0.935227 0.317861 -0.155932
-177.57 155.495 517.218 -0.918964 -0.344618 -0.191685
-176.756 155.106 514.895 -0.807259 -0.393505 -0.439872
-177.589 158.17 518.88 -0.988495 -0.129565 -0.0780407
-177.78 161.22 522.643 -0.997228 -0.0736394 0.0106591
-177.519 168.741 529.094 -0.994355 0.0569078 0.0895476
-177.094 162.759 521.829 -0.999411 -0.0318729 -0.0126836
-177.688 160.606 520.023 -0.996898 -0.0695517 -0.0368393
-171.391 162.542 513.016 -0.245067 0.280008 -0.92819
-175.611 156.957 513.032 -0.680982 -0.19538 -0.705755
-173.78 158.793 511.902 -0.401671 0.0518179 -0.914317
-177.047 170.536 530.121 -0.985142 0.105685 0.135376
-178.014 165.241 520.833 -0.992808 0.0135606 -0.118946
-169.095 177.474 517.992 -0.200019 0.29172 -0.935356
-175.196 177.477 534.666 -0.955419 0.216916 0.200306
-167.909 157.519 511.677 -0.0493629 -0.0748164 -0.995975
-175.478 184.29 525.806 -0.863719 0.458725 -0.20871
-175.354 154.553 512.491 -0.550786 -0.421123 -0.720618
-177.64 172.752 522.138 -0.964731 0.1728 -0.198583
-177.566 175.422 525.712 -0.97976 0.194912 0.0455964
-178.34 165.421 518.234 -0.964321 0.0852413 -0.250638
-172.916 183.773 521.151 -0.60147 0.506862 -0.617515
-176.015 157.606 539.107 -0.997156 -0.00847784 0.0748838
-175.273 164.227 514.774 -0.687309 0.201886 -0.697746
-177.132 155.35 519.462 -0.951475 -0.29239 -0.095934
-177.525 175.498 521.18 -0.885334 0.289527 -0.36381
-174.244 178.504 519.286 -0.510761 0.35996 -0.780738
-173.831 174.309 518.154 -0.48477 0.319169 -0.814327
-177.137 164.863 515.736 -0.826988 0.159544 -0.539107
-174.459 171.915 516.784 -0.480558 0.324151 -0.814856
-176.213 152.867 520.459 -0.854853 -0.492023 -0.164744
-173.334 152.17 515.73 -0.413716 -0.791678 -0.449538
-175.591 176.041 533.462 -0.959789 0.203993 0.192853
-176.104 174.127 532.175 -0.96572 0.183713 0.183399
-171.266 178.937 518.621 -0.299334 0.329649 -0.895394
-169.047 158.437 573.892 -0.921572 0.23942 0.305587
-175.545 180.408 528.24 -0.950919 0.296329 0.0891176
-174.789 169.059 516.329 -0.54064 0.306321 -0.783502
-171.29 153.426 514.299 -0.190856 -0.716027 -0.671475
-168.393 187.518 521.291 -0.327569 0.551001 -0.767526
-167.067 185.617 520.352 -0.227174 0.446261 -0.865588
-173.054 158.665 565.109 -0.944934 0.212883 0.248557
-172.158 158.979 567.071 -0.934085 0.220081 0.281157
-174.575 148.057 555.138 -0.99829 -0.0309507 0.0495857
-174.709 149.163 562.031 -0.994423 0.00966472 0.10502
-170.842 161.211 568.407 -0.922186 0.250482 0.294672
-174.07 136.856 559.883 -0.945617 -0.312084 -0.0917211
-172.497 132.271 562.064 -0.802798 -0.523685 -0.285078
-174.237 150.958 563.058 -0.985794 0.0582185 0.157545
-175.093 150.354 553.309 -0.995631 -0.041164 0.0838104
-171.298 159.051 569.47 -0.922005 0.238514 0.304989
-173.081 149.923 569.449 -0.960018 0.136837 0.244217
-174.312 153.878 562.371 -0.978506 0.127334 0.162212
-171.365 155.17 571.905 -0.924041 0.223 0.310514
-174.878 148.397 552.249 -0.996201 -0.0569961 0.0658422
-173.416 134.753 561.067 -0.909662 -0.37929 -0.169273
-171.578 129.788 563.06 -0.657649 -0.633744 -0.407267
-172.627 149.414 573.783 -0.949492 0.192938 0.247466
-166.49 179.266 518.045 -0.139155 0.286909 -0.947797
-166.006 184.097 519.601 -0.168323 0.401508 -0.900255
-164.945 182.577 518.849 -0.138153 0.335911 -0.931707
-165.429 177.746 517.294 -0.125317 0.270672 -0.95448
-171.054 155.597 511.126 -0.153314 -0.318228 -0.935535
-176.816 153.346 518.194 -0.841297 -0.507871 -0.185166
-174.987 182.321 530.483 -0.936033 0.332231 0.116037
-174.777 152.657 513.593 -0.491777 -0.676719 -0.547911
-175.714 152.835 515.903 -0.654695 -0.659179 -0.369942
-177.919 162.927 518.993 -0.984658 0.0138785 -0.173941
-178.434 163.323 521.459 -0.99947 -0.029233 -0.0142934
-177.751 163.693 528.775 -0.99951 0.0026684 0.0312011
-173.58 181.138 520.218 -0.572319 0.42907 -0.698821
-177.574 163.396 523.857 -0.997968 -0.0520484 0.0367458
-177.348 158.24 523.516 -0.994365 -0.105424 -0.0111599
-173.151 161.187 513.271 -0.38724 0.23233 -0.892226
-174.11 155.937 511.447 -0.444794 -0.220062 -0.868177
-175.852 182.064 525.122 -0.897489 0.398202 -0.189599
-177.098 177.482 522.383 -0.912331 0.293232 -0.285775
-177.997 173.746 524.945 -0.990074 0.140545 0.00124676
-177.743 164.261 531.187 -0.997435 0.0172574 0.0694605
-175.798 179.325 520.756 -0.734885 0.386718 -0.55713
-173.13 153.775 512.134 -0.309456 -0.569037 -0.761862
-175.505 181.617 523.187 -0.871569 0.398415 -0.285715
-177.329 172.98 527.439 -0.986299 0.121192 0.111926
-177.923 170.827 525.633 -0.995769 0.0666416 0.0632706
-174.913 179.401 531.171 -0.954619 0.23133 0.187588
-177.342 161.075 524.887 -0.998466 -0.0530225 0.0159433
-177.49 156.344 522.27 -0.985856 -0.165599 -0.0257721
-164.729 180.62 517.789 -0.12989 0.299399 -0.945245
-162.824 179.537 517.347 -0.110728 0.278847 -0.953931
-167.55 180.786 518.796 -0.211138 0.325777 -0.921569
-169.086 181.888 519.279 -0.284856 0.369626 -0.88444
-163.934 179.48 517.226 -0.116061 0.281851 -0.952413
-176.946 156.92 523.204 -0.989097 -0.145908 -0.0199255
-177.527 162.304 530.127 -0.998725 -0.0114158 0.0491672
-177.236 161.797 523.576 -0.998033 -0.0562432 0.0277004
-172.349 157.292 511.192 -0.28234 -0.101798 -0.953898
-172.091 159.667 512.52 -0.263198 0.141677 -0.954282
-174.816 155.817 512.468 -0.530087 -0.346238 -0.774033
-177.299 158.883 521.395 -0.994779 -0.102041 0.0016795
-177.715 162.433 525.605 -0.998538 -0.0453257 0.0294467
-178.558 164.665 519.899 -0.992675 0.0294505 -0.117174
-177.601 165.223 529.44 -0.998574 0.0114378 0.0521406
-177.874 172.404 526.505 -0.990079 0.102806 0.0957847
-174.676 182.418 521.406 -0.677295 0.457257 -0.576358
-177.384 176.504 524.225 -0.968834 0.230443 -0.0908701
-175.885 181.318 526.806 -0.935313 0.353819 0.00120712
-177.931 161.884 520.821 -0.99831 -0.0530561 -0.0237057
-177.707 157.368 520.336 -0.987183 -0.15748 -0.0258748
-175.572 153.797 514.156 -0.63633 -0.576455 -0.512624
-175.23 181.605 528.925 -0.942639 0.324352 0.0789106
-177.781 171.789 523.885 -0.994491 0.0981452 -0.0368214
-177.145 167.382 528.377 -0.997147 0.030228 0.0691677
-170.156 178.994 518.743 -0.274608 0.321812 -0.906105
-174.882 180.243 520.192 -0.682742 0.397315 -0.613191
-176.207 180.442 521.911 -0.822746 0.39088 -0.412677
-172.839 155.215 511.153 -0.326822 -0.319869 -0.889309
-178.23 162.829 528.07 -0.999746 -0.00948326 0.0204256
-171.301 154.236 512.645 -0.170449 -0.633892 -0.754406
-161.183 178.834 517.093 -0.093537 0.28584 -0.953701
-161.883 175.959 516.597 -0.101527 0.263549 -0.959289
-175.757 178.965 530.862 -0.954732 0.231688 0.18657
-175.232 183.305 528.144 -0.925448 0.378647 0.0131706
-177.856 174.709 523.198 -0.973581 0.199164 -0.111689
-172.061 180.077 519.185 -0.391765 0.374139 -0.84056
-175.825 173.129 517.724 -0.607635 0.310291 -0.731094
-178.045 165.969 516.653 -0.854942 0.138335 -0.499937
-172.4 172.807 517.443 -0.325654 0.33271 -0.885016
-177.989 163.78 517.168 -0.940552 0.0643801 -0.333492
-176.98 174.418 527.686 -0.978248 0.160012 0.132011
-174.671 153.379 512.282 -0.462263 -0.565306 -0.683185
-175.756 177.264 531.642 -0.96015 0.20045 0.194759
-176.384 174.871 530.273 -0.96613 0.182321 0.182623
-176.834 176.348 521.322 -0.883084 0.27563 -0.379726
-177.309 173.541 520.119 -0.880768 0.233225 -0.412133
-176.157 156.643 540.854 -0.998914 -0.0037764 0.0464476
-174.573 167.102 515.269 -0.470257 0.290558 -0.833327
-174.212 162.707 514.023 -0.500724 0.244362 -0.830399
-176.852 154.606 521.364 -0.931071 -0.352393 -0.0944757
-173.272 152.813 513.882 -0.391101 -0.728794 -0.56205
-173.131 177.184 518.649 -0.400044 0.334557 -0.853251
-169.821 158.482 572.709 -0.919661 0.240453 0.310492
-176.107 153.589 519.148 -0.831102 -0.534667 -0.152968
-174.604 152.892 516.025 -0.532761 -0.729934 -0.428207
-171.431 152.464 516.046 -0.217252 -0.846426 -0.486173
-169.599 156.646 511.058 -0.0966183 -0.191286 -0.976767
-174.001 179.351 535.223 -0.954862 0.220704 0.198816
-169.075 158.64 512.199 -0.0935835 0.0126805 -0.995531
-174.841 160.313 512.653 -0.525098 0.156992 -0.836436
-177.546 161.568 518.275 -0.981649 -0.0250306 -0.189046
-177.271 171.925 528.77 -0.985802 0.106878 0.129505
-176.784 158.444 514.137 -0.816522 -0.0209964 -0.576932
-177.801 158.91 516.905 -0.964169 -0.0639491 -0.257467
-177.794 164.318 522.345 -0.999389 -0.0348964 0.00170982
-178.002 159.409 519.338 -0.994707 -0.0815597 -0.0624983
-174.926 178.998 532.855 -0.953678 0.222304 0.202678
-177.336 169.822 527.607 -0.994065 0.0590846 0.0913498
-176.413 178.267 520.696 -0.76502 0.368194 -0.528372
-176.598 179.496 525.936 -0.962969 0.26961 -0.00136675
-177.442 161.087 534.041 -0.992982 -0.0239943 0.115809
-167.559 176.372 517.509 -0.146586 0.27578 -0.949978
-177.594 156.791 515.45 -0.910474 -0.196149 -0.364091
-176.775 154.355 516.655 -0.823269 -0.492667 -0.281972
-176.121 152.253 517.839 -0.688656 -0.66794 -0.282149
-169.96 161.041 512.305 -0.152463 0.206249 -0.966549
-175.12 183.295 522.998 -0.803096 0.480576 -0.352255
-177.657 159.878 524.202 -0.997697 -0.067707 0.00417111
-177.849 163.539 532.498 -0.99575 0.010979 0.0914425
-174.961 158.255 512.655 -0.577134 0.00182864 -0.816647
-171.844 150.547 519.344 -0.249223 -0.870253 -0.424908
-169.381 156.636 575.734 -0.92523 0.233092 0.299361
-173.475 151.207 517.478 -0.390883 -0.837545 -0.381744
-175.153 151.347 519.708 -0.67814 -0.688288 -0.257656
-176.575 163.331 514.747 -0.750916 0.200063 -0.629364
-174.82 185.222 524.847 -0.800887 0.531031 -0.276742
-172.452 164.062 513.767 -0.352063 0.302918 -0.885603
-176.527 156.039 513.596 -0.744364 -0.294469 -0.599342
-176.351 176.811 529.056 -0.968332 0.195079 0.155812
-177.077 175.633 519.764 -0.763092 0.285088 -0.580013
-177.908 161.507 516.114 -0.908895 0.0721898 -0.410729
-176.552 160.535 513.781 -0.756933 0.108207 -0.644472
-174.204 184.213 522.433 -0.73568 0.484128 -0.473704
-175.366 175.411 518.636 -0.623183 0.290752 -0.726021
-176.14 166.019 515.69 -0.736601 0.215228 -0.641167
-177.256 156.692 517.903 -0.964149 -0.218872 -0.150039
-175.895 178.971 527.993 -0.962756 0.255085 0.0896184
-177.801 166.685 518.211 -0.943473 0.0934838 -0.317992
-168.521 156.709 578.133 -0.919461 0.251425 0.302286
-170.855 176.119 518.247 -0.254044 0.313737 -0.914894
-177.263 172.493 531.182 -0.975249 0.151195 0.161335
-177.213 159.132 536.989 -0.99379 -0.036902 0.104974
-170.517 183.389 519.989 -0.38824 0.434648 -0.81262
-177.362 164.97 535.614 -0.991812 0.0461748 0.119064
-175.298 167.285 544.496 -0.964963 0.180742 0.190206
-166.097 159.074 511.535 -0.0489664 0.0151966 -0.998685
-177.508 154.039 525.577 -0.960184 -0.268439 -0.0773751
-174.313 146.447 530.811 -0.639517 -0.715109 -0.282201
-175.515 147.004 533.309 -0.824453 -0.533381 -0.189162
-171.846 143.876 534.173 -0.387883 -0.853749 -0.34736
-172.66 146.227 528.453 -0.34723 -0.871837 -0.345444
-165.758 166.344 513.277 -0.080741 0.334885 -0.938793
-175.093 147.179 528.671 -0.666576 -0.689635 -0.282983
-176.295 147.78 535.962 -0.934126 -0.346421 -0.0860268
-177.267 156.602 527.122 -0.993127 -0.11618 -0.014171
-177.857 161.471 527.352 -0.999579 -0.0281468 0.00699927
-177.46 166.185 527.692 -0.998752 0.00094663 0.0499261
-178.089 163.792 526.323 -0.999202 -0.0255012 0.0307537
-176.941 166.889 534.988 -0.988738 0.0903345 0.119316
-177.287 166.42 530.124 -0.996054 0.0401603 0.0791382
-177.633 165.951 525.26 -0.998425 -0.0119237 0.0548288
-177.36 158.77 528.194 -0.997455 -0.071216 0.00331345
-177.052 156.199 524.514 -0.986327 -0.157562 -0.0483015
-164.658 170.533 515.673 -0.0885526 0.331238 -0.939382
-165.449 161.749 511.916 -0.0555579 0.185244 -0.981121
-176.733 167.364 536.984 -0.983352 0.113921 0.141567
-178.096 170.593 523.201 -0.996739 0.0758905 -0.0274236
104.651 92.9761 672.185 0.390625 -0.913643 -0.112551
97.7592 90.4561 662.228 0.423714 -0.892313 -0.155702
-169.937 112.84 611.656 -0.991769 -0.100285 0.0796079
