ply
format ascii 1.0
element vertex 889
property float x
property float y
property float z
property float nx
property float ny
property float nz
end_header
-37.7892 6.67736 480.945 -0.108988 0.657928 -0.745152
-35.5244 19.6161 484.02 0.294772 -0.0200826 -0.955356
-43.4821 25.9022 482.943 0.118325 0.215111 -0.969395
1.51039 102.984 578.128 0.152791 -0.856471 -0.493064
10.6353 99.9909 582.374 0.0630273 -0.865164 -0.497513
15.1887 99.6974 584.157 0.0695658 -0.841032 -0.536493
-2.32416 126.3 534.563 -0.0257499 -0.93904 -0.342842
11.1958 120.334 548.405 -0.110924 -0.878445 -0.464791
2.6429 130.016 526.979 0.0401243 -0.855623 -0.516043
11.8163 126.348 534.354 0.0483942 -0.834829 -0.548378
11.8898 134.514 522.053 0.0597701 -0.889291 -0.453419
67.2859 109.214 570.462 0.0375667 -0.861171 -0.506926
89.1349 112.326 575.748 0.85327 -0.462241 0.241379
-114.769 139.233 508.658 -0.371743 -0.695627 -0.614744
-120.077 139.674 513.31 -0.521737 -0.563508 -0.640507
-36.4517 -0.4352 474.116 -0.0616418 0.738797 -0.671103
-36.0686 18.4974 485.225 0.27558 -0.077202 -0.958173
-7.6467 125.876 537.989 0.0628537 -0.895687 -0.440221
66.982 108.56 568.888 0.0367434 -0.86282 -0.504175
76.7937 136.821 540.638 0.463718 0.494326 -0.73526
75.6995 141.126 544.141 0.51124 0.208647 -0.833727
-3.79872 45.6354 540.752 0.84709 -0.33682 0.411086
-128.119 103.132 563.713 -0.00875248 -0.81601 -0.577971
-40.9701 -11.6449 462.501 0.00268119 0.383032 -0.923731
-174.81 164.621 519.221 -0.595522 -0.621437 -0.509088
-89.8201 135.697 511.663 -0.00688514 -0.895077 -0.445858
-94.5651 134.852 515.789 0.0504699 -0.878669 -0.474756
-103.85 129.862 520.449 0.0483339 -0.887879 -0.457531
-118.722 115.143 546.745 0.0334287 -0.894017 -0.446784
-154.979 137.616 543.767 -0.434319 -0.713065 -0.550368
-160.286 138.058 548.418 -0.503792 -0.710051 -0.491956
-123.133 113.337 549.3 0.0477906 -0.877703 -0.476815
-56.629 -8.27397 466.027 -0.120079 0.58366 -0.803071
-55.8391 -9.91294 464.863 -0.167621 0.456672 -0.873701
-51.5128 32.9169 486.658 -0.150821 0.452659 -0.878836
-51.7111 34.9747 488.064 -0.175215 0.477676 -0.860886
-127.893 111.626 552.2 0.0598332 -0.848633 -0.525587
-1.64605 99.0529 531.151 0.994098 -0.108484 -0.00114761
-1.79879 100.931 532.411 0.995672 -0.0928274 0.00457981
67.4544 89.3221 606.008 0.447376 -0.887881 -0.107338
71.516 92.3134 603.981 0.764531 -0.639591 0.0801032
54.7339 133.181 528.627 0.223376 -0.565666 -0.793804
50.7113 130.542 530.501 0.160637 -0.762093 -0.627224
45.8758 127.849 532.871 0.0168476 -0.865415 -0.500773
75.1068 140.683 542.217 0.538721 0.272301 -0.797265
60.1416 131.382 529.178 0.207498 -0.626123 -0.751608
59.3706 133.035 528.428 0.341497 -0.288001 -0.89467
57.3994 132.201 528.838 0.210945 -0.588018 -0.780857
52.8527 129.297 531.557 0.135319 -0.783926 -0.605928
50.8814 128.463 531.967 0.145494 -0.7984 -0.584285
50.6212 127.96 534.979 0.0881044 -0.884032 -0.459049
50.1346 126.979 537.555 0.0203148 -0.903535 -0.428032
-4.50606 87.4709 518.417 0.555644 0.385621 -0.736584
-7.28883 88.7573 518.631 0.282983 0.457111 -0.843191
-15.3024 91.6807 519.386 0.05485 0.440355 -0.896147
-89.0406 133.292 516.005 -0.00538151 -0.884915 -0.465721
-92.7125 133.818 516.496 0.0211501 -0.87589 -0.482048
-94.395 132.773 517.255 0.0327707 -0.87431 -0.48426
-96.4263 131.822 518.36 0.0527929 -0.869798 -0.490575
-98.9098 129.965 522.152 0.0186771 -0.874395 -0.484856
-90.2953 118.763 542.611 0.0082763 -0.835623 -0.549242
-3.65798 62.3938 549.318 0.876505 -0.254885 0.408378
-5.92949 60.9792 553.203 0.860973 -0.269795 0.431203
-0.296593 56.083 531.287 0.995032 -0.0549765 0.0829971
-0.777009 55.1547 536.847 0.98038 -0.108753 0.164403
-5.95688 55.9769 550.207 0.851771 -0.269113 0.449516
-2.39022 54.043 542.278 0.917405 -0.211236 0.337265
-5.19773 54.2676 548.548 0.859353 -0.261974 0.439184
-3.50075 52.8326 543.419 0.882612 -0.234345 0.407528
-108.731 116.332 545.168 0.061068 -0.865647 -0.496917
-0.532326 50.7118 533.248 0.981589 -0.107255 0.158047
-118.443 112.505 550.645 0.0297014 -0.861291 -0.507244
-2.2704 44.6434 533.883 0.930425 -0.225413 0.288962
-3.76756 42.3848 537.334 0.860144 -0.302723 0.410502
-64.5578 9.70577 479.137 -0.0480212 0.345129 -0.937326
-41.0788 -2.75884 471.53 -0.0755942 0.770153 -0.633364
-64.3594 4.87264 478.059 0.338166 0.154859 -0.928258
-63.8374 5.16812 475.803 0.292456 0.170904 -0.940883
-63.8261 2.99416 474.482 0.262281 0.344937 -0.901236
-59.2993 -7.28295 467.401 -0.133521 0.637865 -0.758486
-53.2931 -50.4698 458.79 -0.345859 -0.0394258 -0.937458
-134.373 104.786 562.01 0.0121355 -0.840097 -0.5423
-132.517 109.376 554.663 0.0455152 -0.858166 -0.511351
-127.589 108.77 556.186 0.0346021 -0.862556 -0.504776
-125.763 110.895 552.622 0.0565658 -0.849689 -0.524241
-8.6389 95.2433 521.277 0.245674 0.468261 -0.84875
-0.983652 93.1441 536.337 0.861519 0.174873 -0.47666
-2.85446 96.5835 534.951 0.968298 0.0340752 -0.247462
0.165402 98.8433 538.827 0.879256 0.134432 -0.456987
-1.94532 100.158 538.265 0.911893 0.118621 -0.392912
11.5468 93.0592 594.606 0.0297404 -0.875769 -0.481814
1.40936 101.482 542.253 0.882823 0.121894 -0.453614
16.3403 93.2299 593.61 0.00740543 -0.886758 -0.462174
-13.2564 115.7 529.33 0.196713 0.481822 -0.853904
-10.4941 114.92 529.438 0.245399 0.468781 -0.848542
23.3769 95.1214 591.656 0.0952236 -0.844383 -0.527209
52.925 78.6611 623.406 0.176932 -0.894283 -0.411038
58.0012 82.2735 615.526 0.210568 -0.903069 -0.374335
58.1747 85.8187 608.938 0.122482 -0.886022 -0.447172
60.7668 87.1176 607.58 0.162477 -0.90354 -0.396505
17.9803 131.742 526.794 -0.038161 -0.864609 -0.500995
20.3604 132.597 525.343 -0.0159994 -0.873042 -0.487383
22.2831 134.107 521.804 0.0539949 -0.851479 -0.521601
22.5135 137.481 518.071 0.155467 -0.798768 -0.581205
22.9273 135.419 519.441 0.11576 -0.815205 -0.567486
54.6741 117.07 556.294 0.0334598 -0.892198 -0.450403
59.2101 116.976 555.352 0.0262282 -0.899222 -0.436705
59.1894 119.333 551.306 0.0119733 -0.911718 -0.410643
-17.2136 90.9624 519.101 0.0691994 0.448669 -0.891015
-87.4767 132.47 516.363 0.0317142 -0.891882 -0.451156
-99.2252 128.519 524.401 -0.00287494 -0.860889 -0.508785
-92.7088 119.448 542.157 0.0313963 -0.844532 -0.534584
-94.9521 118.054 543.169 0.0280821 -0.838637 -0.543966
-109.026 114.925 547.186 0.0258907 -0.862238 -0.505842
-109.181 108.974 554.453 -0.0298966 -0.812351 -0.582402
-2.79936 44.3901 536.313 0.892556 -0.278239 0.354861
-123.1 111.796 551.204 0.0574085 -0.862684 -0.502475
-61.5137 -8.08585 467.316 -0.201961 0.549766 -0.810536
-137.314 103.582 563.713 0.0235176 -0.834192 -0.550973
-127.86 110.085 554.104 0.0554839 -0.858239 -0.510243
2.43951 94.1915 591.13 0.0292218 -0.869444 -0.493166
4.54656 95.5782 590.464 -0.00170226 -0.865853 -0.500296
1.63955 99.5196 543.025 0.916701 0.108848 -0.384462
13.9269 93.9148 593.156 0.0020036 -0.88135 -0.472459
18.7538 92.545 594.064 0.00807638 -0.874984 -0.484084
20.9333 93.6347 592.491 0.0436513 -0.870038 -0.491049
56.7097 78.1058 627.669 0.68834 -0.724235 0.0408865
57.6909 79.2665 622.552 0.46583 -0.866169 -0.180978
59.6455 80.8712 621.19 0.640115 -0.763542 -0.0851884
56.8422 117.482 554.752 0.0332932 -0.894573 -0.445679
48.2893 127.164 533.325 0.0455493 -0.878795 -0.47502
59.9614 126.219 538.133 0.0323693 -0.80386 -0.593937
52.8578 127.736 536.333 0.0545754 -0.876696 -0.47794
-6.92313 86.2316 517.282 0.355563 0.392 -0.848476
-17.4286 93.7904 519.555 0.0799982 0.397471 -0.914121
-98.763 131.853 518.163 0.0702216 -0.878345 -0.472842
-90.2253 121.306 538.365 0.0454527 -0.887083 -0.459368
-94.9855 119.595 541.265 0.0625046 -0.863096 -0.501158
-5.94319 58.4781 551.705 0.86128 -0.266664 0.432535
-108.993 113.385 549.091 -0.000408615 -0.843743 -0.536747
-2.17997 46.4903 535.638 0.930581 -0.23338 0.282052
-108.926 110.304 552.899 -0.0187393 -0.818675 -0.573951
-115.741 111.609 551.449 -0.0215243 -0.836873 -0.546973
-62.1581 6.51973 478.093 0.197942 0.128222 -0.971791
-64.7083 7.74282 478.077 0.113438 0.243275 -0.963301
-43.142 -3.80447 470.457 -0.0814114 0.769112 -0.633907
-61.9393 -4.56108 471.225 -0.0117237 0.732313 -0.680867
-50.9485 -48.8579 458.302 -0.305302 -0.128631 -0.943528
-60.0243 -12.0955 465.096 -0.272692 0.195552 -0.942018
-137.347 105.122 561.809 0.0216428 -0.849144 -0.527718
-127.686 113.63 547.516 0.043145 -0.881642 -0.469943
-1.48891 97.8188 536.714 0.930441 0.0798919 -0.357626
11.6451 93.7731 591.856 0.0328801 -0.877502 -0.478445
21.0305 92.3982 594.955 0.0425768 -0.861476 -0.50601
57.3747 78.6387 624.938 0.62153 -0.782868 -0.0286036
57.4659 79.6678 626.557 0.697577 -0.716028 0.0262728
58.2781 86.8211 606.596 0.105964 -0.898936 -0.425071
17.5981 133.377 525.235 -0.0434163 -0.879005 -0.474831
22.4251 132.007 526.143 0.0233855 -0.877426 -0.479142
22.6805 133.337 524.588 0.0289885 -0.861556 -0.506835
54.5655 117.629 553.86 0.0421204 -0.902324 -0.428995
78.7969 137.751 542.406 0.420473 0.498003 -0.758416
-6.7746 55.9346 552.288 0.851074 -0.27149 0.449407
-121.843 113.591 550.533 0.0429461 -0.872467 -0.486783
-52.533 -7.91358 465.722 -0.073742 0.636239 -0.76796
-4.53049 52.347 545.407 0.860818 -0.266135 0.43378
-4.68097 50.384 544.347 0.852164 -0.29708 0.430767
-3.43622 48.0416 541.905 0.858375 -0.309955 0.408803
66.7313 87.88 610.981 0.694039 -0.719344 0.0292226
-74.6209 149.879 485.845 0.0229303 -0.89113 -0.453168
-29.0365 129.37 527.011 0.0413146 -0.924854 -0.378071
-26.6417 72.7437 628.205 -0.131025 -0.910742 -0.391639
-1.39981 -23.7655 503.469 0.70037 -0.687904 0.190447
-10.4201 13.1364 487.266 0.478764 0.292713 -0.82771
-10.9071 15.4051 488.322 0.416955 0.314607 -0.852743
-79.3659 147.645 488.06 0.116971 -0.910416 -0.396813
-69.3753 151.229 482.207 -0.0375455 -0.894177 -0.446136
-24.6251 131.176 524.456 0.00932075 -0.902056 -0.431519
-19.1672 132.698 520.865 0.0709632 -0.868616 -0.490379
-14.9182 135.26 518.662 0.0936805 -0.865031 -0.492895
-24.8372 176.276 506.067 -0.00670845 0.391422 -0.920187
0.0430833 40.253 517.161 0.995478 0.026528 -0.0912106
0.139162 -19.7051 481.256 0.828988 -0.499514 -0.251524
-3.23165 14.4599 505.017 0.944213 -0.32575 -0.0484623
-30.4988 23.0444 486.706 0.308144 0.248756 -0.918242
-3.72726 12.6661 509.351 0.902562 -0.4206 0.0920764
-27.3818 7.11056 480.237 -0.0186539 0.609683 -0.792426
-26.8347 4.95788 478.486 0.0316279 0.6265 -0.778779
-25.8311 0.466074 475.185 0.0527185 0.723636 -0.688165
-26.3182 2.73479 476.241 0.0413876 0.680208 -0.73185
-0.315505 39.0362 522.923 0.984763 -0.138183 0.10558
-27.2741 71.4881 632.977 -0.306403 -0.880663 -0.361319
-17.3315 68.5375 635.143 -0.00014067 -0.867373 -0.497659
-16.7999 83.4745 609.143 0.0455913 -0.862201 -0.504511
-88.6954 147.568 489.999 -0.035669 -0.897591 -0.439383
-11.9945 184.249 505.99 0.00538795 -0.442503 -0.896751
-2.82695 182.96 508.725 0.159347 -0.170027 -0.972471
-70.5724 144.547 495.378 -0.00870718 -0.876744 -0.480879
-52.1454 142.18 502.331 0.0630887 -0.904717 -0.421315
-24.1143 129.02 528.218 -0.0020748 -0.932143 -0.362083
-15.6641 127.61 531.83 0.0966687 -0.837787 -0.537372
-14.6139 132.404 522.648 0.0838625 -0.874637 -0.477469
-5.44225 135.921 517.193 0.0924525 -0.848689 -0.520749
-19.0989 171.864 504.147 0.027423 0.463748 -0.885542
-19.8887 173.503 505.312 0.0056069 0.415765 -0.909455
3.80127 134.796 520.322 0.0108491 -0.853228 -0.521425
-79.9426 146.787 493.503 0.0606476 -0.924492 -0.376347
-16.9639 73.2715 626.012 0.0661159 -0.880794 -0.468861
1.57258 75.9203 623.979 -0.0165757 -0.856201 -0.516377
3.52252 137.434 516.422 3.34343e-05 -0.870148 -0.492791
-14.2669 139.494 509.473 0.0235349 -0.895683 -0.44407
-1.12977 37.953 528.188 0.929543 -0.250539 0.270517
6.55307 -9.93075 493.515 0.999864 0.0163982 0.00149169
-21.7414 79.5406 616.813 0.0196665 -0.855959 -0.516669
-88.6936 140.382 502.83 0.036201 -0.872718 -0.486881
-93.3548 147.64 488.169 0.00153811 -0.897029 -0.441969
1.29384 78.5581 620.078 0.0231714 -0.897771 -0.439853
-25.8487 183.941 503.182 0.00410032 -0.936309 -0.351153
-16.9144 173.167 505.513 0.0213507 0.422544 -0.906091
-22.0149 175.613 505.481 0.00921401 0.389928 -0.920799
6.49682 137.097 516.622 -0.0163418 -0.867054 -0.497946
-3.30235 136.313 518.523 0.0642009 -0.843518 -0.533249
-5.46056 134.769 519.517 0.0773285 -0.839014 -0.538587
-12.1971 137.343 515.048 0.0702979 -0.885185 -0.459897
-17.5882 132.74 522.448 0.0999139 -0.863797 -0.493835
-19.5739 131.611 523.406 0.0476759 -0.888571 -0.456255
-21.6508 130.84 524.657 0.0179255 -0.897871 -0.439893
-24.5865 128.074 531.137 -0.0613401 -0.891706 -0.44844
-70.2521 149.98 484.801 -0.0332463 -0.897657 -0.43944
-72.4253 149.28 485.935 -0.0298749 -0.896067 -0.442912
-68.3557 144.284 496.964 -0.00203166 -0.867478 -0.497472
-70.463 143.17 497.675 -0.0344594 -0.873752 -0.48515
-76.6896 145.663 493.237 -0.0203329 -0.909331 -0.415577
-0.740013 35.9192 519.008 0.98797 -0.144263 0.0557164
-4.4599 32.6862 531.338 0.859028 -0.340943 0.381876
-2.32145 15.0941 512.516 0.923468 -0.342359 0.173195
-1.88106 15.9451 507.42 0.959296 -0.281541 -0.0220285
-3.86444 13.4178 513.638 0.888541 -0.412089 0.201685
-8.22302 14.1399 488.775 0.653542 0.223455 -0.723153
-28.9207 24.1778 488.471 0.252477 0.31524 -0.914811
6.5372 -10.2555 496.194 0.998969 0.0403125 0.0208529
-24.6502 6.26036 479.852 0.0738891 0.593332 -0.801559
-26.3211 72.628 630.732 -0.188237 -0.881023 -0.43401
-17.2948 72.6209 628.992 0.0694625 -0.848289 -0.524958
-19.1911 78.3175 616.829 0.0124646 -0.859812 -0.510458
-17.0329 79.8611 615.834 0.00158441 -0.861852 -0.507158
-14.7045 81.105 614.804 -0.0170824 -0.855259 -0.51792
-89.0791 136.394 509.325 0.0168523 -0.882959 -0.469148
-3.27165 75.6406 624.713 0.00102208 -0.861452 -0.507839
-18.1421 183.634 501.399 0.0846049 -0.694736 -0.714271
-1.28972 176.317 505.95 0.0184148 0.352624 -0.935584
-5.54437 184.378 508.608 0.157587 -0.408269 -0.899157
-3.05759 185.413 508.036 0.150296 -0.579641 -0.800892
-0.140661 182.017 508.44 0.094732 -0.0508945 -0.994201
-3.11757 76.752 622.633 0.0263926 -0.881679 -0.471112
6.17586 -7.75057 495.285 0.967886 0.236871 0.0841893
-146.801 98.6191 571.418 -0.122943 -0.81564 -0.565346
-2.86705 26.9032 522.955 0.892468 -0.303853 0.333429
-88.8374 149.667 485.661 -0.0350169 -0.88929 -0.456002
-93.8829 147.126 491.396 0.00796933 -0.884498 -0.466476
-0.840886 76.6053 623.525 0.0208819 -0.857861 -0.513458
-87.0478 137.344 508.22 0.0314865 -0.868281 -0.495073
-14.9147 73.4765 627.542 0.0842875 -0.861108 -0.501387
-15.13 67.4093 635.504 0.00381708 -0.867024 -0.498251
-31.5974 3.19718 478.021 -0.0424881 0.67193 -0.739395
3.14854 -1.83195 492.774 0.785222 0.612856 0.0885109
2.31931 -2.66542 498.679 0.803307 0.565715 0.186182
-147.056 97.2895 572.973 -0.162805 -0.802133 -0.574524
-144.539 97.6069 571.085 -0.0885384 -0.808333 -0.582029
-22.2064 128.93 529.686 0.0109812 -0.927315 -0.374121
-15.6918 127.044 534.611 0.128351 -0.864523 -0.485928
-14.996 134.039 521.09 0.087056 -0.855504 -0.510425
3.69784 133.794 522.664 0.029838 -0.846572 -0.531437
-0.389027 186.385 506.99 0.263776 -0.964397 -0.0189671
-2.74095 185.55 505.568 0.144311 -0.905515 -0.39902
-2.26388 180.855 508.063 0.0723574 0.0646606 -0.995281
-7.36438 183.301 508.031 0.149769 -0.371457 -0.916291
-21.65 185.659 506.95 -0.0282121 -0.861476 -0.507015
-20.5389 183.549 501.897 0.0887491 -0.728669 -0.679091
-91.0321 147.598 489.802 -0.0225986 -0.893944 -0.447609
-76.3404 78.8988 645.084 0.488925 -0.802251 0.342557
-2.97108 14.2281 508.238 0.923516 -0.38179 0.0367994
-3.21129 13.764 511.018 0.902483 -0.415925 0.111943
-3.93094 32.9394 528.907 0.8925 -0.317734 0.320139
-86.2052 146.229 490.71 -0.00406947 -0.913865 -0.405999
-51.748 141.41 505.115 0.0542586 -0.890843 -0.451059
-14.5004 135.833 516.755 0.0907696 -0.8756 -0.474433
4.19345 135.587 518.33 -0.00442108 -0.876405 -0.481555
-24.1381 174.451 505.103 0.0373704 0.446888 -0.893809
-20.1037 176.331 505.766 0.00469048 0.376845 -0.926265
-11.8228 180.534 507.183 -0.0353311 -0.0876834 -0.995522
-29.2006 3.2825 477.522 -0.00856463 0.66364 -0.748003
0.830674 -0.861489 498.852 0.782808 0.596644 0.176711
-3.91724 35.4405 530.405 0.885912 -0.306013 0.348592
-15.2314 137.563 515.542 0.0765636 -0.886376 -0.456592
-48.7905 70.751 507.242 -0.135978 0.569189 -0.810885
-50.979 79.3618 514.246 -0.13384 0.559033 -0.818272
-42.751 114.697 528.772 -0.137568 0.358678 -0.923269
-26.8914 -8.41704 465.216 0.0732007 0.472434 -0.878321
33.9158 170.682 505.413 0.065734 -0.198463 -0.977902
21.3803 174.54 506.653 -0.0208117 0.362625 -0.931703
15.5387 165.624 506.194 0.0818607 -0.665084 -0.742269
13.4562 164.293 507.255 0.108575 -0.757665 -0.643549
15.8329 159.525 513.859 0.354481 -0.53241 -0.768689
13.7259 158.138 514.525 0.405049 -0.264991 -0.875052
-53.4872 108.656 528.275 -0.235841 0.351853 -0.905858
-27.1182 77.2885 510.926 -0.0411803 0.429973 -0.901902
-15.6627 -18.2335 466.705 0.340199 -0.0775012 -0.937154
-25.3814 -17.5587 463.22 0.115281 0.0937107 -0.988903
-25.0303 -46.306 480.395 0.917397 0.0246847 0.397206
-25.9431 -41.6278 483.495 0.921258 -0.295428 0.252995
-22.5312 -38.4828 471.844 0.974572 0.183803 -0.128165
-23.5615 -34.3716 475.32 0.747506 -0.573138 -0.335777
-56.124 127.179 531.14 0.0812768 -0.84536 -0.527977
-47.3111 126.514 533.949 0.0142325 -0.561764 -0.827175
-57.1246 148.772 487.532 0.0487333 -0.888051 -0.457155
-54.9264 149.8 486.575 0.0499638 -0.889035 -0.455106
-54.7412 155.252 478.028 0.0248141 -0.826772 -0.561989
-48.014 153.264 482.954 0.0787809 -0.88218 -0.464275
-39.9611 163.642 482.325 0.491084 0.46078 -0.739269
33.8288 167.794 506.842 0.0921508 -0.602261 -0.792962
29.5331 168.352 505.005 0.121248 -0.443184 -0.888193
23.6879 172.803 506.083 -0.0123481 0.236046 -0.971663
10.9971 165.158 506.947 0.180531 -0.704656 -0.686198
15.7454 157.182 515.379 0.426202 -0.163814 -0.889672
-60.9379 125.854 530.503 0.0553795 -0.854498 -0.516494
-31.7098 76.9842 511.197 -0.0876023 0.346276 -0.934034
-47.1465 81.3754 515.633 -0.190004 0.467063 -0.863569
-44.9681 72.1878 507.812 -0.0200564 0.609394 -0.792614
-44.269 70.3624 506.848 -0.0234918 0.597368 -0.801623
-6.69337 -18.5914 468.044 0.238292 -0.306501 -0.921561
-15.944 -15.8347 465.762 0.318346 0.0668508 -0.945614
-6.45063 -22.9642 470.069 0.478068 -0.665589 -0.573099
-10.7603 -23.2474 468.69 0.351075 -0.529377 -0.772338
-24.9377 -20.7138 463.811 0.159927 -0.0888713 -0.98312
-21.8736 -45.3209 469.32 0.994827 0.0153605 -0.100418
-21.9957 -43.372 471.074 0.997323 0.0661411 -0.031191
-22.1559 -41.3687 472.654 0.989196 0.1451 0.0209226
-23.2864 -42.1548 478.121 0.947233 -0.0230913 0.319714
-23.8586 -40.3293 479.695 0.961582 -0.138847 0.236816
-23.1606 -39.2144 474.546 0.98979 0.115858 0.0830228
-23.7078 -37.0618 476.297 0.987713 -0.156117 -0.00712377
-23.5973 -35.1762 477.82 0.750919 -0.632185 -0.190953
-25.7717 -39.9802 498.655 0.460005 -0.883538 0.0880608
-56.3693 126.426 533.511 0.0216456 -0.686141 -0.727147
-56.0252 127.347 528.299 0.108007 -0.889494 -0.443998
-37.205 124.682 533.077 0.0129246 0.2121 -0.977162
-54.848 148.626 488.424 0.0432047 -0.894803 -0.444366
-54.9199 153.268 479.839 0.0567051 -0.837898 -0.542874
-45.6011 153.124 483.499 0.0462755 -0.892472 -0.448723
-57.5576 173.07 476.563 0.448008 0.464347 -0.763983
-41.5915 160.607 478.979 0.464636 0.260248 -0.846395
-42.1893 162.651 480.468 0.468787 0.390803 -0.792156
-58.206 175.005 477.789 0.451316 0.482668 -0.750563
-37.7597 162.514 482.686 0.513857 0.424274 -0.745616
-38.1831 164.51 484.002 0.542829 0.54539 -0.63866
11.6777 156.843 512.813 0.487689 0.0291423 -0.872531
-31.2841 -45.5759 491.248 0.740319 -0.512482 0.435075
15.04 171.1 504.332 0.0624149 0.176759 -0.982273
-34.6033 78.0454 511.844 -0.11761 0.325452 -0.938216
-36.5034 76.8136 512.194 -0.114886 0.367283 -0.922987
-23.5422 -39.9741 477.264 0.980756 -0.0464032 0.189641
-27.523 121.963 532.021 0.101963 0.471377 -0.876018
-44.0511 162.017 478.762 0.479474 0.328609 -0.813708
-59.9664 174.589 476.608 0.449599 0.465925 -0.762086
-16.923 -13.2462 465.511 0.292924 0.1461 -0.944907
17.4047 149.979 512.761 0.520006 0.492701 -0.697739
-24.2852 -51.8212 481.697 0.86068 -0.234216 0.452076
-55.9223 128.895 526.048 0.0916423 -0.875565 -0.474328
23.4729 175.631 506.537 -0.024801 0.372536 -0.927686
24.5288 170.728 505.09 0.0317402 0.0102009 -0.999444
13.0317 180.059 509.252 0.0317614 0.413985 -0.90973
24.8741 168.709 504.063 0.0470085 -0.300568 -0.952601
22.3238 169.932 504.047 -0.0277809 -0.0611936 -0.997739
19.4384 173.751 505.874 -0.00163311 0.333931 -0.942596
-53.3611 102.346 525.793 -0.253457 0.348974 -0.902207
-32.1369 79.369 511.559 -0.0534203 0.373828 -0.925958
-65.0884 79.9193 679.324 -0.000387987 -0.99167 0.128804
-63.7873 77.6187 671.138 -0.0364935 -0.99432 0.0999806
-12.9919 -22.7348 467.743 0.346781 -0.427401 -0.834908
-23.9954 -22.5707 463.342 0.222772 -0.217176 -0.950372
-29.1646 -20.1404 462.642 0.126357 0.0165226 -0.991847
-25.951 -53.6367 483.408 0.752767 -0.387941 0.53183
-23.8844 -39.1872 467.053 0.924121 0.277527 -0.26264
-27.4709 -40.2552 498.462 0.459328 -0.88409 0.0860349
-25.4678 -39.3257 500.229 0.465778 -0.87832 0.107722
-39.9302 115.669 528.459 -0.131706 0.348143 -0.928143
-35.3349 117.897 528.868 -0.0738558 0.440085 -0.894914
-39.5266 125.578 534.106 -0.0429578 -0.0653635 -0.996936
-37.7464 127.23 532.916 -0.00871549 -0.693811 -0.720104
-54.6259 151.496 484.965 0.0839275 -0.86728 -0.490695
-56.9469 154.349 479.305 0.0814238 -0.81754 -0.570086
-37.0982 160.198 481.457 0.518571 0.291366 -0.803859
9.51774 156.413 511.715 0.446514 0.162799 -0.879842
11.7392 155.323 511.845 0.502096 0.230467 -0.833537
-58.5092 126.035 532.182 -0.00218601 -0.77372 -0.633524
-62.9784 79.1481 659.232 -0.100087 -0.931932 -0.348548
-45.6079 79.1106 513.949 -0.121172 0.512538 -0.850072
-9.08555 -27.9214 510.744 0.57087 -0.777485 0.263866
-11.0598 -20.7554 467.341 0.251205 -0.305384 -0.918497
-28.198 -40.66 458.759 0.608882 0.296247 -0.735867
-26.1949 -39.7304 460.527 0.739455 0.301969 -0.601682
-22.9578 -38.5887 469.271 0.941212 0.291703 -0.170379
-35.3486 115.396 527.37 -0.0964822 0.357878 -0.92877
-59.5381 149.457 487.078 0.0668648 -0.889439 -0.452136
-54.6378 156.254 475.686 0.0948559 -0.752304 -0.651952
-85.713 179.615 464.67 0.333235 0.60685 -0.721587
-86.2601 181.768 466.421 0.339426 0.629734 -0.698731
-22.3925 -43.1473 468.199 0.968354 0.140311 -0.206407
-86.441 178.074 462.911 0.263373 0.553047 -0.790426
-45.4058 68.8 506.129 -0.0694461 0.562674 -0.823757
-40.4187 119.573 529.788 -0.116278 0.449789 -0.885533
-58.3169 146.078 492.375 0.0410557 -0.87503 -0.482325
-28.9962 -13.6451 463.561 0.126625 0.248644 -0.960282
40.7304 168.261 504.999 0.00802473 -0.608347 -0.793631
35.3723 170.444 505.02 0.0368974 -0.219849 -0.974836
37.4975 169.424 505.033 -0.00933956 -0.368316 -0.929654
35.3905 168.038 505.699 0.0512626 -0.507997 -0.859832
29.9686 172.805 505.187 0.0368129 0.13272 -0.99047
30.6121 167.622 506.392 0.123899 -0.578433 -0.806266
12.5187 175.69 507.039 0.0600141 0.462315 -0.884683
14.4685 166.645 504.833 0.0722875 -0.434004 -0.898006
12.2555 165.316 506.003 0.137244 -0.702597 -0.698227
14.6779 160.369 512.462 0.310774 -0.558254 -0.769267
12.4346 158.975 513.474 0.375997 -0.340273 -0.861882
13.0447 156.443 514.303 0.47287 -0.0330032 -0.880514
-45.8113 108.279 525.997 -0.14443 0.38584 -0.91119
-51.5145 107.855 527.592 -0.247388 0.366448 -0.896948
-22.1538 80.576 512.623 -0.0140688 0.491028 -0.87103
-26.5846 81.1512 512.816 0.0322659 0.484721 -0.874074
-29.0837 81.9381 512.971 0.0499512 0.47351 -0.879371
-31.8359 83.2949 513.679 0.0427337 0.459767 -0.887011
-31.2888 81.1422 511.928 -0.0131651 0.415969 -0.909283
-66.4753 81.5838 652.861 -0.0714446 -0.973487 -0.217297
-50.3126 82.4225 516.974 -0.199366 0.477772 -0.855563
-47.3056 77.1999 513.483 -0.0891512 0.560728 -0.823187
-47.912 74.2551 510.061 -0.0725883 0.605549 -0.792491
-48.2145 71.9649 508.214 -0.115493 0.594782 -0.795547
-5.00708 -21.9125 470.369 0.482298 -0.702682 -0.523094
-9.84336 -18.9557 467.279 0.201306 -0.195132 -0.959896
-7.2504 -23.3063 471.382 0.521887 -0.691213 -0.499859
-16.7921 -17.6079 465.393 0.340206 -0.0304558 -0.939858
-9.23144 -23.8587 469.919 0.384237 -0.636798 -0.668469
-9.28926 -25.0405 472.115 0.476988 -0.72252 -0.500447
-19.1136 -18.3772 464.129 0.327596 -0.0533391 -0.943311
-21.2072 -19.4882 462.899 0.264108 -0.102103 -0.959074
-23.7574 -18.2652 462.883 0.152783 0.0195655 -0.988066
-28.8579 -15.819 462.85 0.12156 0.126393 -0.984504
-23.4449 -20.8778 463.337 0.216809 -0.15052 -0.96454
-20.201 -36.5236 499.953 0.449091 -0.885451 0.11956
-27.8188 -22.917 462.954 0.166758 -0.188945 -0.967725
-18.3297 -33.2465 477.398 0.394147 -0.836915 -0.379765
-25.6703 -50.8647 483.895 0.83284 -0.169732 0.526847
-24.8097 -42.5367 462.696 0.854568 0.247026 -0.456828
-27.7763 -47.6011 485.697 0.857266 -0.0995135 0.505165
-24.3523 -43.1906 464.785 0.91457 0.202404 -0.350134
-25.3286 -40.3632 461.575 0.807633 0.27018 -0.524149
-23.0468 -42.0713 467.243 0.94225 0.205011 -0.26483
-23.6081 -43.9137 478.279 0.939627 0.0162692 0.341813
-24.3986 -40.8055 466.978 0.93187 0.215861 -0.291586
-23.5802 -37.4175 470.492 0.96007 0.208105 -0.18697
-25.0363 -39.7633 481.487 0.93001 -0.318971 0.182591
-28.2636 -40.8963 492.531 0.591291 -0.793855 0.142019
-24.5121 -33.8684 473.643 0.839869 -0.407577 -0.35847
-47.9394 69.2529 507.065 -0.13835 0.549796 -0.823762
-59.7728 127.437 528.349 0.0709524 -0.897579 -0.435106
-35.9847 114.066 527.093 -0.111669 0.323802 -0.939512
-54.7799 127.236 529.587 0.122757 -0.836341 -0.534289
-39.0821 117.442 528.828 -0.1213 0.394075 -0.911039
-50.3831 126.244 534.178 0.0190964 -0.400524 -0.916087
-49.7565 127.104 531.318 0.0857414 -0.816051 -0.571585
-48.5262 127.242 533.246 0.0333464 -0.683715 -0.728987
-40.5727 124.202 533.186 -0.0464731 0.141896 -0.98879
-58.8353 147.706 491.163 0.0331018 -0.879472 -0.474798
-58.3831 148.614 488.476 0.0606335 -0.882239 -0.46688
-55.8089 150.658 484.483 0.0787687 -0.871275 -0.484433
-58.3219 155.419 478.226 0.111287 -0.818902 -0.563041
-53.4827 155.411 477.084 0.0456306 -0.802145 -0.595383
-50.3717 154.536 476.847 0.0811717 -0.78469 -0.614551
-80.5517 180.631 469.602 0.439033 0.634456 -0.636173
-60.0349 170.6 474.257 0.448972 0.422261 -0.787477
-40.2621 159.716 480.204 0.45581 0.165697 -0.874518
-41.5626 163.974 481.702 0.459287 0.455321 -0.762718
-53.9999 173.171 479.645 0.46543 0.462327 -0.754737
14.8244 147.811 508.339 0.494306 0.299344 -0.816122
15.0718 155.362 514.837 0.485712 0.0883332 -0.869644
-9.7311 -27.0314 473.663 0.512481 -0.739887 -0.43581
-60.6331 173.189 475.837 0.445807 0.46609 -0.76421
20.7136 173.139 505.882 -0.0316505 0.273804 -0.961265
20.7054 170.381 504.701 0.0288367 0.0430769 -0.998655
-14.8657 -16.0241 466.903 0.308145 0.0551262 -0.949741
-22.0916 -39.2214 470.32 0.95486 0.267154 -0.129888
-33.6495 115.671 527.563 -0.0571976 0.387516 -0.920087
-56.6269 175.048 479.372 0.456151 0.469669 -0.755869
-40.7116 162.476 481.525 0.476239 0.419588 -0.77275
12.1521 164.314 508.345 0.131526 -0.761126 -0.635128
-58.1062 153.161 479.546 0.0962255 -0.821308 -0.562311
-53.7597 150.863 486.014 0.0862265 -0.867411 -0.490064
13.2937 154.494 513.16 0.544568 0.277889 -0.791342
-58.0395 150.08 483.354 0.0586968 -0.884398 -0.463027
-48.7926 154.579 478.429 0.088021 -0.819966 -0.565605
-24.7686 -55.0295 480.16 0.788656 -0.544542 0.285473
-26.9252 -49.0993 485.521 0.854837 -0.0498827 0.516494
10.8195 175.415 506.846 0.0677718 0.454853 -0.887984
23.1131 148.842 515.942 0.482689 0.486265 -0.728394
-38.8055 113.094 527.406 -0.114912 0.325226 -0.938628
-49.0059 107.075 526.479 -0.218707 0.377046 -0.900002
-24.065 79.8577 512.338 -0.00211152 0.490191 -0.871612
-45.9393 73.4538 509.378 -0.0492059 0.613131 -0.788447
-3.57124 -20.2405 469.334 0.479056 -0.667632 -0.569888
-27.2818 -12.5046 464.979 0.115595 0.293949 -0.948805
-28.3091 -18.4921 462.691 0.102162 0.0796617 -0.991573
-25.5737 -22.0437 463.534 0.17796 -0.181117 -0.967226
-26.8582 -46.2501 484.323 0.878359 -0.0461682 0.475766
-21.5726 -41.395 471.441 0.989349 0.143358 -0.0252373
-36.7468 119.047 529.298 -0.073337 0.464889 -0.882326
-58.2949 171.522 475.761 0.446744 0.457484 -0.768849
-38.3733 160.809 481.449 0.502126 0.324532 -0.801591
15.2514 145.426 507.977 0.46458 0.03316 -0.88491
32.8676 171.487 504.858 0.00097978 0.0095095 -0.999954
33.056 167.003 507.003 0.086085 -0.637788 -0.765386
25.2351 172.751 505.488 -0.0262347 0.23304 -0.972113
30.8126 165.609 508.016 0.0773812 -0.780522 -0.620321
12.4924 160.157 511.278 0.29019 -0.475935 -0.830227
-59.5274 126.34 530.346 0.0763996 -0.857985 -0.507962
-25.8395 78.6011 511.615 -0.00467204 0.472478 -0.88133
-30.0859 76.2778 510.86 -0.0871023 0.366946 -0.926155
-50.4937 80.3892 515.419 -0.151216 0.535001 -0.831209
-49.5671 78.212 513.817 -0.112782 0.563111 -0.818649
-48.8832 75.5212 511.628 -0.0820283 0.598182 -0.797151
-5.05839 -20.0722 469.233 0.436147 -0.61088 -0.660759
-12.3608 -31.5108 508.423 0.498328 -0.837828 0.222965
-25.8536 -46.0917 482.158 0.895931 0.0029932 0.444183
-26.4007 -43.939 483.909 0.898447 -0.138794 0.416568
-57.2841 127.734 529.334 0.0856839 -0.899366 -0.428719
-58.2797 149.616 486.134 0.0434493 -0.896244 -0.441428
-58.0243 150.946 484.58 0.0574962 -0.895353 -0.441631
-88.1402 177.799 462.718 0.167118 0.533834 -0.82891
-58.1729 156.242 475.738 0.126926 -0.814988 -0.565406
-88.4137 178.875 463.593 0.201651 0.582535 -0.787394
-55.8962 156.095 476.63 0.0740666 -0.805274 -0.588259
-49.0328 154.115 481.209 0.08693 -0.8897 -0.448193
-40.5418 122.612 531.724 -0.0449555 0.273251 -0.960892
-41.1505 126.285 534.443 0.0434235 -0.252258 -0.966685
-8.22077 -26.9184 512.066 0.583312 -0.76848 0.263032
-44.1823 80.462 515.017 -0.182249 0.429662 -0.884407
13.8191 155.599 513.869 0.506443 0.127462 -0.852801
16.3145 144.371 507.893 0.459656 -0.0449738 -0.886957
-95.3275 174.271 463.666 0.444402 -0.241604 0.862632
-25.2987 -39.2005 482.997 0.852742 -0.521012 0.0371243
-25.0585 -38.7363 480.217 0.935637 -0.341746 0.0882769
-24.2044 -43.5058 479.495 0.935344 0.00560331 0.353696
-23.6573 -45.6585 477.743 0.949796 0.00995932 0.312712
-47.6384 73.1788 509.186 -0.091835 0.606707 -0.789603
-25.5522 80.0259 512.237 0.0166545 0.483242 -0.875329
-45.5377 107.203 525.122 -0.128726 0.365705 -0.921786
21.7767 149.313 514.946 0.493771 0.493233 -0.716179
-24.3864 -36.6687 468.749 0.932231 0.255672 -0.256082
-51.5535 76.5122 513.001 -0.116614 0.577163 -0.80826
-40.5692 117.61 528.728 -0.126853 0.394912 -0.909919
-50.0352 73.0935 509.684 -0.132719 0.579377 -0.804182
-52.2238 81.7042 516.688 -0.159643 0.510485 -0.844938
-28.4769 -11.7383 464.044 0.117516 0.324778 -0.938461
41.5967 167.628 506.047 0.0162726 -0.665288 -0.746409
36.041 169.663 505.427 0.0289614 -0.334485 -0.941956
31.2437 172.194 505.195 0.0536219 0.0884555 -0.994636
31.5564 169.972 504.312 0.0775554 -0.258479 -0.962899
26.3664 174.57 505.89 -0.0258797 0.318974 -0.94741
11.6075 177.072 507.91 0.0539032 0.449446 -0.89168
13.3071 163.47 509.743 0.106875 -0.757193 -0.644388
13.6474 159.313 512.676 0.392892 -0.362282 -0.845215
-30.3624 80.6255 512.282 -0.000437128 0.420595 -0.907248
-65.1517 80.2972 655.998 -0.0591704 -0.941552 -0.33163
-4.11613 -20.5413 470.675 0.558137 -0.684071 -0.469607
-8.4052 -24.5688 471.431 0.481784 -0.710432 -0.513001
-17.6402 -19.3811 465.024 0.360216 -0.126966 -0.924188
-22.3605 -19.1651 463.093 0.216579 -0.0676764 -0.973917
-27.2941 -16.6414 463.208 0.0973959 0.116276 -0.98843
-26.725 -23.9014 463.364 0.205662 -0.267913 -0.941236
-17.2054 -33.8285 478.694 0.383978 -0.84519 -0.371773
-23.1972 -44.0342 466.183 0.951607 0.138201 -0.27449
-28.3487 -40.4136 501.238 0.474215 -0.876432 0.0835901
-21.5916 -34.0077 476.63 0.594041 -0.72433 -0.349945
-37.9574 114.867 527.776 -0.127753 0.337595 -0.932582
-54.1412 126.954 531.274 0.0890487 -0.791956 -0.60405
-57.2981 145.227 494.12 0.0618769 -0.873275 -0.483283
-57.2286 148.315 489.965 0.0638333 -0.879923 -0.470808
-56.9204 150.538 485.806 0.0449796 -0.897994 -0.437703
-56.6224 152.184 480.83 0.0780061 -0.838617 -0.539108
-52.6046 150.019 487.411 0.0669934 -0.879148 -0.471816
-87.2891 176.301 462.541 0.153383 0.466051 -0.871361
-47.6 154.226 480.092 0.100571 -0.873314 -0.476663
-79.5502 181.095 470.486 0.437396 0.640921 -0.630797
-79.8238 182.172 471.362 0.429389 0.646101 -0.631014
15.8651 147.131 509.214 0.527717 0.262711 -0.807773
-55.1834 105.11 527.536 -0.25919 0.346148 -0.901666
-56.7291 103.526 527.857 -0.263496 0.346143 -0.900419
-27.4634 79.3075 511.952 -0.000754507 0.455865 -0.890049
-42.1752 71.4784 508.414 0.0510884 0.635869 -0.770104
-4.4375 -19.6078 468.285 0.35471 -0.562739 -0.746663
-5.98321 -21.1913 468.607 0.373865 -0.581448 -0.722595
-8.22653 -22.585 469.619 0.407714 -0.614912 -0.675021
-10.6819 -24.4221 470.539 0.406669 -0.665571 -0.625808
-24.6823 -19.3842 462.256 0.140854 -0.024274 -0.989733
-26.9632 -21.2686 463.003 0.155225 -0.097934 -0.983013
-29.1841 -23.0371 463.056 0.157782 -0.165275 -0.973545
-25.6159 -41.7879 460.953 0.779667 0.257154 -0.570957
-21.7806 -40.8675 469.928 0.971024 0.190045 -0.144894
-25.613 -43.9546 482.176 0.915715 -0.0696876 0.395739
-33.0134 117.001 527.84 -0.0179178 0.445235 -0.895235
-89.8393 177.524 462.525 -0.0167148 0.466193 -0.884525
-51.8755 155.474 475.794 0.0915143 -0.710373 -0.69785
13.2587 167.704 503.611 0.115675 -0.265486 -0.95715
11.0549 166.339 504.751 0.140512 -0.515655 -0.845196
-32.7658 81.8874 512.644 -0.0215205 0.401822 -0.915465
-18.405 -16.566 464.636 0.311399 0.0257369 -0.949931
-18.9332 -36.358 498.052 0.446559 -0.88764 0.112605
-51.7125 127.135 532.953 0.0799018 -0.669269 -0.738711
-59.2984 150.467 484.389 0.068933 -0.900444 -0.429475
-57.0546 151.315 483.286 0.0840481 -0.85879 -0.505386
-59.6007 172.064 475.259 0.449214 0.454891 -0.768948
-17.3603 -32.5498 476.16 0.38771 -0.824027 -0.413112
-19.6036 -33.9435 477.172 0.457708 -0.814488 -0.356528
-61.0313 127.279 529.293 0.0719782 -0.892636 -0.444995
-23.6879 -53.3195 480.299 0.878491 -0.312577 0.361316
-29.325 -41.7497 492.296 0.609211 -0.762436 0.218066
-26.8005 -40.9996 491.021 0.599737 -0.790337 0.125233
-58.4391 128.578 527.936 0.0784975 -0.899648 -0.429502
34.221 168.586 504.85 0.0323984 -0.414357 -0.909538
29.4693 170.937 504.472 0.0641449 -0.0777581 -0.994907
26.7823 172.698 504.894 0.00836957 0.169318 -0.985526
31.8826 166.694 507.929 0.0918952 -0.727129 -0.680322
29.9464 166.242 506.967 0.117009 -0.6973 -0.707164
21.746 172.014 505.304 0.00395201 0.182457 -0.983206
9.30167 175.513 506.252 0.0665569 0.453025 -0.88901
13.5292 166.34 506.284 0.0819088 -0.576739 -0.812811
13.5229 161.212 511.064 0.244477 -0.623443 -0.742664
11.4586 159.81 512.066 0.344557 -0.370758 -0.86245
-45.524 109.704 526.62 -0.140373 0.390397 -0.909882
-51.6649 105.892 526.532 -0.255679 0.359309 -0.897511
-29.5866 78.1459 511.575 -0.0353798 0.386352 -0.921673
-64.3825 81.0146 650.788 -0.130561 -0.983541 -0.124907
-68.8544 78.5244 673.01 0.00561777 -0.99209 0.125399
-9.26518 -17.4201 467.514 0.165423 -0.0886474 -0.982231
-8.18316 -21.6987 467.972 0.306828 -0.501622 -0.808846
-26.9438 -18.372 462.59 0.0980552 0.0692488 -0.992769
-29.706 -17.5922 462.481 0.131085 0.0829755 -0.987893
-24.0274 -41.2751 465.672 0.920347 0.230025 -0.316308
-25.1004 -41.2583 481.591 0.938374 -0.238771 0.249885
-27.251 -40.945 494.049 0.501662 -0.857966 0.110584
-47.8779 67.7332 506.097 -0.140679 0.539688 -0.830028
-36.8328 112.293 526.724 -0.109717 0.307613 -0.945165
-38.234 119.215 529.197 -0.106533 0.445702 -0.88882
-38.8427 122.887 531.917 -0.0540249 0.271999 -0.96078
-60.0104 148.511 489.997 0.0321323 -0.888284 -0.458169
-59.4769 156.263 476.828 0.10401 -0.815327 -0.569583
-57.0512 156.939 475.232 0.14475 -0.773077 -0.617575
-39.6791 161.35 480.947 0.500764 0.345592 -0.7936
-55.5945 173.923 478.793 0.451134 0.468201 -0.75978
13.9003 145.874 507.576 0.418137 0.0843515 -0.904459
11.9426 174.476 506.067 0.0629728 0.45395 -0.888799
-49.4802 105.534 525.941 -0.221855 0.359243 -0.90649
-30.3487 83.1266 513.78 0.0587314 0.474644 -0.878216
-24.7011 78.5278 512.061 -0.00883075 0.474045 -0.880456
-66.4576 78.6097 672.511 -0.0121795 -0.994046 0.108278
-47.8816 75.986 512.511 -0.0876674 0.586593 -0.805123
-25.5481 -47.0728 483.46 0.88708 0.0151648 0.461367
-24.4624 -40.9959 462.624 0.850753 0.258327 -0.457698
-23.5323 -41.4382 468.026 0.951831 0.195339 -0.236347
-25.1738 -34.9802 473.28 0.913874 -0.24431 -0.324263
-58.269 126.499 529.402 0.0781968 -0.884241 -0.460438
-52.3277 154.567 478.482 0.0440265 -0.831634 -0.553576
14.9589 153.89 514.042 0.509117 0.305043 -0.804828
-42.6252 -7.68801 466.256 -0.0469166 0.683505 -0.728436
-4.22259 70.2981 555.986 0.839181 -0.323773 0.436974
-6.8286 40.9487 540.427 0.825651 -0.334078 0.454634
-124.193 105.571 561.941 -0.0130104 -0.816977 -0.576523
-63.4701 -22.5014 468.816 -0.371017 -0.211472 -0.904227
-113.763 109.247 555.542 -0.0445224 -0.798958 -0.599736
-4.23629 67.797 554.488 0.851908 -0.308399 0.423252
-13.3159 93.3806 520.202 0.0825271 0.426005 -0.900949
54.517 118.304 550.731 0.03602 -0.918527 -0.393715
19.7262 138.527 517.285 0.0696597 -0.835331 -0.545316
-104.695 111.762 552.429 -0.00756223 -0.812954 -0.582279
54.9458 123.179 542.588 -0.0304821 -0.838884 -0.543456
49.9788 119.463 550.172 0.125538 -0.903465 -0.409866
70.9992 96.197 608.182 0.889257 -0.289026 0.354522
53.3444 81.5647 616.085 0.0208321 -0.904831 -0.425261
53.1042 81.1005 618.864 0.0273702 -0.914877 -0.402804
50.8275 81.2473 617.973 0.018487 -0.91661 -0.399354
16.4104 95.7727 589.364 0.0288201 -0.838883 -0.543549
14.1337 95.9195 588.472 0.040225 -0.837414 -0.545087
11.8904 94.5257 589.484 0.0104479 -0.871937 -0.489506
16.2703 90.687 597.856 -0.017054 -0.857135 -0.51481
-2.36114 104.994 536.758 0.994843 0.0720296 -0.0714069
-122.951 106.5 560.045 0.00248297 -0.821671 -0.569957
-42.9566 -13.3448 461.685 -0.0360126 0.300306 -0.953163
-37.9381 -5.24832 468.148 -0.0364031 0.735112 -0.676967
-118.48 108.422 556.795 -0.0121113 -0.822055 -0.569279
-116.236 109.816 555.783 -0.0229558 -0.809176 -0.587118
-151.578 134.895 543.606 -0.449324 -0.651387 -0.611394
-113.786 113.214 550.087 -0.0115914 -0.858546 -0.512606
-2.96731 48.1788 540.169 0.877354 -0.294488 0.378849
-104.303 113.098 550.527 0.00834708 -0.825278 -0.564665
-94.7453 120.059 538.485 0.0800592 -0.892646 -0.443592
-92.502 121.452 537.473 0.0838575 -0.895926 -0.436217
-94.6051 125.144 529.993 0.00924914 -0.877453 -0.479573
-94.3983 127.149 525.309 0.00706966 -0.857706 -0.514093
-85.1514 131.648 520.384 0.0428252 -0.878148 -0.476469
-20.2816 88.8149 593.305 0.266987 -0.933564 -0.239115
57.4779 124.361 541.925 0.0210724 -0.839574 -0.542837
64.6549 131.012 531.424 0.223966 -0.472871 -0.852193
54.9844 120.077 549.268 0.0288675 -0.918182 -0.395106
26.8365 133.813 523.588 0.0798202 -0.821777 -0.56419
18.1538 135.287 520.206 -0.00158357 -0.866774 -0.498699
68.6388 91.2998 610.038 0.807394 -0.540151 0.237385
53.9868 90.062 600.891 -0.0213166 -0.863284 -0.504269
1.39119 103.888 541.574 0.861394 0.141985 -0.487689
16.3588 90.0893 600.522 -0.0242118 -0.84199 -0.538949
2.23524 96.6918 544.403 0.967996 0.0568952 -0.244431
2.57035 94.0958 542.559 0.954002 0.137789 -0.26626
-3.95232 92.4874 521.941 0.626615 0.417935 -0.657787
-13.5469 97.5489 521.477 0.163561 0.417241 -0.893956
-2.21681 87.9506 523.492 0.989919 -0.00382669 -0.141582
-2.47738 88.1824 520.27 0.841631 0.231883 -0.487737
-131.609 116.815 541.233 -0.0735127 -0.828975 -0.554433
-127.336 106.35 560.001 0.00680229 -0.837475 -0.546433
-130.446 106.68 560.147 0.0249167 -0.837609 -0.545702
-61.3783 21.3367 486.39 -0.259444 0.38683 -0.884902
-66.6412 -21.7428 469.748 -0.372358 -0.211946 -0.903565
-68.2525 -23.1856 470.447 -0.373025 -0.211218 -0.903459
-50.8612 -12.6408 462.919 -0.124558 0.319607 -0.939328
-66.3088 -3.84513 472.406 -0.0227 0.656914 -0.753624
-46.0996 -9.78959 463.566 -0.0723091 0.57011 -0.81838
-67.3823 -1.70677 473.63 0.151124 0.615484 -0.773525
-47.1619 -8.16475 465.425 -0.0767826 0.658309 -0.748821
-45.7059 -5.08249 468.943 -0.0634078 0.777941 -0.62513
-7.49584 42.8693 543.568 0.8094 -0.359556 0.464318
-154.725 131.686 549.993 -0.562242 -0.592606 -0.576804
-7.34536 44.8323 544.628 0.806338 -0.359891 0.469358
-94.0772 126.488 527.745 -0.00176059 -0.870338 -0.492451
-2.50893 68.0929 551.808 0.867947 -0.306232 0.391011
-87.1572 130.479 521.574 0.0561649 -0.861731 -0.504247
-85.6088 132.302 518.295 0.049691 -0.896046 -0.441171
-8.89558 85.3725 516.009 0.185475 0.434399 -0.881417
-11.993 88.7483 517.744 0.0780637 0.48004 -0.873766
-12.3357 90.9115 518.975 0.0910924 0.462368 -0.881997
55.2613 124.624 540.339 -0.0320502 -0.845607 -0.532844
55.0009 130.193 532.612 0.106559 -0.798385 -0.592644
59.4692 130.049 534.413 0.109478 -0.780221 -0.615848
61.9594 128.71 535.124 0.0519743 -0.774804 -0.630062
57.3978 119.392 549.722 0.0130269 -0.922641 -0.385439
29.5988 133.034 523.696 0.0312241 -0.792988 -0.608437
15.7403 135.972 519.752 0.0393371 -0.886596 -0.460869
13.1479 135 521.164 0.0272227 -0.903842 -0.427
53.3426 88.7499 603.254 0.00945105 -0.863442 -0.504359
18.9692 98.6121 586.102 0.0221489 -0.809758 -0.586346
16.7258 97.2184 587.114 0.0319516 -0.813964 -0.580036
18.3595 90.9693 598.923 -0.0405484 -0.845615 -0.532252
-2.69177 102.683 537.783 0.952341 0.0980183 -0.288858
-0.217152 98.2403 584.561 0.0812348 -0.867218 -0.491258
-1.96804 97.4641 585.54 0.0928525 -0.87545 -0.474305
3.03535 93.8747 545.261 0.993115 0.0586085 -0.101425
1.47687 93.4198 540.193 0.910262 0.170547 -0.377274
-1.40159 93.4948 525.687 0.978414 0.0684506 -0.19499
3.34768 89.9805 541.579 0.975479 0.127478 -0.179417
-5.65149 92.2124 521.748 0.508635 0.402283 -0.761222
-1.2988 89.3016 522.118 0.92746 0.157023 -0.339355
-121.143 107.52 558.214 -0.00478199 -0.824769 -0.565449
-132.69 105.831 561.251 0.0175617 -0.838264 -0.544982
-62.0945 -18.8393 467.029 -0.372189 -0.20955 -0.904193
-64.8987 -20.5814 468.294 -0.379122 -0.211467 -0.90086
-45.823 -14.1373 462.145 -0.0998682 0.222291 -0.969852
-64.3361 -4.64641 471.723 -0.00585551 0.697048 -0.717001
-66.0512 -0.805529 476.174 0.215691 0.553747 -0.804265
-44.3396 -8.8285 464.838 -0.0542139 0.616443 -0.785531
-47.4051 -5.35754 468.751 -0.0645254 0.769028 -0.635951
-62.2553 16.1969 483.298 -0.173391 0.571422 -0.80213
-64.1991 20.3648 486.704 -0.240536 0.435457 -0.867479
-112.122 107.77 556.157 -0.040198 -0.792234 -0.608892
-111.967 113.721 548.89 0.00292365 -0.863796 -0.503833
-1.86233 49.646 538.711 0.913294 -0.239795 0.32923
-91.8062 128.448 523.951 0.0285859 -0.850605 -0.525028
-1.54073 70.0982 550.788 0.879886 -0.304223 0.365033
-89.9493 129.446 523.019 0.0599226 -0.840729 -0.538129
-16.1793 86.541 516.294 0.0649622 0.507605 -0.859138
-10.8068 84.6541 515.724 0.150035 0.446617 -0.882056
-9.60656 89.9171 518.385 0.152358 0.484158 -0.861614
57.7448 126.482 536.546 0.0716832 -0.810986 -0.580658
59.691 127.582 535.459 0.0659301 -0.79114 -0.608071
64.3688 130.442 533.463 0.107069 -0.594292 -0.79709
66.8549 131.519 532.059 0.300764 -0.238577 -0.923375
75.0794 135.681 539.221 0.517915 0.435996 -0.735983
83.0918 139.399 546.29 0.459489 0.348985 -0.816749
16.3437 98.8538 585.555 0.0302985 -0.81929 -0.572578
11.7202 96.6044 588.018 0.0534769 -0.837667 -0.543557
72.7875 134.962 537.104 0.548236 0.342108 -0.763151
-99.6808 121.988 535.143 0.0185196 -0.882444 -0.470052
-113.264 116.664 543.153 0.06748 -0.872139 -0.484582
-68.8427 -20.6146 469.387 -0.364498 -0.200353 -0.909395
-64.0728 -17.7812 467.394 -0.353083 -0.212846 -0.911059
-6.23484 95.8367 578.783 0.572448 -0.815507 0.0851632
-1.31094 96.4569 529.307 0.998726 -0.0448764 0.0230881
-2.15342 102.943 534.395 0.999878 -0.0115247 0.0105076
71.3437 93.6079 605.381 0.843403 -0.487681 0.225472
50.0822 120.465 547.83 0.113559 -0.884908 -0.451711
-6.78197 97.9894 580.535 0.360467 -0.917866 -0.166087
48.5508 81.3941 617.081 0.0673968 -0.913329 -0.401606
53.5238 82.7307 614.136 0.0304213 -0.889032 -0.456834
-18.1277 95.6159 520.519 0.0868322 0.363025 -0.927725
-16.3167 109.283 526.555 0.138812 0.385206 -0.912331
-16.1128 106.968 525.467 0.150411 0.381817 -0.911917
13.2516 135.675 518.768 0.0310345 -0.89795 -0.439003
17.8968 137.972 516.417 0.0749803 -0.840043 -0.537313
-18.4027 98.3279 521.667 0.112294 0.350499 -0.929807
80.5879 138.237 544.081 0.406575 0.498675 -0.76552
63.8039 132.51 531.601 0.324553 -0.303424 -0.895879
54.8673 127.019 536.244 0.0676022 -0.837226 -0.542663
-89.6714 130.401 520.505 0.0572004 -0.861947 -0.503761
-94.4317 128.69 523.405 0.0133918 -0.853292 -0.521262
-98.8431 126.884 525.96 -0.00607661 -0.854579 -0.519286
-114.102 111.768 552.336 -0.0374468 -0.826242 -0.56207
-118.802 110.173 554.542 0.00507509 -0.817164 -0.576383
-42.5348 -5.8411 468.011 -0.0555442 0.752988 -0.655685
-123.602 108.385 557.905 0.00353845 -0.835355 -0.549699
-41.9029 116.47 529.142 -0.142297 0.375092 -0.916001
14.447 161.761 509.916 0.150347 -0.722918 -0.674378
-44.1907 153.61 483.342 -0.00872945 -0.888696 -0.458415
-53.0906 156.202 475.091 0.124659 -0.670463 -0.731395
-85.5899 176.576 462.734 0.266676 0.527843 -0.80639
-52.971 126.976 533.897 0.0372142 -0.641474 -0.766241
-23.552 -37.3966 467.62 0.921204 0.287045 -0.262657
-11.8703 -22.0379 467.237 0.308263 -0.360122 -0.880503
-7.93075 -17.0977 466.964 0.15874 -0.120806 -0.979902
-43.1321 71.9247 507.567 0.0251404 0.629651 -0.776471
-32.7729 78.0391 511.282 -0.0870733 0.345238 -0.934467
10.1308 165.79 505.899 0.164772 -0.617713 -0.768948
-56.4319 144.594 495.169 0.0850449 -0.87455 -0.477421
-57.2508 126.193 531.238 0.042073 -0.795277 -0.604785
-23.6406 -46.4288 478.696 0.938786 0.0183572 0.344013
-7.3169 -22.3314 469.021 0.40666 -0.589708 -0.697762
-28.1132 75.4765 510.177 -0.0756043 0.391752 -0.916959
-28.1359 -7.73508 465.702 0.0566777 0.506308 -0.860488
42.7517 166.785 507.445 0.0715477 -0.782088 -0.619048
32.8858 169.081 505.537 0.0766604 -0.418299 -0.905068
28.3935 169.179 504.014 0.0959577 -0.324983 -0.940839
22.6248 173.858 506.167 -0.0101081 0.303101 -0.952905
25.5101 170.039 504.34 0.0623268 -0.0400006 -0.997254
23.648 169.101 504.454 0.0658238 -0.208275 -0.975853
12.2436 178.402 508.187 0.0506313 0.4379 -0.897597
19.0759 171.345 504.721 0.048708 0.170872 -0.984089
13.0658 173.537 505.288 0.0666246 0.372337 -0.925703
14.3663 169.28 503.79 0.0705854 -0.0189217 -0.997326
16.5969 164.58 507.694 0.0734736 -0.769213 -0.634754
14.6112 163.45 508.653 0.0891663 -0.779572 -0.619932
17.0515 158.757 515.108 0.35605 -0.433784 -0.827684
14.7574 158.104 514.129 0.426735 -0.275054 -0.861535
-40.7783 113.895 528.089 -0.121251 0.348211 -0.929541
-45.2367 111.129 527.242 -0.145575 0.387215 -0.910424
-52.513 104.119 526.162 -0.260671 0.352599 -0.898735
-28.7385 79.9191 511.944 0.0105767 0.433753 -0.90097
-64.2241 79.8053 658.034 -0.0734129 -0.931138 -0.357201
-63.4447 81.289 647.317 -0.169737 -0.984824 -0.0362175
-45.8815 80.1869 514.825 -0.138985 0.474829 -0.869034
-5.30377 -18.975 467.237 0.27327 -0.41861 -0.866077
-7.59616 -20.1494 467.85 0.270897 -0.447902 -0.852055
-27.4744 -10.0512 464.473 0.0886962 0.412169 -0.90678
-17.7966 -14.8013 465.055 0.302325 0.121022 -0.945491
-9.73036 -21.6465 468.567 0.302556 -0.484237 -0.82096
-30.5541 -19.3654 462.112 0.140874 0.0332156 -0.98947
-30.0413 -21.8851 462.742 0.146028 -0.100127 -0.9842
-25.1467 -24.4284 463.172 0.231668 -0.299283 -0.925613
-26.9359 -54.8718 483.476 0.677141 -0.485831 0.552674
-27.0941 -41.0675 459.986 0.693118 0.264355 -0.6706
-22.3059 -44.9328 467.908 0.983246 0.0708188 -0.167965
-22.2824 -45.342 470.36 0.998568 0.00805837 -0.0528894
-22.5894 -42.7252 469.332 0.976776 0.135615 -0.165882
-23.3537 -39.4544 466.215 0.917006 0.236792 -0.320982
-22.8963 -40.1083 468.303 0.943045 0.241321 -0.228976
-24.3478 -41.6204 479.797 0.949235 -0.137465 0.282941
-23.1161 -41.2684 477.084 0.963836 -0.0297494 0.264832
-21.9067 -39.8894 473.102 0.982436 0.186527 -0.00521069
-23.5316 -38.0926 473.622 0.994498 0.0996182 -0.0323903
-24.1548 -36.1035 474.979 0.967662 -0.214175 -0.133261
-24.5343 -36.6933 477.87 0.936043 -0.345318 -0.0676611
-26.6072 -40.1073 497.122 0.449952 -0.889739 0.0768642
-24.4437 -38.8442 498.815 0.454278 -0.883012 0.11799
-57.1422 125.634 533.672 0.000939118 -0.614717 -0.788747
-36.6136 116.584 528.179 -0.0995942 0.392137 -0.914499
