ply
format ascii 1.0
element vertex 883
property float x
property float y
property float z
property float nx
property float ny
property float nz
end_header
-122.501 100.155 571.755 0.0350867 -0.878018 -0.477339
-135.61 101.984 569.003 0.0575683 -0.886122 -0.459863
-134.328 100.645 570.603 0.0311554 -0.893212 -0.448554
-136.992 100.855 571.039 0.0383757 -0.902621 -0.428723
-132.357 99.092 574.598 0.00593679 -0.908238 -0.418411
-138.863 99.4837 573.265 0.0129896 -0.925247 -0.379144
-136.991 99.0174 575.749 -0.01511 -0.928885 -0.370059
-64.8176 65.2411 507.161 -0.466452 0.417568 -0.779782
-61.4156 -16.5181 468.237 -0.406711 0.0506366 -0.912152
-66.8526 -35.9453 484.73 -0.599553 -0.525726 -0.603447
-67.8016 -34.2287 485.364 -0.589825 -0.538909 -0.601402
-69.3236 -32.3545 484.716 -0.593242 -0.540867 -0.59626
-62.7708 -22.4246 470.281 -0.513744 -0.373655 -0.772301
-57.7334 -23.4231 467.909 -0.434981 -0.297185 -0.849984
-65.335 -21.584 471.789 -0.566915 -0.382026 -0.729838
-63.8687 -20.8557 471.224 -0.54982 -0.345809 -0.760338
-59.3008 -21.2076 467.583 -0.420618 -0.231406 -0.87723
-64.2348 -19.72 469.969 -0.515285 -0.287847 -0.807233
-172.531 89.9978 654.151 -0.672593 -0.670924 -0.312218
-68.1665 59.3146 506.759 -0.513648 0.412253 -0.752471
-63.8697 60.4232 504.12 -0.395635 0.449976 -0.800621
4.03151 93.8597 552.793 0.985188 0.0850967 -0.148874
-8.94412 95.9495 521.829 0.30668 0.452939 -0.837134
-10.0938 97.7334 521.587 0.251013 0.450406 -0.856812
-14.098 100.618 521.847 0.223532 0.412679 -0.883023
-11.4151 99.5403 521.815 0.219797 0.416251 -0.882284
-0.229172 101.314 538.078 0.984866 0.109209 -0.134582
-11.619 101.941 522.807 0.218128 0.395848 -0.892034
-0.37165 103.498 540.228 0.975913 0.129971 -0.175218
-0.303175 105.662 535.528 0.975075 0.175194 -0.136145
24.6116 111.134 565.336 0.0136318 -0.872778 -0.487926
26.9095 111.181 564.576 -0.0460238 -0.867685 -0.494979
28.833 110.969 563.691 -0.0754378 -0.863727 -0.498282
31.7426 111.718 563.652 -0.111574 -0.852149 -0.511266
30.5377 112.636 561.887 -0.0810994 -0.875255 -0.476814
36.5387 111.332 562.075 -0.0325725 -0.84137 -0.539477
41.4996 112.11 561.162 0.0117761 -0.841726 -0.539776
36.5979 113.923 557.859 -0.0126722 -0.856926 -0.515284
38.9043 114.444 558.321 0.00907358 -0.858275 -0.513109
37.7051 115.464 555.346 -0.0304154 -0.877259 -0.479053
24.2071 120.397 548.212 -0.0798316 -0.898323 -0.432022
26.8293 120.386 547.04 -0.0652448 -0.894476 -0.442329
31.6208 121.084 546.804 -0.0218172 -0.878776 -0.476735
30.2382 121.793 544.132 -0.0105905 -0.882968 -0.469313
21.6482 123.752 539.117 0.0187291 -0.870921 -0.491066
24.2679 124.721 539.495 0.0397895 -0.852365 -0.521432
26.7374 124.745 538.265 0.0593893 -0.825458 -0.561331
24.0466 127.105 535.211 0.0921516 -0.817002 -0.569223
25.7416 126.005 537.306 0.0614302 -0.817522 -0.572612
22.8551 127.762 532.967 0.0897471 -0.839882 -0.535298
48.029 123.154 543.68 0.037139 -0.854125 -0.518739
50.9379 123.434 542.994 0.00650671 -0.822666 -0.568488
-5.03891 136.085 519.69 0.0293779 -0.841881 -0.538864
49.4727 124.948 541.775 0.0440491 -0.840394 -0.540184
-2.84447 135.643 518.916 -0.0111547 -0.860914 -0.508628
-3.98501 137.452 517.699 -0.0223005 -0.868693 -0.494848
2.24478 136.635 518.064 -0.0250117 -0.906847 -0.420717
1.40409 136.883 515.613 -0.0394478 -0.914597 -0.402438
-1.00378 138.427 515.189 -0.0665212 -0.90636 -0.417236
9.425 136.696 516.424 -0.0167071 -0.898016 -0.439646
11.99 136.694 515.408 0.0107107 -0.86082 -0.508797
9.10547 138.848 512.471 0.0229224 -0.853885 -0.519956
10.8987 137.98 514.235 0.0232784 -0.858335 -0.512561
4.21819 142 509.919 0.00783177 -0.805457 -0.592603
6.60072 141.777 508.568 0.028021 -0.75149 -0.659149
4.51003 143.587 508.426 0.100313 -0.728069 -0.678124
25.7616 139.436 514.271 0.361094 -0.471579 -0.804502
28.1089 140.706 515.067 0.51696 -0.133569 -0.845524
-21.3207 155.824 491.981 0.394726 0.224456 -0.89096
-23.4766 157.127 492.195 0.456191 0.339098 -0.822741
-24.5594 158.888 492.246 0.469198 0.527489 -0.708243
-1.57458 156.233 504.514 0.452025 0.374324 -0.809663
-21.1443 159.951 495.397 0.391243 0.596877 -0.700476
-3.41022 157.84 504.83 0.431407 0.296189 -0.85215
-1.69435 158.247 506.503 0.403864 0.141616 -0.903791
-5.41988 160.13 503.982 0.369494 0.145644 -0.917748
-6.93042 161.459 504.43 0.405438 0.0669173 -0.91167
-4.97483 162.39 505.1 0.257878 -0.138206 -0.956242
-5.71532 163.267 503.72 0.241972 -0.155816 -0.95769
-7.72498 165.557 502.873 0.235557 -0.11773 -0.964703
-8.96129 167.572 502.322 0.210249 0.0143042 -0.977543
-21.7715 174.432 504.761 -0.0209506 0.347639 -0.937394
-18.1002 172.012 504.091 -0.0628327 0.388509 -0.9193
-25.687 177.221 505.781 0.0359329 0.355802 -0.93387
-15.5815 171.513 502.905 -0.0416557 0.374328 -0.92636
-12.9655 170.457 502.581 0.0195208 0.319555 -0.947367
-23.0899 176.102 505.263 -0.00688603 0.331686 -0.943365
-16.6339 172.741 503.526 -0.0526796 0.378048 -0.924286
-10.8885 172.118 503.221 0.0341915 0.34041 -0.939655
-23.3443 178.381 506.124 -0.023758 0.32353 -0.94592
-12.3187 176.133 504.938 -0.00410631 0.354202 -0.93516
-11.089 174.61 504.396 0.00737761 0.361326 -0.93241
-79.217 114.242 545.326 -0.280492 -0.668756 -0.688542
-71.7498 106.381 532.454 -0.627901 0.318918 -0.709952
-73.7989 106.233 534.909 -0.647053 0.314158 -0.694713
-52.4558 94.5362 517.708 -0.23522 0.391973 -0.889398
-55.078 94.5465 518.88 -0.271522 0.378303 -0.884965
-57.5967 95.0458 520.066 -0.297164 0.367902 -0.881103
-51.6103 92.3307 517.059 -0.236855 0.385031 -0.891993
-56.6477 93.3292 519.431 -0.294208 0.361916 -0.884567
-71.187 96.1673 527.831 -0.606161 0.28961 -0.740739
-55.7553 88.9652 516.419 -0.30914 0.380721 -0.871484
-72.0475 93.7684 528.7 -0.615612 0.295336 -0.730615
-74.9094 94.3136 530.824 -0.637092 0.284104 -0.716518
-51.3247 82.2874 512.113 -0.260423 0.361343 -0.895327
-53.9903 82.4625 513.208 -0.254713 0.383096 -0.887896
-60.9508 84.0915 516.711 -0.358158 0.438742 -0.824153
-52.6862 80.5741 512.978 -0.248057 0.370622 -0.895046
-63.5612 84.4354 518.049 -0.403646 0.405959 -0.819919
-63.1971 82.5429 515.966 -0.386337 0.452573 -0.803692
-69.8873 78.2316 519.592 -0.579178 0.396946 -0.712031
-69.6149 76.1837 517.661 -0.576454 0.413357 -0.704867
8.99566 -8.35179 508.278 0.998853 -0.0307045 -0.036735
-18.6775 -9.09258 464.438 0.0357982 0.804902 -0.592327
-21.4042 -8.81206 465.274 -0.0614132 0.830557 -0.553537
-24.0549 -8.18913 466.69 -0.0763694 0.831156 -0.55077
-26.4247 -7.54219 467.568 -0.0933018 0.827473 -0.553699
-21.2368 -10.2101 462.846 -0.0534185 0.766665 -0.639822
-25.9689 -9.27946 465.333 -0.102701 0.803137 -0.586876
-38.7459 -5.78644 473.546 -0.123724 0.825485 -0.550696
-41.415 -4.92503 475.103 -0.112025 0.814299 -0.569533
-43.7749 -4.39077 476.274 -0.116071 0.815971 -0.566321
-46.7578 -3.85859 477.36 -0.11149 0.813879 -0.570238
-41.0319 -6.80669 472.493 -0.112863 0.838379 -0.533275
-45.9942 -5.33555 475.669 -0.115849 0.827446 -0.549465
-46.1516 -7.26525 472.775 -0.097637 0.84106 -0.532058
-26.5093 -14.1278 460.043 -0.221919 0.55494 -0.801744
-47.0175 -9.36109 469.008 -0.101882 0.823076 -0.558718
-22.9381 -15.8546 458.236 0.035255 0.354521 -0.934383
-25.4568 -15.3554 459.423 -0.188864 0.473428 -0.860347
-27.9756 -14.8561 460.609 -0.259857 0.497832 -0.827429
-30.4943 -14.3568 461.795 -0.23353 0.498655 -0.834749
-20.5261 -16.7018 458.094 0.237975 0.107144 -0.965344
0.986163 -22.7227 497.881 0.824914 -0.55806 -0.0899184
-35.2593 -15.4062 462.235 -0.203765 0.342527 -0.917145
-19.2094 -19.0424 458.691 0.501008 -0.25775 -0.826169
-25.1717 -17.9912 457.524 -0.086733 0.211863 -0.973443
-30.0962 -16.9446 459.935 -0.318933 0.327082 -0.88955
-0.260561 -24.4838 499.572 0.817357 -0.57056 -0.0799326
-1.27186 -24.605 496.97 0.817552 -0.570455 -0.0786803
-20.0631 -21.1718 460.023 0.619008 -0.4713 -0.628257
-25.0102 -20.191 456.625 -0.0180606 0.0112736 -0.999773
-32.224 -18.7104 459.954 -0.330276 0.20578 -0.92118
-34.7683 -18.1988 460.893 -0.274387 0.211654 -0.938038
-1.09976 -26.4659 501.21 0.801392 -0.59184 -0.0865843
-2.22263 -28.1592 503.192 0.791866 -0.604227 -0.0886463
-3.3006 -28.3559 500.142 0.784386 -0.615051 -0.0803189
-20.8437 -23.172 461.76 0.664532 -0.614299 -0.42548
-22.2056 -22.8931 459.382 0.539974 -0.531451 -0.652677
-23.8144 -22.7973 457.19 0.272434 -0.351786 -0.895559
-33.7751 -20.7953 460.91 -0.317713 0.0973365 -0.943177
-44.7487 -18.2167 463.876 -0.173184 0.0714754 -0.982293
-42.8159 -22.6782 462.551 -0.213149 -0.046896 -0.975894
-22.4257 -43.3767 475.407 0.978961 0.200275 0.0390642
-22.8134 -45.7463 483.731 0.992041 0.0517431 0.114796
-21.486 -46.5079 482.655 0.983613 0.126261 0.128698
-22.036 -47.4399 483.566 0.984084 0.0681085 0.164137
-20.666 -50.1378 478.336 0.989633 -0.114136 0.0871745
-22.5989 -54.0415 475.369 0.815982 -0.540543 -0.204907
-23.1894 -44.1873 485.649 0.98411 -0.160028 0.076938
-23.4501 -41.8057 487.746 0.902151 -0.427265 -0.0597376
-23.5627 -40.1145 489.043 0.751609 -0.634646 -0.179748
-40.0099 -27.7222 463.233 -0.184249 0.0320384 -0.982357
-41.3594 -25.033 462.608 -0.233025 -0.0822863 -0.968983
-39.2985 -25.4575 462.198 -0.241656 -0.0717944 -0.967702
8.52994 -6.08935 504.088 0.981832 0.172098 -0.0799274
8.88186 -6.57953 506.728 0.992695 0.108077 -0.053635
8.05598 -5.22064 501.03 0.971451 0.223705 -0.0789867
7.94441 -3.61034 505.174 0.924831 0.370782 -0.0849012
7.68985 -4.08503 499.774 0.897458 0.427253 -0.109652
6.0899 -1.27548 502.782 0.789043 0.605463 -0.104049
6.77789 -1.48894 505.176 0.843776 0.526459 -0.104321
8.96117 62.1022 680.334 -0.210537 -0.977335 0.0221387
-80.3137 117.527 545.83 -0.130007 -0.74751 -0.651404
-109.611 131.225 515.788 0.00546507 -0.862662 -0.505751
-64.9754 123.119 537.096 -0.169085 0.101602 -0.98035
-107.619 131.339 514.912 0.054418 -0.860436 -0.506644
-96.0734 129.746 520.99 0.096535 -0.858356 -0.503891
-97.5535 130.758 517.983 0.0817927 -0.812681 -0.57694
-65.9744 124.01 534.768 -0.00226548 -0.747214 -0.664579
-65.6525 124.932 535.906 0.164947 -0.80113 -0.575311
-146.861 148.52 526.364 -0.04693 -0.864319 -0.50075
-63.8354 125.251 535.134 0.172571 -0.780407 -0.600985
-148.112 149.461 524.155 0.0121815 -0.885033 -0.465369
-98.7311 131.472 516.025 0.0951216 -0.816065 -0.570078
-99.9759 133.048 514.826 0.103036 -0.836414 -0.538326
-61.0932 126.26 536.177 0.264633 -0.773513 -0.575889
-60.1996 125.768 537.86 0.113114 -0.387863 -0.91475
-149.328 150.193 521.826 0.0386325 -0.889232 -0.455822
-150.588 150.524 519.573 0.0487272 -0.881622 -0.469433
-148.158 151.64 519.767 0.00180656 -0.893668 -0.448724
-97.7837 133.37 514.146 0.100517 -0.849325 -0.518212
-102.442 134.466 510.257 0.0347573 -0.881118 -0.471618
-95.4218 134.496 514.529 0.0716287 -0.851445 -0.519529
-103.618 136.185 508.889 0.00362022 -0.880644 -0.473764
-104.854 137.111 507.113 -0.0483955 -0.876398 -0.479149
-102.777 137.703 506.778 -0.061896 -0.900607 -0.430205
-98.9757 135.865 507.192 0.00305655 -0.929742 -0.368199
-100.277 137.193 506.118 -0.0550995 -0.91534 -0.398894
-163.239 157.644 507.135 -0.268446 -0.856748 -0.440363
-97.6913 137.296 504.821 0.0218274 -0.903869 -0.427252
-164.865 159.029 506.472 -0.353535 -0.835007 -0.421634
-163.434 158.756 505.41 -0.242989 -0.848076 -0.470876
-160.439 158.446 504.313 -0.0316726 -0.866334 -0.498459
-119.889 145.421 506.536 -0.78582 -0.203119 -0.584149
-109.656 141.391 500.172 -0.153077 -0.829528 -0.537076
-163.065 161.25 501.266 -0.277706 -0.667444 -0.69094
-159.962 164.325 499.478 -0.0162259 -0.339934 -0.940309
-160.786 165.562 498.05 -0.0511207 -0.213925 -0.975511
-158.557 166.611 498.548 0.102541 0.0052179 -0.994715
-115.009 151.806 497.348 -0.795106 -0.169765 -0.582225
-130.43 162.379 502.305 0.0337521 -0.736136 -0.675991
-131.559 163.404 500.319 0.0704829 -0.506185 -0.85954
-118.88 160.386 500.131 -0.622869 -0.307359 -0.719419
-129.064 164.58 500.345 0.066445 -0.350214 -0.93431
-70.2603 145.752 495.436 0.137927 -0.839071 -0.526248
-147.398 174.374 502.116 0.0265114 0.355756 -0.934203
-121.852 165.208 499.518 -0.304746 -0.186558 -0.933984
-110.987 158.307 490.506 -0.792309 -0.108926 -0.600318
-122.486 167.281 500.25 -0.221293 -0.0118641 -0.975135
-116.397 163.379 496.273 -0.701181 -0.112235 -0.704094
-112.175 160.559 492.093 -0.781401 -0.0763308 -0.619343
-71.4711 146.801 493.267 0.134513 -0.86414 -0.484942
-144.994 175.891 502.787 0.0373071 0.358934 -0.932617
-119.623 166.695 499.549 -0.431724 -0.00548181 -0.901989
-69.2602 147.348 493.515 0.105798 -0.875524 -0.47145
-147.696 176.958 503.346 0.0299087 0.359248 -0.932763
-117.483 166.119 497.874 -0.580167 -0.0309805 -0.813908
-123.738 169.414 500.487 -0.117973 0.176839 -0.977144
-66.7636 147.878 492.271 0.0307629 -0.892088 -0.450813
-142.481 177.39 503.278 0.0154815 0.356494 -0.934169
-140.416 178.977 504.044 0.00337567 0.355801 -0.934556
-77.4221 152.416 483.886 0.0439655 -0.888443 -0.456877
-76.8344 153.37 481.922 0.0539558 -0.911101 -0.408636
-80.1914 153.137 479.107 0.069048 -0.883723 -0.462888
-81.4925 154.466 478.033 0.0302545 -0.86329 -0.5038
-106.551 166.764 483.72 -0.82774 -0.0901348 -0.553825
-78.8242 154.96 476.746 0.020337 -0.876787 -0.480448
-76.6016 155.49 477.533 0.00903619 -0.90817 -0.418504
-70.2416 155.153 478.028 -0.00133448 -0.891834 -0.452362
-130.668 186.839 505.625 -0.0445631 -0.530689 -0.846395
-71.5819 155.315 475.114 0.0211959 -0.866186 -0.499273
-69.2811 156.454 475.473 0.0358847 -0.854679 -0.517915
-66.7642 156.027 475.349 0.0614719 -0.842857 -0.534615
-131.63 187.874 503.357 -0.0287164 -0.749352 -0.661549
-131.975 188.041 500.025 -0.0512585 -0.822613 -0.566287
-128.79 188.297 503.309 -0.111912 -0.643283 -0.757405
-60.9273 156.84 476.863 0.147581 -0.790891 -0.593895
-59.8491 155.995 478.946 0.140826 -0.813722 -0.563937
-62.0106 157.609 474.239 0.195865 -0.76219 -0.617012
-63.0993 157.908 471.801 0.211138 -0.730746 -0.649177
-60.0855 158.187 475.554 0.142627 -0.748454 -0.647668
-64.4006 159.237 470.727 0.232598 -0.663806 -0.710816
-62.2953 159.53 470.416 0.299486 -0.48259 -0.823052
-67.1704 162.613 468.482 0.35458 -0.276778 -0.893122
-65.0108 164.071 469.082 0.416718 -0.0392146 -0.90819
-50.7397 164.836 477.847 0.515342 0.498122 -0.69735
-27.0114 163.507 495.492 0.416115 0.697807 -0.583021
-47.5631 165.944 481.176 0.489056 0.639529 -0.593151
-29.7912 164.492 495.92 0.430714 0.713891 -0.552128
-51.3704 168.943 481.945 0.529563 0.702729 -0.475116
-39.8158 167.785 490.67 0.39832 0.77065 -0.497433
-40.0499 169.814 492.972 0.3922 0.779315 -0.488721
-35.1394 169.355 496.567 0.418465 0.742589 -0.522923
-39.1002 171.55 496.788 0.38516 0.760066 -0.523403
-30.6086 170.636 501.715 0.282442 0.602389 -0.746562
-28.0191 171.526 503.092 0.173578 0.49589 -0.850861
-51.6909 179.236 499.977 0.348128 0.78572 -0.511323
-71.505 110.873 534.455 -0.631376 0.326209 -0.703528
-73.5179 112.565 537.899 -0.639858 0.295261 -0.709508
-71.6791 108.382 533.448 -0.629785 0.326264 -0.704928
-56.2301 87.1986 516.154 -0.311082 0.396747 -0.863609
-55.6711 85.0719 514.864 -0.295504 0.398079 -0.868453
-54.7221 83.3553 514.229 -0.269443 0.394007 -0.878726
-58.1898 85.5711 516.05 -0.311113 0.415837 -0.854569
-59.3015 84.252 516.774 -0.337712 0.427474 -0.83858
-72.8122 84.3167 525.153 -0.61583 0.304638 -0.726601
-71.2199 73.9654 517.715 -0.595633 0.41551 -0.68744
8.51318 -7.95783 503.996 0.99582 -0.00820799 -0.0909689
8.92038 -8.36488 506.297 0.996905 -0.0391746 -0.0681625
7.66228 -9.86114 499.337 0.981338 -0.163458 -0.101274
8.6973 -10.404 510.757 0.980301 -0.19612 0.0233909
8.51334 -12.4716 512.923 0.942635 -0.332725 0.027093
6.97364 -13.202 502.091 0.916377 -0.392265 -0.0798812
7.33656 -14.2983 514.003 0.904696 -0.426022 0.00555229
-18.0527 -9.85758 462.714 0.128055 0.729528 -0.671856
-28.4711 -7.79016 467.542 -0.098309 0.829024 -0.550504
-38.0879 -5.89485 472.459 -0.133591 0.829808 -0.541823
-17.7572 -11.6531 460.725 0.259722 0.521936 -0.812482
-20.192 -11.0746 461.494 0.041708 0.671369 -0.739949
-28.0016 -9.45413 465.024 -0.124096 0.777203 -0.616892
-30.3906 -8.62833 466.348 -0.104597 0.806256 -0.582246
-38.2735 -7.84095 470.355 -0.118494 0.839197 -0.530761
-40.3058 -7.42708 470.924 -0.105995 0.844227 -0.525401
-48.0124 -5.56711 474.853 -0.0973549 0.836229 -0.53967
-50.6956 -5.36754 475.816 -0.0594552 0.825016 -0.561973
-17.3932 -13.985 459.107 0.436217 0.176673 -0.882327
-22.6503 -12.305 460.726 -0.075893 0.635844 -0.768078
-27.7466 -11.3938 463.01 -0.156983 0.692222 -0.704404
-32.7801 -10.1376 465.282 -0.143655 0.727148 -0.671281
-37.9033 -9.1275 467.889 -0.10708 0.794822 -0.59732
-42.6259 -8.19134 470.112 -0.103133 0.844735 -0.525153
-47.9725 -7.40277 473.181 -0.0872941 0.846697 -0.524866
-35.1179 -11.4023 464.222 -0.135524 0.647838 -0.749626
-37.3501 -10.9818 466.05 -0.0964665 0.733241 -0.673091
-40.1553 -10.4037 466.594 -0.0876941 0.757718 -0.646664
-42.674 -9.90446 467.78 -0.101419 0.792332 -0.601602
-44.2766 -9.60882 469.312 -0.0974708 0.827077 -0.553573
-52.9436 -6.30444 475.146 -0.0308926 0.831903 -0.554061
-20.1064 -15.0202 458.165 0.220087 0.235453 -0.946638
-47.7115 -8.90589 470.153 -0.0979494 0.837095 -0.538217
-52.7489 -7.90732 472.525 -0.0680983 0.84019 -0.537999
-55.2677 -7.40804 473.711 -0.0636301 0.81376 -0.577707
-22.4459 -14.5185 458.96 0.0223037 0.43833 -0.898537
-24.8599 -13.9672 460.106 -0.159651 0.563892 -0.81027
-27.2055 -13.5688 460.98 -0.209587 0.577938 -0.788708
-30.0501 -12.9347 462.42 -0.195438 0.581022 -0.790074
-32.6846 -12.4764 463.338 -0.179103 0.597134 -0.781891
-26.9297 -15.7724 459.361 -0.253836 0.42528 -0.868737
-48.0722 -11.1742 466.295 -0.150009 0.648225 -0.746527
-26.5817 -17.8056 458.065 -0.212317 0.270991 -0.938874
-29.0594 -17.4459 459.06 -0.318445 0.306392 -0.89706
-46.9355 -15.2453 464.352 -0.187186 0.262211 -0.946682
-52.5735 -14.2195 465.437 -0.284632 0.34286 -0.895227
-2.84083 -28.5792 504.585 0.790413 -0.607281 -0.0803532
-21.1782 -23.5346 463.52 0.645728 -0.661645 -0.381132
-46.7764 -17.8614 463.472 -0.210691 0.0623375 -0.975563
-49.0147 -17.1382 463.684 -0.24134 0.104605 -0.964786
-51.4817 -16.3944 464.877 -0.317069 0.120675 -0.940694
-54.2826 -16.0283 466.423 -0.353228 0.155242 -0.922567
-21.5672 -45.3296 477.771 0.977274 0.197658 0.0765915
-20.5272 -48.6478 478.847 0.996079 0.0282907 0.0838281
-24.1534 -54.8783 473.207 0.714862 -0.645177 -0.269663
-44.7198 -34.8267 460.437 -0.454176 0.496092 -0.740012
-42.2276 -34.9737 459.047 -0.303395 0.523837 -0.795956
-39.5371 -35.5094 457.866 -0.0825363 0.472896 -0.877244
-44.6869 -32.8466 462.484 -0.439012 0.440045 -0.783345
-39.9986 -33.5065 459.79 -0.12756 0.595202 -0.793387
-42.4036 -30.9006 463.366 -0.270341 0.288264 -0.918597
-40.2273 -31.7294 461.929 -0.140507 0.458811 -0.877354
-40.3546 -29.3657 463.661 -0.199046 0.142842 -0.969524
8.74563 -5.55557 507.694 0.983784 0.176617 -0.0312291
7.8689 -3.6541 507.28 0.952219 0.301732 -0.0472891
8.65622 -4.07544 510.254 0.974252 0.221663 -0.0412033
7.99376 -2.43768 511.53 0.940257 0.339805 -0.0211937
6.19503 -0.907964 507.066 0.818307 0.571673 -0.0596936
5.19923 0.352464 506.107 0.76845 0.631006 -0.106375
5.25753 0.26382 508.798 0.808639 0.584881 -0.0633803
-82.1461 117.935 545.139 -0.0477898 -0.808734 -0.58623
-67.4203 119.678 536.05 -0.41118 0.217407 -0.885249
-65.3597 119.28 534.692 -0.402414 0.322682 -0.856703
-64.899 121.693 536.341 -0.231302 0.21638 -0.948514
-96.8645 128.552 520.937 0.104105 -0.864017 -0.492582
-106.515 132.143 514.388 0.0790282 -0.857271 -0.508764
-156.711 150.77 520.519 0.0854236 -0.864464 -0.495383
-104.686 132.796 513.781 0.0871909 -0.850208 -0.519177
-154.592 151.203 519.496 0.105191 -0.85988 -0.499542
-102.075 133.257 514.075 0.112448 -0.851397 -0.512327
-152.862 152.023 519.733 0.076842 -0.872413 -0.482691
-103.014 134.551 511.536 0.0734371 -0.8626 -0.500528
-56.0996 125.941 537.219 -0.0237904 0.00727551 -0.99969
-153.806 152.48 517.873 0.0631869 -0.86876 -0.491185
-56.8089 127.123 536.902 0.114952 -0.777781 -0.617935
-161.865 154.642 512.581 -0.254385 -0.849947 -0.461387
-94.6984 134.793 513.073 0.0469377 -0.870803 -0.489386
-157.558 155.278 512.1 0.0592327 -0.880562 -0.470216
-92.3159 135.317 512.853 -0.0022071 -0.889987 -0.455981
-161.997 156.833 508.428 -0.184006 -0.874581 -0.448609
-96.8378 135.389 507.998 0.0687839 -0.939785 -0.334774
-93.5818 135.9 510.763 0.0456882 -0.925018 -0.377165
-94.7128 136.574 508.077 0.0915524 -0.940782 -0.326415
-159.689 156.885 507.404 0.00364139 -0.894064 -0.447923
-95.6847 137.008 505.409 0.0893278 -0.915149 -0.393095
-160.513 158.122 505.976 -0.059239 -0.87114 -0.487449
-162.222 159.165 503.594 -0.184445 -0.820941 -0.540403
-116.548 143.805 502.507 -0.697085 -0.376672 -0.610075
-114.809 142.486 500.01 -0.548339 -0.541841 -0.636971
-112.29 141.987 498.824 -0.331328 -0.739588 -0.58586
-117.393 146.011 503.156 -0.779116 -0.223728 -0.585597
-157.475 159.992 502.999 0.109613 -0.821234 -0.559965
-113.709 144.35 498.19 -0.567983 -0.51009 -0.645913
-155.428 160.215 502.404 0.146062 -0.804095 -0.576278
-152.659 160.929 502.925 0.0868791 -0.799056 -0.594947
-114.211 146.509 497.9 -0.714024 -0.331059 -0.616904
-153.573 161.414 500.359 0.108463 -0.674566 -0.730203
-155.198 163.658 499.477 0.0816863 -0.445188 -0.891703
-156.372 166.143 498.748 0.115274 -0.0430334 -0.992401
-147.295 172.492 501.579 0.0203734 0.35476 -0.934735
-77.7442 146.101 492.605 -0.0345003 -0.842316 -0.537878
-126.398 166.072 499.944 -0.0196871 -0.133158 -0.990899
-75.686 146.683 492.796 0.0142219 -0.866401 -0.499146
-73.2186 147.047 492.463 0.109249 -0.884059 -0.454428
-123.952 167.431 499.884 -0.125886 0.0281394 -0.991646
-108.662 158.921 487.596 -0.801703 -0.106695 -0.588122
-77.6563 148.236 488.802 -0.0734826 -0.823277 -0.562864
-75.8917 149.219 489.044 -0.0503843 -0.822389 -0.566691
-121.648 168.972 500.474 -0.213066 0.115089 -0.970236
-119.301 168.496 499.757 -0.445092 0.076553 -0.892206
-109.165 161.08 487.306 -0.804493 -0.0862457 -0.587668
-125.698 171.757 500.988 -0.0309019 0.288892 -0.956863
-80.968 152.074 486.336 0.152561 -0.888352 -0.433076
-77.0142 150.202 486.808 -0.0696569 -0.827838 -0.556625
-129.91 174.656 502.29 0.0125642 0.363896 -0.931355
-78.5527 151.784 485.742 0.0666131 -0.879536 -0.471147
-90.5898 154.334 478.442 0.00878026 -0.786842 -0.617092
-138.852 179.149 504.341 -0.00213275 0.361897 -0.932216
-127.59 175.978 503.286 -0.0244483 0.356117 -0.934122
-87.9582 154.472 477.977 0.00218133 -0.80516 -0.593054
-89.3369 156.164 476.679 -0.014318 -0.832874 -0.553278
-85.0777 154.223 477.266 -0.00250697 -0.834145 -0.55154
-83.3822 154.889 477.214 0.00903597 -0.850618 -0.525707
-84.5884 156.223 475.215 -0.0257874 -0.871714 -0.489336
-85.5653 157.494 473.73 -0.0235986 -0.886137 -0.462823
-131.002 185.114 505.854 -0.0427154 -0.293361 -0.955047
-61.1733 152.531 481.19 0.0810535 -0.877028 -0.473553
-59.2861 152.768 480.376 0.131579 -0.839176 -0.527704
-60.1121 154.617 479.024 0.149234 -0.796754 -0.585588
-58.5061 153.589 481.687 0.157211 -0.843021 -0.514392
-61.7768 154.662 477.24 0.14213 -0.809404 -0.569793
-66.4624 157.902 474.568 0.0864296 -0.814509 -0.573677
-63.8046 157.989 474.204 0.179525 -0.77438 -0.606718
-59.1038 158.498 473.293 0.238176 -0.675528 -0.697807
-60.8654 159.164 470.957 0.267348 -0.531697 -0.803632
-56.757 160.171 473.477 0.313859 -0.382451 -0.869036
-54.25 159.827 473.345 0.369662 -0.24704 -0.895724
-56.1365 161.867 472.555 0.404496 -0.0830614 -0.91076
-39.9603 160.464 482.043 0.499235 0.299883 -0.812917
-52.5381 163.241 475.402 0.467737 0.324963 -0.821962
-41.7858 162.311 482.046 0.492296 0.484352 -0.72322
-50.8723 164.391 476.488 0.509689 0.40981 -0.756487
-40.0897 162.928 483.702 0.465583 0.514638 -0.719986
-45.7042 165.184 482.071 0.463248 0.638649 -0.614434
-40.0567 164.908 485.749 0.419594 0.669997 -0.612409
-42.3308 166.407 485.909 0.412274 0.718617 -0.560018
-40.5361 165.978 487.653 0.401635 0.737466 -0.542985
-31.2853 166.812 497.391 0.419209 0.725977 -0.54518
-28.8043 166.291 497.258 0.391331 0.714064 -0.580494
-33.0251 168.212 497.041 0.423769 0.735441 -0.528721
-31.8632 168.928 499.208 0.378051 0.698349 -0.607772
-53.5788 170.909 483.173 0.600559 0.699307 -0.387683
-30.0143 169.51 500.922 0.287252 0.619429 -0.730612
-40.8231 173.9 498.885 0.339156 0.755602 -0.560392
-49.7058 178.795 500.725 0.313658 0.760724 -0.568258
-47.2791 177.262 500.622 0.313672 0.763428 -0.564612
-40.3863 174.766 501.134 0.282227 0.689263 -0.667282
-73.9352 107.257 535.875 -0.65877 0.316361 -0.682596
-53.9095 94.9796 518.931 -0.252473 0.391476 -0.884875
-73.9403 102.229 532.922 -0.64477 0.297246 -0.704213
-51.9207 90.8637 517.017 -0.240452 0.389423 -0.889119
-57.7381 91.0419 518.079 -0.310863 0.358825 -0.880118
-51.5834 88.4449 515.661 -0.236731 0.404244 -0.883485
-56.2276 89.7125 517.63 -0.313645 0.372869 -0.873267
-54.4193 88.6784 516.566 -0.292075 0.383615 -0.876089
-50.9042 86.0366 513.789 -0.234563 0.390675 -0.890142
-59.3078 89.8246 518.63 -0.330725 0.356287 -0.873888
-71.4974 94.7003 527.789 -0.608161 0.301329 -0.734399
-50.7371 83.5843 512.478 -0.247913 0.381476 -0.890514
-53.1179 84.7356 513.682 -0.263949 0.383785 -0.884896
-61.4051 87.9642 518.754 -0.363851 0.378342 -0.851158
-60.812 85.5814 517.222 -0.349662 0.411932 -0.841456
-68.3504 80.9619 520.021 -0.575027 0.360756 -0.734302
-67.9744 79.4029 518.103 -0.565397 0.403944 -0.719135
-69.7485 79.7216 520.103 -0.574148 0.387171 -0.721424
-71.9365 78.0843 522.048 -0.596259 0.361691 -0.716697
-22.1956 -8.07022 466.654 -0.0625994 0.837712 -0.542512
7.69735 -13.7929 508.514 0.906607 -0.420023 -0.040546
-22.6324 -8.93654 464.405 -0.0904484 0.819744 -0.565543
-42.1544 -4.12851 476.57 -0.115994 0.805179 -0.581577
-22.8024 -10.7306 462.832 -0.116014 0.747385 -0.654184
-25.7374 -10.3095 463.869 -0.135939 0.744574 -0.653552
-43.3493 -6.82378 472.357 -0.0959395 0.841516 -0.531645
-45.5626 -6.39238 473.658 -0.103295 0.835049 -0.540392
-22.2403 -16.4914 457.457 0.0964293 0.237919 -0.966486
-32.2963 -14.4834 461.675 -0.228715 0.412348 -0.88185
-43.4218 -12.1972 464.066 -0.103367 0.531187 -0.840925
-53.4395 -10.2078 468.654 -0.171998 0.709427 -0.683469
-19.1533 -19.6021 459.982 0.641553 -0.412454 -0.646755
-24.1319 -18.6309 456.87 0.0184102 0.135521 -0.990603
-31.6813 -16.6914 460.257 -0.297714 0.3252 -0.897558
-34.2842 -16.3417 460.905 -0.261711 0.301731 -0.916769
-0.812089 -24.8283 501.412 0.815098 -0.572813 -0.0866062
-1.75382 -26.049 497.397 0.805806 -0.58758 -0.0736628
-25.7017 -19.8482 457.421 -0.103057 0.0994555 -0.989691
-30.7736 -19.0126 459.789 -0.352764 0.218795 -0.909773
-1.55842 -26.3236 499.614 0.798351 -0.596517 -0.0824852
-22.0041 -22.1757 457.822 0.516841 -0.393115 -0.760484
-2.96892 -27.8571 498.107 0.791692 -0.606077 -0.0767673
-23.4704 -22.904 458.387 0.423897 -0.475488 -0.770859
-39.7305 -21.269 461.953 -0.238794 0.029426 -0.970624
-38.8084 -23.5118 462.045 -0.252373 -0.0611377 -0.965697
-41.0648 -23.1871 462.625 -0.220598 -0.0615282 -0.973422
-22.1731 -43.6591 477.467 0.975719 0.203872 0.0800553
-23.338 -45.2539 488.312 0.986732 -0.162305 0.00419854
-23.5679 -45.1423 486.09 0.994159 -0.0911684 0.057766
-22.0453 -45.1578 475.278 0.983109 0.181544 0.0231998
-20.1512 -50.2068 476.929 0.991533 -0.129856 0.000124209
-21.04 -49.926 473.659 0.969082 -0.208897 -0.13131
-21.453 -51.9426 475.739 0.938926 -0.328131 -0.103674
-22.1119 -54.4696 479.619 0.88176 -0.47165 0.00683139
-22.3872 -54.0166 477.719 0.85581 -0.505764 -0.108587
-23.4419 -56.2219 479.218 0.778518 -0.614804 -0.126198
-23.3158 -43.5867 483.441 0.996718 -0.0091469 0.0804336
-22.4455 -41.6111 479.399 0.999505 0.0308615 0.006185
-21.004 -40.7538 492.498 0.612189 -0.754309 -0.237156
-19.4841 -38.9731 490.479 0.533092 -0.803207 -0.26584
-18.338 -39.2884 493.046 0.511581 -0.822682 -0.24795
-43.2115 -24.6014 462.708 -0.235615 -0.0881627 -0.967839
8.31216 -6.66482 513.986 0.994007 -0.000625639 0.109316
8.4221 -6.35624 502.285 0.979902 0.185592 -0.0731215
6.21466 -1.75464 500.719 0.790858 0.603594 -0.101085
-4.19252 64.3955 661.553 -0.114315 -0.992657 -0.0395426
-76.5143 115.81 541.974 -0.574572 -0.16356 -0.801945
-104.011 130.492 517.872 0.0397154 -0.856907 -0.513939
-63.2143 122.854 536.9 -0.219093 0.360014 -0.906856
-99.4528 130.563 517.404 0.08422 -0.814559 -0.573934
-150.054 149.682 523.647 0.0340545 -0.897133 -0.440445
-97.3568 131.167 516.542 0.0782544 -0.810899 -0.57993
-61.9341 125.17 535.834 0.284835 -0.686287 -0.669238
-60.8646 124.892 537.66 -0.0696991 -0.0221735 -0.997322
-94.6188 131.939 516.973 0.0625932 -0.805443 -0.589358
-147.457 149.767 522.887 0.0242575 -0.897717 -0.439904
-144.922 150.258 522.724 -0.0373112 -0.884667 -0.464728
-146.435 151.047 520.64 -0.00580001 -0.899585 -0.436707
-95.7985 132.929 514.894 0.0722494 -0.831135 -0.551357
-104.427 134.907 509.509 0.0413166 -0.858632 -0.510925
-101.853 135.379 509.717 0.0322262 -0.899812 -0.435086
-96.8247 134.723 513.365 0.105413 -0.869875 -0.481877
-99.4412 135.411 508.643 0.0152178 -0.927274 -0.374073
-122.935 143.898 510.826 -0.795435 -0.173406 -0.580701
-166.787 158.281 511.135 -0.406606 -0.805807 -0.430518
-164.651 157.887 509.093 -0.37646 -0.823201 -0.424991
-101.25 137.364 507.353 -0.0365253 -0.9121 -0.408338
-102.128 137.589 505.955 -0.0697764 -0.897722 -0.435001
-103.188 138.518 502.75 -0.106688 -0.8829 -0.457279
-121.491 145.716 508.067 -0.795896 -0.163593 -0.582913
-166.833 160.46 506.748 -0.410343 -0.803548 -0.431195
-154.924 157.934 506.964 0.125621 -0.86229 -0.490586
-165.413 163.368 501.795 -0.3258 -0.578882 -0.747496
-164.017 162.094 500.236 -0.310506 -0.602522 -0.735223
-162.452 161.777 499.758 -0.219798 -0.607356 -0.763419
-160.109 162.72 499.503 -0.0247288 -0.475317 -0.879467
-162.422 167.432 498.426 -0.0705485 -0.0513289 -0.996187
-128.567 162.061 502.812 -0.0387234 -0.725608 -0.687018
-125.976 162.171 502.155 -0.144994 -0.638674 -0.755694
-127.428 163.882 500.741 -0.00895845 -0.441753 -0.897092
-124.001 161.785 501.031 -0.26562 -0.559878 -0.784845
-121.332 162.231 501.453 -0.436667 -0.411553 -0.799966
-114.913 157.99 494.948 -0.777305 -0.140075 -0.613332
-116.274 160.264 497.004 -0.737915 -0.146466 -0.658809
-128.659 166.374 500.168 0.0467637 -0.136001 -0.989604
-68.4701 145.793 496.089 0.087945 -0.836383 -0.541045
-116.947 162.447 497.183 -0.691875 -0.127948 -0.71059
-130.272 168.931 500.164 0.052794 0.109998 -0.992529
-66.1101 146.603 496.303 0.0425926 -0.859863 -0.508745
-65.5158 145.477 495.51 0.0235995 -0.866206 -0.499129
-143.167 175.756 502.929 0.0223516 0.356236 -0.934129
-67.2061 147.233 494.272 0.0410915 -0.871636 -0.488429
-147.013 178.335 503.794 0.0276006 0.354122 -0.934792
-144.523 177.819 503.398 0.0338819 0.355681 -0.933993
-68.2824 148.014 491.602 0.091267 -0.903773 -0.418169
-144.962 179.678 504.212 0.0361003 0.346063 -0.937517
-71.2888 148.99 486.83 0.0291987 -0.868601 -0.494651
-110.49 164.356 489.859 -0.794998 -0.0448447 -0.604952
-83.2602 152.705 481.203 0.128048 -0.868512 -0.478843
-80.6392 153.184 480.806 0.117774 -0.892316 -0.435777
-75.866 153.855 480.121 0.0367589 -0.919047 -0.392431
-77.3926 154.639 477.392 0.0325794 -0.905237 -0.423656
-78.5411 155.933 476.376 0.00591466 -0.878138 -0.47837
-68.5716 154.169 478.616 -0.0463356 -0.885861 -0.461631
-65.9746 154.122 477.406 0.0567067 -0.849304 -0.524849
-139.374 187.547 500.541 -0.0529478 -0.6848 -0.726805
-136.019 188.391 503.432 -0.0710072 -0.764948 -0.640167
-71.1212 155.459 473.783 0.0393024 -0.843287 -0.536025
-67.2241 156.201 476.238 0.0690995 -0.84179 -0.535364
-133.081 188.217 502.099 -0.0708352 -0.820574 -0.567133
-68.7739 156.73 474.58 0.0396451 -0.840871 -0.539781
-130.677 187.733 501.226 -0.0265894 -0.758458 -0.651179
-128.425 187.283 500.295 -0.18415 -0.820415 -0.541302
-128.104 188.205 501.433 -0.221776 -0.823373 -0.522371
-61.0707 156.267 478.486 0.124275 -0.808509 -0.575213
-58.9735 156.434 477.57 0.138588 -0.790478 -0.596606
-56.1695 156.292 477.08 0.112554 -0.787219 -0.606314
-58.4058 157.813 476.187 0.154352 -0.7527 -0.640014
-68.7681 159.153 470.199 0.0934858 -0.767225 -0.634529
-66.5383 159.712 469.921 0.208402 -0.686062 -0.697056
-67.5843 160.657 468.427 0.279173 -0.491007 -0.825212
-62.3185 161.364 470.318 0.362244 -0.275462 -0.890449
-61.7405 162.741 471.528 0.371265 -0.137332 -0.918315
-63.2789 163.625 469.856 0.413374 -0.0215555 -0.910306
-45.1565 161.482 478.722 0.506678 0.270107 -0.81873
-49.1004 164.133 478.393 0.520193 0.518756 -0.678448
-32.3116 165.113 492.835 0.478547 0.718067 -0.505344
-30.7074 164.696 495.574 0.449053 0.709432 -0.543192
-52.808 167.802 478.811 0.620606 0.58764 -0.51916
-47.8444 166.639 482.815 0.463207 0.713996 -0.525022
-48.1169 168.687 484.747 0.442707 0.753959 -0.485342
-39.935 169.758 494.083 0.392306 0.779632 -0.488129
-36.9624 171.075 497.593 0.404044 0.737759 -0.540796
-32.3261 170.988 502.135 0.310166 0.62846 -0.713327
-32.2466 172.578 503.152 0.24226 0.562379 -0.790594
-56.5773 180.322 498.137 0.424935 0.802191 -0.419428
-76.654 113.482 540.971 -0.649704 0.0119997 -0.760093
-74.0765 103.253 533.888 -0.647014 0.301043 -0.700532
-54.0773 93.0744 518.252 -0.262618 0.379914 -0.886959
-74.0791 100.739 532.411 -0.646183 0.288102 -0.706715
-51.3766 89.9539 516.195 -0.223094 0.401576 -0.888237
-53.3828 90.8323 517.017 -0.262647 0.384989 -0.88476
-71.2879 98.1922 529.294 -0.62062 0.283759 -0.730967
-56.2354 91.1296 518.198 -0.304194 0.358658 -0.882514
-58.4699 91.9347 519.1 -0.312631 0.346016 -0.88461
-74.0817 98.2255 530.935 -0.635549 0.284765 -0.717625
-53.011 88.5764 515.665 -0.263566 0.398947 -0.878279
-58.274 89.4645 517.605 -0.322523 0.366313 -0.872808
-51.5059 84.3393 513.225 -0.241204 0.382111 -0.892083
-72.0147 92.2554 527.72 -0.616582 0.310296 -0.723563
-61.6297 86.4857 518.477 -0.36775 0.381201 -0.848202
-60.6784 82.0436 514.779 -0.305038 0.477993 -0.823696
-69.4028 82.1895 520.641 -0.570038 0.339809 -0.748055
-67.2741 81.28 518.8 -0.536624 0.382701 -0.752047
-71.9037 76.5713 521.068 -0.606113 0.376756 -0.700487
8.05357 -12.2483 508.48 0.951263 -0.305422 -0.0426251
7.0451 -13.9569 510.149 0.911144 -0.411932 -0.0113564
-23.469 -9.78969 464.673 -0.0956061 0.811541 -0.57642
-24.5355 -10.5312 462.721 -0.138884 0.732106 -0.666883
-43.7222 -6.28441 474.148 -0.101184 0.835161 -0.540618
-44.3484 -11.5298 465.471 -0.124095 0.655743 -0.744716
-51.332 -10.1491 468.889 -0.123169 0.767363 -0.629273
-18.4606 -17.3618 459.948 0.573598 -0.253975 -0.778769
-31.2743 -15.1771 460.484 -0.276688 0.412219 -0.868055
-34.0984 -14.61 461.555 -0.216082 0.402805 -0.889414
-41.3488 -12.3015 464.297 -0.126835 0.543508 -0.829766
-22.7824 -18.3135 457.241 0.158225 0.0852172 -0.983719
-32.9475 -16.8834 461.021 -0.265886 0.319064 -0.909672
-43.6441 -13.9691 463.818 -0.116505 0.406096 -0.906373
-21.4218 -20.7654 457.833 0.491536 -0.259125 -0.831413
-36.1904 -19.807 462.11 -0.259816 0.115625 -0.958711
-2.54572 -27.6422 496.386 0.8006 -0.593127 -0.0850899
-26.15 -21.9671 457.361 -0.0507881 -0.168944 -0.984316
-31.1874 -20.9686 459.733 -0.371723 0.0995228 -0.922994
-38.2801 -21.5712 461.788 -0.265493 0.0322578 -0.963573
-40.9899 -21.0194 462.546 -0.212035 0.0258135 -0.976921
-40.0064 -22.5729 461.916 -0.244952 -0.00370586 -0.969528
-22.8586 -46.3239 486.408 0.997512 0.00931222 0.0698858
-21.619 -45.5232 472.965 0.99011 0.120699 -0.0715157
-20.6898 -49.8861 475.65 0.990463 -0.126583 -0.0544042
-20.5651 -52.1627 476.874 0.953355 -0.29979 -0.0351998
-21.5118 -51.5724 473.94 0.925401 -0.346409 -0.153733
-21.5618 -53.5376 478.708 0.925612 -0.376687 0.0367327
-22.6619 -55.4016 480.529 0.847106 -0.531305 -0.0112469
-23.5431 -55.7414 477.452 0.771567 -0.608873 -0.18428
-22.9045 -44.1447 482.02 0.989868 0.0991915 0.101599
-22.7559 -43.0781 479.358 0.989329 0.120627 0.0817096
-22.6981 -41.3288 477.339 0.997445 0.0680026 0.0219073
-20.5306 -39.7846 490.847 0.596556 -0.763888 -0.246163
-19.5666 -40.467 493.294 0.57032 -0.784588 -0.243223
-18.1935 -38.9186 490.949 0.465117 -0.848579 -0.252151
-43.508 -26.719 462.97 -0.257151 -0.0681681 -0.963964
7.7835 -3.17271 502.962 0.878992 0.466486 -0.0988142
6.2713 -1.72182 499.14 0.787559 0.604807 -0.11815
-3.27631 64.1918 661.898 -0.131829 -0.989781 -0.0543499
-67.2108 123.17 537.555 -0.151539 -0.463981 -0.872787
-105.843 130.899 517.182 0.0464395 -0.860205 -0.507829
-61.7834 122.581 535.838 -0.238869 0.300697 -0.923321
-101.159 131.289 516.567 0.0964936 -0.817434 -0.567882
-62.4961 124.435 537.085 0.13589 -0.30712 -0.941919
-59.9342 124.043 536.62 0.00617582 0.201785 -0.97941
-151.792 149.918 522.893 0.0736163 -0.899067 -0.431578
-94.6082 130.556 517.578 0.0601542 -0.820255 -0.568827
-96.3997 132.381 516.167 0.0783016 -0.809325 -0.582119
-145.777 149.394 523.52 -0.0341323 -0.881156 -0.471591
-146.907 150.699 521.977 0.00638816 -0.89634 -0.443322
-144.517 150.901 521.064 -0.0244767 -0.897214 -0.440917
-93.9661 132.522 515.584 0.028335 -0.824504 -0.565146
-106.107 135.281 508.876 0.0101153 -0.846752 -0.531892
-100.247 135.225 510.383 0.0644112 -0.908021 -0.413944
-99.066 134.709 512.546 0.0978887 -0.88942 -0.446487
-101.274 135.818 507.953 -0.0298863 -0.909759 -0.41406
-165.162 156.896 511.798 -0.361174 -0.826844 -0.43114
-121.332 143.603 509.295 -0.78181 -0.205934 -0.588527
-167.153 159.416 509.879 -0.407416 -0.807581 -0.42641
-104.113 138.03 505.207 -0.0849605 -0.879709 -0.46786
-101.319 137.997 503.566 -0.0809102 -0.890667 -0.4474
-157.004 158.198 505.977 0.124412 -0.868117 -0.480515
-107.136 140.811 501.833 -0.0617325 -0.879383 -0.472096
-164.979 161.72 502.568 -0.345241 -0.688873 -0.637387
-119.773 148 504.853 -0.799444 -0.169882 -0.576221
-160.467 161.335 500.506 -0.043437 -0.680138 -0.731796
-164.898 163.299 500.388 -0.333928 -0.51549 -0.789153
-161.612 163.327 498.924 -0.102805 -0.41421 -0.904357
-159.19 162.904 498.764 0.0057345 -0.436909 -0.899487
-163.314 165.468 498.622 -0.236089 -0.277148 -0.93137
-117.641 152.24 501.694 -0.79547 -0.176999 -0.579567
-161.953 166.846 497.56 -0.0384139 -0.100111 -0.994235
-126.784 161.273 503.769 -0.160065 -0.743305 -0.649521
-127.742 162.556 501.757 -0.053935 -0.657434 -0.751579
-121.253 161.174 502.067 -0.455279 -0.484039 -0.74728
-125.97 163.216 501.307 -0.112682 -0.502786 -0.857035
-122.818 163.084 500.468 -0.300235 -0.393971 -0.868703
-116.788 160.333 498.411 -0.70788 -0.19493 -0.678902
-130.7 166.599 499.716 0.0831077 -0.0584444 -0.994825
-120.758 162.564 499.834 -0.442041 -0.341578 -0.829412
-117.963 161.939 498.614 -0.641801 -0.204626 -0.739067
-113.447 158.718 494.383 -0.783086 -0.12548 -0.609123
-66.5492 145.153 496.613 0.0642052 -0.855486 -0.51383
-128.214 168.392 500.385 0.0463653 0.0526126 -0.997538
-68.2644 146.088 494.474 0.0861445 -0.85149 -0.517246
-67.9425 147.01 495.613 0.0845361 -0.841927 -0.532928
-65.4919 147.023 494.91 0.0177675 -0.869731 -0.493206
-70.1728 148.289 491.181 0.110727 -0.89682 -0.428315
-145.449 178.507 504.091 0.0314373 0.355483 -0.934154
-146.737 180.058 504.077 0.0278756 0.339947 -0.940031
-72.205 149.193 486.485 0.00761647 -0.862647 -0.50575
-81.4236 152.545 482.149 0.160372 -0.900992 -0.403106
-82.3858 153.58 479.881 0.0780892 -0.854272 -0.513928
-77.5839 154.237 479.474 0.0713717 -0.914249 -0.398816
-108.496 167.106 486.189 -0.822785 -0.0769756 -0.563116
-80.2701 156.829 475.699 0.0194772 -0.872756 -0.487768
-66.9224 153.803 479.238 -0.0328992 -0.881082 -0.471818
-140.518 187.741 502.244 -0.0716905 -0.687562 -0.722578
-67.8184 154.68 476.628 0.0334505 -0.86771 -0.495944
-134.044 187.748 504.186 -0.0605826 -0.739099 -0.670867
-65.575 155.835 476.859 0.0725243 -0.840327 -0.537207
-134.494 188.541 501.211 -0.0312018 -0.809597 -0.586157
-70.5054 156.858 473.94 0.0339665 -0.84151 -0.539173
-129.57 187.477 501.998 -0.0255904 -0.696855 -0.716756
-129.8 187.588 499.777 -0.0997702 -0.874245 -0.475123
-57.2916 156.116 478.143 0.125477 -0.810937 -0.571522
-67.1648 158.797 470.803 0.148013 -0.77077 -0.619682
-56.5734 157.406 476.877 0.122807 -0.761732 -0.636146
-68.3708 160.119 469.231 0.146636 -0.711346 -0.687375
-65.7518 160.25 469.117 0.296034 -0.46247 -0.835755
-63.7637 161.788 469.769 0.353043 -0.250992 -0.901312
-61.9474 161.763 471.5 0.329786 -0.245152 -0.91167
-63.2675 163.081 470.953 0.355342 -0.103976 -0.928936
-61.5992 163.252 470.489 0.392823 0.00878299 -0.919572
-47.3134 164.067 479.405 0.503623 0.536528 -0.677127
-31.2805 164.854 494.291 0.46691 0.708917 -0.528613
-52.9772 166.846 477.73 0.548497 0.55415 -0.626153
-50.7846 167.343 479.929 0.528379 0.642434 -0.555062
-52.7916 168.792 479.834 0.629465 0.62651 -0.459629
-49.7966 169.06 484.114 0.463789 0.753762 -0.465556
-35.9599 166.918 492.478 0.449072 0.753151 -0.480726
-34.3781 167.55 494.447 0.439395 0.741841 -0.506561
-33.8096 171.076 501.055 0.335734 0.658959 -0.673094
-35.9696 170.834 498.678 0.386327 0.725472 -0.569598
-34.142 172.385 502.469 0.304538 0.614691 -0.727607
-56.8992 179.4 496.998 0.438234 0.794963 -0.419506
-55.0503 179.983 498.712 0.403142 0.797987 -0.447989
-82.3743 117.925 547.188 -0.0174921 -0.811059 -0.584702
-70.6356 110.214 533.206 -0.61977 0.336418 -0.709019
-57.0794 85.1738 515.765 -0.303592 0.410604 -0.859789
-74.1345 90.1061 529.182 -0.630073 0.304037 -0.714541
-72.49 86.1173 525.36 -0.611325 0.299867 -0.732367
7.91632 -7.54855 500.027 0.995467 0.0357022 -0.0881468
8.78732 -10.1272 506.335 0.981935 -0.171536 -0.0798673
8.3054 -9.77376 503.476 0.984058 -0.159352 -0.0789716
7.43289 -11.5874 501.825 0.953388 -0.294924 -0.0638137
7.27498 -14.0686 512.37 0.909788 -0.41506 0.00329429
-18.26 -10.8113 461.832 0.163115 0.668226 -0.725856
-28.793 -8.7123 466.404 -0.110556 0.807095 -0.579978
-19.4981 -11.5298 460.349 0.116338 0.599758 -0.791679
-29.8595 -9.4538 464.451 -0.114305 0.752297 -0.648832
-38.7458 -7.0937 471.567 -0.121076 0.837938 -0.532165
-48.937 -4.99044 476.441 -0.0735397 0.820739 -0.566551
-21.7443 -13.0784 459.603 0.000359396 0.541295 -0.840832
-24.3776 -12.5476 460.532 -0.167196 0.627252 -0.760658
-26.6674 -12.0952 461.662 -0.188609 0.645328 -0.740256
-29.2315 -11.2546 463.17 -0.163206 0.67379 -0.720673
-32.0102 -11.0287 463.919 -0.166875 0.660761 -0.731811
-34.3777 -10.0536 465.226 -0.146176 0.722704 -0.675523
-36.6733 -9.77205 466.416 -0.126739 0.753437 -0.64519
-39.0322 -9.62942 466.967 -0.111812 0.760762 -0.639328
-41.8941 -9.08413 469.091 -0.102416 0.831595 -0.545858
-44.7182 -8.51697 470.163 -0.0917593 0.851139 -0.516858
-47.3896 -7.98375 471.291 -0.0854579 0.849772 -0.520177
-49.3359 -7.60162 472.337 -0.0732695 0.851844 -0.518646
-51.969 -7.087 473.836 -0.0537815 0.846304 -0.529978
-54.7241 -6.19386 474.916 -0.010303 0.817845 -0.575346
-18.2799 -15.1532 458.84 0.325727 0.152824 -0.933031
-44.1244 -9.60227 467.946 -0.0942863 0.820436 -0.563911
-23.9906 -14.627 458.857 -0.0846857 0.477041 -0.874791
-29.028 -13.6285 461.229 -0.211879 0.567581 -0.795588
-34.4891 -12.3651 463.434 -0.152253 0.590901 -0.792246
-39.0698 -10.8943 465.493 -0.0953636 0.692366 -0.715216
-49.275 -9.07791 469.856 -0.10223 0.827682 -0.551807
-54.6427 -8.18923 472.557 -0.0825687 0.823891 -0.560702
-47.0959 -10.9998 467.283 -0.122006 0.737422 -0.664322
-49.3858 -10.5312 467.843 -0.138588 0.741098 -0.656938
-48.9989 -12.5945 465.599 -0.163506 0.548365 -0.820099
-27.841 -17.556 458.658 -0.306678 0.292166 -0.905863
-49.7789 -13.4148 464.288 -0.20404 0.383177 -0.900857
-45.9672 -15.7374 463.664 -0.174504 0.223876 -0.958868
-48.5089 -15.0472 464.299 -0.19742 0.285593 -0.937796
-50.9133 -14.5632 465.173 -0.288269 0.289559 -0.912719
-53.8901 -13.9621 466.186 -0.320915 0.343057 -0.882794
-47.3079 -17.0056 464.302 -0.211005 0.110611 -0.971207
-52.9184 -15.8494 465.391 -0.315062 0.194164 -0.928998
-48.546 -17.7241 462.818 -0.230176 0.0446268 -0.972125
-21.7273 -45.8514 479.337 0.9768 0.177937 0.119162
-21.2135 -48.5558 480.723 0.984943 -0.000959683 0.172875
-21.0649 -47.4892 478.061 0.994799 0.0769473 0.0667329
-21.0543 -50.6694 481.951 0.98091 -0.101011 0.166171
-23.0129 -53.5833 473.117 0.794507 -0.554792 -0.24691
-24.4969 -55.7108 475.076 0.711963 -0.649985 -0.26576
-25.3986 -55.2741 472.416 0.685201 -0.669926 -0.285829
-41.3237 -35.4705 457.803 -0.238102 0.480067 -0.8443
-45.5697 -34.1964 462.583 -0.507901 0.427535 -0.74783
-41.5962 -33.4226 459.735 -0.259084 0.560349 -0.786692
-39.0775 -33.9218 458.548 -0.0750121 0.599366 -0.796953
-40.7681 -30.8891 463.377 -0.207708 0.305933 -0.929119
-42.2068 -28.9206 463.288 -0.254129 0.108368 -0.96108
8.90654 -5.9932 509.906 0.99242 0.121253 -0.0200194
8.60939 -4.5316 508.66 0.962451 0.266749 -0.0503383
7.28448 -1.25607 511.213 0.911029 0.412287 0.00675441
-83.5204 118.24 544.622 0.0317896 -0.817679 -0.574796
-74.3289 114.934 538.553 -0.619584 0.146718 -0.771097
-71.4671 114.388 536.428 -0.617653 0.323832 -0.716685
-66.2077 118.972 533.864 -0.431015 0.314682 -0.845695
-66.8234 121.066 536.734 -0.323755 0.0533747 -0.944634
-63.9615 120.521 534.609 -0.341443 0.300819 -0.890463
-98.637 129.045 519.776 0.0811335 -0.837462 -0.540439
-108.443 132.577 513.484 0.0130048 -0.854568 -0.519177
-152.92 150.733 520.575 0.0916225 -0.877848 -0.470094
-103.793 133.633 513.641 0.0878503 -0.856569 -0.508499
-57.6944 125.889 537.438 0.0708389 -0.288077 -0.954984
-101.067 134.112 512.483 0.0947638 -0.877763 -0.469629
-151.822 152.455 518.387 0.0533351 -0.878755 -0.474284
-55.8927 126.919 537.247 0.0680704 -0.491547 -0.868187
-163.823 155.589 511.818 -0.345384 -0.835957 -0.426481
-161.628 155.147 511.044 -0.161077 -0.870996 -0.464133
-92.866 134.385 513.763 0.000264689 -0.847127 -0.53139
-159.093 155.638 510.881 -0.0169813 -0.881173 -0.472489
-94.4154 135.774 512.418 0.0466214 -0.893251 -0.447135
-160.161 156.538 508.741 -0.0341745 -0.884895 -0.464535
-91.6977 135.737 511.46 -0.0140294 -0.900368 -0.434904
-96.472 136.754 507.638 0.0536997 -0.943549 -0.326852
-161.254 157.243 506.459 -0.100792 -0.875599 -0.472405
-158.986 157.783 506.551 0.0380751 -0.883978 -0.465975
-118.15 144.101 504.039 -0.744001 -0.289694 -0.602113
-93.9053 136.846 506.867 0.121155 -0.923711 -0.363428
-113.786 142.63 499.312 -0.482674 -0.598475 -0.639417
-163.915 159.948 503.044 -0.268737 -0.778835 -0.566742
-160.766 159.324 501.561 -0.0842213 -0.77634 -0.624663
-159.189 160.19 502.522 0.0357415 -0.799229 -0.599962
-116.707 145.919 501.28 -0.751944 -0.265237 -0.603514
-154.54 161.313 502.142 0.123703 -0.760659 -0.637256
-115.607 147.783 499.459 -0.767932 -0.212935 -0.604102
-115.056 148.715 498.548 -0.777833 -0.211658 -0.591757
-151.885 161.536 501.503 0.0760057 -0.720026 -0.689772
-116.28 149.966 499.638 -0.797788 -0.171485 -0.578037
-157.304 164.451 499.26 0.106807 -0.286938 -0.951976
-154.822 165.632 499.162 0.0951876 -0.172344 -0.980427
-124.516 165.604 500.016 -0.106792 -0.160633 -0.98122
-79.0996 146.418 491.561 -0.0686113 -0.836706 -0.543338
-74.0138 146.305 493.64 0.101251 -0.870296 -0.482009
-74.9529 147.441 491.505 0.0171207 -0.867582 -0.496999
-125.816 167.718 500.077 -0.00826308 0.0243325 -0.99967
-109.213 157.989 488.506 -0.796437 -0.108756 -0.594862
-76.1293 147.896 489.377 -0.0363172 -0.837591 -0.545089
-72.7534 148.14 491.666 0.11052 -0.877696 -0.4663
-126.029 170.192 500.943 -0.0168625 0.213361 -0.976828
-77.5091 150.006 488.369 -0.0532732 -0.829035 -0.556654
-109.851 161.172 489.182 -0.801655 -0.0793592 -0.592496
-75.096 149.783 487.264 -0.0602049 -0.841057 -0.537586
-121.616 170.992 501.097 -0.273999 0.222255 -0.935696
-116.271 168.109 496.798 -0.657054 0.0439008 -0.752564
-124.108 172.018 501.557 -0.091766 0.260346 -0.961145
-118.782 170.329 499.75 -0.42997 0.129435 -0.893517
-80.1573 151.932 485.307 0.137496 -0.888915 -0.436949
-127.69 174.29 502.267 -0.00329903 0.342067 -0.93967
-88.7574 153.926 479.133 0.023845 -0.788057 -0.615141
-129.097 176.108 502.729 0.00710245 0.367053 -0.930173
-89.7642 154.828 477.388 0.0012095 -0.801432 -0.598085
-136.137 180.111 504.221 0.0031835 0.351575 -0.936154
-117.352 172.384 498.325 -0.583543 0.134559 -0.800857
-107.515 163.876 484.575 -0.816616 -0.0782422 -0.571854
-87.6572 155.79 477.312 -0.0112156 -0.830138 -0.557445
-83.7034 153.918 477.784 0.0166978 -0.835686 -0.548954
-85.1 155.264 476.781 -0.00646555 -0.841726 -0.539866
-131.874 183.26 505.626 -0.0614773 0.022808 -0.997848
-82.3744 155.743 475.622 -0.00778755 -0.87023 -0.492584
-87.7031 157.97 472.924 -0.0388802 -0.890207 -0.453894
-59.3772 152.572 481.951 0.108445 -0.86243 -0.494423
