ply
format ascii 1.0
element vertex 893
property float x
property float y
property float z
property float nx
property float ny
property float nz
end_header
-150.288 -28.3303 603.146 0.247429 -0.964006 0.0973208
-3.58154 -61.0492 529.175 0.569526 -0.155392 -0.807151
-137.211 -42.863 620.862 0.298876 -0.0652196 -0.952061
-142.359 -35.8012 618.251 0.0887351 -0.715475 -0.692981
-140.431 -38.4623 620.346 0.556271 -0.409195 -0.723272
-3.35615 -53.649 529.836 0.692546 0.449784 -0.563982
-137.781 -35.9944 619.043 0.119278 -0.749536 -0.651129
-133.913 -42.2924 623.564 0.488217 0.211949 -0.846594
-135.005 -36.1395 619.217 0.022642 -0.748604 -0.66263
-97.4169 -34.0886 614.044 -0.0907454 -0.867996 -0.488209
-95.6729 -35.9919 616 -0.183609 -0.832199 -0.523194
-93.3363 -35.0367 614.088 -0.105543 -0.866935 -0.487118
-91.8528 -39.2541 622.482 -0.0190498 -0.857753 -0.51371
-87.5992 -37.1431 617.817 -0.108575 -0.872616 -0.476185
-65.4648 12.8272 531.821 -0.115304 -0.75384 -0.646861
-86.486 -50.7925 752.245 0.0707092 -0.864757 -0.497187
-82.9822 -55.7679 757.716 0.06742 -0.579591 -0.812114
-79.1984 -56.0872 758.514 0.0631374 -0.648567 -0.758534
-77.2669 -58.4287 761.134 0.24253 -0.845126 -0.476384
-82.7164 -59.9317 767.061 -0.318597 -0.926453 -0.200452
-74.5391 -55.8358 759.104 0.0634457 -0.846024 -0.529356
71.4926 -6.62403 543.292 0.48503 -0.231846 -0.843204
72.7413 -8.99889 546.116 0.0387038 -0.761739 -0.646727
76.1215 -6.09617 545.072 0.210072 -0.183819 -0.96025
90.4626 -27.0497 573.399 -0.143436 -0.894605 -0.423212
91.0294 -28.7714 577.66 -0.20079 -0.91454 -0.351141
5.55458 109.718 488.627 -0.0994891 -0.64235 -0.759927
97.6218 -27.9015 571.848 -0.169863 -0.899217 -0.403181
94.3356 -31.1684 579.997 -0.213249 -0.893695 -0.394759
101.166 -28.5056 572.54 -0.192931 -0.908676 -0.370251
98.9574 -29.453 575.475 -0.133043 -0.891371 -0.43331
107.488 -30.9796 575.393 -0.178721 -0.907746 -0.379547
13.7227 121.031 477.936 -0.191816 -0.561001 -0.805285
15.8467 118.418 479.226 -0.159851 -0.606635 -0.778743
109.697 -32.834 578.466 -0.180748 -0.878019 -0.443185
20.7919 121.197 475.936 -0.121355 -0.525077 -0.842358
113.752 -33.903 578.649 -0.153661 -0.890476 -0.428301
110.981 -35.0861 582.255 -0.0492689 -0.890807 -0.451703
118.75 -27.7566 565.513 -0.164861 -0.784763 -0.597468
27.2625 87.0477 524.175 -0.241762 -0.883222 -0.401833
121.782 -31.3692 571.743 -0.166081 -0.835173 -0.524311
30.1935 84.6537 527.136 -0.254001 -0.85191 -0.457966
32.8694 80.8815 532.532 -0.218578 -0.885835 -0.409293
36.6375 81.3917 529.843 -0.132385 -0.877523 -0.460899
127.591 -27.6836 567.578 0.384217 -0.210437 -0.89894
132.769 49.7191 741.3 0.843369 0.484364 -0.232638
134.813 43.7132 741.277 0.996125 0.0858054 -0.0192924
133.286 46.7666 739.381 0.891832 0.418554 -0.171602
131.399 49.8542 736.467 0.839424 0.528121 -0.128279
128.865 52.7427 735.249 0.834075 0.531085 -0.14922
134.838 43.2796 737.149 0.98029 0.0929584 -0.174329
130.995 49.4205 732.379 0.816765 0.545738 -0.187258
132.561 36.9926 743.107 0.701258 -0.694825 -0.159547
130.505 36.4684 739.321 0.570067 -0.774838 -0.27322
127.332 30.338 745.598 0.843922 -0.391137 0.36716
128.093 30.146 741.148 0.964441 0.249563 -0.0870142
129.295 22.6217 742.148 0.613456 -0.0681009 0.786787
131.893 23.0568 734.492 0.82516 0.552791 -0.116331
133.433 20.5095 732.225 0.821044 0.569944 -0.032408
127.115 47.1587 712.103 0.981256 0.102566 -0.163146
131.64 14.2956 738.871 0.411869 -0.245946 0.877425
136.919 23.4498 720.041 0.617925 -0.0501185 0.784638
138.481 18.9508 718.438 0.637669 -0.0239968 0.769936
138.001 13.7242 725.308 0.873492 0.467831 -0.134708
135.295 20.2911 721.163 0.748016 0.177285 0.639564
126.123 45.485 705.957 0.949923 0.128927 -0.284648
126.811 42.8325 706.17 0.921235 0.351289 -0.167096
139.17 6.68232 727.729 0.645147 -0.680453 -0.34752
133.222 7.18905 735.249 0.298681 -0.519146 0.800798
137.654 7.48953 724.689 0.289585 -0.786381 -0.54566
134.345 6.10555 726.753 0.205261 -0.886545 -0.414616
132.198 4.20164 728.757 0.158635 -0.855414 -0.493053
130.784 5.72857 726.135 0.199954 -0.896309 -0.395788
129.609 5.56573 722.304 0.41852 -0.852357 0.313573
125.977 4.84413 725.572 0.723442 -0.595812 -0.348769
122.394 41.5629 674.451 0.829 0.541927 -0.13811
120.349 44.0126 671.927 0.852706 0.515298 -0.0857917
122.071 41.6931 669.822 0.838048 0.540845 -0.0718489
122.791 39.6984 667.7 0.858539 0.498215 -0.121215
76.6259 16.2004 765.078 0.300435 -0.232522 0.925026
128.922 -5.41122 708.879 0.243423 -0.910863 -0.333277
122.667 38.8963 659.694 0.795206 0.603473 -0.0588772
131.975 25.8485 660.388 0.830076 0.554347 -0.0606054
130.32 28.5883 658.391 0.813955 0.571241 -0.105645
131.366 25.5529 656.336 0.864439 0.496692 -0.0777368
132.033 24.4148 654.098 0.831264 0.491894 -0.258923
123.194 37.0643 652.406 0.845718 0.520394 -0.118116
134.641 18.718 656.096 0.888599 -0.0660015 -0.453912
128.538 28.1252 650.054 0.871986 0.444582 -0.204909
122.422 37.0262 648.175 0.812042 0.571693 -0.117284
126.327 31.1132 647.988 0.845491 0.51104 -0.154865
123.552 34.7552 645.98 0.79292 0.585954 -0.167143
121.923 37.3297 644.186 0.818345 0.558044 -0.137471
132.294 17.7575 652.669 0.669953 -0.264287 -0.693769
119.354 40.0447 641.705 0.852705 0.522213 -0.0136842
128.863 24.0539 647.865 0.751244 -0.352646 -0.557918
121.236 37.5301 639.524 0.831871 0.554954 0.00406113
48.1832 -6.80959 767.638 0.420732 -0.374803 0.82614
41.6597 -6.29211 770.123 0.41745 -0.28255 0.863656
118.935 -15.2324 669.016 0.651558 -0.507773 0.563595
119.502 -16.5518 666.41 0.60127 -0.514831 0.611084
116.986 -16.5796 670.014 0.673348 -0.477838 0.564157
94.874 31.2793 614.078 0.838806 0.332786 -0.43088
98.5936 23.6857 612.345 0.818289 0.32126 -0.47665
96.7037 24.1538 610.204 0.842365 0.355245 -0.405243
92.3025 30.308 606.658 0.845589 0.53296 -0.0305334
95.1965 28.1408 603.708 0.738316 0.589585 0.327535
62.1129 120.997 518.721 0.879636 -0.475538 -0.0102456
60.8442 120.625 514.556 0.926406 -0.0384544 -0.374558
59.1568 123.143 485.7 0.849245 0.512961 -0.125119
-89.3034 -51.2925 751.995 0.0647155 -0.844401 -0.531788
-87.6122 -57.7072 758.441 -0.0261229 -0.216094 -0.976023
-91.1774 -52.8547 754.242 -0.0289035 -0.762058 -0.646864
22.2745 14.2686 521.81 0.394196 -0.0607997 -0.917013
16.3388 7.69142 530.535 -0.146044 -0.881926 -0.448194
12.9213 8.41639 530.265 -0.140705 -0.869127 -0.474152
11.1642 12.818 521.92 -0.0435021 -0.912645 -0.406432
4.01773 4.88835 537.003 -0.0207912 -0.867729 -0.496602
4.55764 12.0452 524.255 -0.053306 -0.873417 -0.484046
3.53597 13.6035 521.148 -0.0900159 -0.907256 -0.410833
-0.278478 12.9701 523.238 -0.0576728 -0.86627 -0.496236
-3.83204 13.2613 522.701 -0.0568819 -0.882759 -0.466369
-15.725 -4.60845 559.183 0.123381 -0.875601 -0.467012
-6.33159 15.1415 519.773 -0.0518552 -0.892269 -0.448516
-17.1824 -3.13438 555.654 0.2136 -0.87801 -0.428338
-20.4228 -4.82733 557.561 0.677704 -0.414023 -0.607702
-20.5706 -7.25621 559.087 0.738149 -0.159389 -0.655539
-102.564 -44.2575 629.208 0.0454183 -0.798824 -0.599848
-101.498 -35.5174 615.7 -0.0254222 -0.850474 -0.525402
-103.178 -33.6639 612.917 -0.0607268 -0.925043 -0.374977
-108.84 -36.0249 617.457 -0.0490683 -0.81619 -0.575696
-111.808 -37.3762 619.606 0.0118424 -0.805347 -0.592685
-125.79 -33.5439 615.504 -0.0525007 -0.873208 -0.484512
-131.451 -36.4307 619.753 -0.0290585 -0.785035 -0.61877
-6.11191 -64.5498 528.191 0.560303 -0.408922 -0.720308
-8.45408 -67.9473 527.881 0.381046 -0.175744 -0.907699
-5.95375 -70.3533 530.519 0.543318 -0.231621 -0.806943
-10.7883 -77.9996 532.297 0.397502 -0.560786 -0.726299
-11.9855 -77.6532 531.094 0.213232 -0.482033 -0.84981
-22.7646 -81.6917 540.66 -0.0261289 -0.88522 -0.464439
-21.4631 -82.6996 542.677 0.00527575 -0.868129 -0.496311
-8.62093 -70.002 527.871 0.397717 -0.240351 -0.885467
-149.122 -30.4744 599.289 0.375596 -0.170171 0.911027
-4.9959 -60.3595 527.733 0.601804 -0.1492 -0.784584
-2.87623 -63.4614 529.718 0.493922 -0.183688 -0.849883
-6.14434 -57.5995 525.653 0.649204 -0.141738 -0.747292
-149.347 -27.9916 601.198 0.381607 -0.856989 0.346332
-142.533 -37.8018 619.719 0.324642 -0.158312 -0.932494
-135.193 -43.7621 621.92 0.35376 0.53673 -0.766012
-135.904 -40.7879 622.653 0.369666 -0.174369 -0.912657
-140.114 -35.5562 617.958 0.114946 -0.786468 -0.60684
-139.117 -37.475 620.57 0.166061 -0.550052 -0.818454
-134.06 -38.2535 621.132 0.186042 -0.607447 -0.772268
-98.4919 -35.4402 616.332 0.015413 -0.845945 -0.533047
-95.0807 -34.3218 612.982 -0.186575 -0.847019 -0.497744
-93.4858 -36.4138 616.196 0.0363463 -0.8707 -0.49047
-91.0716 -38.0067 619.847 -0.0217387 -0.847149 -0.53091
-87.5956 -35.7498 614.82 -0.204065 -0.882454 -0.423831
-65.6933 15.0499 528.947 -0.072244 -0.828005 -0.556048
-62.1437 9.86849 534.314 0.206502 -0.64306 -0.737449
-86.909 -51.9854 754.401 0.0966459 -0.791521 -0.603452
-85.9443 -54.9994 757.56 0.0216142 -0.528395 -0.848724
-81.0207 -60.1042 761.79 0.49252 -0.869779 0.0301438
-78.9004 -57.7721 759.728 -0.0873592 -0.318589 -0.943859
-76.1028 -56.3721 758.732 0.148774 -0.801695 -0.578923
-74.8858 -57.6185 761.18 0.19801 -0.790185 -0.58
73.9885 -7.31961 544.556 0.261125 -0.31992 -0.910749
72.8036 -4.05919 544.389 0.441299 0.180626 -0.878993
90.7587 -26.2146 571.89 -0.113634 -0.888805 -0.443973
91.4432 -29.8382 579.934 -0.313912 -0.847021 -0.428969
94.1842 -29.734 577.117 -0.236223 -0.865726 -0.441268
96.9437 -28.9443 574.55 -0.1573 -0.884441 -0.439341
5.13547 113.415 485.952 -0.13289 -0.624946 -0.769274
101.387 -29.8003 575.035 -0.218503 -0.874945 -0.43212
108.345 -30.2024 572.844 -0.0728965 -0.921696 -0.381002
105.434 -30.9573 576.494 -0.142881 -0.917632 -0.370859
16.7307 120.056 477.987 -0.203855 -0.600163 -0.773465
109.147 -34.3849 581.268 -0.167073 -0.877701 -0.449141
113.354 -34.9832 581.502 -0.153737 -0.904967 -0.396735
21.6229 123.691 474.58 -0.0376744 -0.563745 -0.825089
23.6727 121.205 476.119 0.123657 -0.497588 -0.858554
119.43 -26.3751 564.091 0.00824805 -0.448513 -0.893738
120.919 -28.8395 566.402 -0.0639739 -0.813244 -0.578395
27.0487 85.7204 527.109 -0.235424 -0.850447 -0.470442
121.933 -29.7029 568.539 -0.127458 -0.870269 -0.475801
30.9747 85.9011 524.501 -0.25732 -0.887264 -0.382816
125.202 -29.2713 567.003 0.143226 -0.460409 -0.876077
33.2886 82.1493 530.069 -0.251971 -0.87285 -0.417904
128.968 -29.0546 567.959 0.400174 -0.176192 -0.899342
35.8765 80.4328 532.873 -0.163053 -0.911563 -0.377447
131.408 51.1603 751.107 0.831385 0.448771 0.327726
133.012 50.2775 747.454 0.855418 0.514411 0.0603415
133.916 43.4956 750.837 0.706127 -0.0826947 0.70324
129.587 53.3716 743.856 0.757153 0.641102 -0.125333
135.77 42.4368 743.802 0.960298 0.128924 -0.2474
134.354 38.6802 744.601 0.802606 -0.58804 -0.100162
127.561 54.8023 733.814 0.777783 0.596187 -0.199035
134.182 40.9536 735.567 0.94627 -0.180803 -0.268111
131.286 37.7158 736.686 0.463387 -0.865968 -0.188073
131.057 40.3001 727.635 0.933315 -0.349106 0.0839501
128.376 38.6905 730.856 0.626673 -0.77602 -0.0712385
128.557 37.2269 728.591 0.725307 -0.517685 0.453797
130.517 39.5484 718.996 0.931753 0.348956 -0.100329
137.03 16.3149 734.088 0.888611 0.451167 0.0825767
132.253 32.4904 723.548 0.741437 0.0969227 0.663985
137.072 12.4115 735.416 0.716762 0.0275889 0.696772
129.322 33.1613 726.243 0.671728 -0.121398 0.730783
138.697 12.7846 731.689 0.843824 0.43141 0.319135
130.859 29.5984 724.38 0.668502 -0.0219352 0.743387
135.193 24.3164 720.761 0.545956 -0.046669 0.836513
133.792 13.7003 737.804 0.518075 -0.113074 0.847828
138.619 13.1769 727.445 0.848245 0.523698 -0.0788673
129.395 26.4633 726.32 0.873585 0.34474 0.343515
132.75 25.6001 722.732 0.59068 -0.00764996 0.80687
140.62 9.35561 729.203 0.962659 0.18118 -0.201151
134.493 9.61656 736.069 0.428293 -0.339667 0.837372
138.555 12.268 723.644 0.967516 0.206487 -0.145863
138.736 11.6212 720.23 0.958409 -0.150975 0.242196
137.456 8.95868 721.984 0.688116 -0.71884 -0.0988216
139.301 -3.38816 711.649 0.495156 -0.795515 0.349251
85.3951 20.6065 763.439 0.323871 -0.28203 0.903087
138.224 -3.47284 708.169 -0.00254373 -0.953839 -0.300306
135.754 -4.75769 710.581 0.38081 -0.922662 0.0606549
132.134 -3.80295 714.044 0.302857 -0.609004 0.73307
132.955 -5.63181 711.868 0.204056 -0.937364 0.282329
86.2253 13.7436 759.804 0.413369 -0.396262 0.819819
130.984 -5.0349 709.637 0.193484 -0.930223 -0.311848
123.777 36.9994 655.963 0.807813 0.572234 -0.14137
127.749 28.8098 647.572 0.877876 0.432792 -0.205001
126.446 6.04418 671.827 0.434752 -0.850955 0.29473
128.393 25.7958 646.147 0.881636 -0.137089 -0.45158
126.984 28.6469 643.853 0.888315 0.317014 -0.332263
123.465 4.53495 674.968 0.385741 -0.922607 0.000630528
123.051 3.76572 671.639 0.700305 -0.556589 0.446969
34.5812 -0.147611 775.613 0.408925 -0.314317 0.856729
98.0059 29.7065 618.267 0.764624 0.433916 -0.476516
93.303 36.6121 614.517 0.840005 -0.0965809 -0.533913
91.4976 36.6721 612.341 0.87142 0.0460858 -0.488368
17.2594 -15.5411 777.612 0.310188 -0.431851 0.846929
99.7307 22.9987 614.508 0.803983 0.368234 -0.46692
89.8565 35.851 608.472 0.971406 0.100273 -0.215213
90.6989 32.3836 606.912 0.887063 0.453346 -0.0871615
97.9103 21.2568 606.229 0.787731 0.588946 0.180616
62.0124 119.864 521.322 0.996477 0.0165494 -0.0822213
59.9983 118.372 501.779 0.873048 0.482307 -0.0718844
61.2635 117.061 500.142 0.905196 0.416844 -0.0828351
15.6944 6.35199 533.146 -0.134984 -0.843381 -0.520085
12.4137 6.98485 532.853 -0.104832 -0.83588 -0.538809
7.55593 3.51903 540.252 0.0287937 -0.927125 -0.373645
9.6934 13.3487 520.765 -0.090565 -0.90288 -0.420245
2.10414 5.12606 536.759 -0.109241 -0.846319 -0.521354
7.21331 12.0138 523.889 -0.0235534 -0.895997 -0.443435
-0.317071 3.93223 539.102 -0.096749 -0.861807 -0.497925
-3.00637 6.76107 536.081 -0.10628 -0.82221 -0.559174
-4.49694 8.19173 533.681 -0.0437673 -0.928233 -0.369415
-6.37095 6.62948 535.928 0.0131758 -0.840321 -0.541928
-12.1187 4.5558 541.19 -0.119045 -0.900269 -0.418742
-9.61212 5.46237 538.125 -0.116724 -0.870206 -0.478661
-14.7289 3.78475 543.15 0.0519173 -0.910898 -0.409353
-16.4069 4.58647 539.786 0.118402 -0.929865 -0.348329
-104.494 -42.8791 628.2 -0.165442 -0.819918 -0.548054
-107.824 -43.9996 630.638 0.0236001 -0.807044 -0.590019
-110.636 -40.6612 624.976 -0.110391 -0.882891 -0.456418
4.40924 -49.9033 538.843 0.770465 0.30643 -0.559003
-112.315 -38.8077 622.193 -0.0158124 -0.888367 -0.458861
-116.067 -43.5885 629.538 0.152408 -0.731469 -0.664624
3.9938 -53.6731 537.062 0.802235 0.113576 -0.586105
0.12709 -51.3977 534.084 0.608484 0.337015 -0.718448
-125.248 -37.7508 620.82 -0.0152812 -0.800777 -0.598768
-128.319 -38.9666 621.864 -0.0239703 -0.755447 -0.654772
-129.07 -33.4369 614.92 -0.0101255 -0.869777 -0.493341
-124.391 -44.9936 627.997 0.316434 0.0803201 -0.945208
-131.386 -35.2921 618.077 -0.0687117 -0.811765 -0.579927
-19.4367 -82.6192 542.346 0.0647885 -0.9098 -0.40996
-13.899 -80.8528 537.066 -0.192658 -0.98112 -0.0169409
-144.906 -39.0605 617.977 0.655351 0.344136 -0.672373
-141.539 -32.987 613.882 -0.0161753 -0.845236 -0.534148
-139.691 -34.3633 615.802 0.0837939 -0.848449 -0.522602
-136.724 -32.4861 613.944 0.0975465 -0.88106 -0.462837
-3.71827 -51.0741 531.769 0.568594 0.454405 -0.685724
-132.171 -32.7769 614.386 -0.0348037 -0.87831 -0.476824
-99.9356 -43.3347 629.075 -0.0601871 -0.774982 -0.629111
-98.3494 -45.7655 631.23 -0.177711 -0.766841 -0.616744
-93.4137 -42.8005 627.171 0.0194015 -0.803213 -0.595376
-89.8854 -46.0302 631.874 -0.0675795 -0.780999 -0.620865
-61.5983 20.8638 516.154 -0.229045 -0.824135 -0.518016
-48.4242 4.34095 541.098 0.288433 -0.369654 -0.883268
-50.8528 9.9168 535.976 0.0860027 -0.88573 -0.456165
-49.2578 7.82477 539.19 -0.0780175 -0.721635 -0.687864
-45.9154 2.9144 542.347 0.35825 0.0539564 -0.932065
-43.2095 4.72636 541.562 0.162392 -0.699963 -0.695471
-85.2735 -53.0473 755.293 0.0239062 -0.795481 -0.605507
-82.1963 -51.8749 753.067 -0.087079 -0.838175 -0.538405
-79.7751 -50.681 750.724 -0.147836 -0.870436 -0.469559
-77.4057 -52.4604 753.451 -0.133965 -0.848552 -0.511872
-76.1424 -54.5721 756.241 0.0192288 -0.877316 -0.479529
-73.7212 -53.3783 753.898 -0.055924 -0.893093 -0.446382
-3.00433 117.976 484.56 -0.222946 -0.532146 -0.816771
1.89507 111.722 487.858 -0.170507 -0.606601 -0.776507
90.6825 -31.0075 582.848 -0.266984 -0.833252 -0.48416
3.59987 112.807 486.474 -0.138254 -0.614706 -0.776545
92.7274 -33.4571 585.373 -0.179735 -0.881468 -0.436703
8.14341 112.441 486.003 -0.131008 -0.635501 -0.760904
10.5338 109.435 488.578 -0.115155 -0.702666 -0.702139
95.9056 -36.3899 591.563 -0.257473 -0.875439 -0.40904
103.636 -30.416 575.281 -0.115618 -0.918039 -0.379259
98.9091 -35.8058 588.599 -0.198135 -0.853628 -0.481728
15.1279 112.368 484.434 -0.169609 -0.709111 -0.684393
106.556 -29.8074 571.552 -0.0612576 -0.921808 -0.382777
102.244 -36.6345 588.961 -0.172152 -0.847161 -0.502675
108.497 -35.4993 583.568 -0.135567 -0.914239 -0.381823
105.577 -39.0749 591.888 -0.00470217 -0.941786 -0.33618
109.587 -36.5778 586.954 -0.0473189 -0.935505 -0.350129
113.047 -36.0259 584.604 -0.157754 -0.925242 -0.345023
28.5731 88.9632 518.767 -0.333487 -0.8569 -0.393077
24.588 86.3264 526.962 -0.118237 -0.861456 -0.493876
112.313 -39.629 593.338 -0.262735 -0.888221 -0.376873
30.2527 87.1098 521.549 -0.278626 -0.902341 -0.328859
36.4251 89.3247 513.55 -0.138665 -0.865347 -0.481609
39.1926 89.0505 513.709 -0.0808969 -0.861741 -0.500858
134.638 46.6874 749.652 0.887189 0.26555 0.377331
129.469 48.4595 755.03 0.508991 -0.157932 0.846159
132.18 47.1163 752.5 0.778159 0.112699 0.617874
136.177 42.8435 747.151 0.969579 -0.0269989 0.243284
134.931 46.3587 745.663 0.926706 0.375342 -0.018269
130.877 43.8123 753.121 0.562016 -0.183837 0.806438
131.762 40.2012 751.2 0.544213 -0.351148 0.761923
134.524 39.7458 748.736 0.747038 -0.425293 0.51094
127.701 55.4961 738.864 0.813728 0.57291 -0.0980894
125.577 58.1083 737.573 0.732922 0.661072 -0.160653
131.945 37.3362 749.361 0.587571 -0.603089 0.539485
124.549 58.932 735.508 0.710384 0.677123 -0.191988
133.079 45.1114 733.013 0.951152 0.27915 -0.13185
133.473 43.6316 730.532 0.979865 0.0703103 -0.186874
132.78 40.2565 731.427 0.778251 -0.582983 -0.23336
129.609 37.7287 732.885 0.428647 -0.839391 -0.334193
127.53 36.3046 735.168 0.581673 -0.754723 -0.303397
126.904 36.2502 731.826 0.732017 -0.622548 -0.27674
135.595 17.1491 736.588 0.732546 0.355539 0.58049
127.37 29.5171 732.541 0.854609 0.517969 -0.0367648
140.148 10.4721 732.627 0.906008 0.271024 0.325107
133.33 28.9201 722.557 0.612274 -0.00669019 0.790617
129.091 42.1176 714.919 0.943545 0.190204 -0.271193
138.443 9.38705 734.011 0.749643 0.0144091 0.661686
136.89 15.6211 729.039 0.800889 0.598771 0.00706673
129.276 26.3736 730.016 0.83013 0.556317 -0.0373569
127.161 29.921 728.085 0.830554 0.3362 0.444015
131.65 22.4985 728.337 0.824452 0.565931 0.000652091
122.451 54.5028 705.974 0.838302 0.525469 -0.14537
132.812 21.3226 725.595 0.826403 0.509476 0.239775
136.544 15.1983 721.779 0.871434 0.452702 0.188846
142.126 14.1655 715.925 0.562933 0.00533043 0.826485
138.625 15.0448 718.624 0.796222 0.263391 0.544661
139.844 11.3019 717.372 0.717533 -0.0098976 0.696454
137 7.39185 718.245 0.582645 -0.543504 0.604259
134.167 7.47361 720.904 0.431025 -0.824038 0.367666
141.963 -0.40164 711.891 0.401282 -0.422269 0.812811
134.697 4.6086 718.572 0.409122 -0.482955 0.774193
138.258 -0.172946 714.19 0.428358 -0.419722 0.800214
135.364 0.478987 716.012 0.272453 -0.479303 0.834289
142.309 -3.60215 708.796 0.148566 -0.951003 0.271148
135.867 -3.03921 713.874 0.323505 -0.640751 0.696264
136.565 -2.32663 705.901 0.161025 -0.962948 -0.216336
85.6726 17.793 761.937 0.385612 -0.365029 0.847383
82.0535 17.4715 763.368 0.30846 -0.248875 0.918103
83.1494 15.683 762.593 0.406471 -0.368411 0.836094
133.984 -3.80694 707.282 0.202954 -0.910309 -0.360759
132.228 -3.10556 705.006 0.166124 -0.977046 -0.133358
125.713 34.2841 656.58 0.823058 0.540823 -0.173454
124.772 33.7688 653.211 0.803865 0.585215 -0.106413
128.533 6.62532 667.63 0.61022 -0.604124 0.512509
124.703 5.70734 670.139 0.534506 -0.615207 0.579503
125.794 3.57496 668.676 0.612651 -0.241079 0.752688
120.24 3.43369 674.238 0.583561 -0.741794 0.33045
124.124 0.0390835 669.498 0.672956 -0.139841 0.726344
120.507 0.925582 672.661 0.639354 -0.189456 0.745206
121.328 -3.27196 671.466 0.642205 -0.114814 0.757885
35.6818 -5.09131 773.094 -0.264429 0.118788 -0.957062
33.3254 -5.14659 773.76 0.415539 -0.113713 0.902439
100.038 27.5063 619.768 0.727039 0.456374 -0.512969
101.193 24.2993 617.833 0.732491 0.504541 -0.457051
92.0153 39.6071 611.747 0.822317 -0.297644 -0.484977
98.6142 26.342 616.138 0.725903 0.496739 -0.475727
90.43 39.2957 607.785 0.890089 -0.291558 -0.350335
20.8809 -16.7972 775.308 0.325217 -0.363707 0.872898
91.5023 33.5169 610.596 0.821362 0.326988 -0.46738
62.9073 120.335 524.599 0.693192 -0.62546 -0.358168
59.4085 121.248 508.183 0.906126 0.39506 -0.151202
58.9323 119.944 496.642 0.827568 0.561267 0.0104878
63.993 109.543 499.417 0.921708 0.371942 -0.110059
62.6024 112.504 497.497 0.89495 0.446159 -0.00258946
61.034 115.727 494.721 0.901799 0.425124 0.0776428
59.6645 119.419 492.436 0.864186 0.469708 0.180434
12.2572 2.82092 540.954 -0.0454638 -0.923082 -0.381906
14.9317 3.54214 538.167 -0.176325 -0.907492 -0.38127
11.3984 4.12176 538.027 -0.111131 -0.90972 -0.400074
8.53119 6.13463 534.809 -0.0223001 -0.877856 -0.478406
3.16168 8.10844 531.369 -0.12095 -0.858311 -0.498672
5.85647 9.11808 528.978 -0.023267 -0.872749 -0.487615
0.424593 6.97951 533.976 -0.0975352 -0.874066 -0.475915
-4.79577 5.43741 537.896 -0.0591948 -0.832566 -0.550754
-1.52776 8.49129 530.951 -0.0550772 -0.905673 -0.420385
-5.21813 8.87461 530.439 -0.112097 -0.919696 -0.376289
-13.0493 1.9313 545.933 -0.0831841 -0.864372 -0.495925
-8.58636 8.69051 532.768 -0.170453 -0.892252 -0.418129
-15.7441 0.921665 548.324 0.0770953 -0.853837 -0.5148
-17.9693 2.0918 545.056 0.0689116 -0.89276 -0.445232
-104.388 -39.9427 623.12 -0.0937962 -0.850644 -0.517308
-107.082 -40.9524 625.512 -0.043383 -0.893304 -0.447353
-107.941 -39.6515 622.584 -0.0567784 -0.878874 -0.473663
2.14034 -49.1416 536.887 0.644139 0.380577 -0.66351
-111.719 -44.0041 629.871 0.0107507 -0.730686 -0.682629
-113.604 -41.4866 627.415 -0.00554052 -0.821394 -0.570334
-125.905 -40.5595 625.515 0.149731 -0.751769 -0.642203
2.25101 -54.0099 535.375 0.773164 0.138693 -0.618855
-127.423 -30.7036 609.218 -0.0296933 -0.892381 -0.450305
-128.323 -43.8568 626.695 0.392013 -0.0429695 -0.918956
-130.033 -31.4747 611.178 -0.108672 -0.877135 -0.467786
-16.3091 -81.2443 541.015 0.041493 -0.871594 -0.488469
-18.2614 -79.7325 537.989 0.0319665 -0.92961 -0.367157
-12.6638 -81.9475 541.341 -0.0907022 -0.857457 -0.506498
-142.665 -28.7152 605.008 -0.0893144 -0.981385 -0.170018
-138.76 -31.7388 611.059 -0.0119206 -0.900473 -0.434748
2.518 -57.1885 534.055 0.626211 0.30796 -0.716254
-134.614 -30.3598 608.577 0.0430812 -0.916242 -0.398302
-131.797 -29.8598 608.826 -0.0026452 -0.918474 -0.395474
-130.299 -41.4975 624.907 0.335971 -0.545456 -0.767855
0.404607 -54.2112 532.582 0.672604 0.229138 -0.703633
-98.6468 -40.6558 623.852 0.0111135 -0.851527 -0.524193
-96.9673 -42.5093 626.635 -0.0996239 -0.841915 -0.530334
-95.0932 -40.947 624.388 0.0272464 -0.839036 -0.543394
-93.4389 -45.739 631.338 0.0570953 -0.806271 -0.588784
-91.7341 -44.6539 629.954 0.019982 -0.815855 -0.577911
-89.5343 -43.6066 628.066 -0.0806042 -0.826615 -0.556965
-62.5289 18.2393 520.897 -0.221646 -0.865693 -0.44883
-53.8196 8.03966 537.834 0.154022 -0.745454 -0.648518
-46.9861 7.64145 538.955 -0.12883 -0.725811 -0.675723
-43.0151 8.14206 536.532 0.0252697 -0.866951 -0.497753
-83.5272 -49.9541 750.622 -0.116592 -0.868874 -0.481107
-80.9074 -49.196 747.845 -0.162901 -0.907706 -0.386696
-77.2621 -49.8992 748.171 -0.139849 -0.896549 -0.420288
-80.5167 -53.7283 755.85 -0.0458693 -0.781397 -0.622346
-75.1271 -51.709 751.067 -0.126265 -0.871803 -0.473304
82.0773 -11.1572 548.079 0.117221 -0.391778 -0.912562
-0.880418 115.364 485.85 -0.224234 -0.561668 -0.796397
89.6673 -33.8705 588.022 -0.254585 -0.87258 -0.416882
91.516 -35.2468 589.943 -0.136498 -0.928262 -0.345975
93.8787 -34.4569 588.234 -0.0563911 -0.917399 -0.393954
100.239 -33.4279 583.239 -0.249538 -0.887146 -0.388204
96.7787 -33.5854 585.807 -0.136583 -0.890426 -0.43415
14.1467 109.022 488.189 -0.122488 -0.753922 -0.645444
13.5836 115.181 482.209 -0.199786 -0.618921 -0.75962
102.401 -32.9214 580.61 -0.209053 -0.879155 -0.428234
10.7148 122.005 477.885 -0.192789 -0.551688 -0.811463
18.2601 109.832 486.545 -0.128446 -0.768534 -0.626783
103.807 -34.5906 583.441 -0.148115 -0.918814 -0.365846
11.5988 123.643 476.645 0.26689 0.417843 0.868434
19.7561 112.24 483.532 -0.114214 -0.717754 -0.686866
106.716 -36.2212 586.588 -0.18528 -0.905242 -0.382371
109.297 -38.7196 592.504 -0.0790388 -0.937141 -0.339882
112.032 -38.3372 589.773 -0.227427 -0.893025 -0.388308
29.4192 91.3492 514.455 -0.337118 -0.851283 -0.40208
23.7419 83.9405 531.274 -0.0471991 -0.816349 -0.575627
32.2263 88.8023 515.916 -0.289368 -0.829793 -0.477189
34.589 87.0142 518.869 -0.144451 -0.906481 -0.396769
38.1434 86.1972 519.114 -0.162097 -0.895273 -0.414983
35.1742 85.8976 521.844 -0.202383 -0.92154 -0.331369
130.794 -32.9356 572.403 0.0757512 -0.825396 -0.559449
134.724 46.6298 743.453 0.909121 0.388008 -0.151491
132.999 46.3257 734.829 0.932377 0.342454 -0.115753
130.13 34.9961 748 0.605964 -0.697256 0.382937
127.691 33.1246 748.225 0.588821 -0.615957 0.523342
129.489 33.6053 744.496 0.765967 -0.628221 -0.136501
127.881 33.5722 740.683 0.842878 -0.341203 -0.416098
126.853 34.3959 738.618 0.921264 -0.325417 -0.213018
132.06 22.5335 739.163 0.826232 0.299356 0.477207
133.952 19.306 737.459 0.874238 0.267171 0.405374
130.353 25.6041 736.759 0.79697 0.603891 -0.012397
126.843 33.0677 736.721 0.984351 -0.0992881 -0.145584
130.762 18.86 740.645 0.592041 -0.123127 0.796446
129.769 25.669 733.201 0.824543 0.55957 -0.0837288
128.219 28.4033 734.7 0.836204 0.541225 -0.088533
127.456 46.22 709.331 0.975463 0.0945813 -0.198814
127.498 43.1579 711.124 0.961504 0.218262 -0.16695
126.211 49.2619 707.581 0.889697 0.334593 -0.310623
134.559 18.5043 725.538 0.819532 0.571483 0.0421172
143.061 16.5242 715.674 0.545219 -0.0724289 0.835159
124.003 52.2319 705.022 0.866492 0.473893 -0.1569
136.131 17.0522 722.724 0.884633 0.416149 0.210342
125.227 48.4087 703.534 0.944907 0.192847 -0.264499
137.064 5.0754 732.978 0.4602 -0.705943 0.538387
126.879 41.8676 703.331 0.899641 0.414997 -0.13573
125.357 45.3222 702.238 0.939673 0.253137 -0.23008
136.343 4.73833 729.867 0.217505 -0.928687 -0.300386
126.639 41.1764 699.422 0.866014 0.480133 -0.139612
133.36 3.78547 732.33 0.245008 -0.956219 0.16005
129.75 2.7107 730.93 0.275907 -0.862741 -0.423736
132.993 6.74133 723.255 0.397271 -0.898996 -0.184341
147.156 -2.24936 707.249 0.470907 -0.881687 -0.0295854
128.018 4.1151 727.678 0.239224 -0.855732 -0.458796
144.631 -3.64231 708.302 0.256107 -0.941407 0.21946
125.626 2.42051 729.381 0.781536 -0.452865 -0.429086
125.7 35.7043 664.901 0.795714 0.604811 -0.0322945
73.1736 17.9337 766.52 0.351571 -0.326926 0.877221
122.924 39.3463 662.892 0.809154 0.583073 -0.0727685
130.594 -3.47389 703.427 0.250041 -0.966167 -0.063247
124.706 36.0455 661.416 0.791347 0.598928 -0.122695
133.543 22.0841 657.743 0.880888 0.449747 -0.147524
134.157 21.8026 655.389 0.913957 0.362111 -0.183188
128.591 29.1949 654.328 0.771562 0.618858 -0.147334
133.222 21.1625 652.532 0.772992 0.159904 -0.613933
124.956 34.1377 649.393 0.801639 0.592845 -0.0768692
130.903 23.7963 650.056 0.821858 0.212289 -0.528662
120.931 38.9827 646.066 0.771011 0.629561 -0.0958904
130.379 20.7168 650.673 0.557806 -0.208305 -0.803406
122.37 34.9933 641.821 0.838879 0.536778 -0.0902855
124.405 32.4083 639.051 0.893275 0.132747 -0.429462
121.71 -8.47935 670.813 0.649351 -0.219617 0.728087
119.153 -11.9319 672.161 0.617438 -0.440405 0.651777
122.074 -11.9773 668.631 0.580039 -0.501115 0.642213
39.9288 -2.27032 772.589 0.336913 -0.242437 0.909788
44.2913 -7.47276 768.827 0.354089 -0.196518 0.914331
121.905 -15.4587 665.995 0.619588 -0.505073 0.600843
116.401 -14.9219 672.46 0.625075 -0.535362 0.568039
43.1368 -11.0297 768.951 0.421821 -0.269484 0.865705
45.5271 -11.4568 766.865 0.476091 -0.347631 0.807769
95.5461 27.6419 612.777 0.774995 0.486406 -0.403475
93.0104 30.7679 610.298 0.823785 0.434733 -0.363849
94.3481 27.3325 608.892 0.85294 0.510901 -0.107114
95.5096 26.1566 606.15 0.876424 0.378936 0.297134
62.3735 124.495 513.982 0.59738 -0.465329 -0.653151
60.1523 126.526 511.249 0.308462 -0.785395 -0.536661
58.8167 124.256 512.341 0.724339 -0.497066 -0.477764
59.4035 121.072 490.401 0.855947 0.442968 0.266709
-86.0328 -60.1282 762.822 -0.0630899 -0.845104 0.530866
-88.2881 -48.4294 746.821 -0.036296 -0.934985 -0.352826
-82.6185 -61.1132 758.309 0.213709 -0.018914 -0.976714
-91.8037 -48.8864 749.357 -0.107444 -0.849264 -0.51692
16.9445 10.305 525.142 -0.122308 -0.844297 -0.521731
13.6637 10.9378 524.849 -0.133681 -0.884267 -0.447439
9.9919 10.5109 527.371 -0.034043 -0.881918 -0.470171
5.30655 7.56724 531.78 -0.0235375 -0.873564 -0.486139
3.5424 9.1821 529.429 -0.105168 -0.873901 -0.474591
2.49465 10.9057 526.118 -0.0594502 -0.874664 -0.481071
-1.18516 9.9354 528.531 -0.0100172 -0.886758 -0.462125
-4.55298 10.1869 528.048 -0.0690997 -0.853621 -0.516291
-14.8458 -2.17913 553.742 0.0425571 -0.917865 -0.394605
-7.16243 12.4563 525.313 -0.0836641 -0.85952 -0.504209
-15.7045 -0.878297 550.815 0.0752911 -0.886859 -0.455865
-19.0578 -2.88937 553.296 0.159367 -0.897857 -0.410432
-101.38 -40.9172 623.171 -0.00227632 -0.875901 -0.482486
-102.601 -38.8598 620.823 -0.0112942 -0.800689 -0.598973
-104.193 -36.527 618.091 -0.063489 -0.801035 -0.595241
-107.518 -38.4586 620.428 0.0245215 -0.799413 -0.600281
-108.078 -33.215 612.436 -0.158566 -0.903215 -0.398822
-111.229 -33.8085 614.446 -0.0280135 -0.885634 -0.463538
-124.774 -30.6808 610.33 -0.0186454 -0.881935 -0.471003
-8.03183 -60.4276 525.747 0.624118 -0.127765 -0.770813
-20.3956 -80.1672 537.91 0.015581 -0.911864 -0.410197
-10.0292 -74.2747 529.289 0.239062 -0.527608 -0.815156
-12.1215 -70.5674 527.451 0.230741 -0.267135 -0.935627
-12.2804 -67.9977 527.102 0.143105 -0.160994 -0.976525
-152.384 -30.2157 600.532 0.58822 -0.232676 0.774506
-145.042 -29.7082 598.774 -0.0133248 -0.613559 0.789536
-145.983 -27.3341 601.642 -0.0739521 -0.986594 0.145479
-6.34911 -52.7828 526.829 0.629515 0.523217 -0.574417
-1.51264 -56.4532 530.269 0.694601 0.195378 -0.692356
0.941047 -59.4131 531.796 0.621384 0.17457 -0.763811
-139.673 -41.2052 621.296 0.55438 0.240475 -0.796765
-4.00537 -54.1968 528.245 0.716834 0.333621 -0.612247
-132.212 -40.6078 624.019 0.326764 -0.321843 -0.888618
-98.96 -38.6717 621.41 0.0606773 -0.817443 -0.572805
-96.3498 -37.9006 619.45 -0.149924 -0.843996 -0.514969
-94.5856 -39.5155 621.801 0.0525198 -0.863186 -0.502146
-91.2409 -35.0466 614.494 -0.0151619 -0.889764 -0.456169
-88.0852 -38.4283 619.968 -0.169066 -0.826274 -0.537297
-63.8573 17.3604 523.628 -0.185756 -0.881041 -0.435042
-60.2667 8.57177 536.091 0.240413 -0.566077 -0.788517
-57.9599 10.4992 534.904 -0.0582756 -0.728127 -0.68296
-56.3344 8.2619 537.464 0.0557512 -0.709133 -0.702867
-40.7377 8.3599 537.1 0.00687416 -0.882153 -0.470913
-86.063 -49.5995 750.089 0.0660472 -0.87272 -0.483732
-78.5699 -61.4421 758.341 0.31444 -0.628744 0.711203
-80.9184 -56.873 758.669 0.141875 -0.626889 -0.766082
-83.7444 -59.108 764.995 -0.210661 -0.974807 0.0733077
-77.436 -59.8967 763.478 0.135599 -0.883491 -0.448394
-80.7364 -60.0825 765.046 -0.161936 -0.981585 -0.101332
70.3673 -7.50822 543.742 0.133867 -0.575628 -0.80668
71.3336 -4.05437 542.943 0.437338 0.0514531 -0.897824
76.4494 -10.1259 546.772 -0.0973832 -0.681635 -0.725183
76.5691 -7.7766 545.39 0.194057 -0.170968 -0.965977
79.9164 -10.4902 547.096 0.195779 -0.43575 -0.878517
94.8682 -27.0607 572.17 -0.240743 -0.858103 -0.453544
92.4382 -28.068 574.673 -0.19415 -0.876463 -0.44059
2.35998 117.057 483.944 -0.196061 -0.556409 -0.807446
96.0088 -31.1785 579.16 -0.109071 -0.910646 -0.39853
98.5767 -30.5267 577.416 -0.142151 -0.883567 -0.446208
7.15734 117.406 482.18 -0.218595 -0.592714 -0.775182
100.706 -32.2963 580.457 -0.195794 -0.882937 -0.426716
101.978 -34.1143 582.766 -0.221752 -0.900858 -0.373203
14.1419 117.333 480.611 -0.149891 -0.584411 -0.797494
104.546 -33.4626 581.021 -0.082188 -0.886073 -0.456201
17.5918 117.178 480.042 -0.165701 -0.616824 -0.769461
107.283 -32.3336 578.414 -0.15424 -0.865593 -0.476403
13.9552 123.698 475.979 -0.231692 -0.506077 -0.830786
111.057 -31.9663 575.713 -0.204716 -0.905674 -0.371277
20.5594 118.529 477.893 -0.190254 -0.630941 -0.752141
113.117 -31.0731 572.139 -0.105128 -0.880504 -0.462234
114.158 -32.6372 576.116 -0.094612 -0.901296 -0.422745
118.58 -29.2273 568.434 -0.162749 -0.896112 -0.412911
25.4025 82.4612 532.521 -0.0873602 -0.835956 -0.541799
121.916 -26.8837 564.588 0.355394 -0.276487 -0.892889
29.4687 83.5654 529.484 -0.205359 -0.85261 -0.480504
124.683 -32.0089 571.443 -0.137086 -0.866595 -0.479813
30.1342 82.1976 532.723 -0.192541 -0.884006 -0.425982
34.6321 84.7913 524.836 -0.206142 -0.896471 -0.392232
122.081 -23.2513 565.47 0.445695 0.328765 -0.832628
125.571 -25.7328 567.101 0.479387 0.0842705 -0.873548
128.75 -32.3766 572 0.011994 -0.846726 -0.531893
37.7126 82.7433 527.555 -0.112613 -0.861797 -0.494595
89.0765 135.167 597.95 0.834135 -0.435105 0.338973
91.4636 134.479 591.081 0.96424 -0.227818 0.135427
89.4385 128.509 593.178 0.825978 -0.399194 0.398001
78.5902 97.6991 637.779 0.828412 0.557044 -0.0586106
92.6555 77.6577 621.332 0.802685 0.590565 -0.0832478
89.4 81.2291 616.871 0.806935 0.589819 -0.0311448
22.9894 -87.6743 684.784 -0.0669594 -0.834415 -0.547054
19.6423 -88.5674 686.979 -0.0550778 -0.852047 -0.520559
19.1556 -82.61 678.253 0.0133894 -0.820227 -0.571882
18.4155 -86.7091 682.797 0.00364427 -0.857794 -0.513981
16.6682 -84.8538 680.775 -0.0461576 -0.80271 -0.594581
14.4826 -82.6685 678.231 -0.0307243 -0.785737 -0.617798
16.4455 -68.0434 655.632 -0.0529838 -0.820161 -0.569674
10.7856 -82.2939 677.945 -0.0305193 -0.758105 -0.651418
6.0539 -82.0303 677.742 -0.0185863 -0.783407 -0.621231
1.88209 -85.8219 684.682 -0.109368 -0.926169 -0.3609
-0.2264 -82.882 678.938 -0.041061 -0.857912 -0.512153
-1.8681 -77.3573 671.236 -0.00697779 -0.866786 -0.498632
-5.14848 -76.9498 670.818 -0.0640287 -0.847645 -0.526686
-7.92162 -74.8854 667.938 -0.0312217 -0.834103 -0.550724
-12.0989 -82.5155 680.29 0.0217713 -0.862375 -0.505801
-14.5407 -83.7874 682.354 0.146648 -0.933303 -0.32778
-16.2827 -83.1462 679.7 0.433388 -0.607732 -0.66546
-36.2914 -73.3312 666.942 0.0889495 -0.592211 -0.800858
-38.0746 -76.3072 668.192 0.341618 -0.00705818 -0.939812
-40.2866 -73.1016 666.44 0.284697 -0.502105 -0.816601
-37.6334 -78.9158 666.835 0.592075 0.463048 -0.65957
-0.880617 -85.5748 548.313 0.391175 -0.767393 -0.508026
-3.34254 -87.9397 550.29 0.364265 -0.831929 -0.418575
-11.7896 -87.9163 548.936 -0.0246498 -0.794719 -0.606477
-9.20587 -86.7169 546.917 -0.0188646 -0.726603 -0.686799
-4.61757 -86.8971 547.37 0.227208 -0.772244 -0.593309
-4.53657 -82.5576 576.516 0.551948 -0.565204 0.613105
25.1248 -85.5459 681.858 -0.024192 -0.814531 -0.579616
28.9416 -81.4414 674.877 -0.0496479 -0.827482 -0.559293
32.987 -82.1376 675.43 -0.023605 -0.884557 -0.465835
36.2021 -80.8051 673.03 -0.102409 -0.845583 -0.523929
36.3272 -90.6264 688.783 -0.0900324 -0.838284 -0.53775
38.7103 -92.9535 691.441 -0.187613 -0.824278 -0.534198
41.2856 -95.5578 694.274 -0.152674 -0.831766 -0.533719
43.3711 -93.3991 690.95 -0.0194359 -0.823102 -0.567562
44.2289 -98.5004 699.746 -0.0644576 -0.888699 -0.453937
46.5187 -97.7024 697.593 -0.0245018 -0.889986 -0.455329
48.7086 -96.2051 695.083 -0.039465 -0.838244 -0.543866
49.3201 -103.264 708.459 -0.121823 -0.966072 -0.227736
52.867 -103.537 709.235 0.297833 -0.952493 -0.0636625
50.2354 -104.074 712.398 0.260455 -0.965443 -0.00916156
63.2977 -86.7631 678.432 -0.0557158 -0.800472 -0.596775
65.5247 -89.0071 681.492 -0.13894 -0.839494 -0.525306
68.8501 -83.6078 695.569 0.913881 -0.199153 0.353779
67.8365 -83.3547 698.757 0.878886 -0.19215 0.436621
71.7229 -76.3895 692.821 0.843074 -0.251634 0.475297
67.4235 -78.8889 700.882 0.866619 -0.169559 0.469277
68.7933 -76.0398 699.745 0.88944 -0.0954534 0.446974
66.7174 -75.9667 702.664 0.786157 -0.0656536 0.61453
46.651 -73.9613 725.155 0.676769 0.0952925 0.730002
44.3411 -73.7854 727.504 0.722308 0.0125663 0.691457
52.4302 -73.9116 718.585 0.78235 0.233364 0.577469
50.1892 -73.8259 721.672 0.787165 0.17404 0.591677
31.4824 -72.0025 742.202 0.651205 -0.205244 0.730621
92.5509 138.475 593.505 0.94892 -0.171037 0.265137
91.2217 138.122 596.528 0.900063 -0.255951 0.352669
91.0158 135.418 594.826 0.880237 -0.346942 0.323751
88.6821 132.127 595.804 0.820297 -0.379996 0.427452
91.0429 131.709 592.364 0.916549 -0.211767 0.339253
87.0475 131.665 599.238 0.904115 -0.327152 0.27486
86.8949 128.507 597.187 0.922342 -0.251448 0.293358
90.9219 131.167 589.141 0.950476 -0.29342 0.102467
73.9693 105.341 644.58 0.81955 0.572878 0.0122138
80.1305 95.1518 635.512 0.759835 0.649265 -0.033246
91.3523 79.7173 619.897 0.798298 0.594256 -0.0978736
88.1325 84.118 619.381 0.800789 0.593807 -0.0782978
20.5299 -85.3744 681.631 0.033668 -0.809532 -0.58611
15.4404 -88.0062 686.424 -0.110225 -0.877951 -0.465889
13.5984 -86.1582 683.316 -0.0562963 -0.87916 -0.473189
17.8244 -64.7247 650.781 0.00211471 -0.818043 -0.575153
16.0117 -63.1045 648.133 0.047804 -0.858047 -0.511342
6.76051 -86.6276 685.484 -0.104645 -0.887316 -0.449132
9.31753 -85.762 682.861 -0.0527986 -0.901304 -0.429957
5.94404 -85.2074 682.341 -0.09855 -0.891805 -0.441556
3.17091 -83.143 679.46 -0.00720193 -0.830788 -0.556543
-1.30949 -85.5511 683.974 -0.145354 -0.939517 -0.31013
-0.579687 -74.3779 666.18 -0.114504 -0.82248 -0.55715
-3.10527 -74.9104 667.709 -0.0886141 -0.832397 -0.547049
-4.95402 -73.5341 665.789 -0.0473813 -0.8347 -0.548662
-8.62405 -78.0342 673.015 -0.0920764 -0.841529 -0.532307
-13.5684 -80.3548 677.525 -0.016187 -0.787827 -0.615684
-34.7512 -69.7577 662.032 -0.0611048 -0.799277 -0.597848
-34.0846 -76.0518 669.116 0.322288 -0.352429 -0.878592
-38.266 -70.7406 664.277 0.134018 -0.792385 -0.595118
-27.973 -82.7608 670.662 0.449048 0.78549 -0.425865
-39.5676 -69.7327 662.26 0.216152 -0.813128 -0.540464
-31.9559 -81.8191 668.662 0.467069 0.821643 -0.326726
-40.7473 -76.2281 666.552 0.560943 0.300147 -0.771527
-40.8486 -77.6702 664.574 0.53404 0.482535 -0.694235
-2.27411 -89.0158 553.549 0.475205 -0.809591 -0.34459
-4.35778 -90.8027 555.465 0.455553 -0.8458 -0.277658
-13.0088 -91.43 553.71 0.00559159 -0.807165 -0.5903
-9.49443 -90.1842 551.61 -0.02099 -0.815878 -0.577843
-7.27251 -87.8546 548.407 0.147155 -0.790974 -0.593891
-5.82246 -89.9969 551.854 0.279712 -0.848317 -0.449577
-44.2329 -76.9018 663.176 0.519285 0.47278 -0.711915
23.3607 -83.931 679.507 -0.0675013 -0.842383 -0.534635
30.3111 -78.3653 670.035 -0.032849 -0.84963 -0.526355
33.4808 -78.8085 670.702 -0.0538618 -0.821658 -0.56743
34.529 -83.3731 678.528 0.0312889 -0.873127 -0.486487
36.3777 -84.7493 680.448 -0.0765589 -0.796833 -0.59933
37.5945 -87.3945 683.63 -0.173038 -0.777431 -0.604697
38.0989 -96.1624 696.648 -0.213664 -0.849207 -0.482902
39.7654 -97.9332 699.329 -0.144893 -0.87881 -0.454641
44.322 -95.8045 694.299 -0.0636098 -0.831114 -0.552453
47.407 -95.1972 693.066 0.0267731 -0.81621 -0.577134
47.4197 -98.884 700.305 -0.0433448 -0.89212 -0.449715
49.7091 -100.613 703.111 -0.208525 -0.844501 -0.49329
51.6842 -102.905 705.295 -0.0891647 -0.922312 -0.376018
54.2302 -101.575 703.797 0.128244 -0.915478 -0.381384
63.8002 -83.5768 673.722 -0.127525 -0.798571 -0.588237
67.018 -85.9405 676.524 -0.0721484 -0.800209 -0.595365
70.3488 -83.7608 692.194 0.863809 -0.348947 0.363416
72.0187 -80.1019 690.709 0.88721 -0.226695 0.40183
70.1832 -80.5869 694.281 0.893113 -0.226349 0.388736
68.0832 -80.3554 698.378 0.880953 -0.197151 0.430179
49.5456 -81.4921 724.261 0.672509 0.201257 0.712199
69.7137 -76.4621 696.214 0.908175 -0.16254 0.385744
50.4534 -77.5829 722.544 0.708439 0.160751 0.687221
47.9784 -77.3943 725.062 0.661662 0.152839 0.73406
71.329 -73.1607 695.072 0.852454 -0.167972 0.495084
69.2769 -72.3725 698.159 0.843739 0.110161 0.525328
115.049 140.503 560.195 -0.380917 -0.461322 0.801302
108.799 60.153 648.442 0.869707 0.473411 -0.139611
106.024 63.795 646.434 0.819362 0.55228 -0.153733
107.617 60.3912 644.283 0.838351 0.521869 -0.157543
115.549 46.7438 641.187 0.831992 0.553814 -0.0328686
102.937 63.6424 629.509 0.833948 0.541564 -0.106019
115.021 46.0933 633.766 0.833 0.550745 -0.0528272
116.091 44.8036 630.943 0.858536 0.510026 -0.0528078
122.837 31.9867 635.224 0.670249 -0.353291 -0.65265
121.338 35.1197 633.185 0.837483 0.0637957 -0.542727
119.77 38.3429 630.409 0.952872 0.215552 -0.213475
117.822 40.7818 628.477 0.86798 0.470985 -0.157429
107.112 57.811 624.782 0.862004 0.505591 0.0364337
119.965 31.728 633.745 0.41896 -0.597243 -0.68394
118.492 37.9775 626.864 0.819916 -0.0588104 -0.569456
107.964 55.99 618.144 0.838483 0.538548 -0.0831371
106.009 59.0794 615.991 0.843663 0.522992 -0.121291
103.403 63.1986 613.121 0.815328 0.57658 -0.0528755
107.192 55.9519 613.913 0.860626 0.493018 -0.127496
116.047 31.8256 632.94 0.182666 -0.773699 -0.606649
114.481 33.6241 629.949 0.219808 -0.842565 -0.4917
107.241 55.3611 609.537 0.855354 0.500775 -0.132642
105.069 58.7937 607.145 0.813055 0.566403 -0.134646
111.711 31.3399 632 0.358631 -0.713213 -0.602255
106.827 55.9032 605.117 0.848387 0.495407 -0.186578
106.725 54.4611 603.14 0.969625 0.103072 -0.221817
105.697 55.2848 601.075 0.933614 0.0709436 -0.351187
107.509 48.632 605.971 0.67609 -0.350219 -0.648267
106.428 51.3188 603.778 0.739022 -0.380281 -0.556087
104.109 48.1191 604.915 0.251715 -0.824181 -0.507312
103.587 53.5829 597.142 0.71296 -0.369794 -0.595769
101.54 54.1967 594.091 0.468234 -0.573991 -0.671782
116.667 10.4651 627.13 0.683768 0.5365 -0.4946
99.5914 56.4468 591.243 0.381078 -0.58192 -0.718435
113.233 13.1057 625.211 0.742311 0.510956 -0.433473
94.5615 52.9326 595.269 0.148333 -0.819314 -0.553824
114.224 8.85944 622.863 0.717336 0.519578 -0.464185
114.721 7.24414 621.487 0.714526 0.54778 -0.43519
116.505 2.36579 619.138 0.699393 0.385481 -0.601875
114.225 -43.0682 653.744 0.520196 -0.808902 0.273994
103.063 -44.2924 667.506 0.653121 -0.454463 0.60572
31.1268 -41.6218 755.465 0.130475 -0.613495 0.778845
112.549 -43.1156 650.131 0.186299 -0.949555 -0.252267
109.789 -44.3377 652.276 0.0934455 -0.923773 -0.371365
100.879 -47.7837 668.798 0.70527 -0.478207 0.523366
103.316 -48.2552 665.073 0.717189 -0.570253 0.400564
107.396 -45.452 654.476 0.142362 -0.939479 -0.311629
102.795 -48.971 662.545 0.618732 -0.785554 0.00866498
98.0959 -49.7973 668.993 0.674221 -0.680815 0.286213
8.94892 -37.7394 765.147 0.481419 -0.424717 0.766714
96.4211 -51.099 664.466 0.383713 -0.918592 -0.0946209
99.687 -49.7679 661.494 0.436189 -0.869937 -0.230105
10.1124 -41.0892 763.232 0.541551 -0.238967 0.805989
100.368 -47.714 653.198 0.710221 -0.662056 0.239308
6.28799 -40.791 765.739 0.506339 -0.238063 0.828823
26.0692 -54.3603 633.782 -0.0214713 -0.838723 -0.544134
15.505 -51.253 629.95 0.0391734 -0.830043 -0.556321
12.7319 -49.1886 627.069 0.021329 -0.807543 -0.589422
6.13412 -58.5384 641.474 -0.0336662 -0.868026 -0.495376
3.01462 -55.006 636.091 0.0120574 -0.80242 -0.596638
-1.51938 -58.1135 640.207 0.0107554 -0.863878 -0.503586
-4.89736 -59.1885 642.429 -0.0508374 -0.8631 -0.502469
-13.1603 -70.9506 661.897 -0.0246212 -0.834581 -0.550335
-17.0214 -70.4654 661.64 -0.0874636 -0.850754 -0.518236
-17.4129 -65.4072 653.926 0.114388 -0.835056 -0.538142
-23.6209 -68.4515 657.981 -0.0370353 -0.879254 -0.474911
-23.818 -59.9776 645.237 -0.0485272 -0.814449 -0.578203
-27.1194 -59.3176 644.723 -0.114717 -0.817284 -0.5647
-30.3399 -60.5119 647.141 -0.125911 -0.827947 -0.546489
-31.5009 -49.5499 630.946 0.112954 -0.893813 -0.433981
-31.1074 -33.1981 606.443 0.0485682 -0.879386 -0.473625
-33.0922 -32.2556 604.256 0.0900696 -0.995352 0.0340897
-44.7933 -37.1836 611.989 0.0191182 -0.888772 -0.457952
-45.4829 -35.4056 608.199 0.0129096 -0.952181 -0.305263
-39.7286 -34.2493 604.633 0.31576 -0.786871 0.530217
-31.3249 -38.3374 599.498 0.192489 0.0667088 0.979029
-48.0741 -36.5508 611.695 -0.138024 -0.891026 -0.43246
-79.1504 30.6585 496.677 0.135598 -0.939493 -0.314589
-81.1937 32.0564 493.57 0.198271 -0.937552 -0.285807
-95.6717 18.0727 524.738 0.154772 -0.622336 -0.767296
-84.0743 29.3661 494.416 0.891168 -0.370788 0.261412
-98.9385 21.0171 518.768 0.488492 -0.869125 -0.0774404
-80.6798 29.281 488.657 0.822261 0.313908 0.474709
-101.22 17.9783 520.118 0.926691 -0.178043 -0.330974
-17.9249 -92.8831 575.713 0.82922 -0.339956 0.443649
-18.0176 -97.5316 565.875 0.973569 -0.0265902 -0.226838
-17.7937 -96.5992 570.494 0.994813 -6.54652e-05 0.101725
-17.1612 -96.3978 574.079 0.945487 0.325364 0.013845
-73.9798 30.4168 497.557 -0.124551 -0.907693 -0.400726
-77.1778 30.4027 499.628 -0.0353559 -0.936298 -0.349422
-87.2023 -59.6912 643.975 0.519379 0.482374 -0.70538
-71.7302 31.5292 493.976 0.00899957 -0.915466 -0.402295
-21.4876 -66.7299 594.414 0.300617 -0.265157 0.916145
-66.237 33.413 490.298 -0.151382 -0.90119 -0.406127
-70.4262 30.1256 498.094 -0.0483856 -0.925488 -0.375673
-39.2315 -56.5567 600.041 0.105548 -0.250331 0.96239
-87.9206 -56.0664 644.487 0.265454 -0.24692 -0.931968
-63.4259 30.6004 496.251 -0.0277226 -0.909904 -0.413891
-66.1207 29.5907 498.642 -0.068315 -0.91838 -0.389757
-41.3602 -50.7893 600.495 0.02239 -0.0956642 0.995162
-50.2289 -37.9231 604.715 0.0631967 -0.286947 0.95586
-46.5062 -37.7371 604.389 0.133002 -0.461285 0.877227
-39.0954 -37.5386 602.474 0.302307 -0.267769 0.914828
-51.1792 -37.2841 614.159 -0.0404757 -0.857491 -0.512905
30.3186 -51.3982 629.297 -0.0736693 -0.791225 -0.607071
31.4391 -56.5971 637.077 0.0126832 -0.828149 -0.560365
33.8595 -54.8774 635.025 0.0382408 -0.853858 -0.5191
35.1228 -56.989 637.815 -0.0560916 -0.805435 -0.590025
37.9971 -59.2562 640.661 -0.0898097 -0.786338 -0.611234
39.998 -57.336 637.768 -0.255724 -0.784807 -0.56452
42.7458 -57.1829 635.492 -0.206763 -0.817229 -0.537946
46.0814 -56.2272 633.487 -0.0682192 -0.843409 -0.532923
43.3945 -79.0968 668.719 0.0536932 -0.797572 -0.60083
48.0824 -54.3071 630.593 -0.0430283 -0.790587 -0.610836
49.4045 -56.7408 633.565 -0.0100434 -0.86912 -0.494498
45.5414 -77.1929 666.714 0.0448882 -0.791063 -0.610086
47.5418 -79.3363 669.545 0.027249 -0.835981 -0.548082
51.0148 -74.4092 661.791 0.00615334 -0.869245 -0.494343
51.2402 -79.5772 669.847 -0.0773578 -0.854603 -0.513488
54.6573 -78.7503 667.931 -0.108517 -0.8465 -0.521212
61.8453 -70.1754 652.924 -0.0572254 -0.757538 -0.650278
63.5581 -71.9855 654.577 -0.0161636 -0.877855 -0.478653
-46.9453 -58.8423 763.086 -0.0240328 -0.973943 -0.225518
-49.1735 -59.006 767.197 0.376939 -0.734287 0.56457
66.9879 -67.4645 648.475 -0.203742 -0.799102 -0.56562
64.1289 -68.3636 650.895 -0.0909555 -0.811414 -0.57735
-52.1435 -58.7798 770.218 0.653342 -0.654497 0.380498
-46.1363 -57.3078 767.573 0.316717 -0.630728 0.70843
70.1341 -66.7588 646.004 -0.143031 -0.820011 -0.554187
-53.2441 -53.8361 772.738 0.486216 -0.518868 0.703115
72.2133 -65.3347 643.721 0.00680152 -0.859626 -0.510878
74.0671 -67.1545 646.673 0.0422077 -0.83373 -0.550557
-46.9981 -51.54 771.755 0.0689298 -0.860257 0.505179
-43.6897 -55.968 776.332 -0.289316 -0.402633 -0.868437
84.4876 -48.9234 617.109 -0.216188 -0.803417 -0.554782
86.5595 -47.2129 614.431 -0.0527854 -0.826309 -0.560739
87.9098 -49.5671 617.259 -0.0413178 -0.821131 -0.569242
90.6829 -51.6315 620.14 -0.146448 -0.787624 -0.598499
93.6656 -55.5445 624.358 -0.10916 -0.765068 -0.63463
96.4217 -54.7897 623.287 -0.159301 -0.785448 -0.598076
99.7448 -55.3032 623.365 -0.202561 -0.784232 -0.586472
104.729 -51.6034 615.788 -0.165697 -0.824911 -0.540432
107.224 -55.4137 621.292 0.0120769 -0.887428 -0.460787
112.633 -48.6125 608.723 -0.150139 -0.813102 -0.562427
115.055 -47.9445 606.089 -0.249971 -0.811308 -0.528483
