ply
format ascii 1.0
element vertex 872
property float x
property float y
property float z
property float nx
property float ny
property float nz
end_header
-5.24411 -55.2769 636.044 -0.0621942 -0.802899 -0.592862
3.35535 -62.3126 646.625 -0.00539317 -0.872455 -0.488664
7.55815 -62.7084 647.615 -0.0196479 -0.874713 -0.484243
6.66085 -61.7205 644.748 -0.0308523 -0.86666 -0.497944
8.36703 -59.1911 641.667 -0.0718115 -0.770173 -0.633779
14.6318 -61.6784 644.361 -0.00834147 -0.836571 -0.547795
-24.5977 -11.7855 575.99 -0.0962986 -0.899914 -0.425301
-20.7639 -11.5876 574.056 -0.416548 -0.549509 -0.724243
-21.854 -14.6733 576.752 -0.812774 -0.324081 -0.484119
-0.895657 -28.85 598.165 -0.293272 -0.948064 0.123149
2.31534 -30.1042 599.972 -0.190293 -0.912409 -0.36235
2.51754 -29.9739 596.64 -0.208629 -0.701192 0.681765
-3.09638 -36.938 594.253 -0.175248 0.0889493 0.980498
0.313904 -36.8929 594.945 -0.196084 -0.022357 0.980332
-38.2705 -61.0677 565.641 -0.985918 -0.113975 0.122376
-36.7894 -67.8339 572.276 -0.947568 0.0229806 0.318726
-37.2128 -64.9904 565.441 -0.9809 0.00766781 0.194361
-37.6234 -68.0092 568.142 -0.954924 0.00849975 0.296727
-37.6563 -71.2555 570.153 -0.947625 0.14442 0.284867
-38.5983 -68.1324 563.803 -0.935638 0.116382 0.333222
-39.6282 -69.34 561.733 -0.963105 -0.0931661 0.252487
-37.8454 -69.0593 542.819 -0.689884 -0.548052 -0.472968
-15.0882 -92.0825 566.795 -0.242643 -0.969764 0.0261011
-10.0582 -93.8704 568.616 -0.818159 -0.559915 -0.130809
-13.3449 -85.2869 553.069 -0.520904 -0.491695 -0.697778
-12.91 -81.5587 550.322 -0.638361 -0.50921 -0.577235
-11.2961 -97.1959 566.985 -0.835854 0.547344 -0.0419897
-10.2953 -93.7512 564.72 -0.800807 -0.577082 0.160263
-16.1991 -82.153 552.6 -0.439783 -0.497014 -0.748042
-38.2003 -71.0997 544.46 -0.639232 -0.699144 -0.320281
-39.7465 -69.1294 545.448 -0.750568 -0.609241 -0.255877
-37.4096 -70.3602 547.258 -0.521071 -0.853387 -0.0147217
-37.9086 -72.1187 553.522 -0.71183 -0.668592 -0.215133
-40.5049 -68.5445 553.212 -0.887231 -0.453424 -0.0850166
-38.9412 -72.1876 561.845 -0.970282 -0.214866 -0.111294
-7.77716 -65.3024 591.874 0.00271956 -0.32928 0.944229
57.468 -40.3589 608.302 -0.00303669 -0.832772 -0.553608
53.9086 -39.2032 606.501 -0.161364 -0.811486 -0.561652
15.1371 -36.109 596.506 -0.135935 -0.359059 0.923362
0.527056 -40.3477 595.083 0.00399821 0.0401618 0.999185
-8.31832 -88.4977 688.345 -0.1037 -0.946762 -0.304777
-14.5723 -86.8787 685.396 -0.169227 -0.958198 -0.230692
42.7267 -87.9139 723.148 -0.311749 -0.295952 0.902898
-0.81719 -88.6581 696.207 -0.403343 -0.572925 0.713493
44.5757 -84.5509 724.775 -0.282951 -0.162123 0.945333
38.715 -84.803 722.685 -0.0722063 -0.545565 0.834952
-49.3482 -58.9043 644.151 -0.0813721 -0.876658 -0.474183
-52.8928 -57.9504 642.712 -0.156821 -0.823459 -0.545273
-56.0039 -56.5186 641.694 -0.23947 -0.836496 -0.492877
-62.0129 -51.6915 635.951 -0.163818 -0.810331 -0.562608
-62.0434 -53.6445 639.037 0.0129871 -0.788569 -0.614809
-65.4985 -53.0214 637.752 0.128216 -0.727587 -0.673927
-11.6266 -78.1324 696.906 -0.535274 -0.378404 0.755177
-58.8425 -64.8353 653.451 -0.0697745 -0.759991 -0.646177
-63.8796 -60.0243 647.616 -0.0700488 -0.803305 -0.591435
-12.3981 -75.5836 696.689 -0.584829 -0.348911 0.732281
-10.3878 -74.7975 698.772 -0.486193 -0.396195 0.778875
-65.9171 -66.6496 657.002 -0.00862284 -0.794597 -0.607076
-70.4687 -66.2876 655.754 0.110707 -0.883434 -0.45529
-67.516 -70.774 663.101 -0.3196 -0.870092 -0.375228
-73.4724 -66.8177 657.216 -0.0100751 -0.923256 -0.384053
-77.1447 -67.5878 659.19 -0.11765 -0.918418 -0.377712
-80.8753 -66.98 657.34 -0.0630473 -0.934567 -0.350157
-23.1477 -66.94 697.8 -0.411579 -0.900809 0.138369
-36.6381 -63.2141 686.912 -0.607854 -0.401155 0.685265
-51.0169 -64.7411 678.503 -0.429886 -0.398295 0.810283
-65.8803 -65.9296 669.534 -0.465027 -0.214336 0.858959
-84.347 -66.1273 655.669 -0.0979391 -0.928282 -0.358749
-80.845 -67.0256 661.588 -0.511399 -0.657489 0.553334
-93.6228 -61.0325 649.166 0.048259 -0.777798 -0.626659
-94.2078 -63.6179 651.597 -0.0592347 -0.810923 -0.582146
-97.3747 -62.1209 650.488 -0.25689 -0.865755 -0.429507
-29.8667 -62.7171 700.37 -0.601065 -0.629076 0.492935
-28.3373 -61.8594 702.57 -0.64308 -0.353338 0.679412
-113.394 -55.3944 640.728 -0.110332 -0.80463 -0.583436
-8.2627 -63.5714 722.904 -0.627509 -0.535929 0.564811
-34.89 -55.9854 699.116 -0.681617 -0.467269 0.563079
-113.999 -56.9151 643.445 0.000746319 -0.860326 -0.509744
-61.8151 -51.1525 676.915 -0.484632 -0.136035 0.864075
-116.892 -56.5714 642.028 0.0439188 -0.815506 -0.577079
-11.2678 -60.5522 722.618 -0.639883 -0.594686 0.486721
-91.5325 -53.9987 661.225 -0.292442 -0.436339 0.850933
-121.062 -55.439 640.584 -0.00680935 -0.842958 -0.537937
-61.8441 -48.4476 677.042 -0.526042 -0.20215 0.826084
-120.646 -56.8115 644.403 -0.327957 -0.942767 0.0602894
-8.19626 -62.8188 731.29 -0.298107 -0.899887 -0.318333
-64.5315 -44.7396 676.196 -0.581434 -0.15161 0.799343
-60.8263 -44.8325 679.016 -0.631602 -0.276648 0.724255
-11.2267 -61.1382 730.426 -0.243878 -0.857824 -0.452395
-96.5658 -44.3225 660.031 -0.363533 -0.22893 0.903014
-95.5481 -40.7074 662.005 -0.34635 -0.232506 0.908836
-101.889 -40.8786 660.268 -0.230884 -0.181057 0.955987
-116.808 -41.7931 653.169 -0.203249 -0.315028 0.927064
-100.09 -33.5292 660.319 -0.313875 0.0318214 0.948931
-104.022 -34.0105 659.174 -0.401631 0.0746244 0.912756
-106.427 -30.5635 657.394 -0.430218 0.0534225 0.901143
-8.13053 -62.2438 755.935 -0.567105 -0.078756 0.819871
-106.197 -27.6595 657.277 -0.439905 0.0681908 0.895452
-114.605 -30.8899 654.609 -0.339347 0.126918 0.93206
-7.90068 -59.3398 755.817 -0.559838 -0.592412 0.579335
-108.308 -26.6615 656.537 -0.334823 0.0859959 0.938349
-11.0997 -58.2652 756.258 -0.198368 -0.88519 0.420819
-115.211 -27.7765 653.779 -0.350796 0.138763 0.926114
-141.877 31.8124 654.144 -0.774469 0.220551 0.59292
-144.002 31.1284 651.173 -0.853158 0.146679 0.500606
-160.228 39.9774 629.651 -0.570054 0.177314 0.802246
-184.319 26.8917 615.665 -0.93469 -0.00847139 0.355362
-183.562 29.9734 613.799 -0.939857 0.222408 -0.259237
-163.815 28.4722 629.774 -0.522558 0.186992 0.831846
-184.473 26.6278 611.885 -0.966307 0.167735 -0.19523
-158.045 15.2375 637.36 -0.700227 -0.104282 0.706263
-155.889 15.8117 638.744 -0.598837 0.0684155 0.797943
-127.492 4.45185 663.148 -0.551377 -0.778229 0.300571
-31.8127 -60.4555 779.311 -0.356496 -0.469374 -0.807836
-30.6174 -57.6314 777.512 -0.281347 -0.668553 -0.68839
-116.427 -8.41872 663.621 -0.634667 -0.748607 0.191795
-116.44 -8.27438 659.605 -0.278739 -0.893163 -0.352938
-113.021 -9.4141 660.817 -0.20322 -0.880295 -0.428698
-115.71 -6.41245 653.158 -0.538668 -0.726468 0.426708
-109.453 -8.88008 659.012 -0.383349 -0.891112 -0.242822
-116.723 -8.74253 651.463 -0.416497 -0.289718 0.861739
-134.501 -20.8914 645.795 -0.293107 0.168854 0.941051
-113.567 -9.06027 653.61 -0.676575 -0.344611 0.650761
-135.9 -24.7342 645.955 -0.3808 0.172359 0.908451
-109.374 -9.38758 655.847 -0.452425 -0.682825 0.573639
-118.357 -16.7838 651.227 -0.28068 0.106114 0.953917
-103.374 -14.1459 659.341 -0.600892 -0.442772 0.665494
-120.765 -24.1565 651.533 -0.432385 0.141716 0.890483
-115.534 -22.6227 652.865 -0.383602 0.186507 0.904469
-90.2303 -18.188 670.455 -0.544127 -0.790398 0.28142
-19.3946 -71.9151 661.657 0.00189272 -0.881461 -0.472254
-15.8549 -72.8019 662.976 -0.0364465 -0.860477 -0.508184
-18.6477 -68.0539 655.719 -0.00570454 -0.829139 -0.559014
-17.4612 -66.0921 652.274 -0.105544 -0.840647 -0.5312
-16.8845 -64.1537 649.186 -0.0981521 -0.830939 -0.547637
-13.548 -65.0482 650.624 0.0778604 -0.831531 -0.549994
-25.8137 -46.4053 626.146 0.0108859 -0.811934 -0.583647
-22.1396 -47.3495 628.717 -0.00345335 -0.877175 -0.480158
-24.8013 -42.1649 620.593 -0.131342 -0.790596 -0.598086
-18.6484 -46.2435 625.651 -0.144269 -0.826532 -0.544087
-18.0423 -44.7086 623.286 -0.13318 -0.756446 -0.640353
-15.0983 -45.9444 624.032 -0.196857 -0.806877 -0.556953
-12.3773 -46.9191 624.414 -0.020618 -0.84357 -0.536624
-11.6911 -44.9908 622.352 -0.0958875 -0.719949 -0.687371
-10.406 -42.2505 619.406 -0.160428 -0.716103 -0.679308
-7.79155 -44.2739 620.751 -0.100718 -0.8402 -0.532842
-8.86307 -38.6824 613.595 -0.216407 -0.81123 -0.543207
-3.61316 -43.7165 618.589 -0.167556 -0.797642 -0.579389
-3.04179 -41.083 616.004 -0.0596343 -0.765878 -0.640214
-6.63919 -29.5241 601.754 -0.157336 -0.875482 -0.45692
-7.00915 -31.5362 604.49 -0.123731 -0.773765 -0.621272
-4.34193 -31.2531 603.229 -0.10805 -0.796212 -0.595291
-0.0457005 -32.3096 603.962 -0.109922 -0.801058 -0.588407
-32.9548 -69.7257 577.998 -0.619665 -0.289037 0.729708
-18.6832 -71.3766 587.09 -0.374493 -0.270404 0.886925
-32.5193 -72.415 577.633 -0.645219 -0.314527 0.696251
-15.6662 -74.5501 587.04 -0.220969 -0.286192 0.932345
-19.5682 -74.8589 585.818 -0.360452 -0.20219 0.910601
-29.9685 -75.3737 578.528 -0.712808 -0.275856 0.644832
-35.024 -76.4948 573.224 -0.596285 -0.223718 0.77097
-23.2666 -88.6131 568.457 -0.280482 -0.85253 0.441048
-20.2224 -89.6253 571.022 -0.551407 -0.807344 0.210109
-32.9783 -72.7594 545.567 -0.287976 -0.937056 -0.197474
-32.2102 -72.2472 542.713 -0.24836 -0.884779 -0.394314
-32.1969 -70.1968 538.95 -0.30969 -0.751079 -0.583072
-28.4776 -71.1674 539.824 -0.0569088 -0.878287 -0.474735
-19.8049 -76.9684 550.283 -0.30743 -0.647966 -0.696869
-19.0872 -75.5641 548.101 -0.423941 -0.673197 -0.605871
-18.4754 -72.9241 544.808 -0.694001 -0.637621 -0.334369
-12.7185 -76.1108 534.722 -0.712558 -0.338395 0.614613
-18.0814 -72.5692 536.017 -0.504965 -0.863114 0.00666256
-16.5028 -76.6911 544.881 -0.798626 -0.523861 -0.296253
-12.4636 -89.4974 575.527 -0.249961 -0.801889 0.542673
-16.3903 -90.1605 573.446 -0.187197 -0.869379 0.457315
-15.9304 -88.2304 577.057 -0.130019 -0.786626 0.603584
-22.9203 -87.3371 570.882 -0.488897 -0.815857 0.308798
-21.9624 -84.978 578.77 -0.353558 -0.712747 0.605797
53.3377 -34.0438 598.865 -0.0553278 -0.862419 -0.503162
50.2241 -33.4105 597.79 0.00465105 -0.935798 -0.352506
49.7126 -34.7787 600.56 -0.106635 -0.900108 -0.422416
-14.8253 -81.45 676.765 0.0451109 -0.792176 -0.608623
-15.7097 -83.4285 679.325 0.00750098 -0.85623 -0.516541
-21.1198 -79.181 673.727 0.113234 -0.796338 -0.594159
-19.575 -84.6409 681.512 -0.0926111 -0.929871 -0.356039
-23.2671 -83.6179 679.009 -0.105387 -0.919092 -0.379689
-45.5029 -63.4097 650.421 -0.113956 -0.787051 -0.606271
-23.0292 -84.3475 683.567 -0.262998 -0.936807 0.230704
-46.2055 -65.7858 653.615 -0.165301 -0.847201 -0.504901
-41.3475 -73.6913 665.59 -0.111514 -0.85133 -0.512642
-45.2938 -72.8202 664.51 -0.0715229 -0.835432 -0.544921
-47.6279 -71.561 663.407 -0.0188885 -0.845677 -0.533361
-48.5123 -73.5394 665.967 0.0235932 -0.805249 -0.592467
-54.7487 -69.8883 659.759 0.00971221 -0.821525 -0.570089
-57.6373 -68.8774 659.093 -0.085644 -0.851452 -0.517392
-61.1962 -67.7165 657.42 -0.116826 -0.822233 -0.557031
-61.9927 -71.2523 663.3 -0.00697146 -0.83026 -0.557332
-49.2522 -73.7677 675.886 -0.476134 -0.418799 0.773243
-63.067 -73.6132 666.311 -0.0873258 -0.990339 -0.107718
-15.7402 -70.9501 698.285 -0.426009 -0.751343 0.503984
-19.7033 -71.0468 695.946 -0.479628 -0.610785 0.629998
-12.2579 -70.7818 700.741 -0.410592 -0.8853 0.218309
-12.2026 -70.7262 703.499 -0.242633 -0.955931 -0.165304
-18.7051 -69.2256 698.935 -0.315228 -0.849222 0.423618
-68.7243 -70.7072 666.641 -0.536557 -0.758866 0.369091
-15.6853 -71.0979 705.367 -0.253891 -0.915028 -0.313468
-18.7956 -69.4 704.368 -0.448805 -0.870414 -0.202371
-71.3823 -67.4026 666.519 -0.541729 -0.292856 0.787887
-18.6913 -69.652 707.562 -0.655883 -0.666879 0.35368
-8.26574 -69.4305 718.524 -0.698739 -0.442192 0.562344
-74.0693 -61.3931 666.524 -0.44985 -0.219612 0.865682
-11.0328 -68.6387 716.27 -0.584166 -0.546066 0.600468
-11.1898 -65.8187 718.785 -0.618213 -0.538417 0.572644
-117.127 -50.2354 634.343 0.00983383 -0.808419 -0.588525
-13.5682 -62.5496 718.638 -0.66655 -0.467834 0.580382
-16.3047 -62.1299 715.861 -0.677629 -0.492519 0.546117
-120.686 -49.0797 632.542 0.0769681 -0.758186 -0.64748
-120.905 -51.8701 635.486 0.115846 -0.765791 -0.63257
-16.1944 -59.226 718.338 -0.606115 -0.573206 0.551415
-125.234 -52.7951 637.133 0.0185237 -0.804733 -0.593347
-69.3273 -46.8952 673.117 -0.464145 -0.139976 0.874629
-128.17 -51.8249 635.159 0.082531 -0.768418 -0.634604
-84.1322 -47.7424 665.355 -0.453488 -0.258819 0.852855
-137.73 -45.3377 625.737 -0.0396683 -0.813486 -0.58023
-10.7165 -64.7349 735.611 0.132348 -0.811316 -0.56943
-141.021 -46.1937 627.101 0.0087296 -0.765835 -0.642977
-140.148 -44.3655 624.823 -0.0316731 -0.855453 -0.516911
-142.306 -48.6354 629.957 -0.0794234 -0.842142 -0.533375
-11.6581 -66.6623 737.727 -0.0101967 -0.919311 -0.393399
-16.4443 -62.5301 732.626 -0.0535387 -0.786009 -0.615892
-17.1276 -65.0881 739.69 -0.490859 -0.808536 0.324541
-92.1921 -35.2147 663.893 -0.268225 -0.0796656 0.960056
-7.82493 -67.568 752.609 -0.757411 -0.585953 0.288077
-94.3033 -34.2167 663.154 -0.332689 -0.0189875 0.942845
-94.6295 -31.1636 662.797 -0.420686 0.0859214 0.903128
3.108 -66.8488 763.387 -0.404197 -0.351745 0.844334
-3.52387 -67.0779 758.233 -0.673119 -0.208397 0.709564
-10.6561 -64.4025 752.493 -0.791008 -0.365258 0.490809
-12.3671 -60.3898 750.923 -0.80336 -0.388878 0.450983
-91.8138 -21.2353 665.453 -0.68958 -0.332071 0.643589
-98.695 -21.2847 660.352 -0.410255 -0.160859 0.897672
-15.7183 -57.7544 752.246 -0.363192 -0.931201 0.0309247
-87.7618 -20.6735 670.625 -0.608597 -0.62363 0.490607
-90.7185 -20.0017 668.294 -0.633016 -0.577078 0.516015
-106.183 -21.3291 656.314 -0.446624 0.0316366 0.894162
-133.004 30.0708 665.679 -0.757316 0.404538 0.512662
-142.938 36.903 649.167 -0.817234 0.253959 0.517333
-142.715 33.5476 651.778 -0.769147 0.346466 0.537005
-142.553 29.4307 653.535 -0.84517 0.0842327 0.527819
-183.75 31.8848 615.563 -0.913532 0.231564 0.334421
-141.707 23.1826 656.437 -0.860482 0.21077 0.46384
-164.368 30.722 628.978 -0.48467 0.183561 0.855219
-162.314 27.4509 630.871 -0.544249 0.20547 0.813372
-160.747 21.0955 633.597 -0.609976 0.112256 0.784428
-159.256 21.4644 635.699 -0.614684 0.222344 0.756787
-160.301 16.727 634.655 -0.728449 -0.070104 0.681504
-33.8117 -61.128 780.054 -0.200607 -0.552395 -0.809084
-117.607 -7.06832 657.061 -0.0967912 -0.919328 -0.381402
-111.192 -9.34405 659.745 -0.120337 -0.861294 -0.493652
-132.216 -18.1501 645.676 -0.308206 0.13419 0.941808
-128.54 -17.8396 647.771 -0.428062 0.121529 0.895541
-111.278 -9.76681 655.092 -0.480371 -0.630043 0.610155
-13.7603 -56.5841 761.391 0.229775 -0.874103 0.427958
-123.981 -18.659 649.201 -0.366352 0.082013 0.926855
-120.415 -16.6495 650.522 -0.35575 0.0914659 0.930095
-116.299 -16.9182 651.931 -0.369776 0.105337 0.923131
-122.1 -22.5611 650.058 -0.42935 0.0647433 0.900815
-106.67 -16.7211 656.485 -0.463407 -0.0992771 0.880567
-98.1784 -15.5553 662.891 -0.639316 -0.422094 0.642737
-95.1484 -15.7285 665.953 -0.800813 -0.551651 0.233194
-113.805 -20.7685 653.138 -0.467111 0.100143 0.878509
-99.485 -16.6742 661.054 -0.538499 -0.344554 0.768961
-106.29 -19.6017 656.245 -0.433496 -0.000956477 0.901155
-15.0093 -76.0061 668.409 -0.025099 -0.873471 -0.486229
-14.5174 -74.3689 665.156 -0.0238915 -0.856767 -0.51515
-19.5865 -66.3636 653.107 -0.0589622 -0.814565 -0.577068
-16.0155 -67.28 654.464 -0.0250153 -0.862141 -0.506051
-12.2974 -66.4881 653.225 0.062276 -0.848972 -0.524755
-26.5979 -42.1259 621.448 -0.111876 -0.77016 -0.627962
-27.316 -44.5664 624.261 -0.103759 -0.741826 -0.662517
-21.0159 -46.9657 626.927 -0.0518849 -0.88258 -0.467291
-22.576 -41.241 619.273 -0.0880446 -0.764151 -0.639001
-19.1612 -40.351 618.162 -0.00852197 -0.770333 -0.637585
-14.9431 -39.2955 616.333 -0.0858314 -0.80649 -0.584984
-7.91905 -52.1427 631.683 0.00260467 -0.791674 -0.610938
-11.1267 -40.271 617.419 -0.16309 -0.749815 -0.641233
-6.05233 -43.8099 620.018 -0.108739 -0.827473 -0.550876
-4.37926 -39.5159 613.823 -0.0694727 -0.781847 -0.619588
-5.35346 -33.3075 606.501 -0.120769 -0.78114 -0.612564
-2.52458 -32.9012 605.058 -0.107941 -0.772162 -0.626191
-1.47334 -30.3486 602.12 -0.0792492 -0.788987 -0.609278
-19.4814 -14.239 574.299 -0.924322 0.16421 -0.344477
-21.0543 -17.6955 572.321 -0.872409 0.470482 0.132475
-19.2385 -14.2007 570.05 -0.889039 0.455161 -0.0493823
-20.5902 -70.3613 586.467 -0.390712 -0.312161 0.865968
-16.6944 -70.3404 588.219 -0.278752 -0.307634 0.909757
-12.7756 -69.4102 589.511 -0.156185 -0.256874 0.953741
-31.5249 -71.2643 578.939 -0.667601 -0.422747 0.612857
-34.1256 -70.8076 576.438 -0.758271 -0.262642 0.596694
-13.4789 -72.7484 588.185 -0.186831 -0.33641 0.922996
-29.0892 -74.4725 579.488 -0.747803 -0.334751 0.573352
-14.4948 -76.3446 586.683 -0.16119 -0.249865 0.95477
-34.7338 -74.4837 573.951 -0.647105 -0.282663 0.708065
-29.6787 -77.7802 576.829 -0.675068 -0.457109 0.57908
-32.3744 -77.723 574.522 -0.607296 -0.434937 0.664847
-34.4854 -71.7949 543.057 -0.294854 -0.867625 -0.400359
-31.1223 -73.1212 544.513 -0.165036 -0.940216 -0.297921
-26.7148 -72.5296 546.476 0.116503 -0.936689 -0.330214
-20.3083 -72.5308 546.215 -0.426078 -0.732736 -0.530618
-26.9673 -72.3987 542.415 0.134138 -0.967186 -0.215775
-20.6383 -75.1906 548.977 -0.314628 -0.664136 -0.678184
-26.9983 -70.9121 539.1 -0.101362 -0.91457 -0.39152
-20.8107 -72.5764 531.357 -0.594858 -0.193273 0.78025
-14.419 -75.1216 536.27 -0.642902 -0.750204 0.1545
-15.1498 -77.9237 533.673 -0.491851 -0.104233 0.864418
-19.6735 -71.5587 534.143 -0.500612 -0.828531 0.250845
-22.699 -71.8395 530.981 -0.443935 -0.508476 0.737817
-16.6816 -72.7125 536.064 -0.595728 -0.796912 0.100195
-15.3705 -78.6516 546.845 -0.629498 -0.722172 -0.286704
-15.3147 -80.1746 550.04 -0.411532 -0.747627 -0.521244
-17.8241 -77.6767 549.419 -0.557443 -0.656052 -0.508776
-18.4763 -90.2273 572.82 -0.417841 -0.846416 0.330134
-17.6098 -86.4113 578.608 -0.220748 -0.739402 0.636046
-24.238 -85.5712 573.647 -0.496778 -0.799872 0.336773
-23.9977 -84.2516 577.324 -0.578639 -0.721309 0.380645
-27.2071 -83.7489 574.576 -0.509542 -0.693497 0.509342
-16.313 -83.8927 581.686 -0.14294 -0.716793 0.682478
-20.1822 -84.3455 579.95 -0.249772 -0.714963 0.653025
-29.7748 -80.6505 574.951 -0.629457 -0.528633 0.569501
54.6752 -35.6109 601.045 -0.0959368 -0.856721 -0.506779
53.9603 -36.9869 603.934 -0.172646 -0.840021 -0.514351
51.4566 -36.3302 602.503 -0.138555 -0.894052 -0.425996
-16.34 -79.6626 674.576 0.0130678 -0.793452 -0.608492
-19.7222 -78.7272 672.783 -0.0138286 -0.841627 -0.539883
-16.8363 -83.8407 680.408 0.00980772 -0.859472 -0.511089
-23.476 -80.679 674.646 0.052505 -0.808984 -0.585481
-24.1588 -82.5732 677.555 -0.123245 -0.849729 -0.512612
-26.7159 -81.0528 676.089 -0.0771772 -0.862842 -0.499546
-41.3672 -68.4717 656.8 -0.167882 -0.836344 -0.521866
-44.9794 -67.2223 655.614 -0.176988 -0.83478 -0.521361
-42.685 -72.1242 663.41 -0.110353 -0.849539 -0.515854
-43.9563 -74.3873 666.69 -0.0379901 -0.823239 -0.566423
-43.6155 -76.2622 669.949 0.0322828 -0.830227 -0.55649
-47.5646 -75.4195 668.161 0.025782 -0.787613 -0.615631
-55.9751 -68.6115 657.749 0.0785775 -0.813078 -0.576827
-56.5228 -70.1833 660.91 -0.116007 -0.837722 -0.533633
-57.6593 -72.2789 664.032 -0.0911982 -0.879166 -0.467708
-63.377 -69.8412 661.429 0.0362808 -0.78661 -0.616383
-67.6043 -69.6619 660.024 -0.133502 -0.784689 -0.605343
-13.7656 -71.3715 699.179 -0.408358 -0.748156 0.522978
-70.191 -67.6399 658.74 -0.106443 -0.841006 -0.530452
-71.184 -69.4594 661.824 -0.298428 -0.862923 -0.407804
-14.2722 -70.909 704.293 -0.202452 -0.922071 -0.329845
-70.8144 -69.4425 665.956 -0.575153 -0.520786 0.630857
-74.0885 -68.9759 663.196 -0.338562 -0.856207 0.390238
-20.3072 -68.2602 701.862 -0.411791 -0.911074 0.0192817
-23.5723 -66.2046 702.372 -0.571129 -0.76865 0.288078
-13.4935 -68.0918 714.438 -0.698677 -0.434675 0.568251
-25.9003 -64.8839 702.8 -0.59505 -0.664814 0.451595
-15.4787 -64.357 714.384 -0.732077 -0.46571 0.497169
-12.7299 -64.6285 717.834 -0.66638 -0.434681 0.605797
-121.251 -45.4035 627.62 -0.0779086 -0.835666 -0.543684
-11.4317 -63.6223 720.316 -0.63814 -0.442966 0.629729
-121.445 -47.2677 630.526 0.0440633 -0.766642 -0.640561
-125.249 -46.7487 629.105 0.0483557 -0.788495 -0.613138
-124.015 -52.7484 636.418 -0.0058884 -0.793389 -0.608686
-128.467 -47.4679 630.562 0.0847228 -0.76459 -0.638924
-129.298 -50.3101 633.157 0.111945 -0.745023 -0.657578
13.8311 -73.6947 754.184 0.43161 -0.902057 -0.00261817
-136.699 -46.9306 627.743 -0.025245 -0.781767 -0.62306
-139.698 -47.9395 628.857 0.0152854 -0.816291 -0.577438
-12.0915 -63.3857 733.468 -0.0177322 -0.792817 -0.609202
-143.551 -47.4338 628.144 -0.0405439 -0.838904 -0.542768
-12.7855 -66.5826 739.851 -0.278888 -0.950256 -0.138687
-19.0531 -63.226 733.726 -0.253327 -0.822973 -0.508469
-19.1808 -64.0293 737.965 -0.610392 -0.725806 0.317219
-16.3038 -63.9167 741.173 -0.596453 -0.666584 0.447112
0.636967 -71.3897 759.805 -0.398745 -0.57319 0.71586
-12.0587 -65.6855 748.304 -0.740877 -0.544264 0.393545
-88.8754 -29.1841 664.817 -0.359013 -0.0411679 0.932424
0.090222 -69.0831 760.423 -0.462083 -0.482725 0.743946
-91.7324 -29.4067 663.658 -0.345749 -0.0210492 0.938091
2.10054 -68.297 762.506 -0.453285 -0.368203 0.811763
-2.02101 -68.0851 759.683 -0.609254 -0.241784 0.755215
-11.8204 -62.6963 750.306 -0.870923 -0.243402 0.426907
-87.197 -25.5437 666.404 -0.440056 -0.392599 0.8076
-10.5838 -62.4792 753.831 -0.80634 -0.131596 0.576626
-90.189 -22.6174 666.387 -0.647044 -0.408751 0.643627
-101.965 -26.462 658.981 -0.386502 0.0814632 0.918684
-86.6539 -22.6849 669.501 -0.527738 -0.663879 0.529866
-100.315 -23.298 659.555 -0.354277 0.00936094 0.935094
-104.405 -23.4754 657.809 -0.471651 0.027092 0.881369
-92.6034 -19.2038 666.147 -0.72514 -0.502811 0.470481
-98.9382 -18.9807 660.437 -0.526525 -0.329829 0.783571
-154.858 49.393 632.436 -0.682639 0.00306317 0.73075
-152.295 47.9294 635.315 -0.830477 -0.0381059 0.555748
-143.487 42.2895 647.184 -0.774585 0.231635 0.588527
-152.746 48.395 633.175 -0.6522 -0.0482782 0.756508
-152.533 44.9402 633.313 -0.57128 0.0523215 0.819086
-146.408 36.1609 643.195 -0.874458 0.20041 0.441768
-144.073 22.5249 653.288 -0.85001 0.123258 0.512143
-148.043 35.2047 640.622 -0.809204 0.263933 0.524908
-150.438 31.395 638.803 -0.738654 0.29114 0.60797
-145.66 22.493 650.111 -0.863085 0.118017 0.491077
-145.661 18.7258 651.728 -0.838661 0.0727176 0.539778
-149.703 22.1974 644.124 -0.779384 0.271763 0.564541
-148.416 14.8568 646.773 -0.803881 -0.182792 0.566006
-146.821 15.5148 649.739 -0.826151 -0.188886 0.530845
-147.57 12.2209 647.111 -0.647663 -0.293201 0.703254
-117.106 -1.24139 676.073 -0.223296 -0.92472 -0.308272
-113.713 -2.9712 678.253 -0.431595 -0.857991 -0.278527
-116.115 -1.88695 671.425 -0.534819 -0.732495 0.421213
-109.857 -5.35898 678.643 -0.573681 -0.80984 0.122673
-123.219 -3.02964 662.488 -0.654506 -0.590962 0.471577
-124.188 -3.70959 659.04 -0.68691 -0.603862 0.404359
-131.041 -3.37441 651.446 -0.480147 -0.865577 -0.142251
-110.878 -9.08773 672.118 -0.742765 -0.542727 0.392107
-42.6027 -58.261 760.335 -0.0327493 -0.902761 -0.428895
-38.9823 -58.6552 762.991 0.120004 -0.975573 -0.184003
-28.5047 -55.4456 769.189 0.200528 -0.966002 0.163185
-24.4946 -55.5268 771.83 -0.168403 -0.80248 -0.572421
-127.761 -4.04965 652.663 -0.118636 -0.992748 -0.0194163
-124.309 -4.73268 654.871 -0.43528 -0.89787 -0.066039
-39.0157 -57.4921 758.344 -0.00587563 -0.920709 -0.390204
-101.82 -15.1028 678.634 -0.667849 -0.683125 0.295495
-99.2784 -16.0282 681.045 -0.605339 -0.713676 0.352464
-24.6026 -55.3018 766.761 0.0961455 -0.951992 0.290631
-123.908 -3.41398 650.711 -0.129324 -0.987565 -0.0893919
-124.057 -4.24241 647.915 -0.261094 -0.704215 0.660236
-105.217 -15.4376 671.879 -0.700035 -0.711352 0.0626803
-99.0442 -18.0448 678.234 -0.636888 -0.701864 0.318999
-126.468 -11.6435 647.514 -0.301785 0.139467 0.94312
-102.796 -16.5842 670.028 -0.415815 -0.818021 -0.397417
-31.2383 -54.4478 751.291 -0.21152 -0.878822 -0.427706
-127.088 -14.8605 647.646 -0.40632 0.104571 0.907727
-99.3388 -18.004 671.015 -0.0515879 -0.872484 -0.485912
-28.1086 -55.9013 752.339 -0.211572 -0.915874 -0.341193
-98.8013 -15.4107 668.078 0.0976977 -0.746417 -0.658268
-97.976 -13.0265 665.502 -0.413079 -0.893955 -0.173813
-24.6881 -56.2198 751.159 -0.0673822 -0.789595 -0.609917
-24.5364 -56.9666 753.968 0.00724513 -0.958426 -0.28525
-23.3288 -52.9845 747.71 -0.351185 -0.89774 -0.265956
-6.89043 -86.5622 685.077 -0.0342209 -0.846212 -0.531747
-2.81687 -83.461 680.336 -0.0118236 -0.847648 -0.530427
-3.63085 -85.7065 683.349 -0.040292 -0.823179 -0.566351
-30.685 -53.9501 636.093 -0.0391893 -0.779324 -0.625394
-26.3887 -55.0065 636.826 -0.0739099 -0.761633 -0.64378
-23.5718 -56.3183 638.283 0.0228423 -0.789419 -0.613429
-23.3267 -53.9597 635.356 0.00357567 -0.760314 -0.649546
-16.8989 -58.1073 641.159 0.0105138 -0.787511 -0.616211
-13.7306 -59.5901 642.621 -0.0595858 -0.788492 -0.612152
-9.52597 -60.2669 643.339 0.000144477 -0.774669 -0.632366
-9.26116 -56.2538 638.081 -0.0318002 -0.814896 -0.578734
-8.18946 -54.0552 634.946 -0.0278545 -0.848751 -0.528059
-4.58116 -53.023 633.474 0.0395723 -0.791048 -0.610472
-1.46901 -53.6706 634.196 -0.0662925 -0.788321 -0.611683
-0.584562 -51.6921 631.636 -0.0783497 -0.806596 -0.585887
5.3703 -55.9216 637.325 -0.0534646 -0.88038 -0.471247
6.60412 -52.3042 630.57 -0.0479544 -0.842991 -0.535786
5.43066 -29.9211 598.537 -0.221589 -0.930592 0.291372
8.78813 -31.3042 598.579 -0.34685 -0.934046 0.085163
12.1581 -32.2198 600.473 -0.124241 -0.971345 -0.202614
-39.0884 -57.9346 563.82 -0.938917 -0.107568 0.326902
-40.3238 -58.1403 560.578 -0.908021 -0.0686825 0.413256
-39.3732 -61.5103 561.7 -0.892993 0.0318612 0.448942
-43.5706 -59.1436 554.97 -0.973482 -0.0199622 0.227893
-43.2427 -58.0521 552.801 -0.994913 0.0811689 -0.0596719
-40.3479 -65.6992 559.788 -0.941235 -0.079399 0.328286
-41.3654 -65.091 554.846 -0.99076 -0.123021 0.0570936
-40.5298 -68.3946 557.806 -0.913629 -0.344622 0.215681
-30.0733 -79.178 554.306 -0.411426 -0.596885 -0.688808
-30.961 -82.221 556.79 -0.459877 -0.521308 -0.718854
-27.981 -85.0594 558.426 -0.207965 -0.774644 -0.597224
-23.8928 -84.1081 556.602 -0.201858 -0.620508 -0.757776
-19.5284 -84.2817 555.176 -0.246714 -0.582156 -0.774743
-18.5973 -89.99 560.592 -0.312627 -0.866343 -0.389504
-13.0635 -97.9438 560.653 -0.816812 0.572482 0.0712928
-9.83834 -84.7264 547.194 -0.933856 -0.286274 -0.214381
-13.931 -97.5884 556.396 -0.773218 0.595527 0.217901
-9.83227 -87.7475 549.615 -0.926942 -0.321474 -0.193478
-12.066 -84.2135 550.19 -0.74379 -0.470447 -0.474822
-16.977 -85.8589 555.229 -0.377808 -0.645381 -0.663886
-33.594 -78.8134 557.277 -0.743282 -0.385137 -0.546993
-35.7781 -75.47 557.718 -0.793195 -0.518522 -0.319339
-38.6094 -72.3045 557.602 -0.821207 -0.564174 -0.0855962
64.8326 -48.8927 622.415 -0.0788658 -0.827924 -0.555267
12.5563 -32.8631 597.211 -0.0933546 -0.77779 0.621552
46.7907 -87.3047 724.876 -0.195125 -0.328739 0.924044
-52.0754 -55.5855 639.783 -0.120874 -0.755047 -0.644432
-2.77 -82.2908 698.689 -0.442933 -0.467545 0.764992
-17.5125 -82.951 689.716 -0.454468 -0.480445 0.750088
-53.3847 -59.5875 645.964 -0.234947 -0.855747 -0.460975
-53.9881 -61.0941 649.035 -0.0748329 -0.837187 -0.541772
-16.2891 -79.3507 691.725 -0.529677 -0.407145 0.744094
-19.8987 -79.5972 689.921 -0.405154 -0.333744 0.851155
-54.5382 -63.4643 652.14 0.00461072 -0.783317 -0.621605
-57.8746 -62.5698 650.702 0.0448663 -0.786701 -0.615701
-5.84151 -78.8389 699.27 -0.444303 -0.534594 0.718891
-0.859217 -77.4095 703.203 -0.401018 -0.509876 0.761059
-7.95274 -77.8409 698.531 -0.415334 -0.416057 0.808946
-67.1456 -55.8763 640.562 -0.0729288 -0.773995 -0.628977
-67.2225 -57.6466 643.465 -0.111359 -0.875432 -0.470338
-67.8016 -59.287 646.768 -0.0397388 -0.848929 -0.527011
-0.6796 -75.2085 709.719 -0.148065 -0.940991 -0.304322
-28.0328 -70.1712 689.669 -0.50699 -0.427109 0.748692
-57.0537 -72.011 672.132 -0.423559 -0.533732 0.731934
-80.9425 -57.3194 643.86 0.00333549 -0.818506 -0.574488
-82.4367 -59.3213 646.777 -0.0753309 -0.814531 -0.575209
-26.8908 -66.5288 692.137 -0.592952 -0.536804 0.600207
-30.799 -66.394 689.953 -0.439395 -0.565385 0.698048
-56.4433 -68.7061 674.579 -0.416037 -0.361591 0.834365
-59.8077 -68.7705 672.366 -0.502593 -0.326046 0.800684
-84.7709 -58.0621 645.675 -0.0321376 -0.818311 -0.573877
-83.5201 -64.3592 652.764 0.0990759 -0.803735 -0.58668
-26.58 -65.7083 695.287 -0.457355 -0.888082 0.0462227
-87.5694 -63.5061 651.389 -0.0612913 -0.840938 -0.537649
-90.2098 -62.2727 650.112 -0.0398699 -0.809302 -0.586039
-27.0394 -65.9205 699.543 -0.473108 -0.838242 0.271145
-30.0322 -64.7761 697.386 -0.526218 -0.841467 0.12259
-39.2041 -59.6854 690.849 -0.583427 -0.806526 0.0955429
-52.3977 -57.3484 679.788 -0.472092 -0.37005 0.80012
-67.5244 -58.6742 671.343 -0.450914 -0.326307 0.830783
-82.4483 -59.6361 663.067 -0.416303 -0.370476 0.830325
-97.729 -61.7944 654.75 -0.396948 -0.788075 0.4705
-38.5866 -59.0851 693.653 -0.66656 -0.521485 0.532683
-51.9635 -53.9214 682.353 -0.506574 -0.463593 0.726955
-55.7867 -54.4976 679.788 -0.467789 -0.430774 0.771756
-66.5437 -55.1867 673.4 -0.485235 -0.288578 0.825391
-69.9032 -55.7942 671.203 -0.478821 -0.263613 0.8374
-110.609 -58.6734 644.918 -0.254408 -0.876618 -0.408434
-29.3298 -59.0305 702.46 -0.680487 -0.421771 0.599206
-81.4675 -56.4908 665.413 -0.572999 -0.379157 0.726576
-84.6254 -56.403 662.828 -0.612304 -0.254378 0.748582
-37.4763 -55.5404 696.62 -0.66313 -0.480006 0.574328
-96.481 -57.9719 657.324 -0.347437 -0.320194 0.881342
-99.9997 -58.1458 655.505 -0.504989 -0.166768 0.846862
-111.283 -59.5369 648.494 -0.481081 -0.868059 0.122618
-44.6932 -53.2154 690.611 -0.785661 -0.479991 0.390315
-114.312 -58.6866 646.683 -0.322753 -0.926643 -0.192776
-31.7649 -55.9871 702.701 -0.652496 -0.496343 0.572619
-37.8113 -52.808 699.236 -0.650824 -0.567106 0.504795
-40.731 -52.3997 696.628 -0.658123 -0.540084 0.52458
-43.9025 -52.4759 693.409 -0.675951 -0.482767 0.5568
-34.2028 -52.9721 702.236 -0.578863 -0.552638 0.59959
0.845041 -69.26 741.948 -0.0984037 -0.845955 -0.524096
-2.99948 -69.8291 743.622 -0.100967 -0.807953 -0.580532
-108.264 -48.4711 654.987 -0.493715 -0.482978 0.723172
-110.565 -44.8946 654.448 -0.607451 -0.229199 0.760573
-1.27808 -74.0168 754.965 -0.597149 -0.779672 0.18848
-107.356 -45.3732 657.639 -0.28097 -0.42538 0.860295
-102.308 -30.8038 659.51 -0.316004 0.0865597 0.944801
-118.232 -35.2009 653.736 -0.286288 0.0100152 0.958091
-121.116 -31.6636 652.543 -0.425556 0.16261 0.890202
-141.374 38.2115 650.524 -0.775207 0.228201 0.589049
-143.698 34.6769 649.684 -0.797544 0.323193 0.509382
-141.497 27.3917 655.205 -0.849385 0.121019 0.513711
-183.081 31.1012 616.654 -0.913532 0.231564 0.334421
-141.189 21.4139 658.699 -0.878402 0.300882 0.371323
-165.593 30.6185 628.28 -0.523304 0.212273 0.825284
-184.894 23.6099 613.07 -0.918818 -0.309335 0.245124
-159.319 19.1345 635.439 -0.684684 0.0796222 0.724478
-162.211 18.8541 632.884 -0.599388 -0.028922 0.799936
-118.823 -5.54052 654.433 -0.240555 -0.927504 -0.286127
-115.251 -6.80229 657.182 -0.301363 -0.945501 -0.123321
-139.009 -20.9641 643.693 -0.311773 0.129213 0.94133
-112.314 -7.98542 657.282 -0.392494 -0.919206 0.0317467
-129.432 -16.7949 646.318 -0.387119 0.0801378 0.918541
-130.218 -20.5859 646.827 -0.42373 0.198002 0.883882
-122.919 -15.9928 649.09 -0.395964 0.109818 0.911676
-121.867 -19.6286 650.647 -0.393542 0.0967202 0.914204
-113.292 -15.8241 652.937 -0.401818 0.103133 0.909893
-106.423 -15.1505 656.775 -0.598921 -0.107004 0.793627
-116.157 -19.2213 652.023 -0.370469 0.095074 0.923966
-112.517 -18.335 654.096 -0.450042 0.143579 0.88139
-99.8585 -14.2285 661.665 -0.493082 -0.543035 0.679693
-93.4213 -16.9827 668.119 -0.652624 -0.750419 0.104658
-12.4791 -57.7837 758.368 0.0686634 -0.968078 0.241059
-116.986 -25.6018 652.991 -0.310151 0.142842 0.939895
-108.679 -19.0472 655.702 -0.338269 0.0641099 0.938863
-16.3468 -74.439 666.228 -0.0338183 -0.867507 -0.496274
-12.4005 -75.3102 667.309 -0.0171487 -0.866957 -0.498088
-21.0787 -64.9103 651.215 -0.113769 -0.818025 -0.563819
-14.7014 -68.925 656.8 -0.0101772 -0.844728 -0.5351
-14.6554 -66.7655 652.821 0.0178403 -0.856161 -0.516401
-11.236 -67.9409 655.382 0.0534607 -0.827368 -0.55911
-28.9018 -42.8101 622.369 -0.0627729 -0.778544 -0.624443
-25.7062 -43.1706 622.901 -0.105783 -0.767774 -0.631928
-22.4833 -45.5029 624.752 -0.0611942 -0.81912 -0.570348
-20.8222 -42.927 621.457 -0.0138568 -0.780874 -0.624534
-17.8237 -41.9181 620.343 -0.0370618 -0.75438 -0.655391
-13.6056 -40.8626 618.514 -0.106292 -0.764363 -0.635965
-8.8107 -51.098 630.229 0.0126344 -0.758341 -0.651736
-12.5277 -38.7418 615.594 -0.0463388 -0.789425 -0.612095
-6.61039 -41.617 617.809 -0.184022 -0.746954 -0.638902
-5.80695 -37.5549 611.981 -0.101358 -0.769926 -0.630032
-4.66549 -35.3962 608.705 -0.156867 -0.787869 -0.595529
-1.57682 -34.7812 607.253 -0.0871236 -0.771235 -0.63056
-2.59971 -28.8813 600.013 -0.0953577 -0.956912 -0.274275
-19.0693 -13.3691 572.493 -0.927282 -0.0382074 -0.372409
-20.544 -16.9052 574.41 -0.961316 0.216805 -0.169902
-20.9861 -16.8127 570.162 -0.828758 0.551812 0.0930822
-15.1386 -70.9764 588.734 -0.276862 -0.307625 0.910338
-29.172 -72.1693 581.03 -0.745952 -0.334942 0.575648
-22.2514 -71.741 585.29 -0.375369 -0.252976 0.891685
-35.6619 -69.3107 574.454 -0.901132 -0.0702809 0.42781
-30.2969 -73.0303 578.121 -0.648778 -0.364271 0.668127
-34.1532 -73.1546 575.169 -0.756311 -0.215445 0.617719
-36.4416 -72.7346 572.472 -0.825794 -0.0667732 0.560006
-31.3146 -76.6454 576.147 -0.610561 -0.403472 0.681488
-17.0966 -78.4686 585.835 -0.214566 -0.449323 0.86722
-28.6566 -79.95 576.269 -0.658923 -0.49863 0.563195
-35.7424 -69.5208 541.06 -0.520543 -0.644905 -0.559582
-29.7936 -73.6527 547.271 0.00807858 -0.964396 -0.264339
-26.2564 -72.3606 545.17 0.112872 -0.966885 -0.228897
-22.3073 -73.2033 546.958 -0.153679 -0.753371 -0.639386
-29.7107 -72.9465 543.085 0.0279475 -0.964548 -0.262423
-28.2488 -69.4722 536.499 -0.149639 -0.879052 -0.452632
-22.4089 -73.2902 530.449 -0.443625 -0.0593758 0.894244
-18.5039 -73.4108 532.266 -0.491952 -0.458138 0.740333
-15.6546 -74.0639 534.463 -0.475803 -0.726915 0.495183
-16.2588 -76.561 533.268 -0.495727 -0.121858 0.859887
-22.0876 -70.7154 532.299 -0.517965 -0.766343 0.38004
-15.6433 -73.9503 537.289 -0.618567 -0.759916 -0.199756
-13.5724 -80.1078 549.02 -0.573236 -0.709932 -0.409142
-16.4292 -78.8686 548.223 -0.550792 -0.746656 -0.373006
-16.7825 -79.7328 551.508 -0.460783 -0.660613 -0.59268
-16.7587 -76.8801 547.791 -0.663702 -0.586936 -0.463686
-19.4823 -88.5119 574.807 -0.415192 -0.817383 0.399375
-19.3348 -86.683 578.095 -0.254877 -0.761411 0.596063
-22.9998 -86.3377 575.088 -0.521117 -0.762285 0.383874
-25.9459 -85.6221 572.594 -0.349716 -0.823631 0.446465
-15.3822 -85.9431 579.641 -0.11772 -0.706127 0.698231
-25.6699 -83.7031 575.523 -0.550529 -0.697417 0.458833
-18.5406 -84.3609 580.652 -0.205794 -0.689629 0.694306
-31.309 -79.9627 573.607 -0.506207 -0.536843 0.674947
53.1507 -35.6693 601.938 -0.0903594 -0.860424 -0.501504
53.2399 -38.4197 605.41 -0.165232 -0.837188 -0.521359
-17.6937 -78.4581 672.764 0.0300403 -0.825879 -0.563047
-17.9389 -80.8167 675.691 0.00391938 -0.810241 -0.586083
-18.2294 -82.465 678.353 0.026333 -0.806012 -0.591313
-21.9397 -82.1902 676.469 0.0966456 -0.783579 -0.61373
-25.4963 -81.0061 675.375 -0.113996 -0.866283 -0.486373
-39.4259 -69.3022 656.56 -0.12938 -0.832353 -0.538933
-25.5718 -82.7622 678.63 -0.122233 -0.884255 -0.450724
-42.7232 -66.8829 654.589 -0.144182 -0.832103 -0.535552
-43.7903 -69.1286 657.986 -0.158182 -0.84513 -0.510621
-43.9193 -70.7924 661.39 -0.106015 -0.84864 -0.518238
-42.6188 -75.9543 668.871 0.00755863 -0.835595 -0.549294
-46.0483 -76.9466 670.261 -0.0720095 -0.88864 -0.452916
-45.2873 -74.3034 667.223 -0.0260513 -0.818888 -0.573361
-57.3683 -66.9791 655.477 -0.0133266 -0.784073 -0.620526
-55.0738 -71.881 663.272 -0.0763514 -0.866078 -0.494043
-59.155 -70.9572 662.165 -0.0762354 -0.84719 -0.525792
-64.6354 -68.1514 659.092 -0.0306632 -0.759502 -0.649782
-66.4426 -71.2519 661.903 -0.115172 -0.865209 -0.488006
-71.0826 -66.5951 657.286 0.0469333 -0.902806 -0.427479
-69.7351 -71.157 664.187 -0.422549 -0.881603 -0.210307
-15.0283 -69.678 701.858 -0.384764 -0.922635 0.0264715
-72.5863 -68.977 664.161 -0.513552 -0.697921 0.499169
-17.9144 -68.4861 701.733 -0.245935 -0.967522 -0.0584545
-22.106 -67.8008 699.599 -0.434471 -0.893091 0.116724
-22.3726 -67.4552 703.832 -0.577761 -0.784742 0.224438
-15.2657 -66.4903 712.824 -0.690855 -0.41189 0.594193
-13.6688 -65.3312 716.185 -0.695648 -0.454683 0.556181
-119.913 -46.9706 629.8 -0.0310241 -0.803671 -0.594265
-9.82789 -64.8871 721.371 -0.600079 -0.435799 0.670808
-122.665 -45.6067 628.341 0.0416332 -0.792769 -0.608099
-124 -48.2113 631.14 0.0622477 -0.75962 -0.647382
-124.879 -50.5813 634.034 -0.0102335 -0.778918 -0.627043
-127.649 -49.4523 632.762 0.10422 -0.739707 -0.66481
-130.636 -48.743 630.976 0.148505 -0.750015 -0.644534
11.0526 -74.9932 754.955 0.392592 -0.910744 0.128131
-13.3853 -61.595 731.547 -0.0412787 -0.785643 -0.617301
-138.55 -49.1178 631.184 -0.0236299 -0.852605 -0.522021
-145.111 -45.6056 625.6 0.00854734 -0.825573 -0.564231
-13.7758 -64.181 734.274 -0.037191 -0.806074 -0.590645
-14.3792 -65.6876 737.344 -0.300004 -0.886977 -0.351098
-17.7156 -64.7931 735.906 -0.299933 -0.916814 -0.263613
-14.7764 -65.377 742.11 -0.552502 -0.764724 0.33157
-21.2879 -62.7527 735.648 -0.708697 -0.705085 0.0245911
2.31291 -70.2117 761.344 -0.245582 -0.586396 0.7719
-1.86468 -70.7117 758.904 -0.578367 -0.546828 0.605368
-13.4828 -64.188 746.127 -0.753304 -0.495728 0.432189
-90.3473 -31.8943 664.46 -0.362178 0.0459724 0.930975
-97.4885 -31.4051 661.167 -0.471463 0.0622766 0.879684
-0.847188 -67.099 760.818 -0.600311 -0.128874 0.789315
-13.1949 -61.2568 748.209 -0.723678 -0.459469 0.514955
-85.4801 -24.2294 667.671 -0.512114 -0.551131 0.658783
-87.8467 -23.3958 668.04 -0.504747 -0.643123 0.575867
-102.851 -25.3604 658.94 -0.41702 0.0463292 0.907716
-102.674 -21.5927 658.788 -0.417371 0.0141788 0.908626
-94.4012 -18.0557 664.51 -0.666688 -0.499015 0.553634
-97.5679 -17.8215 661.977 -0.504293 -0.34583 0.791259
-101.049 -17.9827 659.698 -0.481134 -0.0994709 0.870985
-104.678 -18.1291 657.494 -0.553439 -0.0621485 0.830568
-141.447 14.6205 762.932 -0.969138 0.127487 -0.210994
-140.262 15.0138 760.081 -0.949653 0.0492155 -0.309413
-139.528 -8.88091 773.069 -0.254015 -0.541463 0.801432
-138.647 18.4283 757.663 -0.913668 0.158065 -0.374468
-140.103 -13.0468 771.116 -0.273964 -0.439415 0.855487
-138.917 14.6811 756.197 -0.943574 0.125128 -0.306612
-136.24 -12.5133 772.707 -0.378819 -0.33959 0.860915
-140.392 -13.5766 753.028 -0.350507 -0.571064 -0.742314
-139.23 -6.39673 747.845 -0.830067 0.00321369 -0.557655
-136.113 -13.6301 754.493 0.195843 -0.804382 -0.560905
-132.818 14.7689 738.831 -0.900874 0.261959 -0.346127
-138.151 -9.35283 747.535 -0.426333 -0.642055 -0.637186
-128.992 28.5616 734.015 -0.935583 0.0154413 -0.35277
-131.65 18.3498 736.609 -0.941891 0.239822 -0.235216
-132.825 -12.2071 753.361 0.180245 -0.804491 -0.565956
-130.347 21.6519 734.45 -0.921749 0.210063 -0.325962
-131.841 -9.8898 750.433 0.174074 -0.845742 -0.504399
-128.708 24.6988 732.721 -0.924938 0.18061 -0.33447
-132.302 14.5175 734.845 -0.954841 0.200046 -0.219684
-125.66 -13.316 756.561 -0.0043124 -0.809225 -0.587484
-129.487 20.9602 730.713 -0.929692 0.264672 -0.256166
-125.31 -11.3267 753.649 -0.0313492 -0.809827 -0.585831
-131.588 13.9127 731.025 -0.934377 0.182926 -0.305743
-130.051 17.5441 729.154 -0.925895 0.22471 -0.303685
-130.024 14.8203 728.556 -0.927864 0.190938 -0.320328
-121.653 -12.1382 754.825 0.103528 -0.807892 -0.580165
-118.014 -12.615 756.503 0.0582862 -0.850954 -0.521996
-127.507 12.9023 720.131 -0.857176 0.126464 -0.499256
-60.1062 -34.0077 808.792 -0.703206 0.369933 -0.607167
-59.2059 -31.0708 807.255 -0.956377 0.0283441 -0.290758
-57.8531 -33.1833 806.626 -0.973561 -0.138633 0.18155
-123.318 17.5517 716.186 -0.80024 0.0184461 -0.599397
-124.656 14.2009 717.802 -0.648045 -0.068711 -0.758496
-59.8421 -34.315 804.557 -0.469611 -0.470264 0.747207
-118.896 31.1438 706.979 -0.92842 0.0719458 -0.364499
-120.045 27.8779 709.12 -0.928496 0.027978 -0.370287
-118.737 28.5385 706.729 -0.914431 -0.00912104 -0.404639
-121.458 13.7587 714.835 -0.413217 -0.54355 -0.730619
-124.726 -36.7098 741.929 -0.757757 0.505623 0.412492
-126.653 -40.3031 741.904 -0.780219 0.445462 0.439115
-117.31 12.6968 713.729 -0.597418 -0.782156 -0.176984
-128.751 -41.4189 738.95 -0.979644 0.0300403 -0.198484
-117.684 13.9452 709.812 -0.908364 -0.416087 -0.0417919
-118.115 18.0038 702.904 -0.96225 0.271981 0.0100744
-117.959 14.4102 705.454 -0.923977 0.177009 0.339019
-120.748 13.9722 700.245 -0.813854 0.367673 0.449953
-124.824 13.2352 695.338 -0.766855 0.43756 0.469547
-134.869 -15.3925 704.313 -0.953252 0.101251 0.284709
-130.357 6.38225 691.743 -0.780455 0.430073 0.453792
-132.531 -1.13804 695.239 -0.740606 0.411175 0.531449
-133.48 -8.55483 699.433 -0.808001 0.410712 0.422433
-134.541 -14.301 702.145 -0.995389 -0.00752477 -0.0956258
-129.302 12.0717 687.618 -0.755296 0.510686 0.410764
-133.877 4.47894 688.177 -0.779001 0.468384 0.416863
-132.172 11.7166 683.162 -0.763394 0.435717 0.476844
-135.519 2.19291 686.624 -0.852692 0.408736 0.325348
-136.371 -1.42591 689.132 -0.842745 0.365332 0.395365
-137.906 -1.31367 684.652 -0.989827 -0.0433508 0.135509
-133.273 -14.6305 698.379 -0.370588 -0.812629 -0.449777
-128.84 -15.133 699.426 0.249938 -0.820262 -0.514491
-137.031 -4.06879 683.167 -0.631312 -0.719407 -0.289653
-126.444 -13.3949 697.83 0.367327 -0.724021 -0.583837
-124.931 -10.2429 696.14 0.435551 -0.709884 -0.553498
-123.726 -8.20959 693.011 0.281079 -0.949144 -0.141849
-123.646 -7.67147 689.45 0.0199788 -0.965088 -0.261163
-119.964 -8.29667 691.23 -0.0842471 -0.995413 0.0453452
-160.947 15.4961 633.823 -0.741267 -0.110727 0.662014
-183.133 21.2933 610.325 -0.521429 -0.76651 -0.374932
-159.508 12.1448 634.659 -0.788437 -0.201173 0.581289
-38.6219 -60.432 780.753 -0.114546 -0.762346 -0.636952
-178.325 24.7039 606.159 -0.235652 -0.587632 -0.774052
-163.428 8.78828 629.149 -0.81858 0.111523 0.563462
-160.786 8.32111 632.695 -0.587684 -0.0604967 0.806826
-157.778 9.02112 635.309 -0.615233 -0.361272 0.700693
-35.2514 -60.8852 781.111 -0.200607 -0.552395 -0.809084
-161.02 14.7577 615.453 -0.870532 0.0856952 -0.484592
-163.479 8.27711 616.431 -0.869659 0.433155 -0.236793
-159.114 18.4889 613.526 -0.685374 -0.297186 -0.664788
-159.756 13.8555 612.654 -0.86355 0.353877 -0.359239
-163.056 7.52756 611.506 -0.842058 0.49834 -0.206386
-160.827 11.1041 610.645 -0.847142 0.507108 -0.15872
-162.24 7.11933 607.273 -0.894368 0.431579 -0.117665
-167.023 88.8144 533.063 -0.231235 -0.857141 -0.46026
-165.957 90.5374 529.864 -0.178522 -0.883447 -0.433186
-106.779 9.2339 538.321 -0.0150207 -0.874799 -0.484254
-121.278 33.8539 506.782 -0.897664 0.265811 -0.351489
-102.695 11.6978 533.656 0.0023575 -0.927119 -0.374761
-101.116 14.8202 526.308 0.0394003 -0.88529 -0.463367
-97.7475 14.3206 528.526 0.00549564 -0.903489 -0.428576
-95.248 13.6213 528.898 -0.0931131 -0.853928 -0.511993
-99.8298 20.4019 517.321 -0.0987364 -0.895776 -0.433401
-99.6477 21.8569 514.128 -0.0965394 -0.888306 -0.448991
-95.8647 20.5679 515.352 -0.0859551 -0.918151 -0.386796
-73.7097 9.91019 535.229 -0.0382223 -0.878719 -0.475806
-85.5882 18.5651 519.992 -0.0917278 -0.885992 -0.454537
-70.5937 10.9184 533.296 0.0198043 -0.870128 -0.492429
-72.2535 15.2243 526.265 0.0427881 -0.904498 -0.424326
-65.7166 13.5692 528.357 0.0476484 -0.880196 -0.472212
-59.2969 10.9979 535.229 0.0891112 -0.892928 -0.441293
-56.0674 12.1661 533.4 0.0594044 -0.897568 -0.436855
-52.4031 11.2354 535.495 0.00144574 -0.834114 -0.55159
-48.7819 10.4288 536.625 -0.178345 -0.864306 -0.470285
-70.7963 23.0453 509.668 -0.0516481 -0.882434 -0.467592
-21.4374 -6.59202 565.861 -0.0589055 -0.857605 -0.510924
-66.6179 23.6027 507.506 -0.0520652 -0.914749 -0.400653
-17.5634 -6.00033 563.648 -0.619532 -0.624578 -0.47548
-18.8751 -13.6851 567.905 -0.856298 0.516234 -0.0159946
-16.1188 -9.04716 563.815 -0.941324 0.200118 -0.271775
-68.8818 27.3634 498.871 -0.258431 -0.952506 -0.161078
-62.9401 24.5005 504.978 -0.0930344 -0.956496 -0.276514
-19.0928 1.17312 548.909 -0.140239 -0.874319 -0.464649
-26.8572 -29.2533 545.563 -0.702772 0.611979 -0.362758
61.101 -34.286 595.305 -0.0499167 -0.858051 -0.511134
63.5118 -34.5772 596.369 -0.021618 -0.858245 -0.512785
-24.3074 -27.7505 543.016 -0.714355 0.64096 -0.280834
67.3282 -35.5526 597.454 -0.143312 -0.861028 -0.487947
71.9893 -35.0478 595.646 -0.0393063 -0.843263 -0.536062
-19.9871 -25.3707 537.949 -0.753515 0.649935 -0.0989937
71.0358 -33.2246 592.038 -0.110152 -0.916827 -0.383791
75.1621 -34.2877 593.833 -0.0586544 -0.918549 -0.390932
71.8514 -30.5386 585.558 0.0232591 -0.94336 -0.330954
78.4236 -33.6377 592.025 -0.0210195 -0.87874 -0.476837
79.0823 -31.4264 588.395 -0.0418255 -0.895552 -0.442988
81.8623 -33.208 590.225 -0.0670845 -0.854326 -0.51539
-29.8098 -35.6944 533.803 -0.875099 0.467558 0.124867
86.7358 -31.0057 584.691 -0.11992 -0.932599 -0.340409
-30.4843 -39.784 534.717 -0.919672 0.20744 0.333425
-32.1055 -42.5976 536.991 -0.886741 0.334659 -0.318893
109.697 -28.7074 572.948 -0.902931 -0.237444 0.358239
-36.0561 -60.7834 531.298 -0.541548 -0.0806281 0.836794
-36.9014 -63.7675 530.36 -0.164916 -0.0360931 0.985647
-34.0374 -63.7079 531.054 -0.129317 -0.309834 0.941956
-24.9785 -70.3984 529.517 -0.416529 -0.56568 0.711695
-35.6594 -57.3052 530.803 -0.44503 -0.089007 0.891081
103.387 -26.1736 570.041 -0.200018 -0.828482 0.523078
106.812 -25.7974 571.994 -0.387437 -0.915308 -0.110015
103.705 -24.4799 572.095 -0.148586 -0.977108 0.15226
103.154 -25.3101 573.899 -0.0292332 -0.946524 -0.321307
93.6431 -29.5136 581.183 -0.00329153 -0.918452 -0.395519
-31.6977 -43.1416 533.048 -0.998858 0.0218982 0.0424671
87.6066 -28.1331 577.967 0.185079 -0.958223 -0.218071
57.4883 -32.2666 593.469 -0.214333 -0.950375 -0.225496
56.7835 -35.3997 600.179 -0.18007 -0.867326 -0.464025
-15.2442 13.2296 517.675 -0.42764 -0.461922 0.777015
-8.31497 13.0838 526.095 -0.0306043 -0.957481 -0.286868
-11.8344 13.5917 524.319 -0.0132589 -0.971653 -0.236039
-15.3824 13.8928 522.482 -0.0507221 -0.972531 -0.22718
-16.1346 -13.7008 548.787 -0.716593 0.595573 -0.363025
-15.1497 12.8013 525.957 -0.0402434 -0.934816 -0.352845
-55.7785 20.7535 501.562 -0.313666 -0.0581982 0.947748
-59.0701 24.495 502.486 -0.281756 -0.913767 0.292648
-69.8534 22.8136 495.166 -0.265692 0.411316 0.87191
-18.9772 -12.8459 560.087 -0.802608 0.593675 0.0580557
-12.4199 -0.615916 551.785 -0.201958 -0.755768 -0.622918
-16.2362 0.359575 550.699 -0.0383143 -0.867665 -0.495671
-61.9846 25.3274 502.464 -0.185899 -0.959576 -0.21132
-109.893 9.86724 537.246 -0.0164769 -0.919389 -0.393005
-110.521 8.49459 540.084 -0.00528999 -0.896984 -0.442031
-116.789 11.9175 534.007 -0.0396571 -0.886743 -0.460558
-114.088 7.75387 541.543 0.0714015 -0.874128 -0.480418
-123.976 33.5158 513.352 -0.909629 0.217104 -0.354178
-120.356 40.85 510.212 -0.894483 0.211728 -0.393791
-118.504 8.18134 540.432 0.0197661 -0.836277 -0.547951
-127.355 14.33 529.564 0.0623321 -0.840798 -0.537749
-130.686 12.9353 531.033 -0.0229639 -0.87382 -0.485706
-125.051 33.7154 517.594 -0.909901 0.227891 -0.346621
-123.544 37.4008 515.742 -0.910005 0.217839 -0.352756
-122.204 41.297 513.386 -0.897228 0.143305 -0.417667
-125.295 6.55287 543.279 -0.0254204 -0.863295 -0.504059
-120.994 48.1343 512.399 -0.821466 -0.321724 -0.470837
-129.478 7.12404 542.3 0.036299 -0.862736 -0.50435
-132.887 8.26428 539.879 -0.0643167 -0.922098 -0.381574
-132.713 5.81518 543.516 0.0397188 -0.818086 -0.573723
-125.422 38.1851 523.785 -0.928112 0.330412 -0.17157
-131.106 -0.880353 554.57 0.0676951 -0.865322 -0.496623
-134.637 -0.1423 553.139 0.0584986 -0.821329 -0.567447
-121.178 48.7931 521.927 -0.871801 0.47793 0.107449
-120.059 50.624 522.556 -0.800911 0.59179 0.091247
