ply
format ascii 1.0
element vertex 873
property float x
property float y
property float z
property float nx
property float ny
property float nz
end_header
49.5309 -38.0532 602.942 0.0725457 -0.755916 -0.650637
62.3966 -32.5147 590.769 -0.198813 -0.880362 -0.430623
50.8044 -35.8493 599.98 0.00857431 -0.871152 -0.490938
63.6189 -30.9895 586.934 -0.146241 -0.898706 -0.413449
60.2776 -30.4382 587.624 -0.126814 -0.917538 -0.376885
56.2389 -30.2498 587.28 0.00626999 -0.928428 -0.371459
48.0238 -31.0791 590.714 -0.132917 -0.882381 -0.451372
49.3176 -29.6112 587.311 -0.134905 -0.880952 -0.453569
30.3876 -33.8224 588.742 0.689825 0.0947945 -0.717743
32.2944 -32.4549 591.086 0.595651 -0.124318 -0.793564
18.6746 -32.9956 577.737 0.651425 0.497633 -0.572718
34.4127 -27.9371 587.154 -0.0559153 -0.854371 -0.516646
25.8553 -29.2463 587.413 0.269335 -0.0763712 -0.960014
-11.9201 48.0425 522.07 0.564022 0.500292 -0.656953
-41.7058 40.2913 507.647 0.456254 0.357614 -0.814828
-13.8458 49.133 521.294 0.575567 0.476988 -0.664233
-9.44082 55.368 529.431 0.600947 0.228848 -0.765827
-13.5457 56.049 526.4 0.600331 0.403252 -0.690645
-22.4283 56.8552 518.651 0.645297 0.346522 -0.680819
-35.3561 54.4124 505.421 0.513907 0.0386975 -0.856973
-21.6003 59.8566 520.706 0.675829 0.259421 -0.689896
-52.4305 49.0604 505.155 0.310017 -0.0288364 -0.950294
-37.843 56.6795 504.308 0.530936 0.223702 -0.817352
-34.7206 57.5595 507.192 0.577924 0.403183 -0.70954
-50.3841 53.9056 501.41 0.0761351 -0.887525 -0.454426
-27.3912 61.8824 516.768 0.55116 0.361101 -0.752216
-33.7815 60.668 510.303 0.596346 0.475275 -0.646904
-53.712 53.7709 501.103 0.0451303 -0.774485 -0.63098
-57.3977 54.7563 500.938 -0.28952 -0.532556 -0.795338
-33.5743 63.3935 512.491 0.635821 0.360476 -0.682487
-60.7626 57.1453 502.584 -0.721651 0.202199 -0.662069
-32.3649 66.4165 514.543 0.562461 0.0480151 -0.825429
4.36 139.602 457.331 -0.102657 -0.936247 0.33601
8.69905 139.973 458.747 0.0751082 -0.996595 -0.0340235
5.52648 135.55 463.56 0.110513 -0.37887 -0.918828
-99.2491 -21.751 590.098 -0.00814209 -0.865709 -0.500482
-86.3451 -18.6758 585.273 -0.066847 -0.877851 -0.474246
-97.8146 -23.633 592.268 0.00796843 -0.803011 -0.595911
-99.0122 -25.8465 595.565 -0.0270539 -0.784273 -0.619826
-95.873 -26.552 595.911 0.0709931 -0.775913 -0.626832
-91.2885 -25.8692 596.172 0.0808949 -0.822124 -0.563532
-87.0143 -26.2326 597.112 -0.00900679 -0.919346 -0.393347
-54.9604 -17.1928 584.474 0.118552 -0.825706 -0.551503
-55.7811 -19.6185 587.837 -0.0254874 -0.799217 -0.600501
-52.1783 -19.6024 587.457 0.00309488 -0.763087 -0.646289
-58.3644 -23.4619 593.194 -0.0328719 -0.765956 -0.642052
-123.168 -47.2568 629.511 -0.0687652 -0.865695 -0.495827
-114.414 -46.2186 627.16 0.0363394 -0.876898 -0.479301
-115.823 -47.9434 630.166 0.0549589 -0.91622 -0.396888
-112.322 -47.4253 630.49 0.0558044 -0.902244 -0.4276
-108.383 -47.9901 630.967 -0.00775585 -0.845066 -0.534606
-108.938 -49.4314 633.539 -0.0585498 -0.880153 -0.471066
-111.283 -50.8167 636.767 -0.0704848 -0.894698 -0.441075
-32.0472 -63.8894 542.698 -0.568206 -0.29188 -0.769382
-33.0562 -65.4817 544.487 -0.236346 -0.263738 -0.935191
-34.9351 -67.0489 544.369 -0.421542 -0.137434 -0.896334
-31.26 -67.1924 543.682 -0.576902 -0.293909 -0.762103
-33.5711 -73.8294 546.618 -0.383761 -0.465333 -0.797617
-37.0413 -72.1964 548.375 -0.574483 -0.227366 -0.786304
-103.19 -21.7486 589.249 0.0852429 -0.869897 -0.485811
-101.486 -19.9957 586.84 -0.0342593 -0.826534 -0.561843
-100.221 -18.0134 583.429 -0.0480793 -0.842365 -0.536758
-107.697 -18.2666 582.938 0.0204052 -0.86211 -0.506311
-111.497 -17.6633 582.47 -0.000704796 -0.84256 -0.538602
-113.741 -15.9377 579.51 0.05132 -0.867032 -0.495603
-122.964 -17.2007 580.923 -0.00557889 -0.835866 -0.548905
-146.121 -23.6028 592.403 -0.0317143 -0.845097 -0.533672
-150.797 -23.2509 591.465 -0.0122356 -0.857414 -0.514482
-143.514 -20.3499 585.612 -0.0320085 -0.879733 -0.474389
-147.372 -19.9075 586.695 -0.0589813 -0.839418 -0.540276
-146.589 -17.859 583.105 -0.0540397 -0.76838 -0.637708
-144.421 -15.9946 580.914 -0.0287794 -0.791115 -0.61099
-148.482 -15.4703 580.499 -0.0481732 -0.829379 -0.556606
-149.888 -14.1406 577.941 -0.0304515 -0.910002 -0.413483
-139.016 -9.00801 568.487 0.0367168 -0.901079 -0.432098
-137.743 -7.35482 564.59 0.057886 -0.869273 -0.490932
-136.209 -5.7193 562.921 0.00903529 -0.859721 -0.510684
-129.323 -2.67608 556.878 -0.0117959 -0.858628 -0.512463
-133.901 -2.2676 555.328 0.0417608 -0.861163 -0.506611
-131.559 -0.352983 553.129 0.0789279 -0.851997 -0.517564
-162.957 -8.33288 585.885 -0.90699 0.123182 -0.402736
-147.187 -0.575872 556.372 -0.678516 -0.539744 -0.498289
-148.532 2.17598 558.208 -0.895835 -0.0230942 -0.443787
-146.796 2.52035 554.209 -0.896649 -0.0407589 -0.440862
3.29325 141.555 461.112 -0.599015 -0.800458 0.021159
5.30342 140.965 462.381 -0.640257 -0.768057 -0.0126066
6.11168 139.869 459.803 -0.316382 -0.94025 0.12583
4.0694 138.441 463.292 -0.485221 -0.176332 -0.856427
13.2606 139.202 460.776 -0.00946472 -0.957944 -0.286798
-97.0188 -20.9067 587.844 0.0129417 -0.894729 -0.446422
-87.6137 -19.2011 587.037 -0.0506899 -0.880612 -0.471119
-94.7417 -22.6834 591.454 0.0538613 -0.833554 -0.549806
-90.5175 -23.1508 592.557 -0.0296398 -0.803578 -0.594461
-94.0726 -26.6705 597.076 0.158295 -0.822391 -0.546458
-55.0475 -15.8383 583.115 0.137823 -0.86601 -0.480657
-94.9047 -28.8324 600.934 0.176942 -0.878618 -0.443534
-62.3391 -19.859 588.01 0.0302797 -0.863949 -0.502668
-58.0219 -20.3879 589.255 -0.050839 -0.803004 -0.593802
-59.873 -22.1547 591.365 -0.0629004 -0.754402 -0.653392
-51.0852 -20.9165 589.211 0.0738013 -0.803548 -0.590648
-126.101 -47.7894 630.758 -0.0769676 -0.85322 -0.515841
-111.849 -45.3678 625.857 0.0437983 -0.84798 -0.528216
-108.129 -45.3912 626.258 0.0985241 -0.900557 -0.423427
-109.748 -46.644 629.159 0.0674361 -0.891975 -0.447026
-110.792 -48.8935 633.311 -0.051544 -0.880948 -0.470398
-107.228 -48.8643 632.671 -0.0281071 -0.848758 -0.528034
-103.333 -49.0917 632.994 0.013204 -0.832028 -0.554577
-36.6154 -65.7274 546.53 -0.772552 -0.0117176 -0.634843
-35.7901 -67.3325 544.804 -0.421542 -0.137434 -0.896334
-37.9965 -69.2168 548.21 -0.650522 -0.151202 -0.744284
-31.2483 -73.1376 545.349 -0.345786 -0.455729 -0.820209
-29.4965 -69.6718 543.445 -0.427379 -0.426551 -0.797121
-95.716 -19.2173 584.892 0.0498048 -0.837502 -0.544159
-99.7853 -19.362 585.229 -0.0659627 -0.834371 -0.547243
-103.087 -18.6307 584.908 0.0215739 -0.839918 -0.542284
-99.7482 -15.6649 579.274 0.00871381 -0.883697 -0.467979
-121.346 -18.4244 583.308 -0.00133326 -0.83368 -0.552246
-114.861 -15.1719 577.475 0.0463282 -0.876571 -0.479038
-154.229 -25.9464 596.171 -0.0699939 -0.857499 -0.509702
-153.166 -24.1898 592.888 -0.0493284 -0.839477 -0.541151
-142.232 -19.9245 584.961 -0.0579104 -0.835844 -0.545904
-140.056 -17.3911 582.018 -0.105593 -0.752454 -0.650125
-143.732 -16.9636 582.214 -0.0479621 -0.769885 -0.636377
-146.979 -16.8042 581.798 -0.0439752 -0.798894 -0.599861
-146.005 -14.7684 578.927 0.00357274 -0.89665 -0.442726
-147.767 -13.3946 576.41 -0.0919881 -0.904977 -0.415397
-144.647 -13.3907 574.688 -0.027289 -0.849853 -0.526312
-141.752 -9.45097 570.049 0.0443627 -0.924691 -0.378125
-161.921 -14.0026 582.513 -0.862608 0.0895217 -0.497888
-145.32 -9.94652 569.28 0.0216203 -0.86889 -0.494533
-137.551 -4.39068 560.571 0.00872608 -0.879051 -0.476647
-163.566 -13.5848 586.245 -0.864468 0.250903 -0.435594
-136.217 -3.06584 556.825 -0.0699648 -0.907481 -0.414226
-139.632 -2.84697 558.058 -0.0836153 -0.862526 -0.499056
-162.674 -10.1435 585.644 -0.897796 0.0695062 -0.434893
-143.49 -2.49878 557.351 -0.0885449 -0.837881 -0.538623
-150.617 -2.37633 561.493 -0.884237 -0.121268 -0.451019
-163.885 -6.10535 590.886 -0.924047 0.269219 -0.271401
-160.829 -4.4998 582.984 -0.891337 0.323594 -0.317499
-172.424 -8.12808 612.665 -0.668563 0.717849 -0.19421
-149.513 1.15245 560.598 -0.917727 0.114842 -0.380248
-146.388 2.79828 552.474 -0.873279 -0.0815032 -0.480355
4.42062 140.881 460.588 -0.599016 -0.800458 0.0211588
4.36694 140.934 463.587 -0.845503 -0.368211 0.386711
7.11954 139.03 462.544 -0.3313 -0.702171 -0.630235
-94.4872 -20.0844 586.745 0.110079 -0.87528 -0.470922
-90.5707 -19.8937 588.247 0.0804102 -0.84878 -0.522596
-92.2434 -21.8895 590.559 0.0579508 -0.831075 -0.553133
-93.3186 -23.9826 593.736 0.0852943 -0.799064 -0.595165
-96.4277 -27.9932 598.483 0.11232 -0.891612 -0.438648
-92.3213 -28.0377 600.288 0.174224 -0.872095 -0.457271
-59.534 -19.0557 587.149 0.0173322 -0.851048 -0.524802
-60.5868 -21.2386 590.558 -0.0221459 -0.817516 -0.575479
-57.0944 -21.2331 589.954 -0.0668134 -0.785766 -0.614904
-49.013 -21.0671 590.429 0.0608342 -0.779655 -0.623248
-53.4518 -21.8063 590.418 -0.0451834 -0.796215 -0.603324
-128.017 -48.4774 632.291 -0.112382 -0.897888 -0.425637
-109.063 -44.4961 625.002 0.0213958 -0.84815 -0.529324
-110.694 -46.2419 627.56 0.106147 -0.904595 -0.412844
-107.027 -45.8487 628.127 0.0911302 -0.884503 -0.457547
-113.071 -49.6497 634.469 -0.0447542 -0.905162 -0.422704
-104.663 -48.0135 631.368 0.0296065 -0.821248 -0.569803
-105.704 -50.0565 634.431 -0.0206046 -0.878218 -0.477817
-36.0625 -66.3745 544.893 -0.421542 -0.137434 -0.896334
-38.8199 -66.6592 548.698 -0.706852 -0.0322216 -0.706627
-35.7913 -68.6954 545.984 -0.574775 -0.35379 -0.737879
-28.3555 -72.33 544.203 -0.350869 -0.503057 -0.789826
-32.1077 -70.5135 545.371 -0.403749 -0.267742 -0.874815
-98.2073 -20.061 586.344 -0.0121359 -0.862312 -0.506232
-96.6505 -18.3222 583.637 0.0258611 -0.799288 -0.600392
-105.684 -19.5672 585.434 0.0816814 -0.841681 -0.533761
-102.236 -16.5372 581.044 0.0285964 -0.880893 -0.472451
-118.982 -17.5146 581.878 -0.0140356 -0.841707 -0.539752
-117.65 -15.9323 578.725 -0.00122176 -0.877199 -0.480125
-151.45 -25.601 595.344 0.00184986 -0.858123 -0.513441
-155.698 -24.615 594.203 -0.0724534 -0.845061 -0.529739
-138.812 -18.7902 583.224 0.0194798 -0.880202 -0.474199
-142.275 -18.2917 583.312 -0.0409779 -0.791342 -0.609999
-140.788 -15.9453 580.27 -0.10275 -0.814206 -0.571411
-150.166 -17.4419 583.397 -0.0917998 -0.787583 -0.609333
-143.325 -14.0808 577.416 0.0379629 -0.911771 -0.408941
-146.571 -14.0287 575.665 -0.0888979 -0.908913 -0.407399
-145.574 -12.5455 573.989 -0.054719 -0.771156 -0.634291
-143.907 -10.3456 571.471 0.020829 -0.841884 -0.539256
-163.797 -14.9484 584.901 -0.825191 0.165866 -0.539952
-142.755 -9.09577 567.977 -0.01134 -0.879947 -0.474937
-134.178 -4.19751 559.507 -0.0383143 -0.904181 -0.425428
-163.765 -11.6583 587.368 -0.865805 0.142083 -0.479786
-162.012 -10.96 583.823 -0.904698 0.0944311 -0.415457
-138.636 -3.93165 558.734 -0.0705127 -0.873879 -0.481003
-137.971 -2.47987 556.386 -0.115071 -0.871257 -0.477148
-145.882 -3.37445 558.65 -0.142531 -0.796274 -0.587905
-164.229 -8.14195 590.221 -0.913562 0.270951 -0.303297
-160.969 -7.09269 582.112 -0.889188 0.202449 -0.410316
-149.232 -1.59413 560.124 -0.741213 -0.151469 -0.653957
-159.378 -3.32428 581.331 -0.847112 0.368717 -0.382685
-160.924 -3.56093 584.753 -0.850287 0.430473 -0.302827
-170.742 -7.36124 609.569 -0.689114 0.705796 -0.164238
-164.225 -4.99436 592.861 -0.921348 0.243455 -0.303063
-162.984 -4.26948 588.869 -0.921051 0.29381 -0.255617
-164.826 -3.77797 594.774 -0.922035 0.283391 -0.263707
-183.857 33.6199 611.432 -0.177442 -0.185183 -0.966551
-183.437 29.7328 609.622 -0.554278 0.312894 -0.771281
-71.0467 -12.2242 575.524 0.0490626 -0.871164 -0.488534
-72.8795 -14.2094 578.432 0.0551306 -0.852827 -0.519275
-69.0928 -14.1758 578.425 0.0382666 -0.754883 -0.654742
-65.2255 -14.1852 579.125 0.00227491 -0.809914 -0.586544
-58.2888 -14.7138 579.08 0.0743553 -0.822698 -0.563595
-59.0206 -16.8125 583.045 0.089679 -0.859204 -0.503713
-90.5284 -27.6071 601.139 0.014567 -0.823714 -0.566819
-87.7478 -28.4141 601.481 -0.0811544 -0.829534 -0.552528
-83.9651 -28.9234 601.687 -0.0200435 -0.830178 -0.557137
-85.5219 -30.6623 604.394 -0.00762058 -0.797987 -0.602627
-86.8689 -32.8732 607.207 0.00247981 -0.79402 -0.607886
-89.909 -36.3439 612.771 -0.0865305 -0.848697 -0.521753
-106.572 -43.6523 623.55 0.0352285 -0.884979 -0.464297
-102.999 -43.6896 623.652 0.0704437 -0.897317 -0.435729
-104.545 -44.9355 626.703 0.0737268 -0.904788 -0.419431
-95.5738 -43.3847 625.113 0.0107716 -0.878685 -0.47728
-102.098 -47.1627 630.065 0.0136744 -0.808446 -0.588412
-98.378 -47.1861 630.465 -0.00312435 -0.821013 -0.570901
-20.7892 -60.3645 538.206 -0.187276 0.24569 -0.951086
-24.7447 -61.5329 538.675 -0.154296 -0.125857 -0.979976
-20.9833 -63.4696 537.331 -0.228997 -0.0395323 -0.972624
-25.9575 -71.6852 543.107 -0.38789 -0.540281 -0.746752
-24.6729 -68.6419 540.506 -0.321874 -0.420278 -0.848389
-70.7013 -10.9723 572.745 0.101181 -0.825956 -0.554581
-73.132 -10.5735 572.25 -0.006454 -0.862632 -0.50579
-66.6443 -6.16812 567.176 -0.0101649 -0.844835 -0.53493
-73.7017 -7.06895 566.51 0.148321 -0.840553 -0.521029
-144.705 -28.2886 599.958 -0.159389 -0.826255 -0.540276
-143.723 -26.7055 597.169 -0.117178 -0.857957 -0.500179
-147.155 -26.1958 596.503 0.0262854 -0.882414 -0.46974
-150.736 -26.517 596.151 0.00184992 -0.858123 -0.513441
-136.247 -17.9394 581.921 0.00895129 -0.868984 -0.494759
-134.853 -15.8629 579.575 -0.122037 -0.764806 -0.632597
-138.834 -15.2046 578.285 -0.0368976 -0.824327 -0.564911
-132.018 -12.7648 572.902 -0.0808013 -0.859232 -0.505164
-140.842 -13.3855 576.059 0.0612928 -0.852637 -0.518896
-142.568 -11.6528 573.583 0.0152243 -0.799641 -0.600286
-146.487 -11.1057 572.558 0.0296777 -0.858281 -0.512321
-150.45 -11.648 571.885 -0.0937215 -0.819006 -0.566079
-160.437 -7.9354 579.977 -0.89084 0.140608 -0.432011
-158.974 -4.30508 579.087 -0.864407 0.292218 -0.409157
-173.432 22.0007 611.113 0.045759 -0.857731 -0.512059
-171.5 23.8041 608.856 0.0731304 -0.806733 -0.586374
-170.411 25.9583 605.243 0.129017 -0.792454 -0.59613
-177.781 26.0518 605.285 -0.329243 -0.660151 -0.675129
-185.152 27.0672 610.591 -0.71348 -0.106385 -0.692552
-184.752 35.4824 611.116 -0.105414 -0.287535 -0.951951
-185.781 32.5201 611.761 -0.0127097 -0.04043 -0.999102
-186.124 28.8415 610.987 -0.644508 0.105232 -0.757322
-68.5972 -11.2827 574.095 0.114215 -0.86755 -0.484058
-75.2306 -14.9892 579.627 0.0374019 -0.889685 -0.455041
-67.2357 -13.5947 577.856 -0.00426101 -0.781892 -0.623399
-67.6577 -15.49 580.104 0.0224028 -0.796098 -0.604753
-56.4032 -15.9044 581.554 0.12809 -0.879705 -0.457943
-85.2611 -27.537 599.657 -0.033369 -0.889104 -0.456488
-86.2357 -29.7462 603.587 -0.0131372 -0.793222 -0.608791
-82.7433 -29.7406 602.983 -0.0800047 -0.774387 -0.627634
-89.4338 -33.7239 608.51 -0.0305658 -0.825885 -0.563009
-92.3007 -37.0393 614.056 -0.0304234 -0.843852 -0.535713
-104.154 -42.8155 621.948 0.0436701 -0.852612 -0.520716
-105.564 -44.5404 624.955 0.0663877 -0.909 -0.411474
-101.981 -44.3246 625.571 0.0835035 -0.91543 -0.393719
-97.8606 -44.3161 626.45 0.0169483 -0.860653 -0.508909
-100.747 -48.1159 631.815 0.0178369 -0.815807 -0.57805
-22.3251 -60.9442 537.874 -0.31633 0.193817 -0.928639
-23.8355 -64.3982 538.593 -0.292208 -0.170969 -0.940949
-23.4959 -70.8785 540.944 -0.337261 -0.431973 -0.836454
-27.3066 -68.9214 541.816 -0.405764 -0.451196 -0.794844
-25.5683 -67.0871 539.759 -0.359892 -0.37001 -0.856487
-72.6962 -11.634 573.759 -0.00517177 -0.847768 -0.530342
-70.5249 -9.47275 571.194 0.129971 -0.791805 -0.596785
-69.4229 -7.08977 568.587 0.0775239 -0.807261 -0.585081
-76.6537 -8.00708 567.569 0.0638913 -0.851117 -0.521074
-142.111 -27.9973 598.348 -0.155567 -0.824875 -0.543489
-145.743 -27.4539 599.036 -0.0847045 -0.852913 -0.515136
-144.196 -25.7884 595.686 -0.0963351 -0.862936 -0.496045
-119.81 -14.0292 575.715 -0.0351974 -0.872304 -0.487695
-133.682 -17.0886 580.618 0.0187287 -0.888349 -0.458786
-137.211 -16.5299 580.656 -0.0701114 -0.800393 -0.595362
-135.999 -14.5211 577.734 -0.0960107 -0.801884 -0.589716
-133.728 -13.332 573.771 -0.1706 -0.873545 -0.455867
-138.202 -12.3527 574.812 0.0738852 -0.882246 -0.464954
-141.441 -12.3272 573.059 0.0856352 -0.809796 -0.580428
-140.07 -10.7795 571.833 -0.00207114 -0.831591 -0.555385
-149.324 -11.9627 573.896 0.0676272 -0.907078 -0.415494
-161.367 -14.5343 580.744 -0.786005 -0.176529 -0.592481
-148.099 -10.8682 570.691 -0.0438522 -0.853929 -0.518539
-159.344 -6.50367 579.149 -0.875465 0.206217 -0.437076
-175.949 20.7494 612.379 0.0753739 -0.907043 -0.414237
-169.069 25.0349 607.866 0.0501001 -0.792432 -0.607899
-173.11 24.9293 606.806 0.0967437 -0.832816 -0.54503
-176.523 24.6876 606.453 -0.0359858 -0.789455 -0.612752
-180.045 25.4845 606.756 -0.43952 -0.505397 -0.742561
-170.654 27.5781 604.543 0.121911 -0.791092 -0.599426
-177.673 27.2403 603.553 -0.632858 -0.354007 -0.6886
-183.13 27.799 608.91 -0.573064 0.0956502 -0.81391
-185.508 36.1485 610.063 0.20525 -0.54969 -0.809761
-187.219 32.7069 610.973 -0.0212669 -0.190514 -0.981454
-185.787 30.072 611.879 -0.444607 -0.0422863 -0.894727
-66.1412 -10.4024 573.076 0.028033 -0.841995 -0.538757
-77.6484 -15.826 581.228 0.0538962 -0.855884 -0.514352
-63.8159 -12.4603 576.118 -0.0967894 -0.79343 -0.600917
-59.979 -12.8943 576.481 0.045313 -0.780298 -0.623764
-93.1768 -30.1026 603.835 0.0419534 -0.823793 -0.565336
-88.9179 -30.5575 604.109 0.00823128 -0.763083 -0.646249
-90.9459 -32.3918 606.403 -0.0193322 -0.796206 -0.604717
-81.6656 -31.1647 604.75 -0.0790277 -0.785469 -0.613834
-95.3691 -37.9802 615.536 -0.0353565 -0.84322 -0.536405
-101.155 -41.8729 620.985 0.1371 -0.811617 -0.567875
-99.2506 -43.5463 624.216 0.107934 -0.891726 -0.439517
-100.247 -45.3959 627.955 0.0303708 -0.855682 -0.516611
-93.3589 -45.6494 628.045 -0.0375738 -0.828933 -0.558084
-30.1228 -63.258 540.776 -0.516626 -0.397941 -0.758117
-26.3093 -65.1897 539.539 -0.383652 -0.223563 -0.896008
-21.1206 -69.8142 539.826 -0.258009 -0.397471 -0.880596
-19.5776 -66.2877 538.259 -0.215216 -0.367848 -0.904638
-23.8583 -66.52 538.89 -0.220656 -0.339766 -0.914259
-67.9268 -8.46482 570.306 0.101462 -0.790095 -0.604528
-72.2494 -8.38707 569.084 0.227629 -0.800676 -0.554169
-75.8769 -8.91716 568.504 0.0379606 -0.864071 -0.501936
-70.6815 -6.27607 567.216 0.179852 -0.890278 -0.418399
-69.2529 -4.99078 563.385 0.115224 -0.877674 -0.4652
-147.984 -28.2233 600.454 -0.00359325 -0.871255 -0.490818
-152.203 -27.7968 599.006 -0.0120681 -0.888946 -0.457853
-145.606 -24.8155 593.545 -0.0585839 -0.848749 -0.52554
-123.464 -16.2137 580.007 -0.0575422 -0.805681 -0.589548
-122.157 -14.3949 576.924 -0.00683629 -0.891385 -0.453195
-131.118 -16.2379 579.315 0.00443052 -0.873425 -0.486938
-129.273 -14.4211 576.648 0.0219137 -0.823117 -0.567449
-133.576 -13.9796 576.205 -0.138693 -0.874124 -0.46548
-136.758 -13.4453 576.942 -0.0698247 -0.82712 -0.557671
-135.804 -11.9374 573.473 -0.237694 -0.839017 -0.48944
-134.66 -10.0931 569.775 -0.125084 -0.838449 -0.530431
-137.762 -10.0327 570.861 -0.0404536 -0.854598 -0.517713
-151.669 -12.8753 574.934 -0.00703168 -0.892513 -0.450967
-159.972 -13.2591 579.718 -0.607104 -0.368718 -0.703897
-158.107 -11.0426 575.628 -0.673809 -0.523058 -0.521911
-159.086 -9.3283 577.889 -0.89527 -0.0563745 -0.441944
-167.927 23.7667 608.957 0.0610518 -0.809931 -0.58334
-176.991 22.0177 611.271 0.0302837 -0.839461 -0.542576
-175.368 23.8134 608.156 0.0737873 -0.853662 -0.515573
-172.47 27.6854 602.829 0.0482386 -0.795872 -0.60354
-176.045 28.0949 602.711 -0.343616 -0.352517 -0.870437
-111.574 118.662 535.485 -0.260034 0.915211 -0.30785
-114.746 117.888 534.108 -0.240429 0.914888 -0.324306
-125.003 112.107 531.248 -0.337276 0.873067 -0.352136
-120.032 112.129 523.779 -0.296203 0.854689 -0.426345
-123.842 109.974 524.082 -0.490395 0.810978 -0.319104
-116.044 110.568 519.098 -0.188464 0.822072 -0.537288
-122.392 107.454 517.462 -0.446666 0.680253 -0.581159
-124.287 101.004 516.772 -0.246234 -0.63708 -0.730409
-106.616 106.303 512.424 -0.187958 0.514517 -0.836626
-104.657 105.223 510.394 -0.403797 0.0565755 -0.913098
-106.735 103.485 511.499 -0.283286 -0.177544 -0.942458
-103.256 103.111 511.197 -0.233792 -0.576127 -0.783211
-110.165 100.043 517.812 -0.0667091 -0.847266 -0.526964
-100.949 100.298 514.478 -0.0734346 -0.922813 -0.378184
-102.738 98.8081 517.878 -0.100285 -0.830931 -0.547263
-134.131 88.6649 538.057 -0.0471804 -0.785595 -0.61694
-99.2117 98.8024 517.496 -0.0867434 -0.909204 -0.407214
-127.717 86.3105 542.16 0.00952761 -0.850794 -0.525413
-141.153 79.8108 552.241 0.141497 -0.848474 -0.509972
-143.189 77.5636 555.208 0.0209537 -0.819032 -0.573365
-144.276 75.5561 557.431 -0.00170514 -0.834669 -0.550749
-140.893 75.7654 558.306 0.160412 -0.760483 -0.629232
-146.349 72.7435 563.684 -0.0131809 -0.735233 -0.677686
-138.591 73.3775 560.95 0.0909774 -0.755894 -0.648342
-139.719 71.4841 563.825 -0.057222 -0.796647 -0.60173
-136.113 70.7308 563.87 -0.131051 -0.711548 -0.690308
-77.9398 84.8383 508.232 -0.71128 0.135399 -0.689744
-74.0921 84.2398 501.754 -0.640067 -0.521296 -0.564416
-75.7065 83.643 505.472 -0.805648 -0.312458 -0.503291
-72.1216 81.9356 504.185 -0.278508 -0.892856 -0.353894
-165.578 51.5953 608.729 -0.931298 -0.328521 0.157346
-122.492 62.2332 557.448 -0.74065 0.163287 -0.651748
4.2401 102.251 493.724 -0.0573287 -0.840959 -0.538054
-167.852 46.2295 614.563 -0.651326 0.75342 -0.0901827
2.33532 100.792 496.85 -0.0383247 -0.899473 -0.435292
-169.928 43.862 611.233 -0.596153 0.777263 -0.201159
1.31156 98.965 501.009 -0.0779986 -0.876033 -0.475902
-1.10241 97.6513 504.38 -0.0564438 -0.878861 -0.473727
5.5683 98.92 499.919 -0.0716 -0.856577 -0.511027
-1.74039 96.1297 506.16 -0.0530347 -0.886434 -0.459806
2.28368 95.4003 507.503 -0.0384932 -0.912848 -0.40648
-4.15185 93.2128 513.899 -0.0592544 -0.938517 -0.340109
64.2346 114.41 512.699 0.555453 -0.362488 -0.748382
-7.20328 89.9105 519.222 -0.100118 -0.837405 -0.537335
1.70112 91.0027 517.07 -0.156963 -0.840822 -0.518055
0.999278 89.5474 519.343 -0.122462 -0.894306 -0.430371
-0.901021 11.9653 522.795 -0.164785 -0.858999 -0.484733
7.32305 13.0161 519.812 0.194952 -0.550018 -0.81208
6.54285 11.7097 522.488 -0.0106276 -0.869637 -0.493578
13.0216 0.132192 541.037 -0.211401 -0.862135 -0.46047
11.1218 -1.24846 544.455 -0.19653 -0.889205 -0.413148
78.0952 16.0705 551.756 0.310038 0.181113 -0.933314
10.1048 -2.5557 548.178 -0.212576 -0.92063 -0.327492
8.85565 -3.93296 552.344 -0.13951 -0.897881 -0.417549
7.07962 -4.98 555.359 -0.109678 -0.896756 -0.428719
80.7207 14.1638 552.226 0.293853 0.121271 -0.948126
76.8316 13.1871 550.84 0.33546 0.160736 -0.928241
4.14526 -7.73414 561.024 -0.115919 -0.911579 -0.394445
10.8888 -5.61821 554.629 -0.207823 -0.852624 -0.479418
7.7666 -8.52399 561.881 -0.153979 -0.881934 -0.445514
2.05523 -10.2946 569.053 -0.233711 -0.893773 -0.382817
13.216 -7.87026 557.493 -0.194332 -0.882474 -0.428339
11.7506 -8.95444 561.055 -0.167078 -0.90489 -0.391483
75.594 9.81424 549.655 0.333845 0.30113 -0.893235
6.99915 -12.8638 572.503 -0.24819 -0.882122 -0.400328
6.44442 -14.305 575.075 -0.245173 -0.820962 -0.515666
10.0349 -15.1683 575.132 -0.244105 -0.856558 -0.454666
88.4109 7.40351 554.892 0.407427 0.297897 -0.863285
15.1278 -14.806 570.543 -0.26718 -0.843415 -0.466119
74.2597 3.26338 546.435 0.391912 0.479007 -0.785466
13.654 -16.0315 573.996 -0.359843 -0.823902 -0.437834
91.1645 4.57804 554.784 0.477395 0.419913 -0.77186
88.1347 3.96494 552.679 0.3399 0.447457 -0.827194
93.8436 2.95131 555.772 0.364494 0.368563 -0.855164
-3.67175 -30.4578 560.731 0.204041 0.871759 -0.445426
66.5908 -11.3892 550.898 -0.0589113 -0.881342 -0.468793
66.0077 -13.1803 554.337 -0.0561371 -0.847193 -0.528311
0.557643 -49.5042 542.805 0.31782 0.553438 -0.769868
-7.56054 -50.8995 539.728 0.224652 0.477159 -0.849618
-7.18081 -48.01 542.362 0.243341 0.594275 -0.766566
-2.77741 -47.081 543.962 0.122387 0.681983 -0.721055
97.2499 -27.8888 572.273 -0.0458321 -0.909464 -0.413249
93.4208 -27.4822 571.908 -0.178805 -0.889955 -0.419533
-35.4146 -73.4033 667.068 -0.190906 -0.896787 -0.39916
-37.9662 -71.1233 664.685 -0.13678 -0.83812 -0.528058
-6.2591 -44.5945 545.485 0.333551 0.467468 -0.818668
86.0871 -26.6396 572.412 -0.194152 -0.793284 -0.577066
89.2251 -23.355 566.344 -0.0881997 -0.891251 -0.444851
-45.7577 -72.1705 667.083 -0.127813 -0.940115 -0.315987
-43.6571 -69.4834 661.46 -0.018683 -0.887509 -0.460412
-5.50524 -40.9025 547.743 0.226739 0.605987 -0.762475
-1.77276 -40.6301 549.275 0.325602 0.587449 -0.740869
1.94234 -40.0254 551.72 0.439739 0.575705 -0.689343
71.4438 -23.7673 572.516 -0.115819 -0.901142 -0.417767
73.5534 -22.8586 569.203 -0.125794 -0.895119 -0.427712
-4.98258 -38.2177 550.397 0.228922 0.655902 -0.719296
2.22861 -37.0464 554.229 0.382095 0.694671 -0.609455
68.1651 -23.702 573.012 -0.0668439 -0.900753 -0.429158
64.1651 -23.3521 572.734 -0.129985 -0.916419 -0.378525
-4.40363 -35.5258 553.678 0.233437 0.77579 -0.586222
-0.982014 -35.2021 555.445 0.249796 0.791164 -0.558266
57.0376 -22.1529 572.841 -0.020633 -0.909221 -0.415803
69.7786 -17.3001 559.645 -0.161653 -0.88686 -0.432838
59.011 -20.7653 569.573 -0.124909 -0.902025 -0.413218
71.7519 -15.9125 556.377 -0.157541 -0.797452 -0.582453
62.8151 -16.9115 559.43 -0.0395625 -0.869905 -0.49163
66.3637 -16.7558 560.186 -0.0218389 -0.898228 -0.438987
-4.57306 -33.0998 556.464 0.194958 0.77182 -0.605215
69.753 -13.117 553.884 -0.100475 -0.788153 -0.607223
-3.79548 12.7867 521.951 -0.110082 -0.849864 -0.515377
-8.18432 13.2001 522.791 -0.0290188 -0.915208 -0.401935
-6.79384 14.7494 519.121 -0.0791174 -0.854975 -0.512599
-0.763423 19.2084 518.297 0.402252 0.33789 -0.850896
-3.94471 21.1926 517.168 0.397915 0.528161 -0.75014
-30.3158 15.7699 523.268 -0.0682774 -0.904681 -0.420583
-33.9042 15.6899 522.138 0.0335172 -0.921089 -0.387907
-35.7732 17.4801 519.628 -0.073896 -0.879222 -0.470646
-26.6657 37.1851 513.583 0.450347 0.238287 -0.860469
-23.4819 38.274 515.701 0.401656 0.161585 -0.901423
-26.0413 40.785 514.86 0.359512 0.115976 -0.925905
51.5447 87.2951 524.122 -0.265506 -0.959915 0.0898294
3.93685 88.5156 520.176 -0.124871 -0.916455 -0.380154
-51.3828 137.235 497.443 -0.510185 0.788918 -0.34252
-54.3652 133.545 494.343 -0.648391 0.49445 -0.578885
-17.7629 145.898 484.665 0.461565 0.510523 -0.725481
-52.6751 131.884 492.124 -0.600899 0.176265 -0.779648
-19.6693 139.393 478.967 -0.148674 0.532531 -0.833251
-58.9879 126.77 496.937 -0.480872 0.0447068 -0.87565
-56.1138 124.647 494.877 -0.494562 0.180096 -0.850279
-42.5017 126.248 487.03 -0.519031 0.179526 -0.83569
-41.7523 123.889 485.237 -0.568706 -0.347956 -0.745319
-39.4742 123.229 485.262 -0.141724 -0.748768 -0.647503
-26.7914 123.715 482.34 -0.0212636 -0.81361 -0.581022
-28.4218 121.97 484.898 -0.0084567 -0.831201 -0.555908
-24.2963 121.592 485.673 -0.0916752 -0.747885 -0.657467
-70.1782 104.108 501.556 -0.4078 -0.367871 -0.835685
-0.548468 127.18 473.903 -0.0608743 -0.882277 -0.466778
8.20116 128.836 471.934 0.0655751 -0.778866 -0.623752
6.28113 126.581 474.101 -0.0494896 -0.849391 -0.525439
-66.6812 102.352 500.962 -0.411592 -0.226974 -0.882652
10.6791 126.493 475.026 0.0848696 -0.849087 -0.521391
2.1337 120.419 481.638 -0.267902 -0.00402836 -0.963438
-69.6958 94.8237 502.776 -0.811328 0.29705 -0.503496
-64.0262 93.6442 493.531 -0.377774 0.583171 -0.719165
-64.55 90.5865 491.143 -0.482822 0.433073 -0.761138
0.116276 113.354 479.615 -0.101982 -0.635224 -0.765565
-60.9442 92.0281 492.275 0.378874 0.56373 -0.733936
8.92819 116.665 479.155 -0.0635276 0.150674 -0.98654
3.55535 112.433 479.453 -0.0664292 -0.673405 -0.736283
-58.0683 90.0126 493.742 0.597176 0.340752 -0.726133
7.63094 112.522 480.416 0.17958 -0.641665 -0.745665
11.6348 112.816 481.332 0.107856 -0.745317 -0.657929
15.1329 112.781 481.173 -0.00843298 -0.807078 -0.590384
-61.1281 84.6465 494.384 -0.0482159 -0.86637 -0.497069
13.8373 110.979 484.238 0.0980602 -0.779817 -0.61828
11.8744 107.927 485.98 0.138216 -0.500212 -0.854801
15.3244 108.173 486.407 -0.107577 -0.308411 -0.945151
-11.2127 98.5476 503.738 -0.127447 -0.897752 -0.421663
-87.6832 66.5093 512.773 0.203444 0.896212 -0.394227
-101.34 59.8731 491.917 -0.1591 0.937871 -0.308358
-108.639 61.5605 552.331 -0.516227 -0.468329 -0.717061
-100.353 58.5485 489.541 0.137426 0.752502 -0.644092
-83.5777 65.2153 511.184 0.162871 0.883191 -0.439826
-93.9969 60.5987 495.333 0.254721 0.825096 -0.504315
-105.934 54.9084 488.611 -0.699631 0.533891 -0.474845
-90.4915 58.5467 494.447 0.32235 0.718479 -0.616343
-93.3374 57.584 492.36 0.392733 0.617702 -0.681326
-102.285 53.6337 485.981 0.0816888 0.530064 -0.844014
-87.014 58.3384 496.091 0.379794 0.682467 -0.624497
-102.889 50.5234 483.914 0.112445 0.456552 -0.882562
-119.528 47.463 552.775 0.777524 -0.608592 -0.158342
-120.036 47.4009 557.491 -0.758929 0.639638 -0.122026
-150.51 -38.312 616.196 -0.00767566 -0.898761 -0.438372
-157.366 -41.1845 621.3 0.096352 -0.907251 -0.409404
-152.829 -41.1809 623.901 -0.0584623 -0.936209 -0.346546
-159.775 -43.763 630.417 0.0435187 -0.974438 -0.220402
-149.845 -41.2742 622.807 -0.144787 -0.9059 -0.397973
-141.444 -40.7238 620.132 -0.074729 -0.845178 -0.529236
-142.64 -42.3778 623.03 -0.110194 -0.860831 -0.496817
-138.599 -42.9759 623.113 -0.0343717 -0.907213 -0.419264
-9.29297 -8.76653 568.434 -0.138577 -0.881127 -0.452118
-10.301 -10.1432 572.129 -0.121011 -0.891668 -0.436217
-21.8268 -14.8936 581.534 -0.0988001 -0.813063 -0.573731
-16.0471 -17.3629 584.063 -0.244705 -0.371755 -0.895498
-19.4635 -17.195 583.971 -0.300707 -0.285309 -0.910041
-16.6625 -20.0835 583.377 -0.344656 0.225511 -0.911239
-18.0618 -19.6786 585.163 -0.301325 -0.0248476 -0.953198
-13.1441 -22.5859 581.762 -0.218661 0.467476 -0.856536
-58.7455 -38.756 616.132 -0.0341547 -0.839291 -0.542608
-62.6073 -39.4384 616.472 0.0131325 -0.851499 -0.524192
-76.2663 -45.7552 626.575 -0.154809 -0.840881 -0.518608
-2.29851 -21.9479 582.806 0.319084 0.347337 -0.881784
-9.48466 -23.8885 578.905 -0.0676079 0.906026 -0.417787
-16.6922 -26.2289 576.428 -0.254889 0.960507 -0.111613
-66.8497 -45.0071 624.878 -0.0385849 -0.828151 -0.559175
-10.1935 -25.3306 575.417 -0.0558737 0.966772 -0.249458
-14.4364 -26.4421 574.397 -0.133676 0.980706 -0.142641
-16.2995 -25.8376 573.427 -0.154862 0.972659 -0.173066
-6.71463 -24.8221 576.841 0.0163636 0.946212 -0.323134
1.86814 -24.1043 580.39 -0.0167774 0.905473 -0.424072
-2.46002 -24.4667 578.541 0.145944 0.935371 -0.322152
-22.1028 -28.6813 572.234 -0.47196 0.854209 -0.218128
-64.7458 -46.6014 627.403 -0.0855047 -0.845863 -0.526502
-25.0877 -31.1927 570.475 -0.586838 0.762347 -0.272851
-17.0311 -29.4382 565.031 -0.243735 0.865543 -0.437526
-52.4599 -45.3426 624.78 -0.0261743 -0.844999 -0.534126
-1.75214 -26.2523 571.861 0.066171 0.955376 -0.287886
-53.8313 -47.3604 628.246 -0.0985044 -0.836441 -0.539132
-50.2693 -47.8907 628.005 -0.0901778 -0.805769 -0.585324
-57.1657 -50.859 633.213 -0.0238257 -0.809484 -0.586658
-34.1959 -38.0679 571.656 -0.677247 0.729402 -0.0964851
-53.0887 -51.3404 634.017 -0.00577689 -0.829531 -0.558431
-38.3005 -47.3444 625.06 -0.0174107 -0.854453 -0.519237
-30.2423 -37.822 563.482 -0.603267 0.672215 -0.429181
-36.4292 -40.3561 569.795 -0.773498 0.604422 -0.190723
-50.9817 -53.436 636.796 -0.134986 -0.741669 -0.657043
-38.8858 -49.1189 628.313 -0.111085 -0.850746 -0.513704
-52.3569 -55.8135 639.444 -0.0758591 -0.803574 -0.59035
-36.0589 -45.3901 588.535 -0.872201 0.3876 0.298382
74.512 -58.295 633.146 0.177093 -0.680567 -0.710962
71.0176 -58.5904 631.255 0.568466 -0.510877 -0.644865
68.0422 -60.3124 629.454 0.739255 -0.163929 -0.653168
75.0178 -64.198 636.427 0.250417 0.370728 -0.894344
79.1018 -63.2445 636.417 -0.567531 0.00113045 -0.823351
82.5845 -62.4058 629.084 -0.804994 0.588704 -0.0735674
76.8602 -60.9224 634.902 -0.0351668 -0.553537 -0.832082
-28.706 -49.6748 544.951 -0.478442 0.5259 -0.703222
-34.162 -63.0863 649.791 -0.0435299 -0.843604 -0.535199
-16.7877 -41.2282 546.682 -0.164187 0.717143 -0.67731
-42.8568 -63.6646 651.869 -0.0535723 -0.835127 -0.547443
-46.563 -63.7411 652.582 -0.0871364 -0.846294 -0.525541
-50.9969 -62.8017 651.374 0.0176258 -0.87954 -0.475499
-47.4637 -60.268 646.169 -0.00846868 -0.869954 -0.493061
-46.4109 -58.0851 642.759 -0.0345183 -0.836474 -0.546919
-48.3535 -56.3019 640.099 -0.0351577 -0.860399 -0.508407
-26.0552 -38.2717 557.616 -0.591889 0.718571 -0.365135
-154.319 -37.7637 616.293 -0.0849698 -0.825594 -0.557831
-153.177 -35.6953 612.984 -0.0261935 -0.858736 -0.511749
-151.072 -34.1722 610.063 -0.0384395 -0.842631 -0.537118
-155.152 -34.3132 610.326 0.0274001 -0.882125 -0.470218
-60.4915 -0.355444 557.18 0.147529 -0.820076 -0.55291
-63.7842 -0.190295 556.562 0.0393536 -0.811001 -0.583719
-62.7925 2.1822 553.731 0.14321 -0.869299 -0.473085
-71.3072 -0.084021 554.87 0.0999144 -0.901816 -0.42041
-182.904 -36.2391 624.72 -0.924594 -0.379889 0.0284628
-183.263 -33.4763 621.978 -0.988664 0.0195641 -0.148866
-48.2696 11.8689 530.507 -0.111284 -0.899665 -0.422159
-55.1571 11.1589 539.51 -0.00886654 -0.919001 -0.394156
-53.8319 12.3838 536.011 -0.253827 -0.931725 -0.259732
-52.7564 13.2318 531.314 -0.157873 -0.955325 -0.24986
-51.6557 14.3218 527.457 -0.0780741 -0.892125 -0.444992
-55.8888 13.6136 533.341 -0.0878888 -0.980473 -0.175924
-182.889 -29.4176 629.971 -0.993073 0.00109989 0.117496
-60.2537 13.9204 531.664 0.0853193 -0.924812 -0.370732
-183.471 -27.2354 627.18 -0.995025 0.0679482 -0.0728538
-64.3221 13.5659 530.523 0.126335 -0.887423 -0.443307
-66.7011 12.9857 529.49 -0.0830882 -0.886063 -0.456057
-66.0619 14.927 527.411 -0.0343955 -0.86763 -0.496019
-183.509 -25.7432 633.452 -0.998323 -0.00450943 0.0577157
-182.759 -23.1554 626.639 -0.974024 0.141236 -0.177002
-180.273 -22.1319 618.58 -0.923611 0.183235 -0.336703
-74.8342 13.7987 529.553 0.06134 -0.878875 -0.473093
-183.471 -22.5856 633.285 -0.984844 0.171082 0.0285356
-78.5473 13.7721 529.709 -0.0815696 -0.796598 -0.598981
-82.345 14.2548 529.743 0.0487247 -0.895816 -0.441746
-178.056 -17.6696 617.223 -0.847505 0.270843 -0.456486
-75.6465 16.9691 522.924 -0.0506479 -0.880008 -0.47225
-182.334 -19.9027 630.368 -0.969044 0.24683 0.00529566
-181.209 -17.5396 623.381 -0.932051 0.253036 -0.259334
-79.4411 17.1953 523.853 -0.0359283 -0.855748 -0.516144
-78.0384 18.9701 520.29 0.0327474 -0.88803 -0.458618
-76.9528 20.6136 517.168 -0.056357 -0.864969 -0.498651
-80.3418 20.6684 517.44 0.0333865 -0.871388 -0.489456
-84.2114 20.6944 516.555 0.0847375 -0.906344 -0.413956
-178.039 -11.7701 623.41 -0.840459 0.526077 -0.129892
-108.736 13.8172 526.722 0.0961009 -0.830634 -0.548463
-111.961 14.3823 526.499 -0.0145612 -0.850513 -0.525753
-110.81 16.181 523.031 0.116072 -0.833114 -0.540784
-82.1502 27.6645 504.057 -0.000899409 -0.918488 -0.395447
-85.6859 27.264 503.167 0.0912813 -0.900386 -0.425408
-100.071 24.2872 508.019 0.033955 -0.894695 -0.445384
-103.136 24.4234 508.407 -0.0286453 -0.893723 -0.447703
-102.024 25.5774 505.016 0.0372445 -0.906676 -0.420179
-101.413 27.7184 500.71 -0.00858818 -0.920208 -0.391335
-104.898 27.6629 501.871 -0.0641653 -0.899613 -0.431949
-108.072 28.0564 501.407 0.00794384 -0.899429 -0.436994
-160.664 20.6617 614.033 0.0410305 -0.750015 -0.660147
-154.264 24.1075 608.907 -0.173857 -0.720827 -0.670956
-90.8083 43.3997 485.519 0.387607 0.516094 -0.763811
-157.548 24.6353 608.905 -0.117158 -0.74655 -0.654933
-156.281 26.8096 606.241 -0.0970898 -0.767283 -0.633917
-96.3786 44.4273 482.387 0.407169 0.502048 -0.762995
-70.3153 57.2607 504.467 0.27142 0.767444 -0.580828
-96.3225 48.6143 485.232 0.371579 0.431603 -0.821978
-125.955 40.3001 559.622 -0.62123 0.783262 -0.0239597
-125.014 42.1827 553.493 -0.68854 0.723525 -0.0492376
-73.7879 57.2785 503.015 0.255571 0.800969 -0.541417
-74.2203 59.4948 505.914 0.262693 0.816251 -0.514517
-98.8644 50.7412 485.454 0.366114 0.504888 -0.781696
-120.815 45.3589 554.623 -0.731695 0.681508 -0.0129706
-87.1703 55.6997 494.06 0.385425 0.542532 -0.746396
-50.5425 138.904 500.763 -0.491038 0.829608 -0.265768
-24.0354 145.231 481.091 0.00527554 0.766301 -0.64246
-20.3178 145.714 482.585 0.343027 0.701608 -0.624563
-59.8051 129.644 497.205 -0.488918 0.24008 -0.838642
-21.2632 142.079 479.502 0.427038 0.324937 -0.843833
-51.5139 129.301 492.58 -0.473591 -0.174011 -0.863384
-53.5489 125.498 493.574 -0.474016 0.1731 -0.863334
-45.0836 125.458 488.338 -0.451639 0.0890373 -0.887747
-46.706 121.477 489.773 -0.354175 -0.508763 -0.784678
-38.3485 122.128 486.512 -0.122054 -0.756598 -0.642388
-34.4776 121.414 486.639 -0.161425 -0.79876 -0.57959
-30.7729 121.19 486.093 -0.0227108 -0.83733 -0.546225
-32.3001 119.321 489.349 -0.224556 -0.698527 -0.679437
6.91424 130.017 469.707 0.121075 -0.798463 -0.589744
-72.5294 103.328 502.75 -0.349529 -0.468176 -0.811567
-73.2039 101.087 505.14 -0.505474 -0.653421 -0.563505
0.746951 126.124 476.374 -0.0664232 -0.883997 -0.462749
3.04961 124.156 479.06 -0.0439914 -0.780969 -0.623019
1.47614 122.403 481.869 -0.342573 -0.487466 -0.803132
-65.9193 99.249 500.682 -0.643897 0.252435 -0.722269
-65.9346 96.0948 498 -0.621264 0.584332 -0.522099
-67.8527 95.9715 501.15 -0.756837 0.327989 -0.565351
-63.8396 95.2794 495.222 -0.381358 0.683191 -0.622749
-58.0967 95.7181 496.836 0.559222 0.380391 -0.736596
-6.33008 112.246 481.168 -0.132431 -0.50143 -0.855003
-2.31241 112.024 480.874 -0.192052 -0.568863 -0.799695
15.8123 118.72 478.329 -0.206849 0.251438 -0.945512
12.0858 117.361 478.74 -0.251802 0.169864 -0.952755
-4.16349 110.257 482.984 -0.0762326 -0.857197 -0.509315
-59.547 92.4261 494.134 0.594137 0.394366 -0.701054
-64.0133 88.3923 490.191 -0.258375 -0.00846861 -0.966008
15.0878 116.108 477.692 -0.193236 -0.264706 -0.94477
-60.4694 89.1625 491.338 0.52101 -0.0290342 -0.853056
13.6169 113.784 480.047 -0.0422678 -0.719793 -0.692901
12.0667 111.555 482.74 0.129727 -0.79173 -0.596938
-61.8321 85.3749 492.567 0.156355 -0.69683 -0.699987
-54.4868 87.4949 495.284 0.579616 0.198951 -0.79023
16.1316 111.625 483.189 0.0296823 -0.879648 -0.474698
18.9394 111.529 483.819 -0.131441 -0.662117 -0.737784
18.4113 109.144 485.408 -0.18583 -0.373202 -0.908948
-13.8514 98.3305 504.862 -0.0999341 -0.891085 -0.442697
-14.9703 96.9949 508.311 -0.1036 -0.864035 -0.492656
-104.111 58.9015 493.885 -0.552931 0.825484 -0.113328
-89.1197 64.7375 506.869 0.136586 0.879373 -0.456123
-107.442 55.909 493.434 -0.799164 0.549802 -0.243011
-92.4785 61.1385 497.907 0.195905 0.852384 -0.484834
-103.113 55.8443 487.177 -0.265114 0.612939 -0.744326
-87.4843 61.434 500.64 0.323992 0.823572 -0.465574
-106.628 52.4553 488.175 -0.800069 0.414539 -0.433644
-88.6792 58.8606 496.608 0.355024 0.706171 -0.612602
-93.2512 55.9523 491.465 0.325002 0.634168 -0.701573
-107.756 50.4385 487.709 -0.867302 0.294076 -0.401631
-97.6472 51.9757 487.122 0.316887 0.535154 -0.783067
-106.612 49.2445 485.342 -0.842747 0.191815 -0.502976
-108.376 48.7304 489.21 -0.837658 0.381534 -0.390846
-88.8133 56.1378 493.414 0.399343 0.479891 -0.781172
-120.729 46.9579 548.928 -0.751391 0.659821 -0.00697958
-148.192 -37.4433 614.748 8.67233e-05 -0.881227 -0.472693
-159.56 -42.0169 623.536 0.129026 -0.949176 -0.287085
-160.953 -42.7226 626.858 0.0595901 -0.98207 -0.178849
-142.333 -39.3289 617.855 -0.0731569 -0.816296 -0.572982
-147.882 -42.2646 624.49 -0.216466 -0.907302 -0.360478
-144.137 -42.874 623.79 -0.14595 -0.87799 -0.455885
-146.232 -43.8825 628.216 -0.235715 -0.947948 -0.214088
-12.8888 -10.8142 573.833 -0.0155853 -0.848143 -0.529537
-19.042 -14.2039 580.23 -0.137938 -0.849058 -0.509974
-15.7926 -14.7639 579.353 -0.0618764 -0.85109 -0.52136
-17.4969 -16.1958 582.389 -0.20257 -0.75767 -0.620404
-18.612 -18.2137 585.365 -0.254978 -0.0686705 -0.964505
-15.2969 -19.0611 583.773 -0.40742 0.148061 -0.901159
-18.5161 -20.8032 584.324 -0.436608 0.235405 -0.868307
-11.7715 -21.1209 582.83 -0.109189 0.464681 -0.87872
-20.4034 -23.9105 585.027 -0.509273 0.258476 -0.820872
-65.0658 -39.8833 617.345 -0.0535596 -0.852525 -0.519935
-66.8676 -41.4501 620.258 -0.0668435 -0.81718 -0.572494
-4.01922 -21.4793 582.795 0.237476 0.415388 -0.878099
-8.39759 -22.5047 581.373 -0.0886606 0.705022 -0.703622
-68.1411 -43.654 623.219 -0.0506152 -0.792511 -0.607754
-19.6915 -27.1716 577.391 -0.335022 0.938272 -0.0860578
-74.8231 -47.1276 628.904 -0.0699226 -0.878477 -0.47264
-4.7734 -24.1073 578.827 0.117547 0.906347 -0.405855
-23.1392 -28.1062 576.901 -0.467409 0.883964 -0.0116823
-19.0612 -27.4886 571.517 -0.340406 0.907914 -0.244574
-72.6659 -48.5601 631.255 -0.0263468 -0.880324 -0.473642
-3.46955 -25.3006 576.009 0.069074 0.966923 -0.245537
-17.57 -28.7078 566.749 -0.205321 0.891098 -0.404708
-60.5468 -47.7367 628.596 -0.0108387 -0.847669 -0.530414
-26.0082 -32.4158 569.591 -0.610744 0.734474 -0.295871
-56.2491 -48.1971 629.848 -0.0561455 -0.831496 -0.552686
-28.4216 -34.6848 568.654 -0.552497 0.808579 -0.202355
-48.7459 -49.0829 629.765 -0.0707238 -0.877945 -0.473508
-50.5238 -50.4897 632.714 -0.0511402 -0.833801 -0.549691
-30.0121 -36.5505 565.341 -0.623288 0.732384 -0.274091
-42.1952 -49.3867 629.491 -0.0909338 -0.836454 -0.54044
-48.2353 -53.2239 635.434 -0.169875 -0.745484 -0.644512
-45.1037 -53.3032 634.639 -0.106202 -0.797456 -0.593957
-23.8926 -36.8032 555.924 -0.531414 0.69961 -0.477646
59.8523 -52.2356 618.605 0.616161 -0.175751 -0.767761
57.9406 -55.2817 617.458 0.675312 -0.0268855 -0.737042
74.0925 -55.3693 628.474 0.05532 -0.84514 -0.531675
78.5204 -55.123 628.141 -0.0786463 -0.860555 -0.503249
64.4403 -57.211 624.388 0.782851 -0.118465 -0.610828
77.6147 -57.2919 631.85 -0.241841 -0.731793 -0.637175
70.9351 -60.819 632.515 0.652371 -0.289 -0.700636
68.756 -61.2284 630.261 0.764846 -0.228736 -0.602237
71.0485 -67.4933 626.078 0.136103 0.975071 -0.175248
82.5853 -61.5264 632.25 -0.821544 -0.362043 -0.440443
80.6718 -62.5141 635.609 -0.690635 0.103811 -0.715714
73.0765 -63.5672 634.936 0.508633 0.231117 -0.829384
79.3883 -60.0751 633.524 -0.369769 -0.626229 -0.686373
-25.6634 -49.5642 543.448 -0.45636 0.5248 -0.718554
-18.2636 -45.3716 541.839 -0.0910892 0.624441 -0.775743
-11.0138 -42.7812 544.562 0.157678 0.49964 -0.851761
-20.0019 -44.2702 544.317 -0.239006 0.758832 -0.605847
-41.9859 -65.2094 654.301 -0.0711722 -0.835597 -0.544713
-13.8322 -41.0951 545.871 -0.159933 0.698386 -0.697624
-10.2906 -39.8802 546.441 0.103331 0.683522 -0.722579
-35.8839 -61.2821 647.579 -0.0952609 -0.83414 -0.543264
-54.4674 -65.8213 656.385 -0.0286776 -0.886755 -0.46135
-53.5618 -63.6524 652.677 0.00314144 -0.874192 -0.485571
-40.7652 -59.199 643.935 -0.0373128 -0.850943 -0.523931
-18.9238 -39.0527 550.422 -0.327108 0.646766 -0.688981
-57.6954 -63.8707 653.607 -0.0250694 -0.895031 -0.445299
-39.9162 -57.7297 641.961 -0.0462156 -0.835417 -0.54767
-43.8461 -57.2343 641.456 -0.0246804 -0.835677 -0.548666
-45.8622 -55.4581 638.647 -0.0363733 -0.856202 -0.515359
-150.388 -35.5023 612.02 -0.0905135 -0.838217 -0.537772
-152.472 -33.463 609.381 0.00401319 -0.866569 -0.499041
-151.513 -31.3715 605.268 0.00683067 -0.853985 -0.520252
-67.9059 -2.77991 560.573 0.0369041 -0.792142 -0.60922
-65.9146 -0.949176 558.205 -0.00188741 -0.832955 -0.553337
-70.4374 -0.699595 557.408 0.139431 -0.900762 -0.411323
-63.5297 2.40869 551.852 0.0789007 -0.939961 -0.332036
-49.2687 11.0153 536.617 -0.188799 -0.96588 -0.177286
-48.4466 11.4125 532.624 -0.143819 -0.952757 -0.267528
-51.4713 11.9346 534.033 -0.250927 -0.944841 -0.210503
-54.943 12.905 532.629 -0.131 -0.968073 -0.213715
-71.9882 11.038 534.257 -0.00151544 -0.861582 -0.507616
-73.7433 12.851 531.849 0.0501395 -0.871759 -0.487363
-69.9519 12.8513 532.213 -0.0839977 -0.85479 -0.512131
-182.364 -24.0297 624.161 -0.966247 0.104685 -0.23539
-181.412 -23.2694 620.775 -0.948416 0.110662 -0.297088
-67.3602 16.33 525.196 -0.0760197 -0.896327 -0.436828
-86.1065 11.6544 534.168 -0.0371334 -0.810943 -0.583946
-181.528 -19.6727 622.895 -0.917413 0.178607 -0.355603
-85.047 13.4577 530.852 0.0910847 -0.894974 -0.436721
-73.0744 17.5477 521.896 0.00720723 -0.903014 -0.429552
-182.137 -19.1023 633.581 -0.949804 0.311572 -0.0281975
-182.08 -18.0363 629.784 -0.959604 0.281353 0.00118051
-180.32 -16.4486 621.852 -0.895768 0.299702 -0.328297
-178.412 -15.6932 618.323 -0.848195 0.270838 -0.455206
-75.5873 19.6782 518.925 5.27828e-05 -0.879003 -0.476816
-181.208 -16.2806 625.74 -0.915129 0.370272 -0.159492
-79.1936 19.8442 518.586 -0.00165531 -0.8552 -0.518295
-178.114 -12.362 620.574 -0.86659 0.453886 -0.207387
-77.7793 21.5358 515.951 -0.0174821 -0.886676 -0.462061
-75.8586 22.7545 512.469 -0.148846 -0.91659 -0.37109
-179.557 -13.2156 628.688 -0.840276 0.534898 -0.0884325
-114.209 13.6186 528.152 -0.0819775 -0.899391 -0.42939
-118.443 13.9298 527.258 -0.02481 -0.852682 -0.521841
-90.0586 25.0414 508.074 -0.0090692 -0.879175 -0.476413
-88.2773 26.3022 504.46 0.082434 -0.905571 -0.416107
-97.5127 25.1879 506.16 0.0379914 -0.891437 -0.451549
-95.6617 26.9547 504.05 0.0545759 -0.860494 -0.50653
-99.664 26.4501 503.654 0.0278625 -0.91161 -0.41011
-103.536 26.9096 502.909 -0.0198446 -0.902391 -0.43046
-100.325 29.4351 496.809 0.0559416 -0.8968 -0.438886
-85.9084 41.8961 486.61 0.42072 0.512673 -0.748439
-92.9686 40.5895 482.45 0.453111 0.314783 -0.834028
-152.955 22.8299 609.934 -0.347371 -0.505818 -0.789608
-162.238 21.5673 612.581 0.0216311 -0.748807 -0.662435
-95.8187 42.1595 481.548 0.466347 0.505351 -0.726045
-160.463 23.8201 610.16 -0.054822 -0.738502 -0.672019
-164.3 23.8909 609.731 0.11561 -0.842646 -0.525911
-91.5481 46.4773 486.328 0.421224 0.376473 -0.825129
-132.868 33.9141 551.053 -0.783926 0.62069 0.0142885
-157.499 28.1698 604.731 -0.0218916 -0.826897 -0.561927
-131.627 34.6389 547.062 -0.750345 0.656988 -0.0731347
-68.499 56.6226 503.788 0.258924 0.715162 -0.649232
-94.1355 48.8521 486.553 0.371748 0.432229 -0.821573
-91.2615 49.6106 488.426 0.476711 0.432573 -0.765263
-75.1271 55.8895 500.393 0.344653 0.717955 -0.604776
-126.038 40.8991 552.941 -0.694138 0.717213 -0.061469
-82.5094 53.962 495.193 0.351602 0.439651 -0.826488
-124.076 41.8672 559.739 -0.745938 0.662998 -0.063333
-124.545 42.025 556.616 0.723836 -0.682131 -0.103731
-89.6852 52.7428 490.863 0.483042 0.401532 -0.778102
-123.013 43.3706 552.452 -0.695621 0.718408 -0.00123535
-122.143 44.6534 546.943 -0.778997 0.626001 -0.0358725
-81.8192 56.8828 497.692 0.342484 0.645235 -0.682918
-85.5461 56.4664 495.456 0.492306 0.522693 -0.696007
-52.3339 138.59 502.404 -0.486949 0.815707 -0.312255
-55.5264 135.678 501.509 -0.489421 0.813004 -0.315423
-21.8488 144.121 480.067 0.374902 0.553021 -0.744054
-57.4816 130.421 495.954 -0.543846 0.239049 -0.804417
-19.268 143.144 481.631 0.375769 0.639516 -0.670684
-54.2374 128.384 494.103 -0.536528 -0.0606493 -0.8417
-50.7703 126.42 492.163 -0.510872 0.106087 -0.853086
-47.8517 124.598 489.811 -0.519135 0.00589989 -0.854672
-44.0615 122.222 488.237 -0.405033 -0.495738 -0.76824
-40.4366 121.432 487.605 -0.184703 -0.808723 -0.558438
-31.7075 122.085 484.837 -0.0599134 -0.833419 -0.549385
-32.977 120.424 487.586 -0.103367 -0.829075 -0.5495
-29.7876 119.854 488.155 -0.124461 -0.716294 -0.68661
4.43963 129.114 471.17 -0.0368815 -0.812998 -0.581097
-75.0074 102.67 504.35 -0.336154 -0.644298 -0.686936
3.41504 127.098 474.744 -0.023777 -0.854176 -0.51944
-71.061 101.369 503.978 -0.410363 -0.567601 -0.713744
5.55541 125.073 477.663 0.0405232 -0.872398 -0.487113
-1.23036 122.157 483.453 -0.325718 -0.516449 -0.791952
-67.8762 98.6688 502.536 -0.743587 0.0638446 -0.665584
-2.95374 119.885 484.169 -0.228948 0.248185 -0.941269
-65.8263 97.4522 499.445 -0.644042 0.465956 -0.606709
-67.6465 94.8561 499.348 -0.772384 0.423202 -0.473628
-60.4471 95.3567 494.787 0.30577 0.551885 -0.77584
-3.33075 113.188 480.205 -0.296315 -0.225812 -0.928012
-5.09104 111.102 482.285 -0.174442 -0.718175 -0.673643
14.1906 117.893 478.05 -0.241229 0.132634 -0.961362
-57.5683 93.0625 496.142 0.575322 0.404468 -0.710922
-61.7034 89.0671 489.998 0.212883 0.279499 -0.936248
-1.52735 111.132 481.645 0.0364868 -0.810204 -0.585011
12.9388 115.362 478.785 -0.192924 -0.448905 -0.872505
-55.7545 90.2395 495.567 0.546946 0.386421 -0.74265
-62.7777 86.2645 490.658 0.0610334 -0.578894 -0.813115
16.4236 114.74 478.66 -0.134587 -0.589924 -0.796164
-59.4411 86.4393 491.496 0.245721 -0.540701 -0.804527
