ply
format ascii 1.0
element vertex 890
property float x
property float y
property float z
property float nx
property float ny
property float nz
end_header
-109.741 86.2779 520.44 0.322556 0.850142 -0.416192
-27.3502 45.5997 501.049 0.421757 0.235757 -0.875523
-19.8097 41.6818 504.755 0.542302 0.413909 -0.731155
43.9104 4.35925 531.872 0.198005 -0.624399 -0.755593
-56.4885 61.6996 499.726 0.240406 0.907549 -0.344325
3.28683 29.2811 516.387 0.577191 0.268169 -0.771321
10.5809 25.338 520.527 0.533237 0.365107 -0.763122
-114.24 91.4148 522.901 0.387403 -0.270617 -0.881297
-54.5235 62.5071 502.806 0.277505 0.88572 -0.372144
-27.0996 49.5838 501.969 0.34243 -0.252859 -0.904878
-24.6138 48.0151 503.432 0.443082 -0.103267 -0.890513
5.90141 30.998 518.767 0.532749 0.210138 -0.819769
8.84626 28.8568 520.332 0.595358 0.14317 -0.790602
-20.5202 49.3395 505.278 0.341583 -0.429847 -0.835794
-115.489 98.8286 515.297 0.0831821 -0.838497 -0.53852
9.46023 32.4673 521.385 0.523676 0.138234 -0.840627
-115.057 101.374 512.082 0.0548901 -0.844983 -0.531969
-70.2004 77.1648 514.485 -0.448542 -0.402637 -0.797931
-21.0605 53.795 499.266 0.0448961 -0.848548 -0.52721
12.2376 34.0811 523.437 0.480523 0.0083391 -0.876942
-68.5787 78.9152 512.666 -0.432863 -0.401682 -0.80702
-61.4427 75.8176 510.549 -0.424235 -0.241337 -0.872801
-7.00416 48.2979 510.061 0.369089 -0.552953 -0.747005
-100.749 99.5852 511.755 0.00940018 -0.860876 -0.508728
-86.1432 91.3029 519.651 -0.479396 -0.51322 -0.711888
-0.334055 44.4388 515.21 0.461321 -0.28666 -0.839648
-100.461 101.558 509.052 -0.0209356 -0.809718 -0.586446
-97.1855 101.025 509.537 -0.111326 -0.871648 -0.477322
-85.9686 93.3111 517.065 -0.455996 -0.621431 -0.637096
-54.5836 78.6785 507.047 -0.302834 -0.510267 -0.804934
-3.46769 49.9666 512.422 0.739006 0.123871 -0.662213
-1.03954 48.0394 513.421 0.60543 0.0605857 -0.793589
-9.02257 55.5351 507.666 0.724845 0.398536 -0.561933
-93.963 104.166 503.995 -0.0594901 -0.785825 -0.615582
-86.2498 100.52 508.699 -0.112182 -0.862539 -0.493399
5.79313 46.7135 520.088 0.704793 0.358624 -0.612091
-7.20635 56.4419 510.571 0.731768 0.234869 -0.639807
-85.7816 101.923 504.623 -0.0361662 -0.83176 -0.553956
-83.2269 101.515 506.509 0.104632 -0.831732 -0.545228
-9.02196 59.6441 509.385 0.641576 0.13671 -0.754778
-87.1236 108.536 500.58 0.143231 -0.0481173 -0.988519
27.5679 40.6976 540.524 0.648543 0.211603 -0.731174
25.7875 44.5893 540.139 0.601465 0.176887 -0.779071
33.0564 43.7199 546.335 0.708208 0.0153578 -0.705837
-72.4802 109.491 499.023 -0.249733 -0.174905 -0.952387
-74.1155 112.071 499.499 -0.174808 -0.0358451 -0.98395
31.8334 47.9612 545.055 0.6868 0.186922 -0.7024
-70.1805 109.924 498.741 -0.183811 -0.188164 -0.964784
139.566 21.3642 689.112 0.824631 0.529898 -0.197971
141.173 18.7237 689.103 0.833936 0.488237 -0.257245
145.238 12.7558 690.834 0.833442 0.512536 -0.206597
-23.0782 10.8297 528.218 -0.052401 -0.884913 -0.4628
-19.856 7.80864 536.066 -0.161448 -0.938274 -0.305902
-24.363 7.98183 535.926 0.0572639 -0.89508 -0.442213
-23.5369 6.0139 538.755 0.0755089 -0.87077 -0.485858
-77.0447 35.362 480.785 -0.0906536 -0.917767 -0.386633
-87.7654 37.5549 478.283 -0.170917 -0.829191 -0.532194
-90.9613 34.9628 483.112 -0.16569 -0.830154 -0.532345
-93.8758 34.1886 486.23 -0.305187 -0.774578 -0.553976
-81.1378 21.7765 515.204 -0.105037 -0.899807 -0.423456
-77.1152 17.5957 522.283 -0.0292941 -0.907341 -0.419374
-81.3563 18.0243 521.846 -0.0678472 -0.878947 -0.472068
-87.6096 19.7167 519.548 -0.05391 -0.895741 -0.441295
-106.559 24.9655 508.617 -0.170338 -0.850791 -0.497131
-109.477 26.5167 507.691 -0.359332 -0.69008 -0.628228
-108.852 24.2118 510.429 -0.198179 -0.81942 -0.537844
-108.887 21.1599 518.459 0.0432078 -0.948957 -0.312431
-109.91 22.3184 514.262 -0.0391029 -0.916932 -0.397123
-136.144 -3.63549 557.175 0.863581 -0.454021 0.2193
-10.5964 -51.9273 538.79 0.253912 0.315687 -0.91426
-14.3592 -49.7785 538.327 0.254295 0.37162 -0.892879
-137.361 -4.00786 560.268 0.782317 -0.498448 0.373537
-13.292 -52.6351 538.179 0.162808 0.26025 -0.951716
-12.9023 -61.6097 537.036 0.0359056 -0.14521 -0.988749
-10.0944 -78.9201 543.408 0.0497464 -0.659091 -0.750416
-134.074 -1.24692 559.396 0.434314 -0.880424 -0.190328
-73.4102 46.7799 470.819 0.457817 0.271227 -0.846664
-66.4203 42.9813 471.912 0.516692 0.118763 -0.847894
-59.218 38.738 476.102 0.454196 -0.424541 -0.783243
-63.8417 44.5403 474.753 0.60934 0.363773 -0.704538
-66.4551 46.6534 473.601 0.516336 0.503026 -0.693081
-70.1497 48.9248 473.317 0.515013 0.547893 -0.659222
-67.716 49.8915 476.327 0.468208 0.50575 -0.724567
-52.7691 41.6102 480.831 0.549591 0.404107 -0.731196
-64.5292 51.3396 478.73 0.451675 0.329319 -0.829179
-61.3425 52.7877 481.134 0.578516 0.41161 -0.704199
-54.6613 48.1806 482.841 0.497478 0.478356 -0.723665
-53.5339 49.1543 485.059 0.546649 0.514612 -0.660567
-62.171 56.0841 483.477 0.573209 0.521296 -0.632204
-58.8868 54.1791 484.462 0.516969 0.476982 -0.710796
-55.6952 51.5942 485.067 0.54189 0.500323 -0.675301
-55.8269 55.3892 487.16 0.499813 0.545138 -0.673061
-56.4308 58.0649 489.495 0.386937 0.803485 -0.452429
-53.2013 56.5112 489.963 0.463215 0.627975 -0.625364
-49.2752 57.1395 495.995 0.453502 0.84131 -0.294165
-41.9256 53.6613 495.627 0.378806 0.699453 -0.60603
-35.2142 49.6629 496.939 0.605074 0.28375 -0.743889
-27.8013 52.4976 500.395 0.264379 -0.597061 -0.757378
-27.9147 55.0516 497.362 0.0128846 -0.851177 -0.52472
-25.0776 54.6933 498.081 0.113901 -0.818582 -0.562983
-27.7938 58.8672 491.794 -0.226324 -0.565823 -0.792856
-24.8256 57.834 491.659 -0.0415366 -0.676727 -0.735061
75.9949 97.8886 609.285 0.94277 0.265822 0.201303
139.827 21.8924 692.053 0.758684 0.645591 -0.0872344
142.393 19.0635 693.268 0.790466 0.602453 -0.110517
144.446 15.9872 694.063 0.815857 0.462869 -0.346598
143.037 15.847 690.746 0.839228 0.474496 -0.265611
142.435 15.9241 686.434 0.828093 0.554083 -0.0851697
142.175 15.9469 682.374 0.822492 0.558246 -0.108939
-23.6688 9.36327 532.182 0.0147024 -0.934012 -0.356938
-26.912 7.99292 534.167 0.121046 -0.924032 -0.362648
-80.2767 37.6384 476.244 -0.0493925 -0.936588 -0.346934
-83.3618 38.1623 475.234 -0.0850691 -0.909136 -0.407719
-83.4376 36.9955 478.777 -0.0725978 -0.939596 -0.334497
-83.9792 35.6168 482.545 0.0360093 -0.91995 -0.390379
-83.6196 32.6572 489.503 0.056696 -0.930989 -0.360617
-87.6854 32.7739 488.382 0.0478757 -0.940745 -0.335718
-90.864 33.2434 486.585 -0.0434596 -0.920548 -0.388203
-91.0435 31.9429 490.612 0.0772964 -0.936126 -0.343066
-80.9133 20.0516 518.327 -0.0938553 -0.869335 -0.485229
-94.0943 30.4363 492.872 -0.0127956 -0.932827 -0.360097
-98.3529 31.7794 492.613 -0.33039 -0.794049 -0.510224
-84.7152 20.3845 517.666 -0.0234835 -0.877136 -0.479668
-84.0379 17.3326 523.739 -0.0861173 -0.880027 -0.46705
-102.886 23.0634 512.995 0.0307283 -0.930517 -0.364957
-105.585 22.1718 514.789 0.0305994 -0.950112 -0.310404
-112.818 21.6986 516.388 0.00919363 -0.872256 -0.488964
-9.14306 -54.8871 538.611 0.404349 0.202671 -0.891867
-12.7333 -56.9051 536.705 0.251762 0.25286 -0.934172
-17.0666 -54.8586 536.949 0.0946606 0.169892 -0.980906
-16.6419 -59.5894 535.646 0.0714064 0.0121428 -0.997373
-14.3952 -74.5204 539.912 -0.0322726 -0.531817 -0.846244
-31.659 -69.623 538.441 0.587655 -0.6277 -0.510544
-136.757 -2.76514 562.966 0.45106 -0.887776 -0.0916499
-133.179 -0.189808 557.086 0.473448 -0.876778 -0.084309
-128.794 4.9226 543.37 0.723861 -0.687334 0.0599713
-19.2801 8.37376 532.174 -0.150898 -0.928783 -0.338514
-69.9553 44.9352 471.025 0.243476 0.208721 -0.947183
-55.1231 36.2505 479.358 0.306977 -0.639498 -0.704846
-71.2219 47.5213 471.285 0.409081 0.374756 -0.831992
-55.6701 40.5036 478.235 0.474624 0.262562 -0.840115
-52.4793 38.5449 479.36 0.503417 0.165995 -0.847948
-72.2765 51.5184 473.312 0.493158 0.52402 -0.694405
-64.1339 47.5495 476.584 0.531717 0.462961 -0.709185
-71.1975 52.4459 475.498 0.547534 0.509485 -0.6638
-72.5904 55.2569 476.137 0.410277 0.517488 -0.750919
-58.1634 50.7415 482.032 0.567465 0.40194 -0.718629
-59.1849 57.5581 486.577 0.463295 0.656137 -0.595686
-52.3379 52.987 487.89 0.465161 0.445338 -0.765048
-46.3865 55.8061 495.638 0.336384 0.832222 -0.440741
-30.6617 48.0623 500.283 0.482282 0.0471647 -0.874745
-42.0804 56.5864 498.855 -0.0413956 0.563391 -0.825153
-31.6775 51.8407 498.981 0.287584 -0.388409 -0.875462
-31.6805 55.5865 496.581 -0.0511084 -0.641656 -0.765288
-35.852 61.3981 495.568 -0.559398 -0.161038 -0.813106
-32.3736 58.8496 494.017 -0.375353 -0.438677 -0.8165
-31.2307 57.1461 494.221 -0.341027 -0.594626 -0.728094
-28.2524 56.8125 494.356 -0.0956849 -0.805171 -0.585272
-24.2838 56.4964 494.911 0.223182 -0.844743 -0.486415
-33.2534 62.7344 493.397 -0.442796 0.00535272 -0.896606
-20.8075 55.1519 496.373 0.0341202 -0.709213 -0.704168
151.064 19.9382 698.545 -0.689896 -0.552468 -0.467785
146.672 17.3229 700.085 0.784735 -0.0493511 -0.617863
148.022 13.5944 701.824 0.899286 0.178141 -0.399439
149.033 10.2492 703.355 0.91769 -0.252927 -0.306387
148.288 10.4064 699.212 0.954844 0.265438 -0.133473
-26.5188 13.1461 524.056 -0.013998 -0.900892 -0.433818
-30.8245 13.5479 523.48 0.065747 -0.87502 -0.479601
-33.9998 13.7118 521.984 0.0919623 -0.830028 -0.550088
-33.5191 12.2483 525.037 0.0372968 -0.914927 -0.401893
-73.2999 33.7463 484.907 -0.0463153 -0.931745 -0.360147
-76.3929 32.876 487.406 -0.112398 -0.93744 -0.329505
-76.7463 31.8484 491.418 -0.132847 -0.936526 -0.324454
-77.0879 30.303 495.125 -0.0227399 -0.936662 -0.349496
-79.9959 29.6831 497.251 -0.0184684 -0.932932 -0.359579
-87.0881 35.6863 480.939 -0.0542237 -0.881889 -0.468329
-90.2325 37.3093 480.246 -0.258496 -0.761842 -0.59395
-83.9969 29.7947 496.907 0.0255446 -0.943206 -0.331226
-91.8552 29.4857 499.133 0.0268362 -0.958839 -0.282679
-91.4461 30.359 494.747 0.0627623 -0.954658 -0.291013
-92.198 28.2187 501.091 0.0081501 -0.937509 -0.347865
-91.1812 22.1008 515.358 -0.00838585 -0.908187 -0.41848
-91.5732 20.1009 519.054 -0.0098663 -0.871005 -0.491176
-104.924 27.0247 504.815 -0.261095 -0.817917 -0.512681
-28.1767 -68.8652 530.177 0.832872 0.150189 0.532698
-21.5436 -69.523 537.752 -0.0418811 -0.383755 -0.922485
-21.8225 -65.4712 536.142 -0.037498 -0.165179 -0.985551
-17.8608 -67.0255 536.749 0.0166779 -0.350916 -0.936258
-14.6924 -66.222 536.849 0.090006 -0.251284 -0.96372
-22.6957 -62.3929 536.347 -0.115115 -0.0997672 -0.988329
-134.277 -1.48079 554.424 0.846755 -0.486055 0.216232
-132.284 1.69388 553.099 0.710509 -0.702137 -0.0466884
-131.817 2.68555 548.97 0.79657 -0.577736 0.178038
-130.549 3.40842 551.164 0.432826 -0.864792 -0.254552
-126.874 3.15939 552.185 -0.0529621 -0.890342 -0.452202
-62.0044 41.3798 474.969 0.564931 0.239287 -0.78968
-59.2285 43.0625 477.14 0.525745 0.322968 -0.786946
-56.326 44.1886 480.079 0.509074 0.442644 -0.73818
-53.0839 45.2068 482.668 0.497994 0.401116 -0.768835
-65.9079 54.4564 478.576 0.404348 0.347728 -0.845924
-66.3361 57.6365 480.321 0.412045 0.641428 -0.64714
-63.049 55.4944 481.026 0.576758 0.532622 -0.619407
-38.1213 52.1885 496.021 0.300605 0.343331 -0.889809
-38.6999 55.8682 498.429 -0.236135 0.202509 -0.950384
-34.9864 53.3978 497.437 0.496149 0.0117133 -0.868158
-25.0089 60.3134 490.72 0.124411 -0.323552 -0.937996
-25.5404 64.0985 491.69 0.217575 0.424726 -0.878788
-23.1087 61.402 492.225 0.746566 0.349033 -0.566406
-25.956 67.5749 493.75 0.232007 0.496669 -0.836357
-19.0216 63.1832 499.035 0.70386 0.330973 -0.62852
-22.7747 68.3592 496.114 0.680842 0.0462061 -0.730971
141.315 20.8991 693.799 0.747129 0.655428 -0.110511
140.905 20.4702 690.683 0.815841 0.533945 -0.222051
139.659 19.9398 686.503 0.858371 0.488591 -0.156456
141.804 17.0484 688.328 0.835703 0.512795 -0.196576
143.845 14.2764 688.305 0.800081 0.591215 -0.101666
-21.5271 9.77168 530.18 -0.0654943 -0.883939 -0.462993
-21.5752 8.48444 534.398 -0.140244 -0.94041 -0.309774
-21.8659 6.8816 538.111 0.0386781 -0.895635 -0.443105
-25.3227 7.20594 536.66 0.0741812 -0.886516 -0.456712
-78.8305 36.5541 478.69 -0.0621517 -0.926561 -0.370974
-80.9094 36.1853 480.252 -0.108864 -0.931865 -0.346087
-78.0657 29.8905 497.156 0.015196 -0.922548 -0.385582
-86.0006 36.3174 480.729 -0.0542237 -0.881889 -0.468329
-95.6798 35.7441 485.431 -0.37796 -0.680353 -0.627907
-92.837 31.0135 492.487 0.0335176 -0.924871 -0.378801
-78.5258 18.6166 520.129 -0.0957421 -0.889775 -0.446245
-79.5161 16.7117 524.031 -0.0113033 -0.89864 -0.438542
-85.6749 18.4253 521.818 -0.0681342 -0.890261 -0.450325
-90.0648 18.9532 521.207 0.0143799 -0.888823 -0.458024
-107.051 26.6714 506.428 -0.276213 -0.753405 -0.59673
-110.669 25.6582 509.651 -0.356911 -0.657789 -0.66327
-107.985 21.741 516.303 0.0337505 -0.960745 -0.275371
-12.1774 -50.7275 538.672 0.2359 0.343201 -0.909156
-11.5857 -54.414 537.622 0.28071 0.275181 -0.919498
-15.5532 -52.7349 537.316 0.217344 0.221721 -0.950579
-8.20914 -80.5652 545.366 0.126696 -0.694799 -0.707956
-134.902 -1.59562 557.039 0.811202 -0.584573 0.0150312
-135.602 -2.21833 561.065 0.53725 -0.843305 -0.0141135
-64.1295 41.5934 473.004 0.508412 0.122787 -0.852315
-61.6659 39.8205 474.35 0.492224 -0.0709367 -0.867573
-72.9265 49.4794 472.062 0.456192 0.408627 -0.790514
-65.9516 45.0119 472.882 0.516572 0.415329 -0.748769
-58.1077 41.3157 476.801 0.479814 0.31314 -0.819586
-55.1411 42.576 479.584 0.503854 0.455108 -0.734172
-66.8788 52.0918 477.752 0.428783 0.356163 -0.830237
-52.1254 43.6661 482.406 0.52117 0.402181 -0.75275
-55.9966 49.9319 483.702 0.536702 0.529451 -0.656987
-52.6729 47.5222 484.255 0.506783 0.480702 -0.715609
-60.9512 54.4095 482.677 0.613949 0.506984 -0.605008
-59.1433 52.1847 482.973 0.570065 0.521603 -0.634788
-53.3732 51.1867 486.534 0.520668 0.43189 -0.736461
-53.5228 54.5995 488.386 0.477075 0.487982 -0.73094
-57.1175 57.1898 487.673 0.437517 0.695213 -0.570314
-54.3426 58.0459 491.523 0.399155 0.820278 -0.409658
-51.9129 58.1919 493.83 0.427926 0.82676 -0.365166
-48.1733 56.1716 495.221 0.445608 0.800744 -0.400304
-44.3076 54.4241 494.511 0.384147 0.716667 -0.582082
-40.526 52.4947 495.202 0.442637 0.558266 -0.701721
-33.384 53.1951 497.388 0.13476 -0.451366 -0.882105
-29.9171 54.1445 498.553 0.236873 -0.689952 -0.684001
-26.3211 53.6635 499.51 0.0493833 -0.789466 -0.611804
-26.1479 57.4668 492.935 -0.0418613 -0.733565 -0.678329
-26.4665 55.6204 496.452 0.0273635 -0.856704 -0.515081
51.4876 133.062 464.403 0.0634711 -0.95261 0.297498
38.2714 124.707 472.346 0.0792956 -0.747071 -0.659997
38.0795 122.138 474.986 -0.0705583 -0.799228 -0.596872
30.5508 126.403 470.943 -0.264843 -0.810773 -0.522021
31.1555 124.528 473.86 -0.0523675 -0.821424 -0.567909
22.0536 130.558 470.526 -0.4673 -0.564106 -0.680746
27.4627 125.626 473.002 -0.0777584 -0.727672 -0.681504
23.7706 126.232 472.567 -0.0380258 -0.755125 -0.654477
19.05 129.198 472.312 -0.383987 -0.254039 -0.887704
23.9283 123.825 475.478 -0.0239661 -0.819021 -0.573263
23.9473 122.217 478.485 0.0134588 -0.85632 -0.51627
20.6476 122.295 477.404 -0.127139 -0.817322 -0.56198
32.4147 111.416 482.018 0.024382 -0.22179 -0.97479
24.9361 115.074 482.527 -0.183834 0.0338431 -0.982375
146.126 11.3419 689.989 0.857239 0.501796 -0.115507
145.365 11.9018 685.944 0.84178 0.517924 -0.152189
149.085 5.50507 687.52 0.911692 0.345824 -0.221863
149.444 -0.528212 691.146 0.477345 -0.857699 -0.191035
140.162 -1.89067 692.555 0.169642 -0.956508 -0.237306
138.969 -2.74911 694.515 0.162181 -0.980982 -0.106642
135.818 -3.04609 694.168 0.0945685 -0.974498 -0.203496
53.8417 -40.6576 609.479 -0.267007 -0.852186 -0.449985
46.6568 -36.8096 604.548 -0.271888 -0.816416 -0.509452
46.8662 -38.8389 607.869 -0.113358 -0.820606 -0.56014
43.2331 -38.0682 606.965 -0.0392823 -0.75809 -0.650966
40.3143 -37.7744 606.9 0.11038 -0.791733 -0.600812
40.1033 -39.6231 609.096 -0.0132789 -0.794399 -0.607251
40.114 -41.8901 612.246 -0.0996947 -0.835982 -0.539625
36.3916 -41.0598 611.237 -0.162916 -0.904606 -0.393886
81.9718 -75.5076 675.927 0.699521 -0.702118 0.133045
84.0331 -74.0421 669.277 0.864196 -0.463434 0.195942
76.476 -78.8082 681.598 0.835104 -0.547061 0.0576675
76.5844 -77.6739 663.537 -0.00394081 -0.934902 -0.354884
70.1345 -75.5764 661.636 -0.184548 -0.857257 -0.480679
69.4056 -77.3156 665.385 -0.065067 -0.870036 -0.488675
66.2862 -78.482 667.559 -0.0545161 -0.849938 -0.524055
69.769 -82.9323 674.945 -0.0343493 -0.86062 -0.508088
48.0012 -71.0084 658.759 -0.0721807 -0.860217 -0.504794
40.3465 -67.3176 653.065 -0.102291 -0.90558 -0.411657
39.7493 -68.9876 656.919 0.0262249 -0.890975 -0.453295
36.6852 -68.4182 655.559 0.0271187 -0.864417 -0.502044
54.6584 -85.4298 681.75 -0.154813 -0.867321 -0.473062
54.8112 -87.4412 685.129 -0.143328 -0.852265 -0.503093
54.8735 -91.3858 691.627 -0.0988155 -0.853841 -0.511068
51.4601 -90.0884 690.775 -0.114905 -0.831667 -0.543255
41.1454 -84.9738 680.998 0.0267669 -0.843259 -0.53684
12.6456 -67.5676 569.304 0.986417 -0.094315 0.134487
13.0144 -67.1898 564.88 0.992135 -0.124375 -0.0141322
12.3474 -70.7906 566.747 0.971029 -0.238692 0.011359
0.829167 -92.0228 581.053 0.757861 -0.588037 0.282594
2.70093 -91.3798 578.392 0.753085 -0.59576 0.279165
-4.34381 -83.3064 548.898 0.217801 -0.577541 -0.786771
38.2854 -97.2192 697.947 0.268419 -0.392906 -0.879532
41.2882 -99.2086 698.551 0.34369 0.93762 -0.0524029
41.1605 -94.8158 697.043 0.126815 -0.672036 -0.729579
41.2831 -92.5079 694.493 -0.0361883 -0.852635 -0.521252
44.5591 -93.0402 694.977 -0.0374943 -0.867337 -0.496306
48.2987 -95.0605 696.368 0.0364031 -0.7687 -0.638573
48.5638 -91.226 692.596 0.0191111 -0.786713 -0.617022
54.5544 -39.3588 605.494 -0.220138 -0.890644 -0.397859
62.2585 -43.5514 609.727 -0.157553 -0.860653 -0.484205
87.6247 -65.3652 672.584 0.952219 -0.175489 0.249964
97.7682 -63.0144 636.925 0.499468 -0.69207 -0.521124
96.7621 -63.0793 644.619 0.751313 -0.611488 0.248215
93.3577 -62.3195 653.68 0.89221 -0.229104 0.389196
94.0652 -58.2763 629.604 -0.170639 -0.818095 -0.549184
97.2491 -57.9345 626.88 -0.238241 -0.855504 -0.459734
96.9768 -59.9287 647.66 0.875587 -0.32018 0.361708
94.8544 -60.0153 652.284 0.86241 -0.351442 0.364332
98.0956 -55.8446 623.257 -0.153973 -0.793746 -0.588438
89.9514 -56.2572 667.478 0.800359 -0.570841 0.183212
93.7361 -50.9693 616.86 -0.208031 -0.876559 -0.434014
97.12 -56.9268 650.678 0.868472 -0.30119 0.393752
97.6466 -52.3947 617.011 -0.300862 -0.881652 -0.363554
101.572 -53.7512 617.19 -0.101174 -0.890005 -0.444584
103.023 -56.0057 637.58 0.868162 -0.32946 0.371147
104.321 -52.4934 615.562 -0.0756843 -0.873192 -0.481463
104.794 -53.8566 618.679 0.0977103 -0.860718 -0.499617
96.3699 -53.6044 653.208 0.88203 -0.261528 0.391953
93.0275 -54.1154 670.084 0.668456 -0.743642 -0.0128092
94.1697 -51.7095 664.179 0.535366 -0.84369 0.039629
107.51 -52.6213 630.908 0.868339 -0.299794 0.395109
110.846 -52.7062 621.334 0.721896 -0.67461 0.154167
110.732 -50.5167 625.541 0.849568 -0.354862 0.390266
100.528 -48.2546 659.867 0.261401 -0.896712 -0.35718
110.273 -49.0374 628.206 0.850752 -0.329938 0.409098
103.571 -48.4562 660.737 0.160972 -0.979567 -0.12057
106.852 -46.9264 658.811 0.437258 -0.896513 -0.0712049
107.009 -46.2122 662.664 0.587202 -0.778617 0.221246
110.894 -42.857 629.76 0.849418 -0.288424 0.441929
117.486 -41.5116 654.26 0.556834 -0.750922 0.355038
120.959 -38.0615 639.661 -0.0433743 -0.887079 -0.459576
121.324 -39.2346 653 0.572461 -0.773456 0.27213
121.448 -36.0924 635.864 -0.0349354 -0.835943 -0.547704
138.849 23.1375 688.942 0.832183 0.520121 -0.192209
143.773 17.8471 694.979 0.802317 0.567891 -0.183813
142.494 18.4687 691.411 0.844475 0.45348 -0.284987
144.437 14.3472 692.064 0.814885 0.528547 -0.237908
141.162 17.5288 684.423 0.8183 0.571258 -0.0636422
143.067 14.7999 684.54 0.811557 0.57331 -0.112651
-25.3627 8.76814 534.004 0.107461 -0.910291 -0.399777
-25.9475 10.2236 530.14 0.0529601 -0.912986 -0.404539
-28.4297 8.92857 531.697 0.0467574 -0.907739 -0.416923
-81.7439 38.6772 474.148 -0.132415 -0.909264 -0.394595
-81.7248 37.0696 477.154 -0.0697112 -0.931222 -0.357722
-85.5248 37.8723 476.554 -0.228471 -0.890855 -0.392657
-88.8778 33.5721 485.557 -0.0406044 -0.929792 -0.365838
-82.9256 21.3154 516.465 -0.055663 -0.88804 -0.456384
-96.1129 31.5458 492.002 -0.165195 -0.89578 -0.41266
-96.7311 30.2445 495.011 -0.151888 -0.91855 -0.364961
-83.1421 19.2163 519.751 -0.0484218 -0.877345 -0.477411
-82.0257 16.0687 525.6 -0.0614446 -0.888616 -0.454518
-104.332 24.1477 510.549 0.0551427 -0.913826 -0.402344
-107.341 23.0459 512.487 0.0109608 -0.915628 -0.401876
-111.051 20.9043 518.153 0.113783 -0.930514 -0.348133
-16.1974 -48.3462 538.8 0.063781 0.458333 -0.886489
-8.2901 -52.8449 539.345 0.419188 0.281165 -0.863266
-139.146 -4.19778 562.756 0.651146 -0.717753 0.246657
-15.3542 -56.9133 536.071 0.0725473 0.179963 -0.980995
-14.1223 -59.7358 535.992 0.0864222 -0.0747013 -0.993454
-17.8698 -58.066 536.127 0.0597674 0.196128 -0.978755
-32.7439 -71.3352 538.392 0.941125 -0.337083 -0.0256642
-132.242 -0.699244 559.219 0.156002 -0.944355 -0.289579
-17.8549 7.24397 534.97 -0.105574 -0.943024 -0.315531
-72.3385 45.2032 470.441 0.408258 0.134964 -0.902834
-68.686 43.0068 470.85 0.341857 -0.09927 -0.934494
-56.9175 37.259 477.739 0.394085 -0.490626 -0.777164
-53.0369 36.3458 479.496 0.179238 -0.470082 -0.864232
-69.1545 47.1531 472.382 0.406041 0.484833 -0.77464
-54.1789 38.8759 477.613 0.356488 0.0485095 -0.93304
-53.619 40.032 479.225 0.622424 0.282379 -0.729966
-69.8601 50.6613 474.918 0.525601 0.53495 -0.661492
-66.5746 48.1909 475.341 0.490369 0.606114 -0.626231
-62.5389 45.9748 475.891 0.541957 0.420817 -0.727458
-73.2036 52.9415 474.421 0.500704 0.530774 -0.683795
-70.3382 54.0443 476.947 0.447472 0.448521 -0.773691
-63.1179 49.6552 478.001 0.496179 0.423433 -0.757965
-60.2708 51.211 480.755 0.551555 0.424055 -0.718306
-56.1356 53.1234 485.597 0.523734 0.43665 -0.731464
-61.3409 57.8853 484.796 0.481945 0.579875 -0.656867
-58.1896 55.7864 485.641 0.528512 0.485467 -0.696417
-33.0503 49.4208 498.966 0.542939 0.17938 -0.820391
-47.6258 57.2945 498.257 0.24267 0.867704 -0.433822
-43.7462 55.5774 497.314 0.296283 0.801791 -0.518987
-43.8616 57.7697 500.33 -0.117517 0.6408 -0.75866
-29.5568 50.6873 500.574 0.472988 -0.261004 -0.841522
-32.5892 57.577 495.624 -0.348414 -0.580835 -0.735689
-29.5135 56.1426 495.337 -0.121444 -0.816766 -0.564043
-30.0618 59.0402 492.871 -0.360842 -0.609101 -0.70625
-22.7823 55.1183 497.526 -0.0389779 -0.774001 -0.631984
-23.4863 56.9399 493.23 0.349224 -0.811788 -0.468021
75.6074 100.897 607.986 0.964161 0.0901886 0.249519
152.671 16.7467 699.655 -0.674239 -0.620575 -0.400361
150.807 18.5747 700.853 -0.665784 -0.468055 -0.581082
151.68 15.7499 704.229 -0.401 -0.660201 -0.635085
145.12 16.8291 697.308 0.817762 0.466078 -0.337694
146.14 13.3865 694.72 0.853886 0.424711 -0.300832
-29.581 15.3686 519.34 -0.0390091 -0.893434 -0.447498
-27.4325 11.2942 527.898 0.0151393 -0.886364 -0.462741
-30.2155 10.1206 529.602 0.0336511 -0.890674 -0.453396
-68.9357 31.9032 489.087 -0.0280484 -0.934449 -0.354992
-73.0457 32.2168 488.473 -0.0356924 -0.913588 -0.405071
-73.6429 30.961 491.132 -0.133301 -0.947217 -0.291567
-80.7253 32.1417 491.039 0.00193034 -0.923011 -0.38477
-80.5505 33.5865 487.058 -0.0714536 -0.94423 -0.321442
-83.2161 31.4417 492.406 0.0355533 -0.924775 -0.378849
-86.7161 34.4026 484.366 0.123343 -0.912282 -0.390548
-86.7487 31.437 492.55 0.0299486 -0.934382 -0.355013
-87.3669 30.1357 495.558 0.0161662 -0.93866 -0.344464
-87.9581 28.8856 499.575 -0.0774584 -0.952236 -0.295374
-88.5933 27.5426 503.839 -0.0477509 -0.925554 -0.375592
-84.485 22.4357 514.136 -0.0251201 -0.921717 -0.387049
-94.6245 29.4474 497.176 0.0617973 -0.964249 -0.257692
-88.7978 22.4952 514.123 -0.0359655 -0.924537 -0.379392
-94.6419 23.9008 510.979 -0.0232554 -0.867205 -0.497407
-95.2676 22.1711 514.943 -0.0101803 -0.929319 -0.369137
-101.876 24.9111 508.891 0.131287 -0.908077 -0.397693
-140.404 -6.54059 562.495 0.800871 -0.489866 0.344437
-31.8042 -67.4594 534.964 0.966422 -0.199318 0.162173
-30.8472 -70.6258 532.883 0.875138 -0.0907104 0.475294
-32.0423 -71.0601 535.946 0.955456 -0.101689 0.27706
-25.6089 -67.6408 537.276 0.108364 -0.338989 -0.934528
-18.3051 -72.8595 539.536 -0.0375852 -0.439761 -0.897328
-17.3626 -70.8936 538.42 0.0228243 -0.381176 -0.924221
-18.8032 -68.9914 537.866 0.0340782 -0.391464 -0.919562
-14.6787 -70.2063 538.313 -0.00147645 -0.329474 -0.944164
-19.1583 -64.826 536.243 0.0260264 -0.105949 -0.994031
-19.5076 -60.45 535.63 -0.0615271 -0.031416 -0.997611
-16.0079 -62.2639 536.447 0.183217 -0.145114 -0.972303
-132.51 -1.21441 550.922 0.843293 -0.02398 0.536919
-130.722 0.0732509 547.982 0.815138 0.231126 0.531159
-128.933 1.36091 545.042 0.833408 0.109816 0.541637
-131.051 -0.114854 557.224 0.145406 -0.869877 -0.47135
-129.746 4.20415 547.251 0.401608 -0.877735 0.261326
-130.449 2.2372 554.708 0.225239 -0.850634 -0.475068
-126.876 1.50625 555.542 -0.0779886 -0.900415 -0.427984
-61.0359 45.2863 477.241 0.536781 0.452443 -0.712153
-61.2163 49.2509 479.491 0.494418 0.375865 -0.783758
-57.7349 46.6966 480.321 0.482896 0.39933 -0.779325
-69.2715 56.4365 478.418 0.328856 0.494589 -0.804509
-63.5014 58.6182 483.904 0.40258 0.688636 -0.603084
-34.1421 51.0664 498.971 0.514446 -0.139638 -0.846077
-34.9723 57.5132 496.187 -0.404949 -0.372748 -0.83491
-21.9505 56.8554 496.169 0.202392 -0.765358 -0.610953
-21.8061 58.2548 493.978 0.49457 -0.629755 -0.599007
-18.9131 59.2086 496.351 0.61559 0.0555059 -0.786109
-21.6235 61.8215 495.673 0.755903 0.361012 -0.546152
-22.9737 65.4037 494.855 0.757413 0.328648 -0.564194
-21.7449 65.4326 498.01 0.80956 0.0998497 -0.578483
-19.2529 66.3619 500.137 0.70131 0.163462 -0.693862
55.5729 130.179 456.059 -0.0481674 -0.865566 0.498473
53.7739 128.082 453.535 0.14116 -0.725392 0.673706
42.264 121.98 475.495 0.0898819 -0.783355 -0.615041
41.859 120.141 478.933 0.00111032 -0.825124 -0.564951
27.2387 129.703 467.257 -0.261524 -0.820749 -0.507913
39.0311 120.141 477.62 -0.0525823 -0.873555 -0.483876
27.4494 127.908 470.863 -0.102375 -0.818764 -0.56493
25.1923 128.117 469.326 -0.204809 -0.756183 -0.621483
20.8479 126.411 472.058 -0.231458 -0.450946 -0.862018
20.164 124.828 474.474 -0.154424 -0.801362 -0.577903
28.7257 113.011 481.584 0.0191614 -0.282186 -0.959168
29.2034 109.926 483.989 -0.277515 -0.742505 -0.609648
25.1557 110.832 483.864 -0.173686 -0.920407 -0.350263
142.508 14.4703 681.249 0.86036 0.467336 -0.203416
149.912 1.85624 688.831 0.93808 -0.212357 -0.273699
148.962 2.69579 685.413 0.715192 -0.25557 -0.650527
146.757 0.433657 686.714 0.387526 -0.805141 -0.448967
143.75 -0.935253 688.608 0.141181 -0.951525 -0.273255
143.317 -1.87792 697.032 0.193912 -0.979429 -0.0558349
143.057 -1.57959 692.412 0.115419 -0.985079 -0.127659
142.809 -2.54725 701.021 0.132899 -0.958643 -0.251678
139.221 -2.20345 690.315 0.112532 -0.952159 -0.284128
141.107 -13.5032 635.744 0.858411 0.286681 -0.425375
138.834 -14.6832 633.589 0.62781 0.389565 -0.673865
57.8265 -42.162 609.702 -0.239636 -0.873511 -0.423737
57.8351 -43.7924 612.883 -0.124119 -0.849518 -0.512751
43.0445 -35.3473 604.521 0.00932491 -0.776627 -0.629891
43.1106 -33.56 601.007 -0.176471 -0.907328 -0.381593
54.8567 -43.4588 612.748 -0.135112 -0.801243 -0.582885
85.9585 -68.4935 670.506 0.873905 -0.485216 0.0292517
39.57 -35.676 603 0.121256 -0.747045 -0.653622
85.0493 -70.7173 671.734 0.86229 -0.432465 0.263495
44.136 -41.2659 610.247 -0.00753087 -0.770413 -0.637501
36.5197 -37.265 605.105 -0.0713976 -0.791955 -0.606391
35.905 -39.1996 608.057 0.0205089 -0.84304 -0.537459
32.8199 -38.6757 607.047 -0.163067 -0.841079 -0.515747
82.6332 -74.1176 673.112 0.878379 -0.473723 0.0635296
72.6317 -74.722 659.278 -0.233591 -0.804563 -0.545998
69.5287 -73.5591 659.005 -0.105419 -0.842854 -0.527716
73.3504 -77.0507 662.352 -0.226421 -0.890616 -0.39438
73.8054 -78.0267 665.943 -0.1602 -0.917969 -0.362863
66.2928 -74.589 661.177 -0.140054 -0.875532 -0.462417
63.0569 -75.6189 663.349 -0.0960034 -0.836133 -0.540059
73.0384 -84.3146 679.39 0.585833 -0.792735 -0.16844
43.6855 -68.1276 653.696 -0.0692821 -0.902225 -0.425664
43.9806 -69.3396 657.408 -0.116829 -0.903492 -0.412375
43.604 -71.4614 660.817 -0.132265 -0.834577 -0.534779
58.2868 -88.5941 686.092 -0.0906327 -0.859852 -0.502434
55.4885 -89.3098 687.784 -0.127121 -0.847563 -0.515244
51.7864 -88.0852 687.054 -0.109039 -0.843002 -0.526742
47.8885 -87.7043 686.584 0.0427594 -0.86275 -0.50382
44.1718 -87.2707 685.703 0.0613337 -0.80773 -0.586353
11.6124 -72.7945 568.484 0.973087 -0.228648 0.0286664
11.3936 -72.8186 564.003 0.974977 -0.219556 -0.0348467
11.0768 -76.2673 565.662 0.967867 -0.226055 -0.110149
-0.883439 -84.0014 549.849 0.311545 -0.56803 -0.761763
-0.349203 -86.1674 552.457 0.380958 -0.629868 -0.676858
-4.08981 -86.4798 550.967 0.0921952 -0.638233 -0.764303
37.8148 -97.264 692.595 0.313867 0.942324 -0.116245
34.2183 -94.6377 694.721 0.425587 0.44764 -0.786444
37.2071 -94.1953 696.291 0.238203 -0.590884 -0.770789
37.4119 -91.5783 693.31 -0.0516506 -0.78808 -0.613402
45.4024 -96.1982 698.189 0.223097 -0.697808 -0.680655
40.9874 -90.6561 690.787 -0.139106 -0.850309 -0.507567
44.7874 -91.4589 691.387 0.0273336 -0.866642 -0.498181
44.3365 -89.6621 688.498 0.121183 -0.802177 -0.58466
57.839 -40.4861 606.17 -0.151637 -0.861827 -0.484005
89.8944 -58.8011 631.429 -0.15676 -0.787855 -0.595576
94.1883 -60.4832 632.539 -0.0834182 -0.814692 -0.573862
87.7116 -62.7036 666.149 0.944472 -0.0502854 0.32472
97.9261 -61.2226 633.433 0.0507204 -0.900303 -0.432299
101.066 -60.2057 631.131 0.327799 -0.911756 -0.247486
100.97 -60.9639 635.69 0.622826 -0.779951 -0.0613488
96.91 -53.4026 620.884 -0.180459 -0.863289 -0.471345
101.218 -54.7788 621.202 -0.131673 -0.913875 -0.384051
99.5404 -56.7634 645.844 0.877797 -0.273053 0.393591
98.2438 -51.1389 614.353 -0.0799098 -0.828188 -0.554725
101.052 -51.4186 614.664 -0.119739 -0.791981 -0.59869
98.6472 -53.7383 648.327 0.90515 -0.171303 0.389049
102.041 -49.0504 610.873 -0.200045 -0.847342 -0.491928
100.317 -53.5081 644.171 0.879823 -0.194893 0.433506
95.5825 -50.3816 660.008 0.628433 -0.777846 0.00533034
97.9407 -49.0038 658.304 0.565416 -0.823829 -0.040124
97.2022 -50.2843 661.546 0.385929 -0.883354 -0.265978
109.391 -46.8057 630.943 0.867481 -0.268616 0.418714
112.908 -48.428 623.443 0.854468 -0.330489 0.400825
112.969 -44.2303 625.063 0.879833 -0.260032 0.39784
117.308 -42.6845 651.597 0.448099 -0.876488 0.176002
125.056 -39.5843 643.893 0.432004 -0.899382 0.0669705
123.53 -39.5172 648.096 0.49425 -0.826254 0.270225
125.76 -38.5645 639.373 0.0252973 -0.945316 -0.325175
125.459 -37.4849 636.511 -0.167406 -0.833461 -0.52661
127.368 -37.2402 646.836 0.566193 -0.786516 0.246615
75.5785 100.01 610.13 0.959835 0.185427 0.210555
151.486 18.3592 700.151 -0.616601 -0.659381 -0.430139
149.841 17.6444 702.579 -0.471686 -0.687039 -0.552711
153.903 15.2163 702.031 -0.771033 -0.530655 -0.352014
146.663 15.186 699.449 0.918383 0.253069 -0.304185
145.934 14.9939 695.809 0.846645 0.440183 -0.299051
147.435 11.9904 696.938 0.910826 0.34335 -0.229144
-28.2092 14.334 521.698 -0.0241803 -0.90544 -0.423786
-29.0624 12.54 525.496 0.0534412 -0.889576 -0.45365
-31.7749 11.2408 527.273 -0.0121674 -0.925467 -0.378632
-70.7981 32.6543 487.379 -0.00593629 -0.928875 -0.370345
-71.9182 31.2857 490.92 -0.0444086 -0.943289 -0.328988
-74.8335 31.7557 489.735 -0.169975 -0.945791 -0.276743
-77.9797 32.9088 488.982 -0.103498 -0.941495 -0.320741
-82.2071 33.2894 488.301 0.0403556 -0.932764 -0.358221
-85.4375 33.542 486.616 0.083823 -0.932435 -0.351481
-85.5582 30.6423 493.947 0.0156773 -0.936103 -0.351376
-85.7845 32.0946 490.193 0.0646196 -0.92953 -0.363039
-89.4225 31.0959 492.917 0.0251396 -0.938618 -0.344042
-90.7206 28.5697 501.463 0.00212547 -0.938761 -0.344562
-93.1621 28.9416 499.46 0.0851906 -0.943683 -0.319696
-93.7318 29.9564 494.796 -0.00125574 -0.94926 -0.314489
-86.7138 21.6004 515.561 -0.0328502 -0.885809 -0.462885
-92.8837 22.9237 512.982 0.0125953 -0.920698 -0.390072
-96.9699 23.1318 512.287 -0.0217991 -0.86898 -0.494367
-100.543 23.8627 511.453 -0.0260476 -0.905916 -0.422656
-141.394 -6.43518 564.83 0.64388 -0.699326 0.310422
-141.12 -8.57832 563.378 0.828371 0.0701201 0.555773
-15.8453 -72.638 539.316 -0.121955 -0.423058 -0.897858
-31.086 -68.4235 536.917 0.52864 -0.603795 -0.596633
-30.2425 -68.2795 532.748 0.809895 0.0405931 0.585169
-27.7382 -67.9906 537.46 0.0889586 -0.427705 -0.89953
-23.7696 -69.2591 538.129 -0.0523046 -0.432922 -0.899913
-19.4492 -71.1539 538.439 0.0401633 -0.387158 -0.921138
-24.0697 -65.578 536.565 0.0305338 -0.203761 -0.978544
-16.6317 -68.7581 537.759 0.0317324 -0.352976 -0.935094
-17.1306 -65.1785 536.319 0.0661737 -0.138448 -0.988156
-20.5575 -63.3839 536.108 -0.0561708 -0.175963 -0.982793
-17.2858 -60.9274 535.433 0.0655642 -0.0920363 -0.993595
-134.096 -0.987195 553.118 0.899989 -0.160378 0.405339
-128.684 -0.573131 545.877 0.814201 0.227628 0.5341
-131.31 2.11503 547.498 0.891061 -0.201032 0.406936
-132.442 0.539651 554.964 0.625004 -0.75 -0.216494
-128.836 4.41837 544.91 0.620164 -0.780934 -0.0744224
-128.663 1.04516 556.804 0.160759 -0.831098 -0.532384
-128.661 2.6983 553.447 0.0613962 -0.914159 -0.40068
-128.433 4.27962 549.856 0.150418 -0.93255 -0.328215
-58.3419 44.3547 478.67 0.496211 0.449804 -0.742597
-61.5951 47.1098 478.238 0.554847 0.447703 -0.701218
-59.019 48.3754 480.7 0.515438 0.40611 -0.754585
-33.7128 51.9584 499.113 0.514446 -0.139638 -0.846077
-33.5166 60.5531 493.812 -0.494955 -0.340186 -0.799558
-22.9426 57.5176 495.005 0.402652 -0.418886 -0.813883
-19.7868 57.0061 495.723 0.380552 -0.326063 -0.865369
-21.174 60.1107 494.495 0.627092 -0.0133674 -0.778831
-19.209 60.9181 497.575 0.678481 0.426762 -0.597945
-24.7452 66.0709 493.198 0.685632 0.335959 -0.645787
-20.5544 64.6379 499.407 0.676874 0.259325 -0.688906
-20.8864 67.2166 498.293 0.765445 0.0208937 -0.643163
51.4168 132.609 460.411 -0.0457889 -0.952004 0.302642
48.6622 130.888 458.415 0.249337 -0.741864 0.62247
45.0219 130.247 459.363 0.283145 -0.757416 0.588345
45.9455 128.106 455.926 0.186472 -0.779794 0.59762
30.6788 129.365 462.495 0.0749712 -0.886198 0.457201
31.0555 128.445 467.538 -0.00753096 -0.816251 -0.577649
38.3475 118.211 481.257 -0.153242 -0.512258 -0.845049
34.4535 119.578 480.915 -0.131214 -0.753876 -0.643781
31.2195 120.202 479.731 -0.0369333 -0.792789 -0.608376
31.2474 118.206 482.509 0.0537784 -0.49182 -0.869034
144.454 11.171 682.009 0.861262 0.416064 -0.29175
143.854 10.7505 679.418 0.885385 0.452634 -0.1059
145.534 8.18474 679.39 0.922011 0.211297 -0.324421
150.008 4.42879 695.871 0.992479 0.122229 0.00670111
146.184 4.79305 681.092 0.558655 -0.500285 -0.661529
146.89 -0.618136 690.981 0.30146 -0.94643 -0.115728
145.79 -1.64318 699.532 0.16235 -0.973037 -0.163832
140.248 1.26861 684.399 0.0543677 -0.86809 -0.49342
139.026 -0.69628 688.475 0.0221328 -0.921931 -0.38672
136.329 -0.0348148 685.423 0.0898293 -0.894436 -0.438081
132.669 -0.143522 685.903 0.258842 -0.938679 -0.22778
132.581 -2.96956 692.317 0.167004 -0.925847 -0.338994
140.602 -18.1351 633.969 0.870907 0.264283 -0.414338
54.0449 -45.1606 615.335 -0.134327 -0.793488 -0.593577
50.6859 -43.9836 614.572 -0.107189 -0.792702 -0.600112
46.9635 -43.1533 613.564 0.010598 -0.82595 -0.563644
46.683 -45.328 617.015 -0.147803 -0.869113 -0.472013
46.5132 -46.1616 619.754 -0.198663 -0.872053 -0.447277
44.1931 -46.0889 619.267 -0.0751422 -0.869594 -0.488017
79.7436 -78.4964 673.262 0.710232 -0.700019 0.0744572
77.2361 -80.16 670.158 0.207549 -0.954096 -0.215928
75.9563 -82.1556 678.131 0.722809 -0.685906 0.0841458
76.339 -81.5031 674.275 0.39048 -0.895289 -0.214436
73.152 -83.4482 675.885 0.229046 -0.887492 -0.399869
61.9464 -77.9486 667.266 -0.0698796 -0.844274 -0.531337
55.3357 -76.0694 665.378 -0.0520206 -0.832625 -0.551388
47.0761 -72.6743 661.463 -0.159879 -0.84077 -0.517248
44.0549 -73.2582 663.706 -0.134524 -0.829289 -0.542387
48.1767 -80.1004 673.125 -0.113028 -0.85871 -0.499842
48.105 -85.6051 683.298 -0.0601384 -0.864306 -0.499357
43.6376 -85.1047 683.095 0.0528414 -0.861949 -0.504233
47.8865 -89.3574 689.941 0.0287123 -0.862167 -0.50581
2.9693 -88.1285 557.103 0.567701 -0.603367 -0.560057
2.56431 -93.5869 571.525 0.719201 -0.694753 -0.00828456
-0.762503 -89.3515 554.935 0.480114 -0.650349 -0.588673
8.77418 -81.9432 564.982 0.917598 -0.373353 -0.136463
27.6538 -93.915 691.706 0.433115 0.704147 -0.562661
34.131 -90.706 692.716 -0.012067 -0.668947 -0.743212
29.4233 -85.3053 685.074 -0.0497431 -0.830663 -0.554548
33.4907 -86.9155 686.418 -0.0944363 -0.848991 -0.5199
37.845 -87.38 686.738 -0.0818707 -0.873416 -0.480043
39.9309 -86.7043 684.987 -0.0239095 -0.870275 -0.491985
46.7537 -34.7954 601.101 -0.2937 -0.838429 -0.459104
86.4296 -56.6073 628.113 -0.0105368 -0.864072 -0.503259
90.3806 -56.9613 628.959 -0.159645 -0.839007 -0.520174
89.2857 -61.862 663.139 0.903469 -0.178254 0.389833
89.5615 -53.9428 623.022 -0.149466 -0.877499 -0.455693
90.6272 -52.113 618.859 -0.0568076 -0.825231 -0.561931
92.1485 -57.5177 658.875 0.860201 -0.345071 0.375474
100.621 -56.0346 623.86 -0.013104 -0.863893 -0.503506
104.98 -57.3779 625.286 0.278491 -0.927578 -0.249082
93.1022 -53.9161 661.543 0.777596 -0.543085 0.316865
96.8228 -51.0434 655.71 0.816491 -0.518699 0.253563
99.9474 -51.029 647.328 0.875011 -0.296493 0.382684
102.38 -48.6789 645.16 0.847019 -0.371392 0.380299
99.972 -49.8327 662.664 0.269062 -0.919581 -0.286316
99.8036 -50.6098 666.303 0.37484 -0.927071 -0.00587831
103.739 -48.0077 641.519 0.855541 -0.370258 0.361882
101.316 -46.3444 652.509 0.501934 -0.849075 -0.164723
100.584 -48.1898 669.879 0.629922 -0.716295 0.300201
107.639 -45.8834 655.155 -0.00128798 -0.950515 -0.310675
110.047 -43.0054 633.262 0.873499 -0.298072 0.384906
107.681 -44.7571 651.464 0.0630975 -0.841465 -0.536615
111.006 -42.7274 649.784 0.0591755 -0.83531 -0.546586
113.901 -43.2429 651.32 0.117158 -0.965217 -0.233733
114.45 -41.717 647.106 -0.0833644 -0.875065 -0.476772
117.379 -40.6014 645.324 -0.0190295 -0.891443 -0.452733
121.648 -40.9693 645.294 0.20452 -0.970135 -0.130422
128.424 -37.877 642.352 0.49218 -0.858067 0.146558
124.848 -35.0709 633.752 -0.163495 -0.820051 -0.548439
129.144 -35.9293 634.374 -0.20139 -0.892226 -0.404196
134.604 -34.3874 638.712 0.664441 -0.684578 0.299786
138.011 -26.4289 627.688 0.73357 0.24737 -0.632996
139.135 -28.2104 635.5 0.924073 -0.221907 0.3112
140.189 -24.786 633.687 0.985806 -0.160074 0.0506169
140.461 -21.628 632.387 0.915601 0.00569549 -0.402047
139.23 -18.6076 631.218 0.69938 0.347147 -0.624785
53.886 132.353 461.597 -0.20262 -0.941729 0.268499
54.2088 129.792 455.569 -0.0162062 -0.829483 0.558296
44.0261 120.488 477.679 0.115157 -0.782983 -0.611291
40.1058 121.358 477.289 0.0318053 -0.839236 -0.542836
28.4933 128.185 469.096 -0.125616 -0.867602 -0.481131
40.5685 119.043 479.873 -0.00965467 -0.73048 -0.682865
24.7393 129.951 469.037 -0.410513 -0.823695 -0.391159
25.7093 126.899 471.199 0.0650914 -0.851671 -0.52002
24.9832 125.21 474.15 -0.0293723 -0.803383 -0.594737
22.0861 125.484 473.134 -0.0103036 -0.726633 -0.686948
18.5339 126.489 472.929 -0.349526 -0.565086 -0.747334
30.0827 111.294 482.791 -0.0500322 -0.436389 -0.898366
27.3146 110.978 482.584 -0.105099 -0.79207 -0.601315
27.0885 109.944 486.246 -0.237069 -0.917947 -0.318075
144.068 13.3501 683.578 0.84771 0.492678 -0.196612
149.247 2.67216 687.121 0.860101 -0.358935 -0.362479
148.234 -0.0970434 689.272 0.482611 -0.773968 -0.409952
144.63 -1.5645 691.079 0.184827 -0.97413 -0.130039
141.253 -1.51415 690.407 0.0778514 -0.963251 -0.257074
140.806 -2.62343 698.748 0.165025 -0.983139 -0.0787706
140.843 -15.6828 635.445 0.879899 0.164276 -0.445859
59.6438 -43.2858 611.272 -0.225982 -0.881079 -0.41549
87.256 -65.655 670.484 0.984498 -0.174717 0.0154177
55.5964 -42.4567 611.256 -0.209096 -0.847947 -0.487099
44.8655 -35.1441 603.371 -0.200365 -0.786365 -0.584366
41.854 -34.5526 603.125 0.114019 -0.817516 -0.564506
56.3659 -44.4067 614.144 -0.0507728 -0.814982 -0.577258
40.9096 -38.1717 607.598 -0.0126235 -0.789036 -0.614217
41.486 -36.7547 604.87 0.0960459 -0.802448 -0.588942
38.0563 -38.3918 607.041 0.0569119 -0.82534 -0.561761
83.6842 -71.9308 672.923 0.902634 -0.414196 0.117019
33.8869 -37.6768 606.348 -0.136965 -0.792784 -0.593915
34.6057 -39.8678 609.142 -0.131944 -0.880162 -0.455967
83.7616 -73.3934 671.309 0.795644 -0.519739 0.311164
82.6511 -75.7231 675.226 0.815081 -0.579163 0.0146101
71.3165 -73.098 657.743 -0.157889 -0.847067 -0.507492
74.8386 -78.044 664.098 -0.161201 -0.935954 -0.313055
71.843 -76.5204 663.581 -0.210875 -0.895219 -0.392574
74.8873 -82.1077 680.716 0.795253 -0.606247 0.00607296
67.3729 -75.9681 663.563 -0.115258 -0.867696 -0.483549
64.3142 -75.0417 662.964 -0.0750409 -0.846744 -0.526682
64.5617 -77.1625 665.484 -0.075788 -0.841195 -0.535394
71.5548 -84.1243 677.04 0.152603 -0.860558 -0.485955
42.3461 -67.2336 652.124 -0.0425403 -0.872663 -0.486466
45.5488 -70.6727 659.37 -0.169442 -0.863329 -0.475344
41.3653 -70.1257 659.19 -0.0533046 -0.871768 -0.48701
42.0426 -71.9944 661.845 -0.0562501 -0.829739 -0.55531
60.2011 -89.8443 687.963 -0.113712 -0.842953 -0.525832
56.5258 -88.5064 686.641 -0.121105 -0.858057 -0.49907
57.6496 -90.673 689.82 -0.101216 -0.859866 -0.500386
49.8909 -86.7972 685.393 -0.0533235 -0.858472 -0.510081
49.6743 -88.8963 688.679 -0.00358128 -0.866455 -0.499242
42.3974 -86.872 683.863 0.0435484 -0.869 -0.492892
11.8183 -73.782 566.135 0.979229 -0.202695 -0.00494634
0.902385 -85.1935 551.944 0.421889 -0.607963 -0.6726
-2.3264 -84.745 550.215 0.241566 -0.598163 -0.764098
-2.39951 -88.2588 553.014 0.271953 -0.57242 -0.773548
12.15 -66.7961 571.438 0.982797 -0.000622852 0.18469
36.2732 -95.9554 696.085 0.749415 0.281459 -0.599298
43.6855 -99.7663 697.622 0.0926315 -0.199728 -0.975463
35.3908 -92.5231 694.29 0.0939301 -0.521856 -0.847846
39.4869 -93.3326 695.043 0.0532633 -0.743634 -0.666462
42.6869 -92.0257 692.497 -0.0826942 -0.898405 -0.431312
42.7713 -93.5013 696.239 0.00996093 -0.808212 -0.588808
43.1721 -90.46 689.991 -0.047657 -0.81771 -0.573654
46.4085 -90.2595 690.687 0.177869 -0.803717 -0.567804
91.9724 -59.1408 631.305 -0.169982 -0.792443 -0.585781
99.1488 -62.0934 635.414 0.277943 -0.937101 -0.21116
95.1884 -60.9409 650.041 0.855615 -0.269409 0.441976
102.212 -60.5245 633.194 0.558664 -0.829125 0.0211101
99.5793 -55.3392 622.638 -0.144074 -0.835695 -0.52996
98.9805 -57.9195 644.232 0.889181 -0.303084 0.342778
96.5601 -58.0829 649.065 0.837441 -0.329858 0.435758
99.4324 -53.5867 619.107 -0.254225 -0.896667 -0.362432
99.9228 -52.1406 615.574 -0.16797 -0.835424 -0.523309
99.2904 -55.6559 646.687 0.860812 -0.283315 0.422771
99.2369 -49.677 612.728 -0.095941 -0.812978 -0.574336
102.558 -55.3442 638.352 0.862516 -0.329473 0.384075
102.841 -50.7104 613.256 -0.195994 -0.831567 -0.519694
95.2372 -51.0917 658.466 0.774967 -0.618002 0.132287
95.4486 -51.1373 662.147 0.517319 -0.845804 -0.130372
98.8732 -49.4166 660.902 0.351838 -0.873838 -0.335584
110.357 -48.8555 626.806 0.838099 -0.351368 0.41729
110.577 -47.5917 628.769 0.837517 -0.318124 0.444254
112.533 -46.7668 624.707 0.859509 -0.335342 0.385734
113.934 -46.2802 620.926 0.880417 -0.303995 0.36394
109.827 -44.2692 631.298 0.861424 -0.255949 0.438679
114.155 -45.0163 622.889 0.88712 -0.26609 0.377113
108.959 -46.2052 656.71 0.403755 -0.91481 0.0102781
115.693 -42.7905 653.629 0.386445 -0.911341 0.141835
122.841 -39.2843 641.656 0.0510425 -0.952522 -0.300162
126.034 -39.1719 641.862 0.274403 -0.961576 -0.00859786
129.072 -36.1344 645.296 0.490205 -0.833321 0.255492
149.251 19.689 700.904 -0.450408 -0.710897 -0.540146
145.482 18.1176 698.688 0.749187 0.517385 -0.41356
149.695 12.4383 704.036 0.692899 -0.111721 -0.712327
148.464 11.4175 700.782 0.915083 0.311844 -0.255689
146.089 12.0688 692.581 0.844929 0.456599 -0.278589
-24.9772 12.0576 526.24 -0.0199317 -0.884855 -0.465441
-32.3371 14.7267 521.145 0.0273981 -0.847045 -0.530814
-32.5116 12.7185 523.73 0.102408 -0.86693 -0.487795
-36.4411 12.9787 523.409 -0.0985005 -0.877461 -0.469425
-74.8316 33.4089 486.378 -0.103481 -0.93207 -0.347184
-75.4447 34.4346 483.189 -0.0716102 -0.941923 -0.328105
-74.5194 31.0305 493.35 -0.127475 -0.949581 -0.286437
-77.6408 33.8676 484.943 -0.0788283 -0.947056 -0.311241
-79.002 31.2265 493.345 0.00255721 -0.935987 -0.352026
-81.7836 30.6025 494.525 0.0447925 -0.93364 -0.3554
-82.6146 29.0449 499.12 -0.0363083 -0.929248 -0.367668
-88.6378 35.0663 482.479 -0.168733 -0.834566 -0.524432
-86.537 29.4033 497.656 0.00706751 -0.952043 -0.305883
-89.8993 29.758 496.786 -0.0298048 -0.955883 -0.292231
-89.3954 20.9087 517.453 -0.0441765 -0.88982 -0.454169
-93.6024 21.2531 516.939 -0.0148771 -0.881205 -0.472501
-103.535 25.5923 506.601 -0.0320599 -0.89848 -0.437842
-131.582 -3.36392 551.055 0.762159 0.26005 0.592864
-134.817 -4.67225 554.977 0.85908 -0.0269551 0.511131
-29.1192 -70.8311 531.294 0.817599 0.0192314 0.575467
-32.3589 -73.7868 536.192 0.950727 -0.176698 0.254748
-19.9817 -67.2848 537.108 0.0439551 -0.363082 -0.93072
-13.7608 -63.3937 536.753 0.0773425 -0.102493 -0.991722
-129.793 -2.07626 548.116 0.72444 0.349782 0.594003
-132.023 1.59474 550.816 0.966094 -0.181304 0.183822
-131.388 3.57757 549.112 0.79657 -0.577736 0.178038
-125.088 1.96735 554.281 -0.0722629 -0.882488 -0.464751
-61.3011 43.1088 476.069 0.491626 0.315571 -0.811615
-55.8239 46.3125 481.655 0.483887 0.432137 -0.760993
-67.0651 55.8541 479.165 0.42403 0.438199 -0.792578
-63.6013 53.7175 479.77 0.520174 0.440875 -0.73147
-64.2164 56.9763 482.291 0.515017 0.587989 -0.62372
-35.7243 51.2807 497.373 0.496149 0.0117133 -0.868158
-40.4308 54.3123 497.587 0.120003 0.648362 -0.751815
-36.5138 54.7092 497.338 -0.112012 0.07974 -0.990502
-26.8459 60.735 490.807 -0.0941609 -0.154252 -0.983535
-23.1957 59.3212 491.474 0.676502 -0.196703 -0.709685
-24.1504 62.0974 491.003 0.459096 0.152481 -0.875203
-23.2217 62.928 493.548 0.775008 0.353602 -0.523764
-21.3887 63.9554 496.605 0.774664 0.292979 -0.560409
-25.1291 69.669 495 0.261457 0.364102 -0.893907
-22.9355 66.2273 496.613 0.830456 0.127096 -0.542392
-18.2553 64.5197 500.243 0.730518 0.261272 -0.630936
41.9393 140.866 479.487 0.835567 0.423559 0.349892
42.1986 139.741 485.785 0.494535 0.733448 -0.466357
41.7713 140.502 482.287 0.775185 0.621526 0.11311
50.6593 129.235 476.892 0.873476 0.415112 -0.254406
49.4669 130.447 472.871 0.840414 -0.14203 -0.523003
50.8235 128.363 474.824 0.900455 -0.0707597 -0.429154
48.2058 128.115 474.051 0.511441 -0.440432 -0.737867
43.9637 128.817 468.043 0.424457 -0.670625 -0.608358
45.4084 127.011 471.511 0.576896 -0.523595 -0.626928
41.8401 126.319 469.994 0.178657 -0.784143 -0.594307
45.4166 121.592 477.37 0.313231 -0.702206 -0.63937
23.6902 131.123 467.305 -0.410702 -0.828368 -0.38096
15.9092 135.204 466.951 -0.3334 -0.935672 0.115595
14.8263 135.144 463.545 -0.111833 -0.870121 0.479983
12.4432 135.081 464.108 0.229248 -0.725704 0.648691
154.452 -8.12076 702.603 -0.456681 -0.349861 -0.817949
145.755 -5.55605 705.748 0.0327016 -0.410485 -0.911281
61.6904 -45.0249 613.669 -0.235616 -0.900271 -0.366056
57.9581 -45.9993 615.818 -0.0615308 -0.825024 -0.561738
61.6509 -52.2434 626.3 -0.0647505 -0.830387 -0.553411
61.4343 -54.3425 629.586 -0.17186 -0.85174 -0.494978
62.3797 -57.848 635.854 -0.147839 -0.830248 -0.537431
58.1666 -56.9725 635.375 -0.0395303 -0.824897 -0.563899
69.5307 -71.906 655.648 -0.0930958 -0.885873 -0.454491
65.9571 -71.175 654.815 -0.0528246 -0.873878 -0.483267
62.3835 -70.4441 653.981 -0.0951561 -0.85482 -0.510126
62.5636 -72.1848 657.337 -0.127476 -0.906217 -0.403139
47.9898 -64.859 648.307 0.0120986 -0.8516 -0.524052
62.1532 -73.6785 660.928 -0.109566 -0.86362 -0.492093
48.144 -66.7568 651.32 0.0163538 -0.856983 -0.515085
44.0202 -66.1915 650.574 -0.0103824 -0.840913 -0.541071
70.4463 -84.8009 677.6 0.0677428 -0.880804 -0.468609
69.5937 -86.5958 681.78 0.429483 -0.860299 -0.274646
62.1989 -85.8526 680.094 -0.0314849 -0.89004 -0.454793
58.5941 -84.9832 679.365 -0.175402 -0.836555 -0.519047
40.3049 -72.6769 662.938 -0.0351562 -0.825743 -0.562949
