ply
format ascii 1.0
element vertex 901
property float x
property float y
property float z
property float nx
property float ny
property float nz
end_header
54.1272 -46.118 619.742 -0.0270195 -0.767929 -0.639965
56.4224 -43.7098 616.654 -0.0533968 -0.806782 -0.588431
61.1401 -36.9199 605.393 -0.206477 -0.827577 -0.521999
66.0172 -43.0109 613.126 -0.0173886 -0.758863 -0.651018
68.0622 -45.4603 615.651 -0.0113033 -0.781613 -0.623661
68.0316 -53.9554 628.338 -0.0682273 -0.774792 -0.628524
69.4068 -57.2455 631.426 -0.206487 -0.769365 -0.604517
70.1599 -43.288 613.495 -0.111105 -0.790029 -0.602917
71.6597 -54.9813 628.648 -0.218426 -0.7246 -0.65364
75.1843 -54.2112 625.955 -0.136975 -0.75322 -0.643349
78.494 -57.9781 630.484 -0.0665727 -0.802667 -0.5927
79.7316 -60.6501 633.887 -0.0914785 -0.891153 -0.444386
82.0123 -62.3827 636.854 -0.156388 -0.863747 -0.479044
84.4352 -60.9929 634.234 -0.0184746 -0.868505 -0.495336
84.539 -66.6056 642.435 -0.142164 -0.833548 -0.533842
88.6011 -65.2916 639.727 -0.129825 -0.807134 -0.575918
88.0062 -69.5443 648.447 -0.0538023 -0.901047 -0.430371
92.2499 -66.3198 640.164 -0.0160328 -0.875266 -0.483376
93.7919 -67.555 643.261 0.143574 -0.900397 -0.410696
95.8831 -66.3359 641.254 0.061267 -0.879049 -0.472778
99.087 -65.3241 638.287 0.21193 -0.870053 -0.445078
99.7839 -64.4704 642.897 0.82529 -0.514441 0.232911
91.1339 -67.4543 656.827 0.834588 -0.366613 0.411166
93.3252 -63.7896 655.855 0.804009 -0.369727 0.465696
90.7564 -63.7398 659.851 0.845384 -0.362016 0.392774
124.452 -44.9364 599.009 0.348536 -0.936599 0.0361131
107.66 -54.6289 631.102 0.857049 -0.281104 0.431796
109.447 -51.7275 630.159 0.856604 -0.26544 0.44246
107.416 -51.1159 634.158 0.886963 -0.376826 0.267018
105.986 -51.7293 638.176 0.914856 -0.259109 0.309678
127.857 -41.4476 598.584 0.844346 -0.374011 0.383661
107.836 -48.5622 636.581 0.884143 -0.381755 0.269359
124.677 -40.458 605.175 0.820484 -0.286258 0.494835
109.703 -44.8043 634.548 0.939959 -0.244806 0.237798
84.1108 103.015 586.616 0.885013 -0.289812 0.364364
87.4596 101.799 575.7 0.915145 -0.323678 0.240295
95.9737 69.9961 593.402 0.85502 0.516364 -0.0480607
97.239 68.6848 591.765 0.841297 0.524047 -0.132644
91.7571 76.3152 590.273 0.83505 0.542514 -0.0914903
84.4529 94.7276 578.735 0.969832 -0.155952 0.187361
83.8632 91.48 580.881 0.976287 0.0496454 0.210709
87.4942 82.4029 585.461 0.851921 0.521084 0.0519862
84.1082 88.7803 581.523 0.937207 0.345645 0.0466105
84.689 87.7722 578.992 0.909948 0.412737 -0.040535
92.4949 74.7903 583.003 0.856392 0.513166 -0.0570348
90.6874 78.1524 580.644 0.865987 0.494955 -0.071315
83.2155 100.192 560.063 -0.242544 -0.800777 -0.547657
91.6654 75.163 578.602 0.888235 0.444565 -0.115764
81.0152 101.985 557.435 -0.109253 -0.825646 -0.553509
93.79 71.1062 576.774 0.908916 0.228613 -0.348724
91.4248 74.4716 574.693 0.942169 0.297618 -0.154079
90.0685 77.3876 573.142 0.903388 0.403402 -0.145452
95.3186 67.6521 578.89 0.880213 -0.157833 -0.447565
77.5816 98.6652 559.273 0.792726 -0.197001 -0.576867
79.7802 93.245 561.344 0.836181 0.486074 -0.254033
77.6031 96.7136 559.937 0.936501 0.210663 -0.280334
76.5537 99.4887 557.208 0.896741 0.0551445 -0.439107
74.5988 102.578 555.055 0.682786 -0.344975 -0.644046
76.6371 -44.0234 743.595 0.917172 -0.368845 -0.150827
75.7749 -40.8994 741.058 0.958567 -0.279115 -0.0569516
92.9817 67.6776 575.298 0.872801 -0.171762 -0.456854
71.3813 -43.8743 750.532 0.307537 -0.531718 0.789111
76.0864 -43.2322 740.215 0.265284 -0.851008 -0.453221
73.436 -44.3178 742.457 0.154191 -0.821302 -0.549261
67.8303 -45.161 749.123 0.00881551 -0.846023 0.533073
65.1934 -45.0269 740.563 0.0335288 -0.881399 -0.471181
64.2973 -39.7443 732.584 0.0223871 -0.825036 -0.564636
60.7767 -44.3027 740.387 0.0118538 -0.882334 -0.470475
58.7498 -42.8184 737.042 -0.0770642 -0.908533 -0.410643
54.0251 -45.5856 741.541 0.153503 -0.821219 -0.549578
51.0781 -43.2073 735.322 0.314646 -0.930462 -0.187718
48.6909 -44.8837 736.245 0.428382 -0.902815 0.0375909
66.5037 -45.7096 709.133 0.679834 -0.305432 0.666736
60.8276 -45.4538 715.45 0.703135 -0.295417 0.646784
64.5979 -48.6294 710.855 0.743034 -0.0574543 0.666783
67.7331 -49.5972 707.456 0.739179 -0.0991081 0.666177
58.8183 -48.8543 716.708 0.689982 -0.138143 0.710522
61.7884 -49.0805 713.687 0.711216 -0.0967718 0.69628
63.0133 -52.9037 712.199 0.722696 -0.0996344 0.683947
61.3527 -56.2622 713.3 0.747103 -0.211184 0.630269
26.175 -37.3868 611.667 0.0549741 -0.750534 -0.658542
25.5909 -42.4246 616.534 0.0269178 -0.710094 -0.703592
23.7471 -39.5252 614.008 -0.0455385 -0.698053 -0.714597
22.1727 -37.1166 611.429 -0.00405594 -0.754072 -0.65678
20.087 -34.6804 608.723 0.00522748 -0.77172 -0.635941
17.9403 -36.5844 610.727 -0.0494937 -0.788356 -0.613225
-42.3008 96.1087 483.315 0.404934 0.0185321 -0.914158
-36.1909 83.4585 489.11 0.139011 -0.755695 -0.640001
-47.4727 54.9364 491.987 0.397538 -0.420795 -0.815411
-55.4329 54.3197 488.925 0.648586 -0.104222 -0.753972
2.56441 -70.9279 574.02 0.86268 -0.271716 0.42656
4.5832 -67.515 572.439 0.829761 -0.288149 0.477982
-54.669 45.532 481.893 0.730796 0.679784 -0.0618941
-59.1759 53.1954 482.35 -0.116375 -0.460963 0.879755
-60.2506 53.0323 483.788 -0.230125 -0.321245 0.91861
-59.1191 56.9109 484.61 0.473004 -0.663377 -0.579825
28.6657 -36.3186 610.66 0.0642903 -0.805263 -0.589422
30.1887 -37.1798 612.221 -0.00636157 -0.728656 -0.684851
51.808 -100.959 716.498 0.533208 -0.565427 0.629271
46.8848 -89.5187 725.398 0.338006 -0.355464 0.871434
50.1478 -90.566 723.72 0.482677 -0.3389 0.80757
49.0462 -86.6627 725.026 0.554767 -0.151412 0.818112
63.4224 -56.6561 709.761 0.763379 -0.321216 0.560422
82.8827 101.464 588.532 0.897031 -0.243163 0.369062
88.7566 103.021 573.363 0.92522 -0.245867 0.288994
86.9462 99.4989 574.658 0.883101 -0.374766 0.282282
95.6643 71.7146 595.452 0.844066 0.533796 -0.0511357
85.3179 96.7394 575.959 0.938626 -0.284905 0.194449
97.6343 68.517 594.649 0.787829 0.608396 -0.0958127
95.3536 72.121 592.137 0.856223 0.513025 -0.0607169
83.4402 90.2871 583.037 0.987635 0.124515 0.0952492
92.8532 74.5267 589.499 0.80961 0.580026 -0.0900031
91.3088 77.3396 587.273 0.843446 0.537104 -0.0108168
89.0812 80.087 584.878 0.801197 0.596247 0.0507287
90.6723 78.2608 583.6 0.845802 0.53332 0.0137321
87.2109 83.4147 582.294 0.871483 0.489084 0.036241
85.0338 86.8833 580.887 0.862361 0.506294 -0.000160811
83.8467 90.2764 578.473 0.988594 0.150344 0.00890119
92.8139 73.9628 581.062 0.855796 0.507941 -0.0980267
83.8871 101.618 557.505 -0.271901 -0.800681 -0.533836
79.7697 100.837 559.937 0.155647 -0.680148 -0.716361
94.4256 69.3103 576.871 0.92328 0.0992256 -0.371091
91.0555 75.4624 572.27 0.929119 0.305064 -0.20898
75.3919 -41.7363 744.385 0.976857 0.0956444 0.191318
76.5474 -42.7874 741.131 0.987877 0.147544 0.0482734
93.6192 65.2596 577.398 0.644987 -0.482381 -0.592706
78.8463 94.1201 559.615 0.855917 0.476308 -0.201337
75.5788 -44.6637 742.802 0.917172 -0.368845 -0.150827
75.5257 100.312 555.142 0.897627 0.254332 -0.359975
69.8293 -45.6858 748.645 0.0368439 -0.932869 0.358326
74.0234 -42.7986 740.05 0.238282 -0.850062 -0.469699
65.5922 -43.564 737.867 0.080098 -0.878649 -0.470702
64.0214 -41.7422 735.193 -0.029618 -0.840421 -0.541123
61.643 -43.0798 737.175 -0.0300888 -0.891983 -0.451066
58.5304 -44.3782 739.78 0.0186395 -0.835947 -0.548493
53.4569 -47.093 744.075 0.103937 -0.942592 -0.317361
50.6724 -44.3671 737.974 0.198037 -0.934641 -0.295343
48.7783 -44.6058 733.952 0.512024 -0.839419 0.182228
64.7989 -46.7947 710.518 0.753368 -0.126269 0.645362
67.769 -47.0209 707.497 0.685727 -0.146608 0.712941
59.1846 -46.8572 716.919 0.689729 -0.139262 0.710549
62.512 -46.5031 713.709 0.737298 -0.245539 0.629367
66.0642 -48.1061 708.881 0.729173 -0.0734631 0.680375
60.6308 -50.534 714.975 0.694924 -0.0775368 0.71489
65.8394 -50.8277 709.36 0.741281 -0.0673784 0.667804
61.4453 -54.0809 713.559 0.710622 -0.162074 0.684652
64.1253 -54.0055 710.537 0.748244 -0.260529 0.610127
26.4354 -35.5102 609.51 0.0291925 -0.789028 -0.613663
23.0942 -35.1288 609.065 -0.00466062 -0.781235 -0.624219
23.8722 -41.6123 615.777 -0.0320848 -0.68973 -0.723356
19.9385 -36.5834 610.54 0.0165868 -0.782042 -0.623005
18.0051 -35.4459 609.051 -0.0515292 -0.762117 -0.645386
-32.711 85.45 488.575 0.582032 -0.448336 -0.678405
-36.7025 81.5701 491.609 0.242744 -0.549276 -0.799607
-39.2827 83.6684 489.199 -0.00448267 -0.760568 -0.649242
-47.3319 53.3968 493.482 0.467075 -0.0909844 -0.879524
-49.6441 55.9057 491.518 0.378714 -0.430226 -0.81944
3.48107 -69.5229 572.126 0.879536 -0.334328 0.338588
-56.5859 47.873 482.812 0.917993 0.389273 0.0758614
-58.8345 51.291 484.649 -0.594826 -0.785088 0.17268
-61.0293 55.045 483.203 0.61304 0.167534 -0.772084
-59.3304 54.9736 486.203 0.662883 -0.0807415 -0.744356
28.2056 -37.8477 612.506 0.0925905 -0.737254 -0.669241
30.2013 -35.7106 610.138 0.000171171 -0.808629 -0.588319
50.0904 -103.217 715.839 0.22408 -0.824649 0.519367
48.092 -91.4968 724.251 0.431566 -0.308444 0.84771
51.1825 -88.4991 723.424 0.57932 -0.173639 0.79639
61.8154 -57.5445 711.936 0.761068 -0.294248 0.578094
95.0818 112.428 564.524 0.919313 -0.172836 0.353541
81.9206 92.1731 604.075 0.844227 0.535614 0.0199617
93.0159 108.451 566.266 0.925666 -0.238708 0.293532
87.4461 83.5506 600.388 0.840188 0.54226 0.00615544
84.9116 86.4388 599.17 0.793699 0.60769 0.0274637
86.9977 84.575 597.389 0.846815 0.530174 0.042646
86.8587 83.8809 592.339 0.852517 0.516888 -0.0777269
84.0831 87.5226 590.331 0.912566 0.408085 -0.0262797
96.4046 68.6121 587.31 0.891429 0.441069 -0.103981
94.4144 72.2722 585.079 0.846682 0.528424 -0.0624317
88.3116 81.1528 578.745 0.820596 0.560961 -0.109295
96.0611 68.0118 583.045 0.940445 0.249146 -0.231278
86.595 84.6287 576.467 0.908898 0.409842 -0.0770309
87.8763 80.9646 574.691 0.861112 0.50002 -0.0920094
83.1466 -34.4895 726.144 0.456842 -0.667134 -0.588412
80.9358 93.4354 565.444 0.808894 0.0730696 -0.583397
79.6272 -39.8367 733.511 0.527516 -0.848364 0.0447779
78.9516 -38.6674 729.532 0.116082 -0.847896 -0.517299
75.6573 -39.1247 731.967 -0.104603 -0.917284 -0.38425
70.9811 -38.693 731.546 -0.0391472 -0.860065 -0.50868
69.587 -37.2144 728.74 0.204182 -0.901902 -0.380635
67.0128 -38.6242 730.382 0.0436462 -0.86136 -0.506116
62.4986 -46.0366 742.954 -0.01669 -0.862696 -0.505447
62.8495 -38.4575 729.823 0.218304 -0.913256 -0.343956
61.276 -38.3174 727.273 0.293129 -0.954846 0.0484285
56.2273 -40.36 731.115 0.314389 -0.942852 -0.110407
58.8079 -39.3922 728.126 0.432175 -0.899615 -0.0625971
61.3441 -39.2824 724.433 0.381626 -0.901474 0.204224
76.5046 -39.2206 700.771 0.690049 -0.319431 0.649458
55.0737 -41.2834 727.603 0.513612 -0.801806 0.305468
74.4708 -42.6014 701.98 0.722005 -0.174648 0.669483
77.5582 -42.9066 698.938 0.691183 -0.199957 0.694466
27.3551 -44.0392 618.886 0.0365845 -0.826282 -0.562068
24.3299 -48.8983 626.04 0.0111793 -0.795881 -0.60535
21.8753 -46.6985 623.297 -0.0380699 -0.83782 -0.544617
19.1535 -42.7207 618.006 -0.149453 -0.755887 -0.637415
15.5023 -43.8746 620.13 -0.0426666 -0.781328 -0.62266
14.5142 -37.614 612.732 -0.0637361 -0.789563 -0.610351
-41.1933 89.3218 484.415 -0.10036 -0.565683 -0.818493
9.35114 -66.12 561.906 0.888045 -0.123522 0.442853
6.86373 -65.9634 565.628 0.913119 -0.212463 0.347957
8.56851 -64.8783 564.244 0.855347 -0.216427 0.470681
8.88254 -62.5505 564.047 0.860397 -0.19584 0.470493
-54.3608 46.7032 486.08 0.838848 0.492085 -0.232779
-56.3838 50.7573 486.767 0.946865 0.245935 -0.207273
51.461 -97.3892 718.869 0.423327 -0.40848 0.808665
50.7876 -94.1321 720.809 0.530823 -0.416989 0.737799
60.9763 -70.5043 708.535 0.744748 0.0789778 0.662656
58.0062 -70.2781 711.556 0.749689 0.0164836 0.661585
59.6466 -66.9662 709.942 0.760667 -0.0838455 0.643704
95.2436 6.74636 751.334 0.378151 -0.531422 0.758019
95.4137 3.57854 749.421 0.345098 -0.38945 0.853953
92.2596 4.19136 751.074 0.416139 -0.441255 0.795061
89.3261 2.35743 751.803 0.406896 -0.38144 0.830024
98.2212 -7.56996 743.417 0.461759 -0.514256 0.722717
95.4253 -10.0219 743.831 0.587038 -0.287312 0.75686
99.0375 -11.0907 740.76 0.572475 -0.290083 0.766892
112.543 -19.9018 722.01 0.917719 0.306834 0.25228
113.038 -23.6991 723.195 0.884119 0.122751 0.45085
111.764 -26.2234 725.607 0.853747 0.324876 0.406905
103.319 -24.988 737.485 0.304625 -0.281955 0.909783
113.63 -26.825 721.706 0.951229 -0.305957 0.0394293
99.7583 -26.7283 737.757 0.200112 -0.429282 0.880723
87.5285 -17.905 745.264 0.203834 -0.37014 0.906338
112.463 -26.852 718.149 0.641161 -0.653548 -0.402228
111.626 -25.1285 715.459 0.487436 -0.730674 -0.47804
108.685 -26.9082 717.666 0.00657835 -0.882246 -0.470743
83.5586 -19.8948 745.317 0.20948 -0.379422 0.901197
88.1438 -25.4765 740.809 0.286572 -0.434864 0.85368
105.849 -27.7169 719.746 -0.183902 -0.838498 -0.512935
81.2047 -21.5279 745.111 0.172851 -0.398044 0.900935
102.303 -33.4531 727.191 0.139115 -0.880482 -0.453209
85.43 -26.1122 741.664 0.248038 -0.512593 0.822026
101.249 -30.7188 724.593 0.072372 -0.806551 -0.586718
81.7578 -25.5774 742.979 0.24234 -0.482507 0.841699
99.0693 -29.678 722.074 0.151038 -0.911765 -0.381931
98.0583 -28.1528 718.413 0.0706528 -0.832222 -0.549923
94.5841 -29.3672 720.497 0.0156327 -0.878248 -0.477951
94.1998 -23.6412 712.863 0.201215 -0.875499 -0.439335
71.1599 -26.3888 744.702 0.293442 -0.488139 0.821956
90.4014 -29.2054 719.475 0.0370635 -0.904429 -0.425011
86.6659 -29.1423 718.777 0.068842 -0.914616 -0.398419
91.0198 64.0733 576.398 0.491982 -0.663465 -0.56371
89.5715 65.623 573.782 0.294903 -0.803385 -0.517306
87.2499 63.4018 575.141 0.477929 -0.702627 -0.527162
86.53 68.2128 567.371 0.310354 -0.745128 -0.590309
83.6651 62.4142 573.264 0.653396 -0.603499 -0.457016
82.1834 62.1423 570.503 0.636924 -0.631217 -0.442598
78.9427 56.5748 576.837 0.275498 -0.816521 -0.507341
77.1271 57.9942 573.787 0.19465 -0.873935 -0.445363
75.2531 56.4319 576.034 0.0303078 -0.865377 -0.500204
74.0025 61.5427 568.18 -0.0512784 -0.814781 -0.577497
72.5329 62.795 563.946 0.363154 -0.917261 -0.16356
71.2321 63.2768 561.638 0.465322 -0.809874 -0.357182
69.0527 48.6545 577.471 0.599201 -0.0266711 -0.800154
68.6493 61.0317 563.239 0.144552 -0.902731 -0.405193
65.7074 60.2977 565.863 0.0140216 -0.852499 -0.522541
66.1959 67.2588 552.417 0.141499 -0.877463 -0.458298
64.654 68.4941 549.319 0.198611 -0.908258 -0.368268
62.266 67.3435 550.533 0.0965414 -0.888914 -0.447784
57.5534 60.3585 564.297 -0.120923 -0.888347 -0.442964
54.5921 58.8824 566.958 0.153711 -0.704933 -0.692418
35.2789 -12.1364 565.039 -0.142905 -0.916113 -0.374588
38.0686 -11.601 562.693 -0.128252 -0.893712 -0.429919
35.3604 -8.22441 556.551 -0.112731 -0.938313 -0.326895
-2.08328 50.5146 514.681 0.6097 0.120773 -0.783377
-4.20734 53.1266 513.39 0.641042 0.283523 -0.713218
30.8656 -11.4169 564.571 -0.059436 -0.937391 -0.343169
27.6245 -11.1862 564.063 -0.119573 -0.891393 -0.437173
-4.74956 50.3397 511.742 0.607626 -0.160411 -0.777855
28.2759 -1.90471 546.134 -0.178715 -0.900961 -0.395386
-42.2048 52.9658 496.569 0.373359 -0.271852 -0.886961
-44.022 55.437 494.101 0.472404 -0.638427 -0.607656
-44.7658 51.6037 494.153 0.743204 -0.0818511 -0.66404
8.71224 -57.0282 548.902 0.961375 0.107305 -0.253462
-51.1445 42.5683 482.104 0.327171 0.161871 0.930998
-45.6903 33.5772 488.636 0.391456 -0.49183 -0.777731
-39.0908 31.5639 492.296 0.0976449 -0.602173 -0.792372
-4.72802 57.7453 514.684 0.64226 0.31132 -0.700416
4.99194 51.2014 522.247 0.762377 0.329543 -0.55694
5.093 52.6436 524.224 0.723852 0.312632 -0.61506
4.79625 55.8312 524.19 0.7386 0.206516 -0.641733
7.95583 52.3415 526.068 0.703051 0.263287 -0.660605
6.85103 80.944 529.792 0.649921 -0.24115 -0.720729
36.2155 57.9403 554.424 0.671817 0.240183 -0.700695
39.5393 58.083 557.184 0.712775 0.167477 -0.681104
37.5652 64.6079 555.624 0.532688 -0.486333 -0.692621
41.5642 58.5747 559.883 0.727452 0.193315 -0.658364
46.9205 59.1549 563.864 0.503251 -0.274577 -0.819357
50.3459 59.2949 565.483 0.26886 -0.575507 -0.772338
53.9278 63.5986 559.001 -0.0174423 -0.843052 -0.537549
97.5495 6.08071 749.679 0.396334 -0.474002 0.786283
93.213 6.17608 752.359 0.385909 -0.524259 0.759096
93.6575 5.4173 750.867 0.400471 -0.511403 0.760322
99.4865 -8.88129 741.78 0.410426 -0.545884 0.730453
96.9103 -10.1349 742.32 0.576354 -0.274116 0.769855
111.7 -24.391 725.159 0.811965 0.231343 0.535904
112.287 -18.4598 718.892 0.935468 0.347643 0.0635966
101.7 -23.7672 738.616 0.429743 -0.162514 0.888206
113.05 -25.4638 723.091 0.943061 -0.128704 0.306709
103.209 -27.4096 736.897 0.248237 -0.477319 0.842938
112.732 -28.3034 724.356 0.989259 -0.144151 0.0242228
85.0892 -16.1316 746.54 0.202516 -0.384531 0.900624
110.421 -26.963 717.852 0.110494 -0.865655 -0.488295
86.1903 -21.0753 744.02 0.185188 -0.450853 0.873176
109.235 -25.3574 714.864 0.124108 -0.846456 -0.517793
90.5002 -25.4211 740.142 0.181004 -0.429002 0.884983
87.2359 -23.5849 742.257 0.259238 -0.517195 0.815663
105.343 -29.4579 722.267 -0.00611681 -0.8825 -0.470272
103.272 -26.8432 719.539 0.067621 -0.824189 -0.562263
88.5567 -27.3304 739.864 0.259842 -0.438169 0.860517
100.678 -32.2623 726.261 -0.0184523 -0.792835 -0.609157
79.8939 -24.0929 744.014 0.170436 -0.408914 0.896516
99.5854 -27.2671 718.098 0.17894 -0.820518 -0.542892
97.7044 -29.5197 720.638 0.0749063 -0.884178 -0.461106
75.9514 -25.4773 744.214 0.161628 -0.436051 0.885289
72.6357 -23.8364 745.631 0.30654 -0.49674 0.811962
94.9283 -27.4435 717.694 0.0860025 -0.845725 -0.526644
93.9252 -26.4279 715.036 0.184285 -0.789465 -0.585477
73.052 -27.7938 743.523 0.213118 -0.424596 0.879943
90.8321 -27.6784 716.715 0.108051 -0.878702 -0.464981
87.2978 -27.6989 716.221 0.045537 -0.861666 -0.505429
90.9802 65.8731 573.907 0.619068 -0.682778 -0.388032
89.1908 64.5494 575.722 0.314927 -0.747195 -0.585253
89.2123 62.5978 576.386 0.296492 -0.724237 -0.622554
87.337 65.1737 572.805 0.437101 -0.778877 -0.449769
84.2488 63.9986 571.291 0.573912 -0.646265 -0.502957
82.1775 60.2855 572.953 0.567884 -0.653394 -0.500585
79.1767 58.1904 574.298 0.256664 -0.855481 -0.449751
76.6618 56.682 576.159 0.117804 -0.850625 -0.512405
75.7608 57.8634 573.447 0.0255004 -0.878921 -0.476285
73.3762 59.9859 570.819 0.200253 -0.847715 -0.4912
71.75 62.5995 567.163 0.359218 -0.8417 -0.403118
72.8713 63.7493 562.221 0.38596 -0.839873 -0.381638
71.3102 51.4292 579.681 0.646654 -0.249672 -0.720765
70.7473 61.9905 564.568 0.57144 -0.805277 -0.158068
69.0475 62.1209 560.57 0.118789 -0.845373 -0.520802
65.148 58.934 567.898 0.0431135 -0.831096 -0.554456
66.7035 68.6903 549.83 0.133039 -0.885643 -0.444902
64.1464 67.0626 551.906 0.194651 -0.873935 -0.445364
62.6044 68.2978 548.808 0.112627 -0.913373 -0.391236
56.9189 58.9988 566.754 -0.036159 -0.796292 -0.603831
54.4058 61.2243 563.869 -0.0698422 -0.833681 -0.547811
36.0601 -10.8891 562.403 -0.129089 -0.871887 -0.472386
34.7909 -9.3122 559.548 -0.0933573 -0.901944 -0.421642
6.32163 39.3564 521.462 0.50726 -0.111452 -0.854556
28.9063 -11.294 564.834 -0.0312773 -0.925544 -0.377346
31.2761 -10.2953 561.793 -0.100687 -0.888944 -0.446812
28.1321 -9.75476 561.476 -0.125389 -0.877808 -0.46231
-6.76755 51.2386 510.684 0.50648 -0.16497 -0.846323
2.41825 39.0129 519.636 0.426472 -0.187819 -0.884786
-3.8883 47.4614 513.797 0.516152 -0.304131 -0.800682
-7.96471 51.5849 509.481 0.498122 -0.176619 -0.848929
27.9375 -2.85903 547.859 -0.168544 -0.873788 -0.456165
-16.1629 50.8 507.438 0.195872 -0.734818 -0.649367
-44.0662 53.9038 494.867 0.472404 -0.638427 -0.607656
-46.0034 54.2758 490.751 0.410962 -0.393765 -0.822228
8.57328 -55.257 546.376 0.992171 0.0242035 -0.122521
9.46997 -55.0924 550.992 0.885618 0.219472 -0.409283
-45.4815 32.2545 490.264 0.342033 -0.669672 -0.659207
-53.0274 44.4269 481.604 0.548753 0.577126 0.604811
-37.1225 32.5371 492.834 0.408696 -0.327127 -0.852031
38.0019 -12.7657 565.611 -0.152449 -0.904017 -0.39939
-3.671 59.5946 517.074 0.741618 0.267723 -0.615083
3.57421 53.9945 521.968 0.768921 0.281705 -0.573936
6.89712 49.9844 523.88 0.692117 0.398329 -0.60192
5.91132 53.6686 524.952 0.707108 0.287023 -0.646232
7.94212 82.3107 530.762 0.570763 -0.352796 -0.741462
37.1159 56.1029 554.454 0.706755 0.232959 -0.668002
37.6051 59.7463 555.986 0.700128 0.146836 -0.698756
48.0671 48.7302 561.8 0.620404 0.489882 -0.612466
39.1465 66.0305 555.707 0.372679 -0.748857 -0.548018
42.9136 60.5064 561.313 0.49449 -0.320994 -0.807739
47.7843 54.699 565.047 0.666838 0.127956 -0.734135
46.8282 60.9245 562.506 0.306876 -0.557668 -0.771255
48.2611 58.7251 564.817 0.489918 -0.357029 -0.795305
50.6603 61.4392 563.398 0.145894 -0.797996 -0.584737
53.5048 62.4057 561.157 -0.0594176 -0.871349 -0.487053
99.0851 6.68869 749.157 0.391321 -0.460208 0.796917
92.3051 8.06767 753.808 0.37805 -0.534224 0.756097
92.9478 1.10153 749.5 0.373216 -0.316796 0.871981
90.1519 -1.35036 749.914 0.420124 -0.305794 0.854392
101.26 -7.88649 741.133 0.431633 -0.543705 0.719776
95.0364 -7.01861 745.706 0.419496 -0.379089 0.824812
97.45 -15.1277 742.563 0.595647 0.0301347 0.80268
109.677 -20.3369 725.845 0.833357 0.0526116 0.550226
109.797 -23.3511 726.52 0.834259 0.260079 0.48618
113.601 -20.9422 718.163 0.962486 0.270547 -0.0206178
98.658 -22.3104 739.985 0.345182 -0.297407 0.890168
113.539 -23.6583 718.967 0.996678 -0.0788898 -0.0202549
91.1734 -19.0452 743.802 0.282409 -0.437049 0.853952
111.538 -29.6011 723.404 0.454287 -0.795236 -0.401527
90.0507 -21.5071 743.379 0.25558 -0.487054 0.835139
109.996 -28.3658 720.306 0.0861033 -0.877172 -0.472393
91.3724 -22.6593 741.455 0.25475 -0.504744 0.824825
100.093 -29.9086 735.676 0.228296 -0.584796 0.778392
107.712 -29.6518 722.625 0.00138881 -0.875106 -0.483929
106.908 -25.0442 714.29 -0.0458653 -0.838508 -0.542956
84.2468 -22.9847 743.742 0.23444 -0.443031 0.86531
103.363 -25.87 718.066 0.0566401 -0.881917 -0.46799
99.8606 -34.0363 729.385 0.0618497 -0.996726 0.0520729
99.8089 -25.954 715.997 0.189701 -0.840792 -0.507033
98.4896 -24.7233 713.686 0.0157454 -0.87161 -0.489947
95.5016 -25.9898 715.395 0.0521072 -0.788341 -0.613028
69.5612 -22.9488 747.838 0.230105 -0.479562 0.846801
93.4599 -27.7401 717.408 0.165867 -0.856638 -0.488528
91.5181 -26.3999 714.405 0.185912 -0.795151 -0.577211
72.8348 -30.5696 742.524 0.295161 -0.245555 0.923354
87.8731 -26.2033 713.538 0.0378987 -0.893807 -0.446848
73.8909 -37.5518 742.927 0.827187 0.391332 0.403262
91.2245 66.7759 571.845 0.680114 -0.481304 -0.552985
90.2823 69.7251 569.06 0.76876 -0.288631 -0.570702
87.8198 66.6088 570.447 0.350025 -0.793173 -0.498356
85.6208 63.6368 572.778 0.547354 -0.672301 -0.498412
83.4766 60.1552 573.909 0.638946 -0.626576 -0.446262
84.0424 65.7502 568.999 0.462 -0.644942 -0.608774
82.7255 68.3662 565.936 0.479916 -0.602548 -0.637665
82.5369 66.1072 566.582 0.531538 -0.534237 -0.657311
77.9203 53.3227 581.536 0.260952 -0.72887 -0.632971
73.7516 52.792 580.788 0.379401 -0.480248 -0.790833
71.9192 63.0766 566.301 0.359218 -0.8417 -0.403118
75.0391 64.6649 562.96 0.273547 -0.837243 -0.473495
71.1698 59.1648 570.077 0.442376 -0.776187 -0.449263
70.2295 60.5942 567.06 0.558219 -0.678197 -0.477954
67.3665 57.9904 568.536 0.14963 -0.785765 -0.600154
66.313 62.9111 560.471 0.00182589 -0.875061 -0.484009
65.1807 64.3959 557.591 0.145958 -0.876814 -0.458142
63.5653 65.69 554.346 0.111489 -0.881629 -0.458586
58.2371 63.037 558.811 -0.191611 -0.838445 -0.510191
55.4184 62.1681 561.401 -0.139012 -0.873397 -0.466747
36.6523 -9.21908 559.385 -0.120264 -0.889454 -0.440918
38.8675 -9.04881 557.479 -0.163601 -0.930002 -0.329136
34.4201 -10.8358 562.111 -0.0868279 -0.878252 -0.470249
31.6469 -8.77171 559.23 -0.0900938 -0.911402 -0.401535
28.8872 -8.34213 558.637 -0.139186 -0.907683 -0.395903
30.8736 -7.75834 555.581 -0.116274 -0.927048 -0.356458
27.4298 -4.2905 550.446 -0.123487 -0.861084 -0.49324
-9.91916 51.9923 508.356 0.453943 -0.337698 -0.824558
-11.8961 55.5188 506.711 0.661033 0.143144 -0.736577
-14.2111 51.6662 506.909 0.141581 -0.67656 -0.722648
8.2765 -54.5347 543.819 0.940106 0.0681552 -0.334
-50.1818 38.7684 480.191 -0.229562 -0.698522 0.677767
-42.9386 33.4648 490.853 0.319619 -0.528503 -0.786466
-42.7934 37.4712 490.199 0.429567 0.116637 -0.895471
-39.1653 34.3721 491.516 0.367124 -0.330696 -0.869402
-2.19104 53.2794 515.03 0.685355 0.332046 -0.6481
8.70122 41.0871 522.017 0.546974 0.00882417 -0.837103
-3.01688 56.9872 516.919 0.728227 0.344766 -0.592302
0.417158 54.347 518.838 0.685088 0.322087 -0.653387
9.27163 47.0726 524.281 0.673863 0.395634 -0.624005
7.2171 56.2698 527.034 0.687854 0.244872 -0.683296
33.5866 60.8036 552.42 0.687651 0.204346 -0.696692
39.2374 55.0686 556.617 0.67849 0.321265 -0.660636
33.4108 63.5879 553.23 0.597741 -0.253488 -0.760558
39.1289 61.4784 558.016 0.691015 0.0056864 -0.722818
48.989 49.6198 563.633 0.663695 0.482384 -0.571678
41.0617 65.4165 557.068 0.282308 -0.768274 -0.574506
49.0403 52.9341 565.09 0.6817 0.237974 -0.691848
42.6749 62.8012 560.41 0.400577 -0.514977 -0.757851
51.6536 50.8465 567.153 0.643828 0.277317 -0.713149
47.3801 62.9663 560.555 0.0545756 -0.810229 -0.583567
50.6344 62.762 560.791 0.0199692 -0.846767 -0.531589
52.828 60.497 564.606 0.0179236 -0.830557 -0.556645
147.535 11.4733 708.549 0.933273 0.359163 -0.00187174
148.039 8.01475 710.793 0.83204 0.262606 0.488618
146.29 14.1996 706.624 0.902943 0.424064 -0.0697354
144.308 17.717 704.413 0.856786 0.511355 -0.0665853
149.174 7.86346 706.294 0.912953 0.406917 0.0305779
145.902 14.3132 702.263 0.874966 0.477417 -0.0806688
149.031 7.58364 702.864 0.896937 0.441654 0.0211155
147.421 11.0359 700.361 0.893385 0.448943 0.0177202
149.089 7.50557 697.962 0.898055 0.437851 -0.042231
149.773 6.08185 695.762 0.946865 0.306531 -0.0973883
130.792 33.3505 692.438 0.80399 0.588586 -0.0846574
125.926 39.1216 687.719 0.785767 0.60973 -0.103923
131.369 30.9273 680.774 0.769174 0.612863 -0.181026
145.368 4.9771 679.599 0.663319 -0.559909 -0.496498
114.74 55.7158 664.556 0.911263 0.364234 -0.192181
138.956 16.8573 670.419 0.848525 0.520182 -0.0970336
139.623 15.7192 668.181 0.902253 0.403278 -0.152668
142.178 4.47131 678.403 0.269729 -0.842099 -0.467029
139.955 5.84169 675.536 0.221252 -0.899498 -0.376764
138.13 4.11527 677.37 -0.0123297 -0.913772 -0.406041
137.103 8.00871 669.508 -0.010052 -0.849277 -0.527852
133.604 4.73247 675.995 0.145471 -0.973167 -0.178279
128.154 2.3725 681.737 0.0586867 -0.870283 -0.489043
131.544 5.79691 673.439 0.0539148 -0.927854 -0.369025
126.959 3.51466 678.656 0.0449153 -0.92169 -0.385317
123.809 2.46133 680.934 0.200497 -0.856312 -0.475953
110.5 -11.3155 708.502 0.970128 -0.0508911 0.237194
110.917 -14.2753 709.729 0.965272 0.259965 -0.0258348
112.816 -21.0645 714.753 0.971449 -0.0583496 -0.229963
111.079 -15.1888 707.227 0.990856 -0.106537 -0.0827922
137.35 -0.44002 646.502 0.730972 0.470651 -0.494133
64.5182 -8.19443 758.491 0.369383 -0.391276 0.842887
108.165 -22.1323 709.315 0.185386 -0.741065 -0.645333
129.717 5.62285 641.324 0.718727 0.473346 -0.509288
104.632 -22.2913 711.598 0.00685071 -0.835433 -0.549549
64.6609 -11.9676 756.431 0.333832 -0.481692 0.810265
126.833 7.83235 639.565 0.69682 0.525918 -0.487701
61.7394 -10.8876 758.195 0.340517 -0.434721 0.833706
106.735 -13.1663 693.288 0.565304 -0.683915 -0.461186
127.802 4.98571 637.504 0.673213 0.548414 -0.49601
65.765 -15.0616 753.776 0.392695 -0.526486 0.754058
100.859 -23.1987 710.936 0.112797 -0.872283 -0.475814
104.477 -16.4401 695.286 0.335609 -0.804773 -0.489599
99.5471 -21.741 708.296 0.0577923 -0.881012 -0.469551
128.832 1.18405 634.829 0.718092 0.49828 -0.485861
62.5873 -17.9918 753.851 0.4501 -0.5614 0.694436
66.0619 -18.4428 751.094 0.366922 -0.515889 0.774098
96.8412 -22.8863 710.155 0.0603879 -0.941134 -0.332595
53.6769 -18.7138 759.047 0.669526 -0.0711666 0.739371
96.6855 -19.6499 701.354 0.144863 -0.961646 -0.232919
92.5519 -23.4711 709.244 0.297992 -0.917889 -0.262069
91.9384 -22.775 705.941 0.151408 -0.923375 -0.35278
88.4312 -23.5258 708.406 0.13064 -0.944382 -0.301786
76.7741 94.2409 548.549 0.899422 0.421427 -0.115931
75.9524 97.0379 545.877 0.897506 0.434554 -0.0751383
73.5025 100.165 544.228 0.839964 0.539258 -0.0605082
71.4631 103.015 542.506 0.930096 0.356425 -0.0887832
76.4642 94.1214 544.944 0.909524 0.40448 -0.0957218
69.745 107.061 539.769 0.884404 0.390377 -0.255804
67.8895 110.116 537.964 0.924187 0.187418 -0.332796
66.7413 112.881 535.636 0.914097 -0.0965847 -0.393826
73.3295 99.9531 540.598 0.831153 0.543682 -0.116594
76.4675 93.7365 540.673 0.908741 0.360874 -0.209667
69.6475 106.153 536.348 0.914174 0.374796 -0.154317
65.6887 112.6 531.891 0.962647 0.0960538 -0.253149
69.1431 106.055 531.557 0.921076 0.389257 -0.00995871
67.1883 109.144 529.404 0.849003 0.521215 -0.0867654
114.067 -3.58375 610.741 0.874751 0.44401 -0.194076
114.469 -0.439189 607.921 0.810303 0.442357 0.384357
132.269 -7.88991 592.216 0.656958 0.471424 0.588358
116.124 -6.67556 611.753 0.796072 0.599942 -0.0796164
136.486 -9.05338 586.022 0.72359 0.642655 -0.251816
74.7437 91.6249 536.654 0.882499 -0.00663188 -0.470268
73.0885 92.1046 532.343 0.920055 0.0798307 -0.38357
71.7138 94.8114 530.333 0.933533 0.0202562 -0.357919
70.2492 97.9564 527.293 0.904103 0.128757 -0.407455
137.62 -18.8464 591.842 0.843657 0.0926754 0.528824
136.126 -22.5689 594.128 0.903144 -0.015058 0.429073
69.1973 97.6305 524.297 0.9397 0.159947 -0.302293
71.8833 91.4903 528.674 0.946076 0.0995399 -0.308273
138.206 -22.5028 590.321 0.854452 -0.0149688 0.519314
69.9128 93.5866 522.49 0.95854 0.112856 -0.261658
70.5005 90.8925 524.593 0.960749 -0.0508505 -0.272718
69.3989 90.1502 520.487 0.919448 -0.325837 -0.220102
67.39 89.1126 517.2 0.799542 -0.423286 -0.426101
67.4276 91.9768 514.154 0.846667 -0.365938 -0.386321
48.0281 138.464 474.611 0.846121 0.504299 -0.172515
139.618 -30.8293 583.285 0.878907 -0.286407 0.381435
139.179 -33.2258 583.032 0.889029 -0.268675 0.370731
65.5438 88.911 514.407 0.764084 -0.506215 -0.399902
64.7923 94.9662 507.754 0.83541 -0.293655 -0.464603
130.592 -35.7203 598.675 0.806032 -0.381067 0.45288
-7.56182 56.0415 512.026 0.672425 0.331446 -0.661806
-9.27296 56.7996 509.79 0.682581 0.386569 -0.6202
24.735 -5.30024 552.837 -0.130633 -0.890544 -0.435737
23.0555 -3.44704 550.054 -0.135681 -0.861727 -0.488893
9.07077 -18.135 584.408 0.018527 -0.851531 -0.523977
21.1587 -1.25062 547.032 -0.143347 -0.866342 -0.478439
-8.40077 43.6479 514.28 0.269597 -0.24097 -0.932336
-11.8542 49.3439 509.797 0.149613 -0.673428 -0.723955
7.66479 -16.4659 581.576 0.0677614 -0.831255 -0.551746
19.9438 0.240527 544.237 -0.156513 -0.903891 -0.398101
17.1802 -0.460231 546.786 -0.154641 -0.851975 -0.500224
5.40691 -18.1802 583.954 0.129739 -0.860855 -0.492032
1.00852 -18.4861 582.631 0.238326 -0.852938 -0.464433
-0.639495 -15.5378 579.301 0.0929696 -0.725161 -0.682274
-2.86506 -19.0172 581.346 0.574536 -0.395212 -0.71674
-2.55751 -7.19727 564.213 -0.102732 -0.931404 -0.349188
-7.19355 -19.0054 576.096 0.889835 0.0434096 -0.454213
-11.8711 -13.1311 572.051 0.720812 0.0846254 -0.687946
-8.21901 -19.7596 573.159 0.911332 0.39049 -0.130355
-10.1739 -16.6704 571.006 0.761152 0.604689 -0.23452
-7.02956 -19.5747 565.377 0.602289 0.798105 -0.0166155
-5.45741 -21.0268 562.563 0.69542 0.711487 -0.100877
-19.5661 9.28023 531.174 -0.0511321 -0.888844 -0.455348
-23.886 9.7024 530.726 -0.0288911 -0.878325 -0.47719
-25.3712 14.9711 522.914 -0.0426034 -0.877852 -0.477034
-28.4551 17.4416 516.718 -0.0405273 -0.910507 -0.411502
4.78097 -34.3762 559.891 0.89198 0.390833 -0.227202
-33.2595 14.3056 524.476 -0.147309 -0.836785 -0.527344
7.32982 -51.3691 542.486 0.838578 0.181542 -0.513643
7.82978 -50.9048 545.392 0.963301 0.22594 -0.144922
6.43494 -47.571 543.638 0.882215 0.28042 -0.378235
6.09677 -43.7287 545.477 0.889228 0.197335 -0.412713
8.59615 -49.0047 552.159 0.967387 0.2118 -0.138936
-58.6566 24.8043 507.329 -0.0117242 -0.863448 -0.504302
-60.6493 23.486 511.426 -0.200429 -0.895664 -0.397007
6.87872 -43.3903 549.389 0.95531 0.26176 -0.13735
8.13775 -46.3484 551.51 0.957474 0.255853 -0.13335
-55.2597 25.5055 506.644 -0.0409952 -0.877876 -0.477131
5.20577 -40.0978 547.291 0.826076 0.464789 -0.3187
-52.6692 27.1765 503.438 -0.096246 -0.865333 -0.49187
-51.0107 24.5932 506.586 -0.157792 -0.811835 -0.562161
-46.7656 28.3115 498.499 0.0756777 -0.930186 -0.359202
9.19682 -48.1766 560.853 0.94585 0.32422 0.015784
-42.1968 30.8836 493.861 -0.164203 -0.821654 -0.545822
-44.3112 30.0216 496.216 0.0930846 -0.892886 -0.440556
4.41287 -36.404 549.42 0.840986 0.490054 -0.229322
-40.7829 26.7923 500.919 -0.241077 -0.8741 -0.421701
-38.2573 27.3249 499.391 -0.107076 -0.870124 -0.481061
4.93995 -36.6278 553.265 0.854332 0.505182 -0.122098
7.36028 -47.4515 567.851 0.845542 0.127438 0.518476
-36.5777 25.4717 502.173 -0.0276907 -0.919879 -0.391224
2.10787 -33.1452 551.544 0.784767 0.555256 -0.275376
-35.258 24.6158 506.017 0.0435528 -0.942816 -0.330456
-36.1303 14.9249 524.256 -0.179778 -0.837043 -0.516759
0.300235 -28.7602 555.645 0.734944 0.655696 -0.172973
7.97003 -40.5801 564.815 0.931844 0.263765 0.249189
41.1473 -10.4393 560.172 -0.0987867 -0.898328 -0.428074
45.4364 -11.477 560.246 -0.218466 -0.880987 -0.419683
47.7746 -13.6696 563.453 -0.110739 -0.901467 -0.418442
53.5071 -16.7026 566.089 -0.308556 -0.849063 -0.428819
56.5673 -16.289 563.439 -0.201215 -0.894982 -0.398145
61.2632 -14.7 558.669 -0.0985814 -0.888929 -0.447311
57.1524 -17.4055 566.415 -0.152258 -0.934215 -0.322583
63.9101 -16.3069 561.391 -0.0919218 -0.896666 -0.433059
64.5996 -18.0848 565.181 -0.139186 -0.894701 -0.424425
65.3271 -20.6107 572.044 -0.19831 -0.934783 -0.294708
69.9909 -22.3582 573.383 -0.296923 -0.880907 -0.368565
-8.57401 85.2657 515.628 0.716888 0.171186 -0.675845
71.6223 -24.0608 576.008 -0.202172 -0.89644 -0.394362
84.0257 -16.649 554.713 -0.0576803 -0.865978 -0.496744
81.7927 -17.7398 557.729 -0.108248 -0.896211 -0.430218
87.2669 -15.4818 552.516 0.0354989 -0.815599 -0.577527
89.9182 -13.8025 550.776 0.120852 -0.310882 -0.942734
91.6269 -16.5312 552.625 -0.0107999 -0.746212 -0.66562
0.622581 96.6299 510.578 -0.0382216 -0.867801 -0.49544
2.39577 86.4389 525 0.369227 -0.493021 -0.787782
4.73069 88.446 523.67 0.0537369 -0.795992 -0.602916
7.52274 89.4449 521.872 0.019835 -0.850329 -0.525877
17.3395 101.794 495.843 -0.165821 -0.87757 -0.449861
8.91034 87.8583 524.745 -0.00066892 -0.841678 -0.53998
21.9074 104.892 491.496 -0.117608 -0.674383 -0.728956
23.1535 99.4823 498.952 -0.133136 -0.943796 -0.30253
25.9001 100.004 495.953 -0.101645 -0.88609 -0.452231
26.127 98.8333 499.408 -0.163538 -0.926115 -0.339951
29.2157 96.9672 502.17 -0.361 -0.807553 -0.466409
32.1566 111.481 483.469 0.264303 -0.397647 -0.878647
30.9388 94.4445 504.301 -0.364745 -0.83781 -0.406245
29.3055 136.621 465.28 0.265874 0.356318 0.895739
44.2754 92.3777 506.644 -0.0163472 -0.891792 -0.45215
47.1887 93.8149 504.436 -0.0379307 -0.865291 -0.499833
129.972 -38.3989 582.809 -0.111447 -0.901658 -0.417843
49.6184 90.8327 510.027 -0.201143 -0.892431 -0.403867
42.0322 122.636 476.852 0.08026 -0.730881 -0.67777
44.1342 118.741 479.458 -0.143943 -0.566437 -0.811437
133.641 -37.7935 580.578 0.141987 -0.88555 -0.442314
46.6782 115.666 481.445 -0.101039 -0.594137 -0.797992
49.0434 112.301 483.526 -0.0805155 -0.565838 -0.820576
52.1188 88.427 512.665 -0.101069 -0.882787 -0.458773
137.936 -35.0373 575.988 0.229304 -0.877743 -0.420697
134.323 -38.9207 584.147 0.426848 -0.853748 -0.298186
56.1711 88.0235 513.005 -0.067779 -0.904969 -0.420045
59.5719 88.7452 510.535 0.0118958 -0.899379 -0.437007
139.967 -36.1855 578.071 0.564526 -0.825224 0.0177784
59.9091 87.9106 513.908 -0.0613035 -0.919008 -0.389443
137.317 -36.5528 585.175 0.776135 -0.62796 0.0572745
64.1647 92.4666 506.827 0.693089 -0.570245 -0.440963
147.595 10.4035 710.675 0.951438 0.18943 0.242655
144.868 16.5029 707.04 0.860668 0.489363 -0.140625
148.955 6.63603 708.818 0.861544 0.360232 0.357736
148.006 10.2862 707.115 0.907979 0.419007 -0.00264065
146.487 13.1967 705.239 0.902943 0.424064 -0.0697355
147.756 9.78189 702.438 0.912931 0.40783 -0.0152084
148.568 8.85415 699.533 0.890886 0.454219 0.00258831
132.299 31.2857 691.591 0.811954 0.57952 -0.0699103
128.22 36.9868 688.147 0.803417 0.583938 -0.116354
130.036 33.2036 685.251 0.795473 0.598304 -0.0962051
131.953 30.8626 684.331 0.784324 0.616779 -0.0664881
129.452 33.2684 681.693 0.765935 0.624158 -0.154177
146.941 6.15545 681.255 0.897998 -0.0429008 -0.437903
138.289 17.9955 672.657 0.83419 0.542099 -0.101272
115.085 54.8269 666.451 0.943187 0.306895 -0.127336
140.472 14.6055 670.34 0.885598 0.427909 -0.180584
142.597 5.81419 676.039 0.355378 -0.81482 -0.458012
138.457 17.598 668.218 0.85403 0.500642 -0.141384
139.474 4.24489 678.327 0.125335 -0.915168 -0.383092
138.369 5.12424 675.144 -0.015064 -0.940012 -0.340808
136.468 6.21937 672.742 -0.0296763 -0.902063 -0.430583
134.148 5.54864 674.234 0.0472674 -0.96777 -0.247359
128.442 3.85699 679.426 0.113095 -0.914198 -0.389167
130.999 4.65327 676.6 0.13068 -0.971195 -0.199256
130.085 4.54088 674.039 0.00590322 -0.952953 -0.30306
126.226 2.26199 681.588 0.0751722 -0.878908 -0.47103
123.919 3.95494 678.448 0.132581 -0.912778 -0.386341
110.486 -12.8598 711.753 0.976981 0.204596 -0.0604016
110.859 -13.2515 707.469 0.973573 -0.028948 0.226536
138.527 1.05908 648.838 0.755081 0.453378 -0.473605
112.467 -19.8061 711.998 0.948972 -0.0872067 -0.303062
111.602 -16.7656 709.994 0.971933 0.0721195 -0.223931
139.516 -2.90614 647.128 0.800828 0.438596 -0.407808
135.947 0.0710245 644.886 0.722415 0.48537 -0.492475
134.152 0.590529 643.082 0.694354 0.519162 -0.49834
62.845 -8.18444 759.328 0.370082 -0.440492 0.817928
66.7951 -9.66138 756.966 0.35148 -0.416358 0.838515
107.373 -23.732 711.919 -0.0968161 -0.830514 -0.548518
104.886 -21.5756 710.305 -0.0142372 -0.908286 -0.418108
128.759 5.30428 639.414 0.747351 0.531613 -0.398565
63.1253 -12.5756 756.953 0.328665 -0.458326 0.825782
126.911 6.68033 637.493 0.691925 0.527515 -0.492918
66.9212 -16.5096 752.042 0.31606 -0.540018 0.780055
105.912 -15.0587 695.849 0.498931 -0.705209 -0.503735
101.345 -21.8268 708.456 0.125908 -0.868053 -0.480241
65.1129 -17.4593 752.322 0.378894 -0.585814 0.716423
131.195 -1.04108 635.994 0.676019 0.555775 -0.483852
128.562 -0.735257 633.714 0.667277 0.592709 -0.451041
57.5651 -16.3843 757.234 0.459234 -0.390973 0.797649
97.2221 -21.7682 707.651 0.1986 -0.881275 -0.42885
55.1772 -17.5348 758.448 0.583293 -0.164054 0.795522
95.9979 -20.5827 704.472 0.182712 -0.914216 -0.361697
52.0189 -17.4117 760.795 0.707204 -0.100353 0.699851
93.3673 -22.1516 706.401 0.246606 -0.882701 -0.400032
90.7144 -24.3153 709.487 0.126321 -0.928483 -0.349232
88.9156 -22.2266 705.757 0.230073 -0.954006 -0.192194
76.1785 96.3929 549.623 0.904302 0.418348 -0.084986
72.4064 101.953 545.002 0.866181 0.486164 -0.115652
68.9387 108.95 540.076 0.939935 0.171963 -0.294874
77.5839 92.886 546.799 0.851823 0.51151 -0.112935
72.7473 101.33 542.405 0.838457 0.535171 -0.102865
71.7194 102.153 540.34 0.906514 0.383125 -0.177338
68.8376 107.508 538.099 0.888969 0.418009 -0.187089
66.3053 114.458 533.475 0.802946 -0.41528 -0.427575
75.6159 94.3866 537.966 0.939096 0.182696 -0.291069
68.5706 106.922 529.605 0.845827 0.533025 -0.0214624
113.898 -4.06091 611.603 0.874751 0.44401 -0.194076
134.08 -8.51787 591.065 0.630648 0.516923 0.578856
135.408 -7.63895 588.333 -0.575089 -0.781097 -0.243229
138.146 -10.5325 587.269 0.866099 0.488981 0.103777
72.141 92.677 530.541 0.946675 0.0681825 -0.314894
70.0404 99.2791 525.664 0.93131 0.0959524 -0.351361
136.425 -20.1107 594.039 0.835888 0.0930802 0.54095
138.225 -20.3704 590.731 0.863005 -0.0164803 0.504927
72.7105 89.8311 530.817 0.932156 0.058403 -0.357314
137.357 -24.0646 592.472 0.859513 -0.120297 0.496755
69.9957 91.7578 521.881 0.993367 0.0214914 -0.112962
69.2398 88.7205 523.144 0.874447 -0.352484 -0.333312
67.2745 91.0127 516.199 0.800226 -0.423859 -0.424243
65.7894 96.0069 509.436 0.907768 -0.185377 -0.376289
132.208 -34.4292 596.46 0.876293 -0.23389 0.421196
66.0262 87.4041 515.987 0.677752 -0.577894 -0.454632
65.8445 89.8447 512.548 0.768682 -0.521695 -0.370084
-25.528 83.3719 495.792 0.470569 -0.381995 -0.79539
-9.05909 58.5599 511.193 0.741034 0.290132 -0.605551
-8.20842 53.916 509.563 0.669283 0.220821 -0.709436
-10.7429 56.8042 508.345 0.663531 0.3257 -0.673532
25.2427 -3.86877 550.25 -0.115833 -0.862958 -0.491819
-0.587261 38.4095 518.713 0.375892 0.169464 -0.911036
-6.44296 44.2561 515.001 0.387816 -0.314868 -0.866289
22.3003 -4.85966 552.893 -0.164095 -0.888109 -0.429342
9.03115 -16.3351 581.917 0.0213889 -0.836489 -0.547566
21.7989 -0.400935 545.116 -0.154484 -0.905134 -0.396064
7.15717 -17.8974 584.164 0.0699868 -0.854397 -0.514886
19.1041 -1.41068 547.507 -0.132977 -0.856719 -0.498347
-10.9306 44.3441 513.396 0.36071 -0.268167 -0.893295
-12.8227 47.4676 511.468 0.251363 -0.474305 -0.843713
-14.7245 49.7002 509.431 0.169046 -0.676956 -0.716348
5.75119 -16.2284 581.332 0.192382 -0.825067 -0.531276
17.5091 0.68111 544.293 -0.190491 -0.885156 -0.424515
1.12643 -16.8054 580.338 0.0760798 -0.759521 -0.646019
-1.21972 -18.9725 582.215 0.43977 -0.667965 -0.600354
-2.87878 -16.6652 579.542 0.370116 -0.625886 -0.686498
-3.3282 -8.07951 566.666 -0.0467645 -0.893705 -0.446212
-5.82021 -17.484 578.077 0.694323 -0.296991 -0.655525
-10.4331 -11.5492 573.015 0.323705 -0.421125 -0.847272
-9.07776 -18.4589 570.231 0.763263 0.64326 -0.0603897
-6.82243 -19.8456 567.587 0.660017 0.74428 0.102098
-5.55712 -21.157 565.95 0.696931 0.714795 0.0579253
-7.2367 -19.3038 563.167 -0.55652 -0.830811 0.00622845
-22.6043 9.59464 531.498 -0.0563222 -0.880468 -0.470748
-23.3784 11.1339 528.139 -0.0754617 -0.852838 -0.516694
-25.6052 13.3555 525.452 -0.0159823 -0.827921 -0.560617
5.0365 -33.3116 561.883 0.882453 0.411513 -0.227889
-28.7682 16.4796 519.603 -0.0307729 -0.911718 -0.409663
-32.7519 15.7371 521.889 -0.127906 -0.870214 -0.475782
8.01618 -52.3941 544.041 0.964536 0.0732364 -0.253587
5.647 -49.2923 541.71 0.80427 0.247965 -0.540058
7.25917 -48.8265 546.198 0.956607 0.227323 -0.182285
8.02414 -48.4881 550.014 0.967241 0.158033 -0.19867
8.81808 -51.001 552.403 0.970529 0.152141 -0.186888
6.92792 -44.8935 547.729 0.974016 0.150609 -0.169142
-58.7443 22.9096 510.612 -0.115357 -0.894184 -0.432583
5.19405 -41.3949 545.266 0.848139 0.400727 -0.346524
7.04283 -42.771 547.187 0.937096 0.294872 -0.18682
8.79032 -47.7096 554.239 0.957084 0.227493 -0.179546
-52.8187 25.7995 505.546 -0.184936 -0.820328 -0.541165
5.81123 -40.9789 549.483 0.921884 0.356966 -0.150683
-50.2085 26.5706 503.586 -0.152055 -0.851605 -0.501645
9.13254 -47.3743 558.192 0.948541 0.316235 -0.0163199
10.3301 -50.4024 560.423 0.958187 0.286143 0.000180306
-43.6344 31.9302 492.767 0.124653 -0.871905 -0.473543
-42.6285 29.8246 496.147 -0.075085 -0.889533 -0.450659
-47.2401 27.3962 501.146 0.018594 -0.924728 -0.380173
2.68999 -34.5219 549.737 0.744695 0.620666 -0.245362
-40.4445 27.7466 499.195 -0.203508 -0.85973 -0.468454
4.59181 -36.7545 551.774 0.837 0.532134 -0.127533
-35.6862 27.0552 499.456 0.0116102 -0.875474 -0.483126
-39.0949 25.9186 502.313 -0.196845 -0.890346 -0.410531
8.09566 -45.8943 565.088 0.93068 0.160326 0.328833
3.31849 -34.2667 553.481 0.809714 0.561698 -0.169874
-36.3326 24.4527 507.456 0.00522227 -0.889791 -0.456338
6.21225 -46.2192 569.467 0.848027 0.172258 0.501176
-35.8702 16.3752 521.92 -0.0719259 -0.877741 -0.473706
7.98516 -39.6489 562.112 0.956107 0.277451 -0.0942293
8.76305 -42.7482 563.771 0.990966 0.0816017 0.10643
-1.18044 -27.7797 553.868 0.697384 0.690569 -0.191756
1.95262 -30.8411 555.688 0.83502 0.494452 -0.241369
3.73951 -33.7449 557.563 0.852267 0.479058 -0.210103
5.70787 -36.6418 559.979 0.893564 0.406686 -0.190133
41.922 -9.48961 557.138 -0.173828 -0.927528 -0.33087
45.2785 -10.3965 557.527 -0.210126 -0.917759 -0.336995
42.9601 -11.2 561.266 -0.208006 -0.86794 -0.451014
47.0356 -14.7977 565.873 -0.070456 -0.912244 -0.403542
54.1065 -15.6831 563.292 -0.285753 -0.860409 -0.421949
55.5971 -17.1136 565.692 -0.120664 -0.926373 -0.356753
61.1615 -15.8731 560.926 -0.117914 -0.900684 -0.418167
58.0381 -16.8196 564.594 -0.156464 -0.92142 -0.355673
64.5404 -14.9318 558.333 -0.111669 -0.894222 -0.43347
64.2612 -19.0391 566.906 -0.153513 -0.927491 -0.340872
66.2241 -20.1855 569.749 -0.166508 -0.94162 -0.29262
69.0416 -21.0262 570.513 -0.228342 -0.90664 -0.354772
67.3451 -21.5096 573.102 -0.253135 -0.907286 -0.335789
70.7043 -25.216 578.667 -0.108732 -0.893916 -0.434846
83.6373 -17.887 557.237 -0.104501 -0.878531 -0.466115
-6.59474 87.0413 517.772 0.712167 0.0971998 -0.695248
87.6053 -14.5274 550.791 -0.114196 -0.713688 -0.691092
88.6756 -15.2316 552.64 -0.271269 -0.773703 -0.572535
91.2965 -15.4363 551.012 0.280176 -0.255851 -0.925225
0.609982 95.1608 512.662 -0.0351545 -0.827152 -0.560878
5.1537 89.6388 521.514 -0.0220407 -0.844323 -0.53538
6.83328 87.7856 524.297 0.0473403 -0.823054 -0.565986
16.899 100.869 498.26 -0.129217 -0.922909 -0.362687
9.82157 89.11 522.369 -0.0137804 -0.836189 -0.548269
19.668 105.644 490.893 -0.108201 -0.690087 -0.715592
21.1279 102.593 493.55 -0.141324 -0.731785 -0.666722
23.9768 100.255 496.526 -0.142967 -0.896671 -0.418977
27.729 99.528 496.628 -0.166451 -0.888192 -0.428263
28.3917 95.8636 505.167 -0.269436 -0.8839 -0.382263
30.3917 112.118 482.084 0.133536 -0.600263 -0.788576
31.8515 109.066 484.741 0.0587677 -0.656012 -0.752459
31.3618 95.6374 502.145 -0.324209 -0.836167 -0.442396
34.3427 112.763 483.603 0.334325 -0.341664 -0.878347
45.0305 93.7904 503.805 0.00867718 -0.870693 -0.49175
46.8178 92.2914 506.999 -0.0377225 -0.908795 -0.415534
31.8311 137.154 463.751 0.137128 -0.134132 -0.98143
130.7 -36.9655 580.314 -0.0337797 -0.869611 -0.49258
126.747 -40.5185 588.734 -0.0361292 -0.91823 -0.394397
41.4836 120.296 479.219 -0.0839911 -0.629921 -0.772104
133.012 -39.3768 583.057 0.128343 -0.917584 -0.376256
46.3612 112.76 483.833 -0.109551 -0.569568 -0.814611
49.7939 89.4667 512.784 -0.255125 -0.817637 -0.516121
52.7632 89.7663 510.053 -0.170421 -0.902774 -0.394912
137.563 -36.3183 578.762 0.30515 -0.94635 -0.10633
134.916 -37.2507 581.129 0.248594 -0.893948 -0.372905
56.5904 89.2913 510.542 -0.0776728 -0.897211 -0.434717
58.5427 87.7797 513.567 0.00979972 -0.928962 -0.370045
140.263 -35.3505 576.562 0.689751 -0.69411 -0.206047
61.2375 88.7895 511.176 0.0232494 -0.895281 -0.444896
138.175 -35.0452 582.988 0.853681 -0.456856 0.250023
63.6755 90.2237 509.162 0.475182 -0.704759 -0.526799
129.504 -37.8659 597.7 0.784953 -0.374259 0.493739
94.1779 109.924 564.121 0.898561 -0.304435 0.316081
83.6097 89.8103 603.099 0.86569 0.500424 -0.0124871
81.4271 92.8776 600.889 0.898461 0.438984 -0.0078151
85.2879 86.6451 600.518 0.791153 0.611417 0.0157138
85.5253 86.1572 596.816 0.766572 0.641957 -0.0160693
89.6344 80.2392 594.347 0.749499 0.657488 -0.0772017
85.6931 85.3224 590.589 0.832186 0.550058 -0.0700153
94.582 72.0826 587.906 0.812756 0.577852 -0.0742567
95.9028 68.3371 585.513 0.907906 0.403527 -0.113452
95.966 70.5273 584.418 0.918288 0.393138 -0.046795
86.9002 83.8212 578.979 0.884392 0.463651 -0.0536472
88.0834 80.6936 576.901 0.8601 0.506967 -0.0566768
82.138 94.6125 566.042 0.551144 -0.43015 -0.714991
82.5468 -36.0099 728.548 0.447684 -0.76476 -0.46338
80.4733 -37.4509 729.199 0.384029 -0.803008 -0.455741
78.1573 -39.832 732.066 0.0522466 -0.945733 -0.320717
76.0673 -37.7026 729.355 -0.065626 -0.834494 -0.547096
69.305 -38.0096 730.178 0.0255492 -0.867995 -0.495916
71.4962 -36.8416 728.645 0.000269787 -0.861668 -0.507473
67.5791 -37.5335 727.783 0.0498751 -0.934847 -0.35153
61.8799 -47.2784 745.915 0.0222023 -0.959317 -0.281457
63.5165 -37.9788 726.595 0.403377 -0.913485 -0.053227
60.7954 -38.8102 729.39 0.233282 -0.94264 -0.238768
55.6391 -41.3526 733.764 0.248623 -0.919865 -0.303372
59.9023 -38.9832 725.862 0.390783 -0.912003 0.124659
75.0276 -40.2839 702.212 0.720388 -0.166034 0.673405
77.9977 -40.5101 699.191 0.67784 -0.167124 0.715963
76.2929 -41.5952 700.575 0.698982 -0.161079 0.696763
75.8534 -43.9917 700.323 0.685917 -0.196755 0.700575
53.8435 -43.0216 726.11 0.629537 -0.625713 0.460615
