ply
format ascii 1.0
element vertex 872
property float x
property float y
property float z
property float nx
property float ny
property float nz
end_header
-121.415 10.7383 704.009 -0.813241 0.376849 0.443424
-125.295 8.22963 699.251 -0.806593 0.342462 0.481796
-115.409 9.36214 715.598 -0.87918 0.00922192 0.4764
-113.588 8.75363 719.126 -0.923719 -0.383043 0.00449466
-117.579 6.06979 713.009 -0.805926 0.301723 0.50936
-123.776 3.61512 705.487 -0.739488 0.402444 0.539625
-118.488 2.73285 714.249 -0.79869 0.411077 0.439443
-114.787 1.69975 721.442 -0.791288 0.39364 0.46788
-127.425 -10.0217 712.08 -0.765975 0.467396 0.441387
-131.257 -15.5292 711.384 -0.787211 0.423226 0.44853
-129.004 -15.8635 714.556 -0.785612 0.393011 0.477866
-133.678 -18.4477 709.013 -0.83144 0.392682 0.393076
-130.343 -20.8733 717.028 -0.716439 0.46717 0.518138
-134.911 -21.9936 709.856 -0.914659 -0.0744476 0.397312
-133.801 -23.5342 706.121 -0.431107 -0.891493 -0.139238
-110.432 93.4962 528.583 0.0321572 -0.874433 -0.484079
-107.262 95.3179 526.479 -0.0400017 -0.889066 -0.456029
-105.701 93.076 528.849 -0.0913749 -0.836216 -0.540734
-105.629 84.1014 541.04 -0.336933 -0.645812 -0.68513
-103.046 84.8459 538.588 -0.415983 -0.606232 -0.677821
-100.79 86.6184 535.907 -0.355202 -0.592471 -0.723056
-99.7196 82.9287 537.481 -0.649734 -0.111848 -0.751888
-93.61 88.986 529.13 -0.571729 -0.49793 -0.652067
-91.2322 91.2898 526.187 -0.528622 -0.507778 -0.680236
-90.1341 87.2967 527.134 -0.787094 0.0660138 -0.613291
-94.3 81.377 529.922 -0.851037 0.343209 -0.39742
-99.8514 72.5837 534.041 -0.740849 -0.422301 -0.522306
-63.5872 -13.2773 579.781 -0.117368 -0.791121 -0.600294
-61.3272 -15.0163 582.848 0.0258077 -0.884931 -0.465006
-59.722 -16.663 586.61 0.00789831 -0.895831 -0.444325
-57.792 -17.9608 588.767 -0.0076138 -0.857992 -0.513606
-55.0612 -16.6087 586.142 -0.0102488 -0.896363 -0.443203
-52.8696 -15.3535 583.063 0.0145027 -0.885777 -0.463884
-51.3727 -16.7911 586.34 0.049521 -0.891068 -0.45116
-47.2425 -12.3866 579.852 0.108796 -0.842157 -0.528143
-44.4237 -15.0787 584.856 0.104726 -0.868714 -0.484116
-36.7758 -6.94385 569.918 -0.0107794 -0.88992 -0.455989
12.7521 -77.6924 715.771 -0.0998853 -0.933536 -0.344286
16.9401 -78.2694 715.959 -0.293804 -0.945726 -0.138857
14.436 -78.1214 711.094 -0.374738 -0.907637 0.189123
21.0176 -80.1984 715.815 -0.457471 -0.889034 0.0184069
23.9828 -81.9546 716.046 -0.64822 -0.727428 0.225078
25.6319 -85.2816 716.77 -0.780379 0.0358028 0.62428
-67.6104 -12.7179 579.545 -0.066265 -0.705085 -0.70602
-65.1967 -10.621 577.382 -0.181796 -0.800231 -0.571472
-105.814 31.1552 490.09 0.0636708 -0.92703 -0.369542
-109.554 33.7771 484.591 -0.410274 -0.786144 -0.462226
-113.383 32.5194 489.947 -0.620559 -0.48413 -0.616867
-117.166 29.5303 497.982 -0.751424 -0.522741 -0.402622
-117.656 30.5879 495.432 -0.891195 -0.269308 -0.365026
-119.277 30.1472 499.546 -0.766727 -0.285728 -0.574882
-117.716 33.7426 497.463 -0.964336 0.128249 -0.231533
-121.117 30.896 503.034 -0.887543 0.254137 -0.384294
-117.332 37.1319 499.742 -0.948213 0.157934 -0.275587
-121.495 31.7197 505.78 -0.906451 0.245341 -0.343737
-120.661 35.2491 505.271 -0.921705 0.198264 -0.333393
-119.239 37.6066 503.316 -0.84744 0.120002 -0.517151
-78.4718 76.0082 489.584 -0.277341 0.475452 -0.834881
-77.5857 78.767 491.61 -0.366777 0.618666 -0.694785
-81.0946 77.9809 492.364 -0.352577 0.69573 -0.625819
-76.5223 82.0776 494.041 -0.47313 0.690223 -0.547486
-82.9983 77.9511 496.734 -0.690109 0.717546 -0.0942215
-89.056 73.6996 498.592 -0.583777 0.808505 -0.0743181
-80.3684 80.807 498.687 -0.655939 0.743789 -0.128541
-77.5486 82.9952 498.176 -0.61485 0.739185 -0.274891
-95.8032 67.8465 500.876 -0.614068 0.786952 -0.06022
-87.0013 75.2255 501.786 -0.60365 0.791428 -0.0961669
-85.1518 76.7864 500.085 -0.642253 0.762255 -0.0804802
-93.6265 69.8366 503.795 -0.645993 0.760085 -0.0704546
-89.7068 73.3088 503.111 -0.602421 0.789638 -0.116453
-119.368 45.8569 511.513 -0.856685 0.489196 -0.16364
-97.1328 67.6518 505.425 -0.577304 0.808512 -0.114146
-120.512 45.8472 515.728 -0.794665 0.585472 -0.160405
-103.212 62.8086 507.892 -0.704774 0.709037 -0.0236878
-100.266 65.5573 506.563 -0.628478 0.771769 -0.0968935
-118.029 48.7892 514.338 -0.760813 0.64343 -0.0846226
-109.468 57.4136 509.955 -0.654692 0.750083 -0.0935574
-105.729 60.2377 509.41 -0.644135 0.763328 -0.0492063
-84.5309 78.6471 507.564 -0.709609 0.671273 -0.214121
-114.994 51.8138 513.211 -0.71688 0.697147 -0.00834841
-109.993 57.5833 513.655 -0.640239 0.767655 0.0282825
-110.77 56.632 518.993 -0.73938 0.673013 0.0192218
-86.8338 78.8492 515.289 -0.81953 0.453504 -0.350292
-82.079 84.8028 512.506 -0.779637 0.510362 -0.3629
-105.907 60.0569 523.309 -0.602925 0.79733 0.0273192
-98.8154 69.4875 535.501 -0.710266 -0.510651 -0.484518
-170.121 106.375 551.258 -0.518666 0.642594 -0.563967
-141.862 102.257 517.355 -0.00520445 0.118016 -0.992998
-141.994 98.4859 516.789 0.163741 -0.0423432 -0.985594
-134.354 102.792 517.044 0.00190361 0.0433995 -0.999056
-130.006 102.18 517.033 -0.102125 -0.323782 -0.940604
-126.971 104.262 516.132 -0.156521 0.0114041 -0.987609
-125.727 101.428 516.979 0.0586845 -0.554677 -0.829994
-124.134 99.5528 519.453 -0.000873629 -0.757947 -0.652316
-121.803 100.771 516.98 -0.115579 -0.653921 -0.747682
-118.982 102.987 515.402 -0.167231 -0.33386 -0.92767
-117.344 100.582 516.315 -0.0952305 -0.655144 -0.749479
-118.566 91.4638 533.34 -0.0412168 -0.908988 -0.414779
-116.791 92.6803 530.537 -0.131743 -0.882123 -0.45222
-115.179 91.207 533.319 0.0115697 -0.891765 -0.452351
-132.125 -24.8103 707.949 -0.225492 -0.900988 -0.37064
-128.841 -23.4674 705.403 0.294345 -0.76429 -0.573779
-127.83 -27.5034 713.851 0.106839 -0.81082 -0.575462
-120.766 -15.9041 701.135 -0.149533 -0.813828 -0.561536
-118.78 -14.9885 698.402 -0.0715869 -0.908884 -0.410859
-123.814 -27.9122 714.434 0.100046 -0.658293 -0.746084
-115.957 -16.3934 700.623 -0.119505 -0.617188 -0.777687
-117.427 -21.3607 704.02 -0.228718 -0.898531 -0.374607
-112.496 -17.6965 699.958 -0.244037 -0.542506 -0.803824
-115.207 -20.1314 702.455 -0.0384133 -0.732749 -0.679414
-109.55 -14.9478 698.629 0.0784652 -0.662106 -0.745291
-110.4 -17.1041 699.057 0.0859081 -0.529654 -0.843852
-104.243 -13.0903 695.423 0.0479724 -0.979261 -0.196841
-108.553 -18.9511 700.683 -0.12063 -0.679459 -0.723729
-102.251 -13.8517 698.262 -0.119848 -0.733993 -0.668499
-101.193 -17.2366 699.324 0.0767573 -0.406515 -0.910414
-103.318 -20.1387 701.327 0.0726653 -0.817242 -0.571695
-99.3667 -22.044 708.775 -0.0302506 -0.853303 -0.520537
-100.02 -20.2608 701.343 -0.0765543 -0.824633 -0.560465
-97.7597 -21.4471 704.544 0.0675006 -0.965532 -0.251379
-96.0008 -21.8156 708.431 0.137144 -0.842185 -0.521455
-69.002 -36.8825 614.503 -0.0430733 -0.75666 -0.652388
-65.2097 -31.2008 607.575 -0.0506961 -0.764575 -0.642538
-60.0274 -27.9105 603.295 -0.0211318 -0.783224 -0.621381
-58.4459 -33.7397 610.542 -0.0179654 -0.771593 -0.635863
-56.7107 -32.4503 608.027 -0.0767634 -0.787221 -0.611875
-54.5579 -34.1382 611.112 0.127122 -0.813057 -0.568136
-52.1835 -35.5308 613.944 0.0230562 -0.812683 -0.58225
-50.4483 -34.2413 611.429 -0.088445 -0.792068 -0.603992
-48.3749 -32.3272 609.149 -0.0201934 -0.770518 -0.637099
-45.3802 -44.0573 623.638 -0.0327589 -0.774172 -0.632127
-7.75836 -74.3012 714.571 -0.502555 -0.804537 0.316479
-9.61548 -71.1041 705.784 -0.083999 -0.937252 -0.338382
-5.96127 -74.2264 713.066 -0.28587 -0.894319 -0.344198
-3.93679 -75.1037 714.609 -0.17461 -0.924978 -0.337531
-1.36185 -72.5826 706.347 -0.256883 -0.96255 0.0866512
11.4972 -76.6633 712.862 -0.266009 -0.942051 -0.204397
-2.48086 -87.4915 688.39 -0.0733184 -0.906831 -0.415068
-72.8079 -36.5476 613.984 0.0463249 -0.799374 -0.599045
-70.3921 -34.4912 611.855 -0.0129897 -0.750932 -0.660252
-47.9128 -41.7407 701.573 -0.402448 -0.905254 -0.136201
-49.8659 -40.8956 697.677 -0.636026 -0.765635 0.0962978
-52.0034 -40.6775 702.079 -0.248929 -0.902139 -0.352391
-63.8141 -36.9956 702.478 -0.623663 -0.709537 0.328028
-66.0634 -36.2756 698.532 -0.4928 -0.868688 0.0502982
-74.3955 -31.3616 687.299 -0.245938 -0.969262 0.00677393
-66.3708 -30.0721 707.743 -0.512036 -0.77895 0.362015
-74.6599 -27.5357 700.263 -0.569272 -0.673563 0.471426
-77.6468 -27.5692 697.337 -0.490689 -0.728382 0.478209
-77.8506 -25.2934 700.086 -0.511686 -0.686855 0.516146
-78.3252 -25.2872 708.395 -0.374035 -0.504055 -0.778477
-84.3637 -23.1284 696.901 -0.516143 -0.765315 0.384564
-100.782 -24.21 674.086 -0.494439 -0.461948 0.736298
-97.7569 -22.057 678.47 -0.576304 -0.610953 0.54278
-79.3776 -22.2406 707.527 -0.502091 -0.530468 -0.683014
-84.303 -21.0296 699.57 -0.356343 -0.874144 0.329987
-82.8537 -24.8565 709.084 -0.081975 -0.376255 -0.922883
-100.847 -19.9643 678.206 -0.529986 -0.603736 0.595498
-93.3061 -19.4077 699.448 -0.367704 -0.887254 -0.27852
-100.309 -16.484 684.337 -0.764057 -0.595337 0.248578
-168.357 108.572 551.813 -0.460916 0.607181 -0.647215
-139.95 102.603 516.664 0.0324113 0.180374 -0.983064
-130.283 100.12 518.284 0.012514 -0.633029 -0.774027
-125.099 106.026 516.407 -0.144142 0.0155704 -0.989434
-129.317 97.1491 520.674 0.227676 -0.560019 -0.796582
-126.112 99.5872 518.9 0.135003 -0.773003 -0.619871
-120.57 104.815 515.664 -0.0182139 -0.0397837 -0.999042
-123.685 101.455 517.159 -0.0495678 -0.620541 -0.782606
-122.097 98.9645 519.363 -0.10406 -0.794047 -0.598884
-120.262 97.2464 522.134 -0.0809284 -0.817085 -0.570809
-117.974 97.7793 520.408 -0.0907066 -0.814852 -0.572528
-117.008 93.9296 527.45 -0.0424172 -0.931223 -0.361974
-113.058 95.441 525.497 0.0318134 -0.920141 -0.390292
-112.172 91.1628 533.874 -0.0683189 -0.875163 -0.47898
-130.583 -28.1827 713.513 -0.227631 -0.837809 -0.496246
-125.365 -22.5586 707.273 0.0265892 -0.752256 -0.658334
-121.207 -17.866 704 -0.127148 -0.781941 -0.610247
-123.135 -22.5203 707.479 0.161697 -0.759508 -0.63008
-119.663 -20.4074 705.551 -0.291062 -0.72517 -0.624028
-115.037 -17.976 700.691 -0.217141 -0.524719 -0.823116
-111.649 -21.9704 705.408 0.0473612 -0.951925 -0.302648
-108.838 -20.8393 703.256 -0.0323767 -0.910761 -0.411663
-106.889 -11.5683 686.691 -0.444882 -0.850546 -0.280449
-104.939 -13.0149 690.277 -0.23371 -0.97073 -0.0553489
-104.571 -21.4088 703.522 0.0290317 -0.954384 -0.297167
-98.8374 -16.2337 699.396 -0.145124 -0.41938 -0.896136
-102.557 -21.8308 707.412 0.0283394 -0.974426 -0.222916
-102.976 -13.2994 686.515 -0.355654 -0.917324 -0.178958
-99.9475 -20.7005 703.497 -0.0757922 -0.941065 -0.329624
-96.9807 -20.3637 701.74 0.0929348 -0.854269 -0.511456
-94.891 -17.9707 700.036 -0.425144 -0.84915 -0.313364
-67.5491 -31.7249 608.078 -0.0684015 -0.766466 -0.638632
-66.3635 -36.8443 614.223 -0.0760678 -0.770114 -0.633355
-59.681 -26.369 601.044 0.00850652 -0.840004 -0.542513
-59.6797 -35.7771 612.622 -0.0650166 -0.754934 -0.652569
-58.7 -37.8509 615.018 0.0573595 -0.798588 -0.599138
-55.1102 -35.7907 613.316 0.135238 -0.812051 -0.5677
-52.0269 -33.5465 611.173 0.0304693 -0.836345 -0.547356
-50.8891 -36.2033 614.294 -0.0787855 -0.795332 -0.601032
-48.722 -38.1485 616.524 -0.0262805 -0.71957 -0.693923
-45.0741 -42.2689 621.245 -0.00367391 -0.777316 -0.6291
-7.28256 -71.4721 706.808 -0.0686498 -0.952046 -0.298153
-3.03301 -72.0968 707.034 -0.207755 -0.962793 -0.172821
10.3815 -75.9511 710.734 -0.254545 -0.913833 0.316413
-2.22076 -86.056 685.992 0.00140379 -0.865109 -0.501582
-69.1584 -32.4538 609.774 -0.0525685 -0.746156 -0.663692
-71.958 -30.6582 606.908 0.0276709 -0.78285 -0.621595
-45.9854 -42.8924 702.71 -0.335337 -0.924301 -0.182254
-50.4903 -40.7288 694.946 -0.561859 -0.731442 0.386403
-54.0671 -40.2592 702.659 -0.248364 -0.893433 -0.374289
-62.0456 -36.896 704.346 -0.623533 -0.685085 0.37665
-66.1714 -35.6378 696.195 -0.322832 -0.92456 -0.202406
-70.0741 -32.4 689.085 -0.382092 -0.923696 0.0281168
-72.1615 -31.803 687.951 -0.352939 -0.919633 0.172362
-67.8493 -31.7764 702.072 -0.709152 -0.609 0.355278
-78.3788 -30.6017 689.446 -0.346322 -0.923416 0.165422
-68.7497 -30.2983 705.389 -0.583116 -0.738232 0.3391
-70.748 -29.6161 702.372 -0.561679 -0.733481 0.382782
-77.7617 -28.9611 692.701 -0.570972 -0.751449 0.330627
-81.2873 -29.3696 687.806 -0.553488 -0.83078 0.0587812
-78.6621 -27.4829 696.018 -0.638281 -0.708272 0.301577
-79.3551 -23.0499 701.391 -0.434391 -0.752632 0.494822
-78.7379 -21.4093 704.646 -0.383352 -0.909008 0.163543
-102.15 -22.6119 674.359 -0.519431 -0.510606 0.685181
-106.284 -20.2207 673.528 -0.490735 -0.464295 0.737299
-136.589 100.735 517.43 0.0767654 -0.244527 -0.966599
-128.806 99.3967 518.932 0.048743 -0.661002 -0.748799
-126.545 97.612 520.929 0.121884 -0.750069 -0.650032
-123.028 103.904 516.005 -0.0511927 -0.240383 -0.969327
-122.796 97.1495 521.678 -0.000298969 -0.791329 -0.611391
-119.884 98.9281 519.679 -0.0726075 -0.792209 -0.605915
-118.163 96.9385 521.635 -0.0931277 -0.832827 -0.545642
-117.897 94.1936 528.96 -0.0762181 -0.892349 -0.444865
-116.623 95.1805 525.119 0.0113919 -0.896644 -0.442605
-113.639 93.7615 528.097 0.0465568 -0.888885 -0.455759
-112.427 92.3271 531.577 -0.034657 -0.879356 -0.474903
-130.264 -26.4681 710.901 -0.0514157 -0.916705 -0.396244
-124.341 -21.4555 706.557 0.246769 -0.667598 -0.702437
-125.701 -24.0534 709.456 0.268543 -0.80364 -0.531081
-121.522 -19.2673 706.046 0.0689959 -0.77161 -0.632342
-123.362 -24.1273 709.521 0.201034 -0.804391 -0.559053
-119.467 -18.6745 702.797 -0.572245 -0.626353 -0.529356
-114.103 -15.4354 698.816 -0.254316 -0.735159 -0.628383
-113.44 -21.9006 706.097 -0.109196 -0.930282 -0.350216
-111.313 -20.7282 702.798 -0.0680718 -0.829961 -0.553652
-108.77 -21.5435 706.653 0.0538295 -0.957347 -0.283882
-105.128 -21.9975 705.884 0.032715 -0.966469 -0.254691
-105.182 -12.5067 687.686 -0.440097 -0.862295 -0.250522
-101.431 -20.8689 704.375 0.0109316 -0.961621 -0.274162
-96.9449 -18.2826 699.353 -0.202668 -0.650312 -0.732134
-94.4129 -19.2967 702.866 0.121527 -0.935092 -0.332919
-67.8009 -32.846 609.715 -0.0643377 -0.745588 -0.663295
-66.1426 -35.1159 612.081 -0.0342604 -0.746361 -0.664659
-59.2717 -24.5472 598.384 0.0371727 -0.828462 -0.558811
-59.9735 -37.085 614.532 -0.0254173 -0.776846 -0.629177
-58.0369 -36.0507 612.688 0.0798463 -0.786805 -0.612015
-55.7734 -37.591 615.646 0.174979 -0.8019 -0.571261
-52.0993 -31.9727 609.238 0.0577732 -0.781746 -0.620916
-51.2039 -37.6046 616.34 -0.0770787 -0.736813 -0.671688
-48.9469 -36.0343 614.272 -0.00325481 -0.79806 -0.602569
-10.9921 -73.3881 710.423 -0.249642 -0.967563 -0.03873
-44.5756 -40.2559 619.057 0.0106349 -0.752208 -0.65884
-7.84814 -72.4995 709.071 -0.0064877 -0.920524 -0.390632
-5.79918 -71.3037 705.929 -0.238113 -0.969875 -0.0514162
-3.99202 -72.8096 709.452 -0.109341 -0.926246 -0.360712
8.33307 -76.7723 708.635 -0.394528 -0.876417 0.276119
-1.85536 -84.6571 683.515 -0.00556247 -0.841535 -0.540174
-68.4953 -30.6536 607.444 -0.0186295 -0.773944 -0.63298
-72.1932 -32.2806 609.426 0.00465639 -0.761156 -0.648552
-51.87 -39.4197 696.852 -0.443193 -0.882876 0.155274
-66.0344 -34.3858 693.478 -0.268185 -0.934366 -0.2346
-68.1467 -33.5517 690.222 -0.38022 -0.924896 -0.00041684
-70.2396 -32.6627 687.047 -0.405093 -0.895134 0.186102
-63.6207 -34.4247 705.063 -0.614933 -0.610594 0.499032
-72.1782 -32.2159 690.284 -0.258744 -0.965617 -0.025199
-76.2256 -31.2499 684.039 -0.354363 -0.88183 0.311131
-67.2452 -32.5419 704.084 -0.64169 -0.651779 0.40425
-69.4352 -31.9273 700.503 -0.653863 -0.605902 0.45315
-76.0926 -31.2556 690.688 -0.366803 -0.927197 0.0759085
-78.7018 -30.1876 686.829 -0.370861 -0.928683 0.00300579
-68.8523 -30.2808 702.942 -0.645486 -0.699984 0.305564
-80.1406 -29.1873 690.347 -0.515354 -0.781907 0.350759
-80.8966 -25.0345 696.129 -0.516304 -0.794417 0.319893
-77.0391 -23.1039 704.154 -0.598122 -0.773887 0.208205
-81.7454 -21.3898 703.138 -0.271513 -0.949234 0.158854
-104.404 -23.7726 672.607 -0.431723 -0.456996 0.77767
-102.92 -19.9785 675.841 -0.549615 -0.566628 0.613886
-148.359 -18.3031 792.987 0.280152 0.49972 -0.819631
-139.577 6.90202 751.734 -0.930531 0.0920666 -0.354451
-132.601 20.1476 738.665 -0.931552 0.0461402 -0.360669
-137.569 6.90067 747.155 -0.968389 0.0215622 -0.248512
-131.588 18.8715 734.16 -0.96883 0.0137992 -0.247341
-136.468 6.61421 743.361 -0.967381 0.0165355 -0.252785
-132.902 12.5481 737.08 -0.910399 0.201262 -0.36148
-133.197 9.49653 737.388 -0.905078 0.205392 -0.372355
-135.405 5.33452 738.991 -0.925004 0.0589065 -0.375365
-133.85 5.37002 735.683 -0.940229 0.0876045 -0.329081
-131.987 4.38572 731.478 -0.71766 -0.173924 -0.674325
-133.274 2.40917 733.622 -0.586463 -0.54647 -0.597856
-129.458 4.33041 728.427 -0.437432 -0.678579 -0.59007
-128.335 -3.60565 741.381 0.262882 -0.833237 -0.486425
-126.139 -4.82322 744.855 0.129631 -0.846357 -0.5166
-170.462 16.4732 620.365 -0.0779614 -0.974752 -0.20924
-122.187 -1.27947 740.254 0.0877112 -0.869147 -0.486713
-118.976 -0.0143369 737.95 -0.0132862 -0.86045 -0.509362
-168.128 15.281 623.573 -0.607276 -0.79449 0.00144171
-133.724 18.3585 675.568 -0.723074 0.443324 0.529743
-129.292 18.6156 682.535 -0.794835 0.40246 0.454162
-166.148 14.3416 626.376 -0.525086 -0.779471 0.341627
-130.817 15.755 683.396 -0.707974 0.483661 0.51463
-163.156 14.0089 629.575 -0.649356 -0.60133 0.465553
-132.947 13.6598 682.244 -0.808203 0.417851 0.414979
-135.731 12.3388 677.857 -0.793642 0.407842 0.451439
-114.6 -0.012505 738.624 -0.020964 -0.870879 -0.49105
-163.993 14.3405 623.443 -0.30111 -0.830757 -0.468162
-160.098 12.0994 630.309 -0.639813 -0.614186 0.461969
-140.863 7.17371 670.475 -0.893488 0.223508 0.389516
-137.368 5.61371 680.635 -0.878995 0.283615 0.383315
-142.293 7.64107 666.299 -0.913931 0.149307 0.377409
-109.8 -1.07466 738.857 -0.64394 -0.749228 -0.154914
-108.425 -5.66018 746.947 -0.399701 -0.777435 -0.485627
-160.108 12.7966 623.105 -0.716289 -0.695832 -0.052423
-158.224 11.4273 626.367 -0.486791 -0.849861 -0.201918
-141.286 3.41844 667.576 -0.814414 -0.524398 0.248469
-108.788 -8.64657 741.547 -0.8324 0.287956 0.473488
-157.231 10.6149 623.276 -0.673817 -0.690224 0.263744
-137.2 0.417417 672.52 -0.227729 -0.912078 -0.340959
-123.924 -26.8458 734.695 -0.769573 0.456021 0.446992
-121.734 -27.4604 738.277 0.664959 -0.544761 -0.510945
-130.422 -5.98749 684.449 -0.0198523 -0.858143 -0.513026
-115.691 -32.1245 755.56 -0.784037 0.486536 0.385447
-117.508 -35.8083 755.202 -0.734277 0.51572 0.441442
-127.329 -5.09017 681.874 -0.107132 -0.872847 -0.47609
-128.187 -37.0162 738.07 -0.723456 0.493894 0.482369
-153.617 10.877 593.467 -0.712609 0.694852 0.0967951
-155.097 9.68469 589.979 -0.755626 0.652407 0.0582528
-119.117 47.3577 575.889 -0.616723 -0.344213 -0.707934
-153.925 10.9298 586.125 -0.649266 0.757655 0.0664282
-156.625 7.4066 586.962 -0.778185 0.627766 -0.0183721
-114.495 58.1999 557.979 -0.226441 -0.878876 -0.419882
-112.747 56.51 561.367 -0.228878 -0.805145 -0.547135
-158.253 5.07395 584.416 -0.775372 0.618354 -0.128204
-110.887 54.4833 563.931 -0.797869 -0.336327 -0.50029
-154.071 10.2754 578.324 -0.7786 0.608155 -0.154695
-158.432 4.59432 581.093 -0.936836 0.309115 -0.163665
-110.637 52.6144 565.133 -0.824121 -0.226123 -0.519319
-85.0944 105.656 508.564 -0.261936 -0.0163654 -0.964947
-159.362 1.26089 581.844 -0.897131 0.295914 -0.32801
-83.8769 102.304 509.409 -0.179206 -0.627648 -0.757591
-112.67 50.1716 560.093 -0.735492 0.675284 -0.0551604
-107.541 54.9863 557.154 -0.977207 0.161815 -0.137411
-81.3401 104.419 507.836 -0.251072 -0.382514 -0.889183
-132.432 32.4105 554.051 -0.745585 0.664957 0.0439909
-159.744 -2.49554 579.701 -0.888661 0.336581 -0.311441
-80.5756 98.1298 514.184 -0.274123 -0.668954 -0.69091
-151.689 9.79275 567.67 -0.939956 0.171083 -0.295321
-5.42218 -68.5092 746.387 -0.46485 -0.866749 0.18072
-3.4829 -68.7498 750.186 -0.519646 -0.832928 0.190261
-65.0718 -0.650541 555.213 0.022573 -0.927085 -0.374172
-2.89621 -70.1343 747.495 -0.458618 -0.885605 0.0733032
0.478808 -66.0837 730.629 -0.669146 -0.601547 0.436331
6.0206 -66.9913 736.969 -0.458841 -0.886579 0.0586684
11.0967 -71.1771 745.88 0.142422 -0.902178 -0.407174
12.9218 -71.6893 748.864 0.20234 -0.922749 -0.328014
2.28533 -68.71 730.331 -0.651662 -0.503828 0.567005
17.2588 -69.9606 743.996 -0.432122 -0.716021 0.548255
6.43004 -72.3072 730.948 -0.639633 -0.424043 0.641137
-34.2155 -22.9268 596.324 -0.163584 -0.792053 -0.588126
-29.7723 -24.0612 595.925 -0.0758657 -0.800841 -0.594052
-25.8471 -16.2413 583.558 -0.114352 -0.778593 -0.617023
-24.1887 -18.5111 585.924 -0.243049 -0.773857 -0.58487
-22.5304 -20.781 588.29 -0.813262 -0.345138 -0.468492
-21.0545 -20.5556 585.006 -0.682548 -0.397608 -0.613218
-22.1326 -23.0063 586.827 -0.739393 -0.450969 -0.499926
-19.5052 -26.1441 591.802 -0.513969 -0.79232 -0.328732
-17.7326 -28.1425 594.983 -0.609483 -0.707614 -0.35751
-18.2732 -27.8493 587.944 -0.872609 0.149127 0.465097
-15.7499 -31.7119 596.508 -0.895303 -0.418479 -0.152668
-21.0629 -27.2527 580.418 -0.833214 0.515144 0.20095
-19.9935 -31.1282 588.314 -0.725582 0.416529 0.547754
-21.6102 -26.9118 576.902 -0.793596 0.598789 0.10797
-17.7183 -34.7611 594.117 -0.775399 0.366605 0.514157
-20.324 -34.4786 590.245 -0.730887 0.393745 0.557466
-22.5974 -27.5978 572.921 -0.722186 0.691633 0.00954768
-25.9279 -33.6677 578.942 -0.783702 0.555553 0.277797
-27.9942 -35.4826 577.381 -0.772025 0.566492 0.288207
4.86894 -5.5381 555.052 -0.267499 -0.854842 -0.444623
7.00788 -7.42305 558 -0.14784 -0.864289 -0.480779
-4.9909 -17.5515 563.878 -0.466554 0.78742 -0.402861
-32.3888 -38.6529 570.868 -0.874854 0.439694 0.203224
8.8512 -6.56678 555.205 -0.132782 -0.871825 -0.471477
-5.57387 -19.198 561.439 -0.355066 0.840167 -0.409937
-4.27617 -32.2834 542.903 -0.138891 0.646753 -0.749947
-39.1089 -55.2205 554.823 -0.884611 0.248754 -0.394442
-7.29422 -32.6114 543.436 -0.270358 0.659469 -0.701432
-36.8244 -51.7803 553.458 -0.785884 0.492694 -0.373684
19.8909 -21.1944 550.551 -0.0855483 0.650924 -0.754308
-15.1681 -34.5393 544.569 -0.3332 0.677183 -0.656049
42.9757 -0.868844 539.922 -0.346219 -0.906742 -0.240731
21.4557 -18.6316 552.547 -0.0927373 0.664771 -0.741268
40.4448 -77.2622 669.257 0.0108148 -0.869519 -0.493782
-38.2621 -51.6974 557.213 -0.855698 0.461701 -0.233693
37.3815 -78.5298 671.583 -0.16094 -0.856552 -0.490324
35.1448 -79.0715 674.533 -0.236819 -0.794227 -0.559571
-39.1437 -55.3956 569.533 -0.950982 0.187262 0.246101
33.0239 -77.4719 671.637 -0.00649487 -0.888714 -0.458415
-11.8099 -28.8708 550.19 -0.305592 0.766748 -0.564546
20.5342 -14.7416 556.291 -0.155374 0.565194 -0.810194
-37.406 -52.6244 571.698 -0.879573 0.249064 0.405362
-38.4819 -51.2788 568.309 -0.92469 0.303144 0.23033
-2.44979 -22.5405 553.929 -0.21182 0.796028 -0.566985
23.0013 -11.0416 557.372 -0.289008 -0.0443327 -0.9563
-9.34962 -23.7449 555.708 -0.370479 0.775023 -0.511942
20.4195 -0.351919 542.914 -0.109782 -0.857197 -0.503151
-35.0456 -42.0572 564.463 -0.864665 0.464122 -0.192212
-32.2973 -38.6903 562.828 -0.693379 0.653147 -0.304343
0.00518397 -19.628 557.116 -0.286447 0.77305 -0.565987
18.6843 -1.6414 545.43 -0.0991057 -0.8912 -0.442652
-22.9127 -30.4287 559.225 -0.627268 0.690464 -0.36027
-18.986 -27.7604 558.399 -0.512356 0.785537 -0.347019
16.7485 -2.63175 548.119 -0.0900544 -0.875176 -0.475349
14.2085 -0.951329 545.214 -0.0835711 -0.887763 -0.452651
-33.5025 -39.4395 566.667 -0.827895 0.560737 -0.0128377
-3.19257 -18.487 560.663 -0.382175 0.798439 -0.465228
-20.5339 -27.6971 561.869 -0.551192 0.785184 -0.282266
-67.6568 -1.59101 558.447 0.0466872 -0.951164 -0.305136
-69.7524 -0.556007 554.252 -0.00542773 -0.912616 -0.408783
-72.4102 -3.15549 563.539 -0.0329967 -0.92855 -0.369738
-76.8444 -1.04894 557.038 0.0886061 -0.918837 -0.384561
-82.4321 -8.97469 572.498 0.0226684 -0.869721 -0.493023
-84.4875 -20.9003 592.929 0.0234008 -0.795079 -0.606055
-84.4527 -10.3827 574.888 -0.00120699 -0.881757 -0.471702
-87.9069 -11.5796 576.795 0.0865025 -0.845838 -0.52638
-92.0812 -15.3306 581.496 0.140208 -0.85182 -0.504722
-94.6325 -13.8372 578.286 0.0758209 -0.806532 -0.586309
-95.2421 -5.5111 565.568 -0.018111 -0.886768 -0.46186
-97.2558 -6.43389 568.117 -0.0738251 -0.85596 -0.511745
-101.211 -8.17216 570.158 0.21887 -0.846642 -0.485071
-102.057 -3.87708 561.799 0.0416331 -0.86948 -0.49221
-105.247 -3.5119 561.326 -0.0253869 -0.792984 -0.608713
-107.356 -1.24985 558.071 -0.102023 -0.892615 -0.439124
-109.185 -2.95974 561.2 0.103862 -0.856016 -0.506408
-112.294 -5.29287 563.269 0.0591913 -0.879639 -0.471944
-115.556 13.6971 527.727 -0.0101891 -0.896473 -0.442981
-22.0692 102.797 490.545 -0.176235 -0.0699054 -0.981863
-29.3444 97.8908 491.359 -0.144423 0.300946 -0.942642
-117.523 -7.42768 568.464 0.0493849 -0.839985 -0.540357
-117.819 12.4573 531.639 -0.0515157 -0.928182 -0.368542
-119.274 13.5806 528.03 -0.0118021 -0.940538 -0.339482
-119.786 -6.04099 564.85 0.0986268 -0.890932 -0.443299
-28.3356 104.616 492.455 -0.153458 0.000860975 -0.988155
-126.36 13.0497 529.508 -0.0123437 -0.90178 -0.432018
-44.8403 95.1561 491.989 0.0179075 0.0761682 -0.996934
-133.157 4.02978 544.766 -0.0465938 -0.871279 -0.488572
-134.721 5.96848 541.699 -0.0865114 -0.845109 -0.527548
-134.925 -6.47199 566.135 0.00557876 -0.841703 -0.539911
-137.168 1.45365 549.226 0.0282777 -0.887441 -0.460053
-140.336 0.278248 551.905 -0.101003 -0.89479 -0.434913
-142.659 -0.491086 554.38 -0.122263 -0.890381 -0.43849
-144.331 0.798264 551.463 -0.326637 -0.817709 -0.473983
-145.367 4.44748 550.102 -0.897941 -0.106796 -0.426962
-144.064 7.89694 548.302 -0.963352 0.165401 -0.211176
-145.481 7.68375 552.092 -0.915103 0.126702 -0.382797
-155.151 -17.7123 584.473 0.0660626 -0.832771 -0.549662
-157.055 -16.2319 581.703 0.0238915 -0.83196 -0.554321
-156.61 -6.69051 569.979 -0.838268 -0.175625 -0.5162
-155.155 -3.7766 568.228 -0.949764 0.0917891 -0.299204
-156.791 -2.98565 571.878 -0.870387 0.208006 -0.446274
-153.099 2.87864 565.67 -0.906114 0.208519 -0.368073
-75.4613 99.9649 508.898 -0.626101 -0.414741 -0.660294
-73.7116 101.931 506.499 -0.414444 -0.372224 -0.830473
-152.463 5.94956 565.529 -0.910684 0.274666 -0.308567
-150.41 9.55293 563.426 -0.902787 0.239317 -0.357357
-160.219 -5.32276 577.691 -0.922813 0.172671 -0.344384
-158.825 -2.87312 575.744 -0.912689 0.242836 -0.328677
-142.608 21.7482 558.351 -0.821861 0.52919 -0.210957
-120.398 44.5264 547.096 -0.593823 0.803307 0.0455166
-77.1189 103.175 507.001 -0.301986 -0.409036 -0.861101
-177.57 108.776 561.531 -0.816473 0.518016 0.255012
-179.42 106.095 559.41 -0.855256 0.518126 0.00906424
-178.714 105.312 563.87 -0.818328 0.442511 0.366775
-187.459 93.6926 568.18 -0.934362 -0.0515086 -0.352582
-181.931 99.8399 565.736 -0.785048 0.618061 -0.0412434
-184.064 91.2527 568.079 -0.149252 -0.847581 -0.509245
-176.625 105.464 554.521 -0.403336 0.491901 -0.771592
-173.604 107.397 554.681 -0.390079 0.614271 -0.685937
-183.035 93.3251 561.104 -0.929087 -0.203437 -0.308885
-181.812 92.1852 564.014 -0.471913 -0.797661 -0.375546
-174.021 104.505 553.043 -0.42861 0.491447 -0.758138
-179.81 90.7243 567.761 -0.403343 -0.904907 -0.135858
-163.805 71.8396 620.211 -0.739453 0.229358 0.632933
-180.716 34.2382 616.7 -0.855956 0.503527 0.117473
-177.883 37.2688 615.139 -0.711889 0.691881 -0.120479
-179.511 34.8691 612.023 -0.73971 0.587115 -0.328825
-168.394 44.5757 611.218 -0.670289 0.697236 -0.254117
-165.511 47.0441 610.298 -0.674168 0.737571 -0.0385491
-167.656 45.8249 603.024 -0.959853 0.275397 0.053283
-167.07 44.6259 607.485 -0.764955 0.63953 -0.0764513
-165.897 49.1875 595.823 -0.521514 -0.415993 -0.744965
-164.367 50.9595 593.851 -0.547409 -0.454725 -0.702544
-181.694 24.6583 607.138 -0.588602 -0.251955 -0.768158
-154.997 69.0536 570.788 -0.0433024 -0.80323 -0.594093
-161.503 51.0519 591.362 -0.458074 -0.482077 -0.74684
-164.998 44.6551 596.429 -0.784647 0.0519399 -0.617764
-152.19 69.8324 568.088 -0.226727 -0.820111 -0.525369
-150.465 68.1951 570.591 0.0490924 -0.860656 -0.506815
-147.912 72.3806 563.466 -0.00705038 -0.809298 -0.587357
-146.606 68.2374 571.52 0.16597 -0.800445 -0.57597
-143.583 69.6584 569.496 -0.113194 -0.91678 -0.383017
-160.379 42.4562 589.619 -0.622901 0.262116 -0.737082
-142.405 67.2263 571.779 -0.16201 -0.694961 -0.700558
-140.875 63.0637 572.768 -0.515242 -0.491537 -0.702081
-135.971 68.0613 569.37 -0.417917 -0.552589 -0.721103
-138.269 65.2398 571.055 -0.458112 -0.223825 -0.860253
-134.509 63.7317 569.073 -0.569717 -0.0901558 -0.816881
-139.406 59.0497 573.777 -0.63091 -0.10746 -0.768378
-131.172 69.6549 564.175 -0.508987 -0.654598 -0.558957
-55.934 155.631 529.255 -0.509236 0.64809 -0.566267
-142.657 51.8268 575.549 -0.736621 0.0959427 -0.669466
-139.776 55.057 573.318 -0.663832 0.189024 -0.7236
-49.4794 159.165 527.171 -0.61742 0.644469 -0.451056
-50.8564 155.949 525.367 -0.623698 0.656896 -0.42366
-139.744 51.7381 572.394 -0.591894 -0.125076 -0.796252
-166.633 -5.42717 627.947 -0.726699 0.67539 0.125522
-172.627 -10.907 628.159 -0.701802 0.670112 0.241712
-50.4575 155.218 522.485 -0.639664 0.686649 -0.34546
-129.761 63.0582 564.211 -0.701854 0.0552556 -0.710175
-167.257 -5.26718 623.888 -0.719542 0.689623 0.0817265
-172.706 -10.3113 622.446 -0.702695 0.710482 0.0378759
-120.793 74.9423 554.537 -0.342189 -0.513869 -0.786668
-171.678 -8.23887 615.471 -0.668081 0.739452 0.082938
-174.623 -10.9876 616.801 -0.774053 0.632668 -0.0239398
-132.083 -21.7435 702.725 0.0432148 -0.717835 -0.694871
-126.231 -16.1356 699.83 0.314997 -0.783562 -0.535544
-129.266 -19.1602 700.957 0.383183 -0.736399 -0.557573
-174.094 -10.5626 612.083 -0.818386 0.564296 -0.108691
-122.288 -14.7779 698.21 0.0279897 -0.944327 -0.327815
-166.645 -2.56778 597.73 -0.782735 0.59454 -0.183977
-120.815 -25.2209 713.073 0.0468337 -0.621912 -0.781686
-167.78 -4.84268 598.034 -0.895275 0.406252 -0.182873
-167.402 -5.66639 595.288 -0.856336 0.341569 -0.387323
-171.082 -11.685 601.392 -0.898661 0.332281 -0.286351
-115.665 -22.1532 707.414 -0.148137 -0.979971 -0.133091
-114.888 -28.3469 715.509 -0.125718 -0.736476 -0.664679
-112.631 -27.2067 713.278 -0.0814227 -0.571357 -0.816652
-109.704 -28.724 716.223 -0.0276956 -0.742306 -0.669488
-176.301 -24.3776 606.057 -0.874545 0.205598 -0.439205
-168.281 -12.2735 594.349 -0.844275 0.224389 -0.486672
-179.149 -30.4552 608.27 -0.948402 0.136921 -0.285983
-106.241 -29.5795 715.874 -0.0265443 -0.763725 -0.644995
-180.382 -33.5827 610.214 -0.875496 -0.213814 -0.433348
-103.621 -27.3994 714.227 0.0513872 -0.720681 -0.691359
-179.319 -36.6979 611.91 -0.254156 -0.744747 -0.617055
-101.962 -29.6693 716.593 -0.0996271 -0.753816 -0.649489
-98.3171 -24.6415 710.619 -0.143062 -0.493147 -0.858102
-96.7171 -26.0987 711.904 -0.0839008 -0.471774 -0.877719
-14.4935 -63.3381 715.545 -0.700954 -0.411648 0.582417
-16.0379 -69.4331 709.3 -0.605294 -0.726053 0.326293
-13.8582 -70.4184 706.151 -0.490706 -0.854779 -0.168999
-12.3488 -71.9993 709.536 -0.697572 -0.705947 0.122608
-9.42839 -72.3204 713.838 -0.641951 -0.622289 0.447947
-7.36317 -72.0005 716.818 -0.6237 -0.523935 0.580077
-43.7146 -46.3285 626.179 -0.0427565 -0.759543 -0.649051
-41.4312 -44.4451 623.849 -0.023703 -0.742249 -0.669705
-37.9615 -42.801 622.149 -0.0441983 -0.754013 -0.65537
-35.941 -41.393 619.759 -0.0927218 -0.788257 -0.608321
-33.6639 -43.4101 622.568 -0.0862234 -0.76944 -0.632872
-32.4003 -51.3698 631.798 -0.116159 -0.827463 -0.549374
-29.4335 -51.0331 630.041 -0.160647 -0.81744 -0.553159
-27.472 -52.1906 631.994 0.0963435 -0.869309 -0.484788
-24.7805 -53.5531 635.14 0.0528619 -0.865026 -0.498935
-18.8827 -43.6838 620.662 -0.146582 -0.859852 -0.489048
-21.5406 -68.7973 658.186 0.0250026 -0.876096 -0.481488
-19.8053 -67.5078 655.671 0.0723752 -0.829174 -0.554286
-18.467 -68.9605 658.792 0.0441074 -0.856377 -0.514463
-14.7489 -64.778 652.21 -0.0357906 -0.864137 -0.501982
-13.6689 -69.8594 659.892 0.0212839 -0.849148 -0.527726
-10.9518 -67.6537 656.933 -0.0487532 -0.83445 -0.548923
-4.24177 -58.6982 641.802 0.107258 -0.833422 -0.542129
-2.6511 -59.8979 643.974 0.084095 -0.79061 -0.606518
-2.81479 -79.7262 675.574 0.0560803 -0.86991 -0.490011
0.21658 -78.3702 673.06 -0.0459597 -0.883615 -0.465953
-23.4537 -45.9312 592.915 -0.675055 0.296492 0.675569
-23.2265 -68.421 595.06 -0.523705 -0.115566 0.844024
33.8898 -64.4067 650.174 0.0261754 -0.875937 -0.481715
31.8653 -63.5294 648.63 -0.00127059 -0.892003 -0.452027
30.3119 -62.0451 645.437 -0.102464 -0.880157 -0.463493
25.8008 -63.9732 650.448 -0.0366448 -0.874795 -0.483106
22.6735 -65.363 652.68 0.0548894 -0.821519 -0.567533
19.9564 -67.5687 655.638 -0.0411582 -0.836786 -0.545981
-24.9384 -53.1036 595.106 -0.651409 0.172699 0.73881
-27.3729 -52.5907 591.417 -0.82194 0.143863 0.551107
14.796 -64.4454 651.791 -0.0132743 -0.845019 -0.534572
12.5898 -59.6123 643.582 0.100935 -0.833551 -0.543143
10.2118 -61.5006 645.466 0.0400061 -0.862114 -0.505133
-25.4796 -49.5526 592.974 -0.684614 0.305825 0.661645
8.0166 -62.9544 648.653 -0.137046 -0.833678 -0.534976
-74.8819 -34.6985 611.633 -0.0511317 -0.734586 -0.676586
-13.8618 -57.1744 722.918 -0.518709 -0.837942 -0.16969
-75.9423 -31.926 609.092 0.0112033 -0.785156 -0.619197
-78.9916 -30.2341 606.116 0.0127166 -0.832851 -0.553352
-24.2128 -53.3308 713.572 -0.467362 -0.844099 0.26281
-82.8722 -33.8335 610.385 0.107218 -0.763849 -0.636426
-80.7268 -31.5236 608.631 0.118769 -0.786282 -0.606345
-86.5144 -35.5436 612.318 -0.0649109 -0.822967 -0.564369
-27.7958 -50.8571 713.005 -0.466116 -0.870713 0.156828
-30.4243 -50.7175 709.275 -0.534471 -0.768346 0.352116
-32.5439 -50.4803 706.424 -0.560641 -0.7059 0.432882
-35.4258 -50.5477 702.757 -0.5857 -0.601429 0.543359
-93.2658 -48.5655 631.684 -0.136228 -0.864593 -0.483654
-96.0814 -46.9719 628.982 -0.0471458 -0.860115 -0.507917
-31.7099 -49.5631 713.778 -0.276854 -0.906213 -0.319578
-97.7852 -48.1212 631.293 0.0184347 -0.840518 -0.541471
-98.7192 -43.0808 623.849 0.12972 -0.785285 -0.605392
-36.4344 -48.4509 713.507 -0.137978 -0.90652 -0.398979
-102.312 -45.0406 625.375 0.099814 -0.832229 -0.545374
-22.8055 -52.7569 741.794 -0.729292 -0.538052 0.422649
-104.09 -46.517 628.163 -0.0682379 -0.855204 -0.51378
-101.654 -24.085 596.019 0.0484346 -0.859765 -0.508388
-40.6269 -47.6904 713.688 -0.164019 -0.888706 -0.428135
-16.9366 -55.2157 757.385 0.163783 -0.978448 -0.125752
-20.4273 -54.6333 752.359 -0.0256627 -0.95527 -0.294619
-22.6647 -53.3631 748.975 -0.303468 -0.876484 -0.373743
-24.1033 -51.7609 745.942 -0.306599 -0.892484 -0.330862
-29.8249 -50.407 734.26 -0.6182 -0.620479 0.482529
-33.0645 -49.6385 730.928 -0.686007 -0.525127 0.503623
-35.6174 -49.1255 728.137 -0.710971 -0.513795 0.48014
-104.722 -23.9848 595.594 0.0773502 -0.859626 -0.505034
-38.2056 -49.037 724.541 -0.688836 -0.552139 0.469731
-40.7162 -48.5284 721.347 -0.687645 -0.638223 0.346144
-42.6696 -48.1816 717.924 -0.651969 -0.699597 0.292406
-44.8153 -47.0403 713.489 -0.374467 -0.892001 -0.253198
-46.4006 -45.4991 710.391 -0.274331 -0.899867 -0.339091
-108.924 -25.8425 597.391 -0.00460887 -0.823749 -0.566936
-26.119 -52.6051 749.207 -0.111542 -0.879945 -0.461796
-28.2927 -48.6536 740.828 -0.416931 -0.907154 -0.0569243
-32.9574 -47.2485 734.414 -0.582509 -0.756498 0.297312
-37.7969 -46.3373 727.268 -0.678725 -0.587266 0.440967
-48.2123 -45.2021 713.309 -0.586664 -0.760806 0.277488
-49.6795 -42.2943 705.239 -0.196854 -0.923974 -0.327904
-112.909 -28.6186 602.004 0.0911109 -0.853047 -0.513819
-30.5201 -48.964 742.471 -0.170723 -0.885459 -0.432223
-115.903 -27.3077 598.531 0.123942 -0.796394 -0.591941
-35.5743 -48.7038 743.094 -0.103811 -0.869515 -0.482873
-119.512 -26.8375 598.39 -0.0507594 -0.803299 -0.593408
-36.6799 -47.1905 741.516 -0.196003 -0.869217 -0.453923
-42.4944 -41.9835 725.862 -0.583995 -0.747429 0.316701
-39.5921 -47.7855 742.86 -0.0527101 -0.853488 -0.518439
-53.5938 -40.0492 712.039 -0.659867 -0.643977 0.387129
-121.251 -21.6152 590.856 -0.00205351 -0.847666 -0.530527
-123.759 -25.7667 597.401 -0.00635559 -0.821952 -0.569521
-125.423 -24.5755 595.273 0.0331114 -0.801779 -0.596703
-41.6827 -61.2292 770.229 0.179385 -0.971584 -0.154423
-44.6657 -60.6901 765.863 0.106792 -0.958873 -0.26298
-45.5566 -61.9129 770.386 0.121805 -0.983896 -0.130817
-136.006 -22.2587 591.81 -0.00626115 -0.854098 -0.520075
-138.511 -20.7232 588.964 -0.032815 -0.848072 -0.528864
-64.1211 -30.489 711.381 -0.483813 -0.867529 0.115405
-142.977 -32.2015 604.698 0.0323508 -0.871069 -0.490093
-144.646 -30.4401 603.029 -0.148127 -0.819554 -0.553524
-147.572 -31.6233 605.303 -0.0595502 -0.840167 -0.539048
-69.4514 -66.4058 775.85 0.148555 -0.979288 -0.137576
-68.3404 -39.0087 730.031 0.0666762 -0.818425 -0.570732
-72.9883 -66.605 772.115 0.103699 -0.916195 -0.387082
-151.49 -31.5992 605.133 0.000342722 -0.846372 -0.532593
-148.255 -26.5042 598.014 0.0291098 -0.785905 -0.617662
-73.6697 -67.392 775.747 0.227529 -0.963973 -0.137794
-71.8419 -39.0233 729.238 0.0914835 -0.780368 -0.618592
-73.7391 -34.2875 721.438 -0.12351 -0.828239 -0.546594
-153.145 -29.9816 601.803 -0.0731829 -0.859462 -0.505935
-76.766 -38.6849 728.956 -0.0792247 -0.784839 -0.614615
-155.141 -30.9438 604.604 -0.0167483 -0.831809 -0.554809
-78.8523 -36.5929 726.403 0.0296426 -0.840912 -0.54036
-158.113 -32.8015 606.671 0.101246 -0.794266 -0.599074
-79.2431 -28.5523 713.278 0.0712556 -0.845121 -0.529805
-161.211 -34.73 608.713 0.0402989 -0.841654 -0.538511
-80.7615 -26.804 710.821 -0.0501705 -0.769403 -0.636791
-164.231 -42.7245 621.274 0.00875672 -0.840376 -0.541932
-83.8887 -28.1938 713.053 -0.112587 -0.830459 -0.545584
-167.585 -41.0308 618.231 0.0639559 -0.872472 -0.48446
-91.6202 -48.032 742.383 0.0611861 -0.842002 -0.535993
-168.985 -39.6655 615.133 -0.0344604 -0.84978 -0.52601
-94.2568 -46.4046 739.305 0.0213031 -0.829092 -0.558706
-171.276 -40.6444 617.622 -0.0328447 -0.847996 -0.528984
-96.7563 -47.4216 742.194 -0.0971714 -0.877017 -0.47053
-172.479 -35.6775 609.996 -0.086215 -0.850245 -0.51928
-95.2644 -28.7081 714.616 -0.0465019 -0.895694 -0.442234
-176.101 -31.8292 604.815 -0.327755 -0.491543 -0.806822
-187.236 91.693 593.549 -0.699291 0.147567 0.69944
-187.341 88.7205 593.941 -0.721747 0.0317249 0.69143
-192.975 87.1283 580.988 -0.441511 -0.713578 -0.543943
-191.647 85.5363 583.942 -0.437077 -0.80557 -0.400026
-188.53 84.8493 592.329 -0.805709 -0.00770643 0.592261
-182.753 97.2203 575.422 -0.803218 0.578802 0.140816
-189.355 86.1933 580.446 -0.265187 -0.885686 -0.381098
-188.211 81.3662 588.959 -0.597022 -0.750674 -0.282936
-186.131 83.9955 579.895 -0.605741 -0.715676 -0.347686
-184.106 81.3891 581.643 -0.35505 -0.825971 -0.437848
-181.441 82.5679 579.465 -0.112741 -0.774012 -0.623053
-171.128 73.3101 611.539 -0.72762 0.149661 0.669455
-172.089 69.9819 611.555 -0.805501 -0.00884862 0.592528
-172.748 67.4011 610.175 -0.777446 -0.618604 -0.11361
-172.939 66.087 584.322 -0.840404 0.182197 0.510416
-170.702 65.6195 588.011 -0.80662 0.251749 0.534778
-168.378 65.5059 591.345 -0.816439 0.243638 0.523514
-172.599 62.7911 585.782 -0.94948 -0.299642 0.0932816
-165.798 64.4804 595.316 -0.805924 0.330289 0.49132
-168.798 61.1321 593.783 -0.851426 0.26959 0.449883
-171.14 58.3192 586.915 -0.281863 -0.840824 -0.462135
-168.272 57.2043 589.647 -0.0802467 -0.846616 -0.52612
-166.569 58.3537 587.336 -0.100608 -0.794797 -0.598478
-164.16 60.0501 584.898 -0.456195 -0.665186 -0.591112
-173.137 37.5046 605.645 -0.660468 0.564081 -0.495575
-173.703 34.3533 603.706 -0.746279 0.380194 -0.54637
-170.921 37.2955 601.567 -0.817358 0.407485 -0.407286
-149.249 84.4388 545.381 -0.0573596 -0.815994 -0.575208
-147.879 81.9084 547.699 -0.0348658 -0.879755 -0.474147
-169.022 36.4075 597.935 -0.813927 0.225049 -0.535608
-145.898 80.6019 551.08 -0.0594962 -0.867016 -0.494716
-142.519 85.7505 543.824 0.0190749 -0.854826 -0.518564
-166.949 35.7259 594.994 -0.628134 -0.0446889 -0.776821
-169.236 23.0812 610.418 0.0697218 -0.809797 -0.582552
-140.38 85.1447 546.182 -0.0578715 -0.797733 -0.600227
-140.861 83.4806 546.19 -0.0557227 -0.801471 -0.595431
-138.198 85.1554 544.081 -0.0653311 -0.846431 -0.528475
-163.794 34.5766 593.645 -0.322235 -0.577068 -0.750438
-138.09 73.4444 562.04 -0.0171947 -0.760673 -0.648907
-134.128 84.9343 544.556 0.0546841 -0.81183 -0.581328
-160.377 34.4938 594.115 0.0796658 -0.808288 -0.583372
-158.074 29.8337 602.099 0.0989762 -0.866614 -0.489064
-132.007 83.3347 547.452 -0.00188707 -0.839861 -0.542799
-155.741 31.404 600.173 0.110134 -0.837662 -0.53497
-129.771 83.8763 544.502 -0.142962 -0.877843 -0.457114
-153.515 33.1516 597.436 0.0387276 -0.830362 -0.555877
-129.025 79.2935 552.474 -0.0489974 -0.770377 -0.635704
-125.529 80.6772 550.295 -0.0213972 -0.789951 -0.612796
-42.2728 169.095 525.306 -0.850029 -0.274283 0.449688
-42.5428 166.358 523.186 -0.986237 0.147004 0.0756677
-155.686 4.75882 629.032 -0.928024 0.362263 0.086813
-156.768 4.32936 624.845 -0.781759 0.577646 0.234902
-43.669 163.016 520.928 -0.919865 0.376826 0.108862
-159.323 5.23372 618.047 -0.939611 0.262724 0.219334
-161.807 1.84768 618.705 -0.790259 0.581605 0.192941
-183.008 -24.1278 629.725 -0.803781 0.0632344 0.591555
-165.408 -1.05982 610.357 -0.684032 0.728942 0.0272714
-180.545 -26.0332 631.243 -0.537874 -0.325513 0.777646
-126.802 -2.26986 675.334 -0.152331 -0.948282 -0.278491
-159.76 4.50587 607.299 -0.67465 0.736831 -0.0438956
-125.209 -3.56816 679.403 -0.0479632 -0.887167 -0.45895
-167.703 -3.4177 607.167 -0.726894 0.683772 -0.0638775
-162.031 2.59376 604.521 -0.642965 0.765849 0.00842349
-164.689 -0.991712 605.321 -0.74888 0.6626 0.0118581
-123.115 -5.21076 682.551 -0.0680921 -0.829062 -0.554995
-159.049 4.87961 602.88 -0.716354 0.697398 -0.0217256
-185.02 -30.4775 625.678 -0.888131 -0.175266 0.424859
-121.422 -7.98477 684.466 -0.104374 -0.799105 -0.592062
-177.869 -18.4776 613.982 -0.917511 0.304386 -0.255974
-178.464 -21.3102 614.027 -0.862259 0.323877 -0.389375
-182.545 -32.0938 625.562 -0.653023 -0.396933 0.644985
-119.329 -5.89325 682.708 -0.0682599 -0.801509 -0.594074
-184.838 -31.4617 619.534 -0.955684 0.193734 -0.221666
-123.837 -38.5142 729.568 -0.046383 -0.835287 -0.547853
-122.234 -40.5692 731.666 -0.0356672 -0.82182 -0.56863
-118.496 -5.27263 674.556 -0.462605 -0.76028 0.456039
-119.134 -42.3082 734.617 -0.00782164 -0.79361 -0.608377
-114.78 -7.34484 674.93 -0.431386 -0.646454 0.629288
-115.419 -39.4815 729.672 0.0155068 -0.849189 -0.527862
-184.187 -38.4014 621.295 -0.69886 -0.566198 0.437052
-111.849 -37.5759 727.983 0.07138 -0.824319 -0.561607
-113.791 -50.3504 745.407 0.0743449 -0.762168 -0.643096
-107.6 -38.2006 728.209 0.041877 -0.840379 -0.540379
-171.88 -20.4313 598.843 -0.89677 0.175144 -0.40636
-106.199 -39.7909 731.408 -0.0272919 -0.815759 -0.577747
-104.707 -38.4332 728.495 -0.0527307 -0.833009 -0.550741
-102.27 -43.9068 736.117 -0.0653169 -0.825584 -0.560485
-99.7791 -39.254 728.691 0.0773968 -0.835922 -0.543364
-36.0481 -59.4124 696.591 -0.721715 -0.45076 0.525303
-32.8762 -59.1108 699.729 -0.625433 -0.458186 0.631585
-7.1174 -67.3401 742.04 -0.143319 -0.879983 -0.452868
-4.64434 -66.0628 739.63 -0.0698948 -0.834913 -0.545926
-33.2429 -61.6237 696.73 -0.519258 -0.724344 0.453539
-21.0357 -62.0812 709.29 -0.689643 -0.327709 0.645755
-5.98983 -65.7525 723.752 -0.643242 -0.436037 0.629373
-26.4284 -65.2917 697.099 -0.461031 -0.884652 0.0695797
-21.7001 -66.1221 703.977 -0.547512 -0.817939 0.176654
-1.84511 -69.3497 724.37 -0.673638 -0.417943 0.609537
0.74197 -69.1791 727.634 -0.672531 -0.501969 0.54381
-0.175081 -71.3306 725.103 -0.652456 -0.43702 0.619124
-35.6411 -29.7299 605.801 -0.0297238 -0.782703 -0.621685
-33.6975 -31.8812 608.292 -0.222575 -0.763641 -0.606063
-31.1267 -30.8346 605.434 -0.217581 -0.7346 -0.642667
-29.2931 -38.928 615.14 -0.11468 -0.75695 -0.643332
-27.19 -41.5213 618.574 -0.0734761 -0.816599 -0.57251
-25.3288 -39.6713 615.241 -0.0583403 -0.761033 -0.646085
-21.203 -37.8665 613.446 -0.100931 -0.781659 -0.615486
-16.9846 -34.4986 609.071 -0.0684083 -0.782852 -0.618436
-24.1392 -76.4021 669.988 0.0516221 -0.876168 -0.479234
-22.0955 -78.1758 673.669 0.00689154 -0.853609 -0.520869
-19.7896 -76.6492 671.405 -0.00434918 -0.850294 -0.52629
-18.9925 -81.5673 679.399 -0.107891 -0.887588 -0.447826
-15.8332 -79.9669 677.072 0.0601753 -0.842858 -0.534761
-13.67 -78.4995 674.744 -0.0871035 -0.874983 -0.476253
-10.2496 -74.4168 667.071 -0.142587 -0.823921 -0.548474
-15.4201 -35.8089 597.419 -0.828626 -0.0399151 0.558377
-12.5475 -36.5232 600.426 -0.767442 -0.124948 0.628825
-8.69934 -76.2535 669.717 -0.0156747 -0.824508 -0.565633
-14.6662 -39.8243 599.061 -0.601205 0.23124 0.764906
-5.64744 -74.901 667.692 -0.0206195 -0.864539 -0.502143
-16.5565 -42.5825 599.324 -0.620028 0.227994 0.750722
-0.490043 -68.5657 657.918 0.0328633 -0.808869 -0.58707
1.59628 -70.6578 660.472 -0.0187089 -0.815268 -0.578781
4.18748 -69.0126 658.332 -0.187025 -0.771202 -0.608497
-32.9512 -74.2743 585.483 -0.757898 -0.193286 0.623082
-35.4685 -73.9651 582.049 -0.846053 -0.262505 0.463988
-34.0356 -75.1729 583.479 -0.853615 -0.197586 0.481976
-36.7967 -59.5136 577.895 -0.93785 0.229063 0.260704
-28.2988 -61.7622 592.324 -0.655737 0.045166 0.753637
29.4189 -77.0374 670.565 -0.0721023 -0.869251 -0.489084
26.1676 -76.4961 671.25 -0.030453 -0.826976 -0.561412
22.3693 -75.1154 667.946 0.117394 -0.844864 -0.521942
16.5391 -85.0823 681.807 -0.103404 -0.803907 -0.585697
15.8562 -72.9504 664.761 -0.028711 -0.836816 -0.546731
12.5362 -72.8957 664.288 0.0516177 -0.837584 -0.543864
8.6533 -77.6488 671.431 0.0586733 -0.82295 -0.565075
5.26744 -74.094 666.014 -0.0566938 -0.861045 -0.505359
-9.22797 -65.943 739.312 -0.0618934 -0.90116 -0.429045
-77.8017 -46.8144 628.176 -0.180426 -0.725432 -0.664225
-8.88931 -66.6031 747.159 -0.574711 -0.685711 0.446662
-12.822 -65.2656 739.406 -0.277052 -0.960832 0.00668098
-80.0548 -47.8349 630.552 -0.113242 -0.823889 -0.555322
-83.0168 -49.5222 632.911 0.0311741 -0.85359 -0.520012
-11.3523 -64.6977 745.641 -0.720645 -0.57733 0.383878
-13.7931 -63.7092 742.277 -0.633876 -0.678952 0.370439
-17.2782 -63.1696 739.056 -0.663636 -0.691243 0.285956
-85.5835 -45.739 627.471 0.0923183 -0.733536 -0.673351
-18.9216 -62.4386 736.25 -0.589506 -0.806081 -0.052116
-88.2273 -43.8743 624.501 0.0417315 -0.850324 -0.524603
-23.9062 -54.8786 722.334 -0.049328 -0.887551 -0.45806
-89.8623 -42.047 620.789 -0.0727809 -0.861484 -0.502541
-85.4632 -27.0914 603.433 -0.149882 -0.835044 -0.529374
-26.6222 -55.5893 723.873 -0.0921941 -0.923277 -0.372907
-89.6379 -29.5683 605.341 0.0660761 -0.65378 -0.753794
-28.5837 -54.4317 721.92 -0.069959 -0.877271 -0.47487
-91.7937 -31.3412 607.054 -0.00414084 -0.771195 -0.636586
-92.8485 -29.0057 604.581 0.108232 -0.700321 -0.705575
-96.9788 -34.3301 611.387 0.0752635 -0.868265 -0.490357
-98.7487 -32.6332 608.153 0.0144371 -0.83331 -0.552618
-99.7599 -30.6995 605.962 -0.0459775 -0.802626 -0.594708
-104.858 -39.1339 618.033 0.0494964 -0.801288 -0.596228
-108.535 -39.2274 617.403 0.108193 -0.827619 -0.550765
-111.318 -37.988 614.362 0.00469435 -0.876447 -0.481476
-112.879 -36.198 611.784 -0.14606 -0.813091 -0.563515
-117.386 -47.1819 628.92 0.0596888 -0.83268 -0.550528
-117.104 -35.4319 611.179 -0.0299297 -0.836284 -0.547479
-120.668 -35.0045 611.098 -0.0245479 -0.83822 -0.544779
-125.378 -40.1014 617.878 0.0624617 -0.82546 -0.560994
-127.686 -36.5767 612.607 0.0718034 -0.828179 -0.555844
-45.8791 -54.9837 755.228 0.0168728 -0.84958 -0.527189
-49.3561 -54.8822 755.068 -0.00640084 -0.823824 -0.566809
-53.6271 -59.9236 762.26 0.097401 -0.819866 -0.564209
-54.5897 -58.1637 758.125 0.191818 -0.844095 -0.500708
-56.2801 -56.7815 756.673 0.0447045 -0.865496 -0.498917
-136.864 -35.1312 612.185 -0.00494889 -0.829342 -0.558719
-139.381 -37.7021 613.702 0.0810625 -0.730724 -0.677843
-142.208 -38.9033 615.957 0.0681183 -0.827549 -0.557245
-62.3688 -65.0653 771.749 0.052364 -0.960216 -0.274304
-64.9767 -63.8275 768.53 0.0457639 -0.880001 -0.472763
-144.992 -41.1703 617.794 0.0434436 -0.84324 -0.535778
-147.39 -42.1936 620.237 -0.0997145 -0.816856 -0.568158
-67.3704 -57.1772 758.361 -0.0478387 -0.908102 -0.416007
-149.98 -40.5575 617.599 0.0148981 -0.830812 -0.556354
-70.7342 -58.2992 760.435 0.223049 -0.779252 -0.585675
