ply
format ascii 1.0
element vertex 877
property float x
property float y
property float z
property float nx
property float ny
property float nz
end_header
108.266 -26.8052 733.909 0.263539 -0.0033999 0.964643
107.411 -33.9005 730.081 0.390225 -0.918882 0.0581441
107.897 -32.0011 726.401 0.317399 -0.849075 -0.422291
100.834 -30.5616 723.155 0.120724 -0.855825 -0.50298
-89.8277 -36.3181 613.77 -0.0694649 -0.838355 -0.540681
-174.257 -37.0252 610.251 -0.0484471 -0.954647 -0.293773
-171.547 -36.6738 609.092 0.161532 -0.900954 -0.402728
-86.1729 -36.3194 612.825 -0.0794337 -0.853292 -0.515348
-95.4455 -33.894 610.557 -0.0240393 -0.872162 -0.488626
-168.755 -32.9382 597.395 0.550041 -0.818674 0.165008
-155.726 -24.1372 592.291 0.202605 -0.855812 -0.475959
-159.096 -24.282 590.078 0.715356 -0.671913 -0.19183
-155.08 -21.2501 588.568 0.176213 -0.81822 -0.547234
-135.4 -15.5606 580.2 0.0916066 -0.815696 -0.571182
-131.83 -13.6543 578.159 0.0812776 -0.852333 -0.516646
-128.279 -12.3143 577.004 -0.0253488 -0.922916 -0.384167
-137.012 -11.7184 574.09 0.149102 -0.889139 -0.432667
-142.386 -9.48856 568.948 0.181983 -0.829031 -0.528763
-138.928 -8.32366 567.906 0.150012 -0.826434 -0.542682
-37.865 -72.3139 571.157 -0.792258 -0.274391 0.54501
-117.72 16.4762 521.023 0.628103 -0.775872 0.0592307
-87.5417 -38.3344 616.707 -0.0207568 -0.786657 -0.617041
-171.999 -37.8049 611.845 0.0192128 -0.92572 -0.377721
-160.884 -40.5902 618.155 -0.0701211 -0.8593 -0.506643
-164.648 -41.1825 619.382 -0.0516392 -0.866362 -0.49674
-181.69 -38.5721 621.563 -0.639726 -0.546176 0.540779
-178.857 -37.6338 623.685 -0.350034 -0.479389 0.804775
-181.609 -35.4716 623.622 -0.485849 -0.671556 0.559431
-148.386 -49.0053 632.821 -0.271123 -0.959976 0.0702753
-140.242 -51.1873 636.106 -0.448988 -0.848946 0.278749
-173.442 -34.9761 627.232 -0.373438 -0.590847 0.715153
-142.788 -48.1992 638.248 -0.295993 -0.652187 0.697882
-176.445 -32.7521 628.379 -0.256219 -0.467098 0.846269
-142.631 -45.0402 640.616 -0.300569 -0.416145 0.858185
-139.599 -43.8317 642.95 -0.438794 -0.518583 0.733847
-142.802 -40.9258 642.505 -0.474428 -0.325461 0.81792
-145.088 -38.977 642.568 -0.37137 -0.344608 0.862166
-158.767 -29.1707 638.019 -0.359018 0.0179968 0.933157
-142.926 -36.881 643.875 -0.435116 -0.252278 0.864309
-156.231 -26.9149 638.431 -0.30588 0.172478 0.936316
-138.956 -35.9357 645.823 -0.3578 0.00477249 0.933786
-141.386 -32.3591 644.532 -0.293889 0.145468 0.944705
-148.717 -22.5107 639.975 -0.305227 0.246376 0.919856
-145.308 -22.5301 641.253 -0.303106 0.254 0.918483
-136.972 -25.9366 644.399 -0.268984 0.242292 0.932171
-125.556 -18.8806 645.948 -0.316419 0.259672 0.912387
-130.485 -12.7572 642.751 -0.295215 0.235289 0.926006
-126.994 -12.3314 643.817 -0.303052 0.240524 0.922121
-122.641 -9.3085 644.774 -0.444649 0.0889434 0.891278
-54.5292 -48.9087 776.121 -0.0165595 -0.996406 0.0830742
-51.3124 -48.5481 774.981 -0.0555171 -0.975212 -0.214195
-53.7762 -48.7295 773.176 0.0204061 -0.959117 0.282272
-49.2587 -52.3158 770.228 0.22891 -0.183246 0.956045
-45.1798 -50.0675 770.437 -0.177045 -0.81524 0.551397
-45.6089 -54.2895 769.267 0.17012 -0.262115 0.949924
-38.5816 -54.5366 767.345 0.264877 -0.29537 0.91793
33.8964 -26.4337 764.812 0.472183 -0.554221 0.68548
-41.7229 -56.8454 767.765 0.311388 -0.47262 0.82442
24.8542 -31.4976 765.298 0.391519 -0.893544 0.219755
41.2673 -21.7192 763.418 0.402359 -0.50089 0.766301
35.9662 -26.6462 762.34 0.385032 -0.860055 0.334747
39.5633 -24.3951 761.857 0.384805 -0.740317 0.551231
22.166 -33.1188 761.957 0.439571 -0.621601 0.648374
-39.1274 -58.6881 764.55 0.224356 -0.936041 0.271094
37.9373 -26.2985 759.591 0.432709 -0.833326 0.343993
-36.0146 -58.5874 762.197 0.0543296 -0.995534 -0.0771976
77.6291 2.01973 751.895 0.324709 -0.00534682 0.945799
79.9492 3.32215 750.813 0.381027 0.00801096 0.924529
-32.9641 -58.0637 761.446 0.0510672 -0.989365 0.136198
90.6051 12.1633 747.567 0.442214 -0.0489501 0.895573
95.0811 13.8778 745.827 0.293446 -0.100377 0.950691
82.3109 -2.6017 749.901 0.305696 -0.0949324 0.947385
-35.4875 -58.0364 758.06 -0.0693263 -0.911466 -0.405491
-38.3143 -55.9022 756.339 -0.102246 -0.742593 -0.661893
29.7088 -36.4712 753.916 0.354458 -0.678225 0.643716
-22.8428 -58.0151 756.125 -0.0506523 -0.904321 -0.423836
88.1836 -6.89903 746.693 0.339645 -0.301239 0.891009
90.442 -4.94237 746.959 0.303166 -0.242431 0.921584
32.2549 -37.6689 752.389 0.15492 -0.455408 0.8767
96.0678 -2.46767 744.904 0.33579 -0.164267 0.927503
-19.5748 -56.1728 753.99 -0.12247 -0.815535 -0.5656
97.3821 -4.87083 743.905 0.464651 -0.324876 0.823745
-13.4594 -56.6321 750.877 -0.448071 -0.889289 -0.0916353
94.3437 -10.2969 741.949 0.316926 -0.30966 0.896476
97.0744 -8.18724 742.719 0.37804 -0.395759 0.836935
96.0687 -13.2103 741.216 0.44694 -0.14745 0.882328
-10.6098 -65.1762 745.837 -0.772245 -0.461519 0.436622
-22.935 -54.6017 740.281 -0.708106 -0.535533 0.460207
-7.69891 -69.7126 742.748 -0.334288 -0.848079 -0.411113
-20.4603 -60.3568 736.234 -0.715882 -0.627787 0.305609
-13.3404 -65.7911 738.779 -0.305232 -0.936322 -0.173591
-26.0147 -55.1831 733.748 -0.772239 -0.460168 0.438056
-15.214 -64.5397 736.557 -0.377296 -0.893537 -0.243391
-21.0089 -60.5033 733.097 -0.660066 -0.741696 0.119159
-18.2597 -62.6637 734.209 -0.41222 -0.906553 -0.0907538
-95.3833 -23.321 709.553 -0.169063 -0.676507 -0.716768
-140.167 -15.4367 702.289 -0.589811 -0.760436 -0.271771
-117.972 -1.50677 697.102 -0.813432 -0.527559 -0.24497
-139.89 -15.0364 697.936 -0.50939 -0.685126 -0.520696
-136.317 -16.9017 700.117 0.044208 -0.884177 -0.465056
-129.418 -12.9989 697.426 0.311097 -0.737112 -0.599904
-117.592 -0.220497 692.88 -0.868706 -0.455512 -0.194571
-116.432 -3.67375 694.33 -0.764772 -0.552832 -0.330909
-138.009 -13.1211 694.2 0.0429141 -0.794135 -0.606225
-133.853 -11.6531 693.233 0.167933 -0.877431 -0.449348
-124.737 -3.28002 689.588 0.364157 -0.404433 0.838942
-121.091 -1.30906 689.243 0.0107813 -0.214916 0.976573
-137.32 -10.9383 690.026 0.0389794 -0.806973 -0.5893
-121.283 -4.42353 687.936 0.101898 -0.579175 0.808809
-136.865 -8.72185 687.223 -0.0253839 -0.819351 -0.57273
-133.34 -7.27449 686.126 0.194472 -0.793415 -0.576778
-129.911 -6.01206 684.447 -0.0291026 -0.927863 -0.371785
-127.068 -5.63898 682.56 0.0672634 -0.913199 -0.401923
-129.706 -4.0174 680.819 -0.0401972 -0.758915 -0.649948
-144.028 0.274564 677.803 -0.354585 -0.847571 -0.394833
-140.705 -0.981373 676.061 -0.30643 -0.839081 -0.449494
-146.091 4.40447 671.533 -0.473492 -0.767258 -0.432574
-137.221 0.496734 673.835 0.0298288 -0.853371 -0.520449
-139.808 0.863723 672.426 -0.118922 -0.857256 -0.500968
-46.5725 -34.3285 610.334 0.095567 -0.786342 -0.610355
-43.0821 -32.4839 608.486 0.0548521 -0.764546 -0.642231
-39.6464 -30.9361 606.78 0.0698417 -0.842603 -0.533987
-38.8333 -29.0723 603.465 0.00809617 -0.863475 -0.504327
-70.6814 -24.7156 594.277 0.0388759 -0.829989 -0.556423
-73.0838 -22.3082 591.33 -0.020323 -0.811027 -0.584656
-60.754 -20.5985 589.674 -0.0418153 -0.868499 -0.493925
-57.3867 -20.0804 587.352 0.0266759 -0.893239 -0.448791
-61.1236 -19.1055 585.596 -0.0528842 -0.893962 -0.445011
-74.2371 -16.715 581.611 -0.0295039 -0.805989 -0.591195
-71.8417 -16.2459 580.381 -0.060637 -0.810437 -0.58268
-67.9679 -15.0601 578.87 0.0370668 -0.800266 -0.598499
-76.359 -11.9503 575.865 -0.078153 -0.913924 -0.398291
-73.1558 -12.3227 573.967 -0.156492 -0.897736 -0.411801
-75.7122 -10.2559 572.013 -0.0344804 -0.76614 -0.641748
-119.416 -4.02188 561.705 0.0866031 -0.736815 -0.670525
-121.982 -2.50481 559.183 -0.00681549 -0.925904 -0.377697
-112.798 -2.62835 558.551 -0.0747442 -0.882057 -0.465177
-30.4886 -20.9726 572.329 -0.778224 0.192282 0.597825
-121.202 -0.251625 554.788 0.031248 -0.762311 -0.646456
-116.932 1.00856 554.372 0.0387302 -0.809918 -0.585263
-120.669 1.98345 552.616 0.0534958 -0.836363 -0.545559
-99.5774 1.42764 552.07 0.0177865 -0.768507 -0.639594
-51.7615 16.2429 524.376 -0.139892 -0.881711 -0.450573
-40.9598 -14.9534 545.568 -0.952212 0.194897 0.235174
-55.0877 15.2887 525.799 -0.0352072 -0.798518 -0.60094
-40.1375 -35.2294 559.893 -0.938722 0.205241 0.276908
-47.08 12.8377 528.467 -0.321056 -0.88215 -0.344577
-55.8132 13.3323 530.053 0.0923033 -0.901106 -0.423661
-39.6037 -35.832 563.547 -0.939857 0.179584 0.290547
-52.9524 13.0812 531.418 -0.011244 -0.892799 -0.450316
-56.5968 11.6053 532.801 0.0484613 -0.925536 -0.375546
-38.8643 -41.4528 568.533 -0.903662 0.180185 0.388496
-80.7261 12.2647 533.881 -0.0634243 -0.805279 -0.589494
-78.7411 10.001 536.182 -0.112141 -0.840583 -0.529948
-72.8483 8.01931 540.194 -0.00295967 -0.8799 -0.47515
-36.7909 -36.1147 569.932 -0.872427 0.209867 0.441392
-76.2772 6.83799 542.279 -0.020591 -0.911727 -0.410281
-79.6309 6.17456 544.302 0.0235388 -0.917295 -0.397513
-110.019 6.50559 544.234 -0.0663146 -0.911608 -0.405676
-34.4508 -26.9227 568.916 -0.823627 0.313748 0.472441
-112.784 6.5161 546.328 -0.0105124 -0.92606 -0.377229
-116.555 5.55733 547.177 0.0574353 -0.821256 -0.567662
-119.888 4.23664 548.221 0.0780738 -0.806962 -0.585421
-56.0925 -46.1825 627.33 0.00641914 -0.820219 -0.572014
-59.6035 -47.8091 629.627 0.0592623 -0.807035 -0.587523
-44.7447 -49.2773 632.688 0.121161 -0.76786 -0.629055
-42.6025 -50.8144 635.2 0.109398 -0.795016 -0.596642
-64.2231 -53.4696 637.168 0.0254612 -0.819057 -0.573147
-64.49 -56.0059 641.168 -0.00330362 -0.846253 -0.532771
-62.3956 -57.676 643.186 -0.000494875 -0.816542 -0.577285
-71.6353 -57.8493 643.96 -0.0342641 -0.820077 -0.571227
-69.2945 -59.5519 646.006 -0.0434305 -0.810828 -0.583671
-72.2594 -60.7463 648.007 0.00785976 -0.84531 -0.534218
-75.7553 -61.7896 649.021 0.0562409 -0.834122 -0.548706
-61.143 -63.6813 652.276 0.00296436 -0.824323 -0.566112
-58.5764 -65.1984 654.798 -0.0312053 -0.852059 -0.522515
-61.9026 -66.1526 656.221 0.0408166 -0.792959 -0.607907
-53.537 -68.336 659.252 0.16584 -0.792523 -0.58686
-56.7283 -69.6229 660.366 -0.0181983 -0.824238 -0.56595
-50.6918 -69.0773 661.49 0.0744986 -0.679065 -0.730288
-48.1182 -71.5454 662.805 0.020063 -0.691427 -0.722168
-57.4331 -72.2365 663.642 0.0190589 -0.754109 -0.656473
-58.1928 -74.2686 668.116 -0.20258 -0.969846 0.1355
-61.2182 -72.2729 670.346 -0.312229 -0.715529 0.624925
-64.8184 -69.2385 669.822 -0.500677 -0.422399 0.75558
-69.1716 -64.1537 669.38 -0.437208 -0.424064 0.793107
-61.0405 -68.362 672.112 -0.306653 -0.397818 0.864699
-60.778 -64.4413 673.909 -0.365763 -0.352015 0.86157
-90.0888 -42.6764 663.936 -0.392545 0.0978379 0.914514
-60.6921 -60.4217 675.188 -0.469552 -0.431482 0.770288
-87.365 -40.494 664.856 -0.365916 0.14257 0.919662
-150.958 28.1155 638.114 -0.583926 0.140724 0.799517
-149.5 25.402 640.053 -0.618955 0.113497 0.777183
-148.104 28.8154 640.686 -0.815195 0.0309655 0.578358
-142.786 14.1908 648.581 -0.930682 -0.238895 0.277056
-99.132 -15.3648 668.255 -0.029987 -0.901061 -0.432655
-144.654 17.3133 650.874 -0.869679 -0.352988 -0.345048
-145.271 20.1056 650.604 -0.894435 -0.343323 -0.286558
-99.5996 -16.8612 671.741 -0.320217 -0.941826 -0.1021
-146.749 18.8821 653.354 -0.813449 -0.354109 -0.461419
-91.2268 -19.4617 674.498 -0.154474 -0.87063 -0.467056
-97.0173 -16.5434 678.379 -0.654407 -0.673888 0.342967
-142.539 2.85854 669.665 -0.335967 -0.820994 -0.461622
-145.681 6.68114 668.222 -0.483294 -0.698669 -0.527531
-38.0509 -29.0929 816.208 -0.187053 -0.582232 0.791213
-41.1856 -27.2718 816.145 -0.188581 -0.573976 0.796862
-40.9767 -30.0176 814.019 -0.167277 -0.557874 0.812893
-43.8818 -31.8699 812.839 -0.109143 -0.429553 0.896422
-41.4999 -33.9681 812.186 -0.105717 -0.513098 0.851795
-50.1481 -34.6857 809.691 -0.332097 -0.474833 0.815013
-56.5013 -43.7835 800.243 0.0160531 -0.981341 0.191603
-53.4613 -44.9744 798.136 -0.482513 -0.874495 -0.0493995
-56.0256 -43.346 796.437 -0.311132 -0.944052 -0.109372
-25.0735 -32.1244 796.023 0.894152 -0.35191 0.276859
-50.583 -48.1263 796.564 -0.539769 -0.619922 0.569515
-23.5746 -31.1189 792.823 0.818532 -0.232377 0.525363
-44.0926 -52.1502 791.419 0.0845785 -0.99169 0.096937
-26.3453 -47.5888 789.007 0.212236 -0.514237 0.830973
-22.4736 -45.7693 788.937 0.379264 -0.450049 0.808464
-41.1387 -52.3176 788.678 -0.199787 -0.979401 -0.0293163
-43.7976 -51.1367 786.593 -0.331855 -0.93879 -0.0924388
-11.7472 -39.2683 786.194 0.376068 -0.208338 0.902867
-8.36964 -37.5418 785.233 0.350938 -0.141195 0.925693
2.44031 -30.4375 783.114 0.176185 -0.031738 0.983845
-37.3913 -54.111 785.659 -0.340164 -0.693238 0.635381
-8.84016 -40.9824 784.06 0.383638 -0.635262 0.670272
5.42423 -27.9432 782.041 0.241972 0.00384371 0.970276
5.91049 -32.4286 781.458 0.407878 -0.410064 0.815772
-35.1416 -56.7643 784.157 -0.210457 -0.92486 0.316767
-0.68979 -42.0779 772.211 0.488234 -0.664425 0.565833
-5.6234 -46.8951 771.152 0.388505 -0.913277 0.122427
-1.56772 -45.4923 770.01 0.24711 -0.824466 0.509109
2.20432 -43.2772 769.31 0.571777 -0.618081 0.539488
5.36162 -40.7552 768.23 0.574785 -0.62157 0.532233
-4.57007 -45.5306 767.59 0.0922805 -0.947029 -0.307605
2.27744 -43.0842 764.77 0.167554 -0.958481 -0.230738
110.783 28.7894 746.43 0.429383 -0.903088 -0.00787622
114.533 30.434 745.677 0.473732 -0.870293 -0.134787
9.25878 -44.7663 759.23 -0.58563 0.00920743 0.810526
11.2304 -51.8168 760.517 -0.181599 0.215982 0.959361
14.1663 -49.2529 759.963 0.166406 0.00220849 0.986055
10.0809 -56.6308 760.575 -0.207197 0.0406091 0.977456
112.122 28.8811 742.665 0.691004 -0.588944 0.419116
7.22667 -53.2769 758.261 -0.519886 0.291883 0.802822
109.906 11.5905 742.053 0.100111 0.132133 0.986164
20.6551 -53.6062 755.698 0.557981 -0.0986917 0.823964
23.8237 -50.4396 753.75 0.58205 -0.0412234 0.812107
24.2894 -54.7069 753.617 0.451649 -0.0910854 0.887534
3.47061 -72.3531 755.664 -0.683241 -0.447185 0.577242
27.2053 -57.2963 751.669 0.531981 -0.248442 0.809489
30.3918 -54.7782 749.703 0.582096 -0.459568 0.670792
0.144487 -73.206 752.588 -0.396662 -0.806271 0.438847
5.1136 -77.0292 753.558 -0.475462 -0.864529 0.162868
23.1816 -66.646 749.347 0.64288 -0.330516 0.690988
116.047 -7.80454 736.726 0.396094 -0.721367 0.568102
8.407 -76.2531 752.22 0.115079 -0.90538 -0.40871
29.7867 -58.448 747.896 0.691109 -0.328215 0.643928
-35.5015 -44.7839 737.168 -0.269087 -0.858488 -0.436567
-43.1807 -43.2883 734.978 -0.0824666 -0.893095 -0.442244
113.425 -9.90608 734.969 0.278003 -0.648079 0.709019
22.6687 -71.7342 747.899 0.366142 -0.389155 0.84528
31.9829 -59.7262 745.28 0.737987 -0.270709 0.618135
24.0445 -73.4741 747.137 0.162332 -0.346295 0.923974
34.1456 -58.441 742.53 0.739003 -0.171496 0.651509
-48.3551 -39.8181 730.833 -0.204941 -0.857187 -0.472472
-39.5807 -42.6575 732.983 -0.285688 -0.921792 -0.262073
113.727 -17.1133 732.794 0.30879 0.00988426 0.951079
21.2277 -75.7015 746.087 -0.170855 -0.448124 0.877493
29.3829 -70.48 743.704 0.687695 -0.250048 0.68158
-48.7246 -38.3251 726.755 -0.406602 -0.845258 -0.346719
-45.1884 -40.3883 729.03 -0.256566 -0.947617 -0.190253
32.2779 -68.7975 742.464 0.715692 -0.223265 0.661768
139.761 2.30156 722.34 -0.771894 -0.501185 -0.391143
-41.9988 -41.4936 726.375 -0.51442 -0.761248 0.394808
17.9015 -76.5544 743.011 -0.641372 -0.594653 0.484799
20.9377 -78.7475 744.14 -0.421705 -0.46013 0.78131
33.9823 -70.074 739.268 0.696458 -0.255504 0.670569
39.5255 -61.2544 736.354 0.648521 -0.227517 0.726399
-40.1621 -44.1305 724.957 -0.663288 -0.561563 0.494667
134.683 0.227424 716.81 0.211138 -0.305597 0.928456
-60.6644 -32.5743 715.353 -0.215675 -0.976372 -0.0135308
-69.2368 -29.528 712.537 -0.224324 -0.947895 -0.226218
-67.0809 -28.8322 711.297 -0.439916 -0.897787 0.0212588
117.588 -16.3565 717.029 0.573453 -0.656577 -0.489957
125.01 -9.5015 715.433 0.422556 -0.843531 -0.331515
131.855 -5.53603 713.05 -0.149617 -0.985456 -0.0805713
-72.3784 -26.6885 706.677 -0.700634 -0.700939 -0.133406
-68.8968 -29.0484 709.094 -0.363506 -0.92024 0.144989
-65.1712 -31.0733 709.691 -0.536726 -0.799383 0.270023
-49.8099 -42.489 713.151 -0.550122 -0.699783 0.455707
-63.225 -33.1166 707.99 -0.522844 -0.718439 0.45878
-76.818 -23.8811 703.258 -0.548184 -0.80353 0.232023
-52.0254 -43.4734 709.968 -0.628152 -0.75491 0.188513
-61.0951 -35.6971 706.28 -0.622893 -0.689003 0.370511
-79.3092 -23.7718 699.383 -0.71691 -0.570227 0.401099
-76.3341 -26.7995 700.988 -0.715675 -0.593475 0.368235
-87.4085 -16.3427 694.296 -0.580888 -0.783565 -0.220442
-51.9973 -42.4753 706.688 -0.357971 -0.871998 -0.33388
-48.3542 -41.9466 705.168 -0.0754165 -0.934614 -0.347576
-81.3851 -24.6715 695.646 -0.649141 -0.557827 0.517151
-86.4639 -18.692 693.031 -0.841007 -0.506077 0.191295
-51.3191 -40.8811 702.958 -0.103053 -0.914104 -0.392165
-53.9802 -38.8474 700.069 -0.125982 -0.909274 -0.396673
-50.85 -39.6156 698.36 -0.36821 -0.929629 0.0145538
-84.2048 -24.4737 689.735 -0.656195 -0.739942 0.147965
-51.1191 -39.8418 694.379 -0.592275 -0.778555 0.207513
-47.8794 -41.908 696.271 -0.521892 -0.782197 0.340289
-84.6427 -24.3258 685.688 -0.534978 -0.815432 0.221062
-81.5507 -26.8106 687.267 -0.63091 -0.775855 0.00107133
-99.6013 -30.3149 603.736 0.0463462 -0.858641 -0.510478
-91.5593 -32.6902 606.183 -0.107969 -0.819743 -0.562462
-96.8911 -29.464 601.858 -0.0498836 -0.840817 -0.539016
-99.2044 -27.4031 599.004 0.0341147 -0.818479 -0.573523
-101.956 -26.5583 597.356 0.0625752 -0.822839 -0.564818
-98.6775 -25.5345 596.453 0.0318413 -0.810933 -0.584272
-95.2486 -24.3532 594.368 -0.06519 -0.888506 -0.454211
-98.2874 -22.9891 591.342 0.0361258 -0.884093 -0.465913
-120.996 -19.458 585.253 -0.0274382 -0.788222 -0.614779
-117.67 -18.5038 583.829 -0.0249473 -0.80987 -0.586078
-120.312 -17.0654 581.898 -0.0021013 -0.792435 -0.609953
-122.899 -15.3303 579.826 -0.0403546 -0.753971 -0.655667
-125.432 -13.2984 577.611 -0.123624 -0.880282 -0.458062
-115.658 -13.6264 575.993 -0.0521859 -0.858891 -0.509493
-112.77 -12.3103 574.374 -0.00645253 -0.767312 -0.641242
-112.472 -10.5204 571.962 0.00820928 -0.8075 -0.58981
-102.887 -9.30836 571.145 -0.0774872 -0.828311 -0.554884
-48.3629 -11.1315 573.689 0.0468678 -0.852346 -0.520873
-96.5712 -8.52604 568.162 -0.158881 -0.809652 -0.564997
-57.584 -10.4876 571.119 -0.0068163 -0.838818 -0.544369
-53.9786 -8.85073 569.823 -0.0292898 -0.945296 -0.324897
-56.6888 -8.44215 567.276 -0.0275189 -0.89921 -0.436651
-59.276 -6.707 565.203 -0.00955528 -0.790965 -0.611786
-52.6235 -4.79862 562.356 -0.0499547 -0.89791 -0.437336
-73.074 -2.04718 557.861 -0.0398646 -0.94059 -0.337197
-69.9119 -1.9834 556.862 -0.0259926 -0.891385 -0.452502
-63.0952 0.815397 553.591 0.0205942 -0.902828 -0.429508
-38.5753 -66.3964 572.862 -0.773853 -0.203719 0.599709
-41.2243 -59.8519 567.897 -0.917471 0.039811 0.395806
-41.6859 -64.1677 566.91 -0.915777 -0.0561117 0.397748
-40.7379 -67.0736 568.642 -0.899922 -0.132233 0.415517
-38.6262 -70.5131 570.685 -0.830082 -0.235158 0.505633
-41.956 -67.4448 565.429 -0.926148 -0.154824 0.343916
-115.317 18.1755 517.194 0.722576 -0.690252 -0.0378904
-107.569 22.3209 515.537 0.202788 -0.897655 -0.391269
-108.21 20.703 518.962 0.196847 -0.91449 -0.353496
-112.066 19.4058 520.639 0.23172 -0.923059 -0.307032
-115.905 17.4003 521.622 0.595751 -0.800299 -0.0678432
-108.729 19.4909 522.697 0.112368 -0.896394 -0.428779
-106.625 17.0024 525.948 0.0872673 -0.927799 -0.362731
-101.07 14.7171 530.37 -0.0341909 -0.824085 -0.565434
-43.3771 3.81474 543.953 -0.369433 -0.752566 -0.545128
-45.7246 2.80308 545.635 -0.118406 -0.874384 -0.470566
-56.4016 2.28763 549.846 -0.0200958 -0.874377 -0.484831
-59.6129 1.12568 551.82 -0.077151 -0.89169 -0.446023
-94.6629 -42.2732 620.61 0.0413951 -0.767106 -0.640184
-96.5212 -40.5267 618.843 -0.00263826 -0.761388 -0.648291
-92.3324 -43.8668 622.88 0.101108 -0.82083 -0.562152
-89.276 -44.636 625.141 0.0631121 -0.817214 -0.572869
-92.6267 -46.5516 626.95 0.0996629 -0.819868 -0.563811
-107.787 -46.3103 626.696 -0.00432309 -0.78814 -0.615481
-92.9175 -48.3437 629.753 0.0453809 -0.838946 -0.542319
-90.6623 -50.0159 632.615 0.0492189 -0.813891 -0.578929
-100.956 -51.0888 632.664 0.121409 -0.851402 -0.510268
-96.9808 -51.4718 634.812 -0.00384206 -0.823972 -0.566618
-127.597 -52.7707 635.321 -0.0264649 -0.858684 -0.511822
-100.751 -53.4721 637.167 -0.022651 -0.838899 -0.543815
-92.0857 -55.0978 639.465 0.074194 -0.826204 -0.558464
-134.424 -53.1222 638 -0.210932 -0.975213 -0.066837
-137.914 -51.7818 635.76 -0.0793238 -0.996134 -0.0377592
-137.021 -51.64 639.347 -0.434396 -0.736722 0.518208
-100.203 -61.6519 650.061 -0.355977 -0.925284 -0.130882
-103.32 -59.9923 652.728 -0.396001 -0.760403 0.514752
-137.162 -44.542 643.776 -0.471094 -0.525103 0.708758
-127.967 -44.5381 647.44 -0.373636 -0.420505 0.826784
-95.6175 -59.5465 657.036 -0.418721 -0.357964 0.834586
-97.1019 -56.9869 657.792 -0.510985 -0.415131 0.752702
-130.318 -41.7636 647.933 -0.330833 -0.342882 0.879193
-136.222 -35.6697 646.653 -0.31951 0.0862512 0.943649
-170.305 8.01568 623.805 -0.383512 0.199419 0.901748
-103.626 -51.7241 656.211 -0.534033 -0.32775 0.779351
-127.718 -40.0295 649.435 -0.337886 -0.184838 0.922859
-155.863 -11.99 634.543 -0.30955 0.278892 0.909064
-175.192 14.5813 620.767 -0.406789 0.0228967 0.913235
-105.468 -49.8231 656.794 -0.425238 -0.370361 0.825836
-108.202 -46.8778 656.193 -0.426056 -0.330897 0.842012
-121.572 -41.6266 651.604 -0.391436 -0.196263 0.899032
-124.479 -39.0637 650.672 -0.382557 -0.125615 0.915353
-132.701 -30.1491 646.638 -0.28894 0.222646 0.931098
-134.118 -26.5542 645.386 -0.285823 0.2369 0.928538
-152.824 -5.14513 633.586 -0.292031 0.272745 0.916694
-153.666 -1.17018 632.175 -0.335128 0.212474 0.917902
-161.996 7.60247 627.723 -0.452601 -0.0732735 0.888698
-164.611 10.9797 626.336 -0.55428 -0.0861239 0.827863
-104.825 -45.4749 658.019 -0.271046 -0.163814 0.948525
-118.424 -36.0461 652.748 -0.31326 0.13975 0.939328
-138.78 -12.5232 640.033 -0.296916 0.269723 0.916019
-147.952 2.48785 633.814 -0.537673 -0.250266 0.805155
-174.561 21.2989 623.099 -0.407726 -0.506659 0.759642
-161.449 11.7732 628.988 -0.580817 -0.361283 0.72947
-124.489 -21.3019 647.171 -0.322777 0.246625 0.913779
-134.263 -8.60985 640.566 -0.327319 0.22144 0.9186
-152.486 7.31995 633.95 -0.594714 -0.520039 0.613086
-155.974 10.0164 632.76 -0.583062 -0.453194 0.67428
-158.686 12.4775 631.601 -0.594832 -0.415513 0.688131
-161.983 15.4972 630.939 -0.619516 -0.388178 0.682289
-150.185 7.96347 637.2 -0.744936 -0.452548 0.490174
-156.193 13.3087 634.713 -0.600861 -0.385211 0.700413
-163.431 18.051 631.024 -0.445801 -0.334969 0.830094
-144.509 2.40909 640.869 -0.540659 -0.734411 0.410279
-161.614 19.4769 632.362 -0.556089 -0.139032 0.819411
-70.8872 -49.2385 672.911 -0.487962 -0.028672 0.872394
-73.608 -46.0352 671.511 -0.506396 0.0367185 0.861519
-70.1586 -45.1733 673.475 -0.471835 0.0370489 0.880908
-164.147 37.7241 631.18 -0.398532 0.0597262 0.915208
-165.681 40.3589 629.831 -0.482185 0.168715 0.85967
-61.5354 -41.6756 678.847 -0.638397 -0.502377 0.583152
-157.92 40.5248 637.893 -0.379441 -0.923827 -0.0506819
-160.014 42.1948 635.874 -0.794711 -0.40731 0.450038
-31.2997 -55.0253 780.522 0.120962 -0.897064 -0.425022
-33.572 -53.6273 778.257 0.0862054 -0.915115 -0.39387
-36.4191 -53.5047 775.842 0.093424 -0.893231 -0.439784
-33.4488 -52.1994 774.232 0.132033 -0.877259 -0.461502
-41.8467 -50.267 770.797 -0.157096 -0.911227 0.380772
28.8726 -25.2719 768.839 0.599803 -0.680494 0.420908
-32.5089 -49.6155 769.808 0.154259 -0.942752 -0.295672
-42.2911 -54.8321 768.431 0.232807 -0.219237 0.947489
-39.2224 -52.3136 768.462 0.279198 -0.5533 0.784798
28.2141 -28.6127 766.583 0.474497 -0.674248 0.5659
-35.5372 -50.8958 768.419 0.188168 -0.719816 0.668175
-31.5188 -49.1354 767.272 0.325305 -0.885518 0.331714
31.5916 -26.8862 765.621 0.453611 -0.595113 0.663384
25.7179 -30.6784 763.345 0.36612 -0.907575 0.20558
84.1003 11.8063 752.782 0.472646 -0.88121 0.00860558
-47.7387 -58.2172 763.149 0.101314 -0.986719 -0.126966
22.8404 -35.3804 760.026 0.483345 -0.464655 0.741939
82.6797 8.16812 750.255 0.626667 -0.486539 0.608743
86.2522 11.7754 749.781 0.715764 -0.607528 0.344373
-54.8018 -58.0952 758.317 0.0785338 -0.824325 -0.560643
-51.1607 -58.0018 759.922 0.0531623 -0.887905 -0.456945
38.0443 -27.9595 756.62 0.416709 -0.66725 0.617359
22.5532 -38.9149 758.39 0.582884 -0.418757 0.69634
-50.5927 -56.1301 757 -0.0907684 -0.740927 -0.665423
25.4731 -37.0339 757.492 0.51943 -0.596061 0.612294
-46.8559 -54.3181 755.18 -0.0191578 -0.743913 -0.668002
21.7733 -42.3843 756.701 0.587184 -0.313447 0.746302
22.2355 -45.4667 755.714 0.618531 -0.0719669 0.782458
28.0115 -37.4632 754.32 0.45058 -0.655907 0.60561
84.9531 -7.11421 748.133 0.442454 -0.229568 0.86691
-14.1131 -58.7436 756.6 -0.103972 -0.991081 -0.0833607
36.1148 -34.5809 753.292 0.486583 -0.545566 0.682346
23.9397 -45.4257 754.104 0.603506 -0.104782 0.790444
44.2373 -31.1793 751.791 0.352475 -0.513427 0.782403
98.6341 1.48788 744.77 0.327269 -0.0358723 0.94425
-17.0013 -57.2727 754.642 -0.0945569 -0.875407 -0.474047
27.7175 -41.3642 752.306 0.406316 -0.209529 0.889384
31.3619 -39.2295 751.715 0.226336 -0.315509 0.921535
34.8762 -37.4704 751.857 0.157276 -0.445221 0.8815
38.4659 -35.6325 751.407 0.31796 -0.370322 0.87279
42.6031 -33.563 750.87 0.282657 -0.330874 0.900348
-13.3721 -57.6349 752.341 -0.436833 -0.895866 -0.0812456
-27.4115 -51.6795 746.446 -0.219936 -0.857478 -0.465146
-10.5743 -60.1684 750.381 -0.729844 -0.496417 0.469999
-7.72835 -63.0934 751.438 -0.689738 -0.486336 0.536413
-21.9292 -52.3149 743.111 -0.691397 -0.629268 0.354954
-10.2045 -63.6506 748.369 -0.753426 -0.468182 0.461686
-15.2727 -63.4534 734.438 -0.345721 -0.891822 -0.291773
-126.216 -10.0775 699.493 0.898584 -0.329567 -0.289711
-127.187 -12.7953 698.913 0.752062 -0.375925 -0.541371
-126.236 -2.86671 689.875 0.732517 -0.316663 0.602613
-137.07 -9.17611 688.547 -0.0227002 -0.800373 -0.599072
-121.076 -5.54984 685.85 0.0388742 -0.98196 0.185049
-122.766 -4.75656 683.72 0.194893 -0.904348 -0.3797
-120.425 -3.6722 682.188 0.126939 -0.880593 -0.456555
-52.0205 -32.3422 606.896 0.0265027 -0.816011 -0.577428
-57.0908 -29.139 603.33 -0.00352926 -0.795547 -0.605882
-65.1889 -25.5867 596.341 -0.099552 -0.905738 -0.411982
-68.4331 -24.6769 594.639 0.00132264 -0.876393 -0.481596
-64.4019 -22.967 592.325 0.0262463 -0.822221 -0.568563
-60.6308 -22.0082 591.476 0.042377 -0.816522 -0.575757
-75.48 -19.8242 587.957 0.0132589 -0.817021 -0.576455
-77.755 -18.3026 585.558 0.0350692 -0.914952 -0.402037
-74.8804 -17.7195 583.181 -0.0407517 -0.899265 -0.435502
-59.6207 -17.9207 584.422 0.0385152 -0.827672 -0.559889
-56.2781 -16.0464 582.108 0.0137714 -0.830761 -0.556459
-65.0577 -15.3075 579.791 0.114519 -0.805846 -0.580945
-55.9496 -14.215 579.01 -0.00359162 -0.907183 -0.420722
-58.4134 -13.8389 576.49 -0.00875968 -0.932038 -0.362254
-55.1625 -12.9634 575.657 0.060888 -0.875895 -0.478645
-101.737 -5.7105 565.002 -0.0373134 -0.859113 -0.510424
-105.474 -4.73561 563.245 0.0329485 -0.888141 -0.458388
-101.217 -4.20836 562.072 -0.0658484 -0.89814 -0.434751
-109.786 -2.72204 558.734 -0.0139386 -0.836698 -0.547487
-100.649 -2.77593 558.622 -0.0902715 -0.863443 -0.496304
-98.7807 -0.425775 553.674 -0.133994 -0.851294 -0.507292
-120.094 3.78238 549.544 0.0673937 -0.848442 -0.52498
-32.6642 -34.7468 575.575 -0.824134 0.245308 0.510516
-41.6989 -14.8051 543.238 -0.958849 0.145883 0.243569
-60.7411 16.8207 523.685 0.0332564 -0.911899 -0.409065
-40.2198 -32.9383 558.778 -0.925284 0.0216967 0.378654
-58.5372 15.7443 525.42 -0.00367245 -0.809936 -0.586506
-40.5083 -11.846 545.194 -0.947 0.133733 0.292073
-58.3319 13.3609 529.923 -0.0134321 -0.895658 -0.444541
-39.9121 -29.6219 559.964 -0.890655 0.0606263 0.45062
-39.1111 -33.1607 562.274 -0.948477 0.13518 0.286563
-83.7375 12.3583 533.697 0.009297 -0.828717 -0.55959
-86.6257 11.0423 535.316 -0.0239414 -0.863542 -0.503709
-94.0995 10.1544 537.63 0.000378879 -0.833201 -0.55297
-91.0196 8.35422 539.757 0.0285591 -0.873909 -0.485251
-88.4736 7.05522 542.728 -0.0461728 -0.882826 -0.467424
-103.627 7.66293 542.853 0.00688775 -0.781279 -0.624145
-35.6212 -26.0461 566.769 -0.857442 0.278962 0.432405
-106.953 6.70874 544.276 -0.0100102 -0.879987 -0.474892
-101.639 3.29602 549.067 -0.0975176 -0.858892 -0.502787
-104.379 5.11899 546.648 -0.139691 -0.863766 -0.484142
-33.7731 -30.4706 572.337 -0.814941 0.19506 0.545731
-47.4894 -44.3164 625.15 0.205627 -0.808124 -0.551953
-49.8301 -45.4008 626.681 0.103071 -0.811504 -0.575184
-47.0068 -47.0594 629.005 0.138843 -0.771788 -0.620537
-45.9903 -53.1412 637.843 0.0393459 -0.809694 -0.585531
-43.5058 -55.1035 640.577 0.10698 -0.807033 -0.580735
-43.9677 -57.4937 644.219 0.135578 -0.830853 -0.539723
-86.5624 -57.0054 642.312 -0.0482324 -0.799754 -0.598388
-47.6532 -59.1922 645.709 0.11379 -0.836136 -0.53659
-44.5323 -59.4017 647.066 0.137738 -0.819456 -0.556346
-48.803 -62.7901 651.852 0.0768502 -0.849581 -0.521829
-52.2606 -64.4566 653.614 0.0648986 -0.830476 -0.553261
-55.6197 -65.5889 655.123 -0.0160039 -0.850855 -0.525157
-52.923 -66.7304 656.912 0.101767 -0.845198 -0.524674
-62.2557 -67.6717 657.609 0.0421737 -0.773081 -0.632904
-59.685 -69.2324 660.042 0.0233257 -0.833332 -0.55228
-60.3488 -71.843 662.947 0.0140395 -0.76156 -0.647942
-63.5039 -72.9085 664.988 -0.143105 -0.949996 -0.277542
-61.1313 -73.7791 667.744 -0.2795 -0.938745 0.201586
-58.3527 -73.158 670.907 -0.428898 -0.671884 0.603836
-55.2256 -71.1945 673.434 -0.554167 -0.353553 0.753591
-58.1578 -68.6334 672.725 -0.319403 -0.359393 0.876823
-52.41 -70.155 675.84 -0.384326 -0.299571 0.873241
-49.7888 -68.639 676.893 -0.496218 -0.335509 0.80075
-58.1663 -64.7963 674.645 -0.418332 -0.378947 0.825468
-48.5158 -69.2885 678.379 -0.592346 -0.373409 0.713927
-51.9603 -66.1765 677.685 -0.418311 -0.457782 0.784507
-55.0557 -64.238 677.02 -0.413286 -0.426078 0.804768
-152.774 12.4506 638.122 -0.648871 -0.240153 0.722006
-95.4556 -26.2255 658.675 -0.311681 0.0508128 0.948827
-93.2177 -24.0508 659.391 -0.467069 0.000167332 0.884221
-149.294 12.276 640.869 -0.6966 -0.0747093 0.71356
-151.594 16.2281 638.846 -0.613726 0.0536691 0.787693
-89.9669 -23.2428 661.558 -0.59579 -0.148676 0.789259
-92.6996 -20.3599 660.266 -0.560418 -0.289565 0.775941
-146.297 14.0844 643.466 -0.74987 -0.0607242 0.658793
-145.229 15.717 644.948 -0.834105 -0.0346319 0.550518
-144.449 15.1325 646.379 -0.844794 -0.23632 0.480079
-147.386 28.8852 643.466 -0.974875 -0.222679 0.00567806
-142.868 15.0631 650.379 -0.909896 -0.379637 -0.167226
-102.127 -15.3221 667.859 -0.243214 -0.935543 -0.256138
-148.351 28.696 647.407 -0.579726 -0.591017 -0.560907
-102.422 -15.7378 671.206 -0.439218 -0.893108 0.0971896
-105.185 -13.6913 669.948 -0.608097 -0.712588 0.349908
-107.037 -11.4704 671.01 -0.676906 -0.605515 0.41851
-145.558 8.05835 666.447 -0.475102 -0.706771 -0.524168
-45.9054 -50.0476 777.068 -0.311087 -0.947316 -0.0762707
-48.3557 -48.9386 775.306 -0.115134 -0.955656 -0.271044
-45.3271 -49.0536 772.997 -0.209065 -0.97766 0.0217244
-51.8869 -52.4416 770.911 0.384364 -0.153772 0.910285
21.6317 -30.0838 770.472 0.431028 -0.81132 0.394936
101.353 21.5942 762.672 0.639117 -0.76851 -0.0303628
36.175 -20.6919 767.136 0.605058 -0.684642 0.40641
20.5917 -32.8855 767.334 0.42563 -0.872599 0.239604
24.6798 -30.8129 767.504 0.38595 -0.789957 0.476456
35.0324 -24.1768 764.881 0.491522 -0.526028 0.694046
38.7066 -22.2768 764.286 0.439001 -0.532497 0.723688
-36.0355 -54.856 766.875 0.290987 -0.421222 0.85901
34.3318 -27.4489 763.322 0.532103 -0.780651 0.327796
41.5601 -23.9146 761.576 0.339702 -0.758424 0.556234
76.9306 7.00187 755.008 0.525227 -0.850121 -0.037832
-36.3391 -58.2836 764.593 0.198347 -0.945112 0.259657
-32.6543 -56.7467 764.609 0.299734 -0.725966 0.618978
29.9136 -30.7469 758.935 0.39511 -0.6752 0.622891
44.3023 -24.4991 759.232 0.447098 -0.82456 0.346706
76.1096 2.65112 752.631 0.441059 -0.108502 0.890895
90.8511 16.3974 750.418 0.561041 -0.82663 0.0437712
-39.2008 -58.8357 761.514 0.119279 -0.985455 -0.121039
76.2468 -0.660712 752.02 0.277039 -0.102174 0.955411
32.008 -32.3157 756.455 0.296101 -0.440639 0.847444
75.7816 -4.50103 751.637 0.32854 -0.0274426 0.944091
82.9676 2.27745 749.789 0.340032 -0.0527257 0.938935
-42.8108 -58.7667 759.192 -0.0101522 -0.933172 -0.359288
79.0873 -3.32876 750.663 0.30178 -0.0793265 0.950072
82.6803 0.0604777 749.739 0.363548 -0.0478846 0.930344
-38.848 -58.1373 758.511 0.11301 -0.910989 -0.396646
29.2158 -34.8454 756.665 0.502617 -0.636535 0.584979
97.2165 14.5079 745.619 0.347881 -0.0492033 0.936247
-35.118 -56.6917 756.312 -0.0798118 -0.77319 -0.629132
-26.0973 -57.7056 756.104 -0.154452 -0.874046 -0.460638
91.797 -2.84953 746.377 0.344814 -0.122042 0.930703
-28.2973 -54.4653 753.637 -0.149709 -0.797286 -0.584741
90.8696 -10.6944 743.54 0.372262 -0.175259 0.91143
98.1898 -6.15141 742.709 0.474158 -0.362005 0.802575
-13.1433 -57.7696 748.941 -0.675998 -0.595886 0.433528
-15.9949 -58.3305 745.745 -0.639937 -0.531444 0.555021
-18.5546 -58.2205 742.237 -0.674838 -0.560352 0.480208
-15.5019 -61.1247 743.945 -0.665427 -0.595084 0.450646
-26.2872 -50.1147 738.09 -0.727726 -0.584069 0.359552
-23.9207 -52.9079 739.414 -0.774136 -0.488986 0.402003
-20.8997 -55.9235 740.946 -0.718041 -0.50314 0.480903
-8.13702 -69.4014 744.802 -0.626593 -0.774997 0.0822253
-13.599 -64.128 742.364 -0.596328 -0.577357 0.55772
-20.3476 -58.9718 739.183 -0.734836 -0.550732 0.395867
-25.7498 -53.4883 736.174 -0.76103 -0.509577 0.401453
-7.59632 -68.1173 741.422 -0.317115 -0.793481 -0.519448
-9.95307 -65.9242 738.829 -0.0185328 -0.924301 -0.381214
-23.6782 -59.0894 732.413 -0.512392 -0.809418 0.286876
-130.363 -17.5106 702.909 0.208377 -0.806904 -0.552706
-133.333 -16.7046 700.899 0.142961 -0.857147 -0.494835
-123.744 1.52937 694.642 0.346585 -0.845886 -0.405408
-129.806 -15.409 699.372 0.243425 -0.75778 -0.605404
-130.24 -12.6371 696.101 0.353729 -0.759939 -0.545314
-115.676 -5.33812 695.45 -0.726513 -0.562723 -0.394362
-138.681 -14.8992 696.335 -0.243987 -0.795097 -0.55524
-114.389 -3.32918 692.31 -0.713089 -0.581869 -0.391066
-131.605 -11.6144 693.595 0.255085 -0.847483 -0.465515
-118.03 -2.49365 689.513 -0.199536 -0.218988 0.955107
-118.014 -4.69636 688.04 -0.130682 -0.674628 0.726498
-130.763 -7.27909 686.524 0.163727 -0.88307 -0.43975
-133.005 -5.53258 683.628 0.0296702 -0.871541 -0.489424
-135.79 -5.20276 681.672 0.134965 -0.8274 -0.545155
-132.563 -3.67267 680.521 0.0510185 -0.78739 -0.61434
-143.288 0.227591 675.635 -0.315883 -0.80419 -0.503484
-145.424 3.04321 673.058 -0.359201 -0.795137 -0.488602
-143.34 2.24223 671.596 -0.357723 -0.848172 -0.390689
-39.9666 -32.8447 609.248 0.0677071 -0.762696 -0.643204
-42.7125 -31.1392 606.738 0.0378167 -0.813403 -0.580471
-45.4092 -29.9977 604.948 0.0864257 -0.813109 -0.57566
-41.8913 -28.4438 602.501 0.0501372 -0.866882 -0.495986
-79.5125 -23.2897 592.792 0.0499019 -0.800236 -0.597605
-76.2355 -21.7716 590.648 0.0195871 -0.822361 -0.568628
-63.875 -21.0984 589.774 0.0429438 -0.804403 -0.592529
-65.4766 -19.4934 587.81 0.0474218 -0.922414 -0.38328
-63.0948 -18.8452 585.379 0.0418555 -0.907145 -0.418732
-71.0614 -16.8304 581.812 -0.034248 -0.864243 -0.501908
-76.9133 -13.9673 578.487 -0.015646 -0.782988 -0.62184
-67.5436 -13.4185 576.98 0.0161897 -0.874791 -0.48423
-70.1991 -12.7132 574.292 0.0150732 -0.874886 -0.484094
-113.728 -5.03901 564.128 -0.0131729 -0.792967 -0.609122
-116.206 -4.53445 562.657 0.0339322 -0.791451 -0.61029
-113.153 -3.24008 561.056 -0.0515028 -0.880311 -0.471594
-121.079 -1.66137 556.59 -0.0401733 -0.870961 -0.489708
-112.319 -0.690114 556.52 -0.00522396 -0.761514 -0.648127
-31.433 -21.2786 571.322 -0.79738 0.20242 0.568517
-114.96 0.748244 554.589 0.0190448 -0.829561 -0.558091
-111.593 1.26629 552.267 -0.0393814 -0.892494 -0.449337
-32.9935 -20.1097 568.458 -0.834131 0.273544 0.478957
-108.086 2.36891 551.225 0.000853025 -0.752107 -0.65904
-45.0883 15.1969 522.408 -0.547325 -0.796222 -0.25781
-41.8217 -24.4419 551.245 -0.950124 0.19184 0.245889
-46.002 13.7531 526.682 -0.285208 -0.860529 -0.422073
-48.9143 15.2588 524.984 -0.152724 -0.88854 -0.432633
-40.3425 -41.1563 563.872 -0.935772 0.175347 0.305915
-39.6033 -43.1288 567.088 -0.930678 0.148247 0.334458
-41.0826 -24.5902 553.576 -0.94642 0.191668 0.25991
-46.6591 12.1677 530.758 -0.33195 -0.855368 -0.397688
-55.4025 14.2408 527.406 0.0295105 -0.93216 -0.360843
-47.2935 10.2209 533.732 -0.346268 -0.851358 -0.394066
-50.0778 12.2455 531.955 -0.160181 -0.813609 -0.558911
-38.2483 -42.9277 570.389 -0.899306 0.132408 0.416794
-38.2487 -34.7187 566.407 -0.904104 0.144231 0.402236
-71.9654 10.4996 535.138 0.0211301 -0.80411 -0.594105
-75.2917 9.54543 536.561 -0.066364 -0.850909 -0.521104
-36.257 -38.0347 572 -0.849521 0.252452 0.46323
-78.9053 6.27298 542.433 0.0281487 -0.910532 -0.41248
-76.6879 5.92947 544.926 -0.00191252 -0.909896 -0.414832
-113.842 5.38261 547.664 0.0498045 -0.832588 -0.551648
-56.6468 -48.1995 629.952 0.0627638 -0.838198 -0.541743
-43.5471 -47.6746 631.409 0.150049 -0.774228 -0.614863
-47.8178 -48.9348 631.825 0.0243148 -0.834255 -0.550842
-51.2918 -50.4269 633.948 0.0164493 -0.774074 -0.632881
-54.6345 -51.7336 635.096 0.072132 -0.762897 -0.642483
-58.9463 -52.5577 636.411 0.0267874 -0.808809 -0.587461
-55.4489 -54.5017 639.183 0.0823518 -0.837201 -0.540659
-64.7774 -55.4866 639.79 0.00674289 -0.837752 -0.54601
-55.9484 -56.2219 641.663 0.0559538 -0.809044 -0.585079
-59.3392 -58.0254 643.972 0.0388045 -0.818926 -0.572585
-74.592 -57.4588 643.635 -0.0257604 -0.83852 -0.544261
-77.4254 -58.478 645.113 0.0574524 -0.807641 -0.586869
-75.331 -60.1481 647.131 0.00355333 -0.780768 -0.624811
-73.7294 -61.7531 649.096 0.0358492 -0.842191 -0.537987
-64.0956 -63.3345 651.861 0.0193276 -0.822265 -0.568776
-67.3232 -65.0567 653.773 0.023715 -0.81492 -0.579089
-65.8449 -65.632 655.788 0.023349 -0.809309 -0.586919
-50.3222 -67.7326 659.742 0.0539295 -0.862178 -0.503728
-56.7283 -70.3323 661.823 -0.0413768 -0.800554 -0.59783
-48.5357 -72.8204 665.074 0.000135808 -0.786799 -0.617209
-49.1927 -75.0645 668.357 -0.0758086 -0.886537 -0.456404
-66.854 -69.0167 668.826 -0.516365 -0.492297 0.700722
-60.5171 -66.3798 673.359 -0.320676 -0.376118 0.869311
-68.4463 -62.3324 671.125 -0.385032 -0.406085 0.828761
-66.051 -61.0188 672.452 -0.393148 -0.335302 0.856158
-68.5253 -58.5574 672.535 -0.400063 -0.303852 0.864652
-101.256 -20.5632 655.941 -0.443656 0.118986 0.888263
-90.5275 -32.3489 661.872 -0.406986 0.131396 0.903934
-151.636 30.2445 637.606 -0.650371 0.0699874 0.756386
-150.62 34.4998 638.091 -0.834243 -0.212559 0.50878
-148.803 31.1625 640.628 -0.820726 -0.258474 0.50951
-145.743 21.3714 647.187 -0.948007 -0.31805 0.0113005
-90.1683 -16.3585 668.591 -0.520331 -0.850342 -0.0785785
-146.955 25.3192 649.109 -0.900683 -0.297354 -0.316781
-90.8367 -18.3351 672.301 -0.124679 -0.896913 -0.424267
-148.844 27.3423 650.266 -0.505337 -0.587325 -0.632205
-91.5416 -20.5096 676.105 -0.176158 -0.868088 -0.464103
-99.5404 -16.3875 674.851 -0.467707 -0.85684 0.216967
-148.049 18.8427 655.91 -0.681075 -0.422078 -0.59832
-93.8139 -20.5642 678.252 -0.628688 -0.775635 0.0560521
-95.1334 -18.1065 679.363 -0.762801 -0.591618 0.261002
-98.1672 -15.4794 677.811 -0.592048 -0.720446 0.36116
-92.0893 -20.8426 680.691 -0.633693 -0.707576 0.312681
-139.582 2.46806 669.989 -0.0547771 -0.855028 -0.51568
-138.415 -12.95 807.122 0.0701227 -0.570255 0.818469
-135.257 -14.0486 805.685 0.0322645 -0.640177 0.767549
-135.926 -17.1146 803.471 -0.0740824 -0.63122 0.772058
-132.419 -16.5795 803.595 -0.0816749 -0.544841 0.834553
-138.556 -18.9868 801.145 0.0193278 -0.555963 0.830983
-141.313 -20.457 798.617 -0.182474 -0.809879 0.557493
-115.417 -29.5168 799.525 -0.267198 -0.644576 0.716329
-141.781 -24.4034 796.283 -0.515304 -0.360153 0.777658
-106.647 -32.5498 799.173 -0.202381 -0.61174 0.764733
-109.421 -33.8557 797.455 -0.224715 -0.607069 0.762214
-106.793 -35.9763 796.379 -0.180518 -0.542999 0.820101
-114.718 -33.5146 787.035 0.0367261 -0.791777 -0.609706
-111.265 -32.0389 785.476 0.0753475 -0.796776 -0.599559
-107.737 -30.6071 783.719 -0.0544794 -0.848975 -0.525617
-104.341 -30.0532 782.493 -0.0956159 -0.905004 -0.414517
-107.256 -28.9116 780.058 -0.178277 -0.970906 -0.159873
-121.716 -26.0957 775.996 -0.0402479 -0.969495 -0.241785
-107.491 -27.7514 775.67 -0.357664 -0.869062 -0.341772
-103.35 -28.1843 774.401 0.132475 -0.806764 -0.575831
-105.828 -25.8555 772.045 -0.0554233 -0.854999 -0.51566
-108.723 -24.7511 769.708 -0.0654723 -0.871285 -0.48639
-104.811 -23.1965 768.299 -0.0711009 -0.874301 -0.480149
-101.824 -22.8753 766.889 -0.0861061 -0.96094 -0.26302
-75.1296 -57.26 778.118 0.175254 -0.0220897 0.984275
-104.526 -22.8377 764.745 0.0286241 -0.592019 0.805416
-96.7111 -25.4888 763.385 -0.72199 -0.225479 0.654133
-94.103 -33.5734 766.87 -0.854974 -0.0169947 0.518392
-98.6204 -28.619 763.148 -0.129014 0.0442849 0.990653
-76.3608 -65.053 770.719 -0.15455 -0.822641 -0.547153
-62.3988 -63.2485 770.482 0.204494 -0.895313 -0.395723
-58.4977 -61.5848 769.297 0.131154 -0.932839 -0.335574
-66.5876 -59.9084 766.445 0.0910414 -0.964126 -0.249343
-63.8208 -59.9919 764.248 0.0805989 -0.983169 -0.16396
-57.4897 -59.0485 761.489 0.00971094 -0.95854 -0.284793
-99.7272 -51.1994 750.692 -0.0156071 -0.800256 -0.599455
-98.0435 -53.1136 752.563 -0.126332 -0.783274 -0.608705
-64.6987 -51.6957 751.422 -0.0494637 -0.860017 -0.507862
-61.044 -50.7849 750.035 -0.0372856 -0.81458 -0.578852
-70.3659 -47.2482 746.78 -0.098517 -0.795768 -0.597534
-66.4372 -48.5018 746.456 -0.043969 -0.840177 -0.540526
-68.7849 -45.7975 743.368 -0.00897132 -0.767431 -0.641068
-70.407 -43.9744 741.853 0.0411657 -0.820261 -0.570507
-68.1279 -43.5534 740.084 -0.0502476 -0.858844 -0.509767
-64.9249 -42.5829 738.647 -0.0588653 -0.889736 -0.452664
-67.4504 -41.5273 736.351 -0.07654 -0.899456 -0.430257
-136.789 -31.1414 724.247 -0.706496 -0.656815 -0.263547
-136.491 -30.3003 720.237 -0.533754 -0.744558 -0.400924
-135.578 -28.1977 716.755 -0.282571 -0.765905 -0.577533
-133.434 -27.0874 715.202 -0.0194897 -0.79291 -0.609027
-129.972 -25.4796 714.024 0.0132476 -0.825751 -0.563879
-126.585 -25.205 712.378 0.0521902 -0.791745 -0.608618
-119.727 -22.2343 711.25 0.0157996 -0.57651 -0.816937
-129.165 -23.1034 710.684 0.107292 -0.657254 -0.745993
44.0289 -58.8848 732.073 0.727032 -0.211406 0.653248
-109.009 -10.6016 703.871 -0.0757451 -0.73001 -0.679226
43.9608 -63.0563 730.757 0.7004 -0.214261 0.680831
98.1852 -26.6522 715.018 0.171768 -0.833187 -0.525638
89.4354 -25.4116 711.712 0.0848652 -0.859913 -0.503337
92.9425 -24.2117 710.257 0.108579 -0.856835 -0.504028
96.7684 -22.9561 709.267 0.138954 -0.913697 -0.381902
90.2391 -23.4366 708.089 0.118117 -0.931603 -0.34375
99.6155 -22.0822 707.49 0.234827 -0.892667 -0.38471
96.8916 -21.5282 705.242 0.207456 -0.893656 -0.39792
83.4501 -28.2153 705.647 0.657782 -0.620104 0.427545
86.4613 -24.6606 704.06 0.66253 -0.69861 0.270182
97.6238 -19.2054 701.368 0.435363 -0.788164 -0.435036
101.901 -15.7545 700.445 0.497854 -0.710266 -0.497658
98.8831 -16.4327 697.855 0.559308 -0.793768 -0.238971
101.45 -12.3758 693.223 0.669315 -0.712939 -0.209131
99.5812 -14.6247 693.673 0.764398 -0.644328 -0.0231794
-10.3566 -33.8224 611.467 -0.0677592 -0.833642 -0.548133
-7.03039 -32.8682 610.043 0.0606057 -0.933348 -0.353821
-8.35468 -32.2817 606.639 -0.0947197 -0.908683 -0.4066
-14.5557 -28.2451 603.284 -0.0516141 -0.77156 -0.634059
-11.7119 -30.1218 605.159 -0.142773 -0.762302 -0.631278
-17.42 -26.809 601.066 -0.00726086 -0.876768 -0.480859
-13.833 -25.9083 599.514 -0.0274692 -0.921369 -0.387717
-27.7377 -22.2225 591.972 -0.142573 -0.921373 -0.361586
-12.8173 -24.8517 596.155 -0.113508 -0.992298 0.0496049
-19.0151 -25.3912 586.344 -0.559499 -0.746597 0.359935
44.8247 -24.6861 584.25 -0.171464 -0.828903 -0.532465
-23.3431 -27.5408 582.517 -0.603638 0.0849808 0.792717
-21.6455 -31.1093 584.326 -0.490345 0.246835 0.835844
31.1498 -18.6997 577.383 -0.113984 -0.86872 -0.482009
4.00634 -28.3657 581.943 0.706536 0.0682514 0.704378
35.3454 -18.8357 575.972 -0.199759 -0.853173 -0.481863
32.8129 -16.8038 573.758 -0.156211 -0.865628 -0.475696
21.5953 -14.2456 568.11 0.351114 -0.90868 -0.225876
42.1061 -18.0285 572.664 -0.101119 -0.936836 -0.334834
24.374 -13.5231 566.774 -0.0208023 -0.926932 -0.374652
-28.6804 -44.0138 583.591 -0.604264 0.198254 0.771726
-26.9248 -46.6462 585.226 -0.519974 0.106997 0.847454
-24.4196 -49.4853 586.719 -0.456398 0.120351 0.881599
-22.3285 -53.3655 588.419 -0.338111 0.0901555 0.936778
6.55323 -40.4074 581.228 0.73762 0.0536516 0.673081
22.4029 -12.675 564.493 0.435283 -0.893086 -0.113698
31.5193 -11.6798 563.982 -0.0211271 -0.930434 -0.365849
-49.4615 19.5874 502.835 -0.48073 -0.0310276 0.87632
-57.3667 22.9243 500.298 -0.589759 -0.117651 0.798963
-33.2778 -68.5401 577.482 -0.704386 -0.213773 0.676861
-33.9761 -66.193 577.423 -0.677226 -0.25439 0.690399
-28.7064 -64.465 583.871 -0.581612 -0.0717694 0.810294
-32.5393 -60.5807 580.328 -0.698137 -0.119051 0.705997
-35.0034 -57.519 578.73 -0.800807 -0.201315 0.564075
-33.4018 -59.124 580.694 -0.663426 -0.141176 0.734803
-26.8039 -62.1742 584.701 -0.534879 -0.027492 0.844481
50.6763 -9.20599 554.202 -0.140378 -0.877405 -0.458753
-20.4661 -64.4756 587.665 -0.290631 -0.198874 0.935939
-31.6773 -56.6661 581.805 -0.577829 -0.131412 0.805509
47.8428 -10.2253 555.68 -0.0394202 -0.886284 -0.461461
-23.1003 -61.6282 586.83 -0.412438 -0.0992676 0.905561
55.4193 -11.9479 558.531 -0.0770712 -0.896061 -0.43719
-30.7824 -52.0059 582.033 -0.670726 0.0798719 0.737392
-32.7044 -48.6003 580.07 -0.756428 0.0826306 0.648836
35.1023 -10.1072 558.655 -0.0522693 -0.866798 -0.495912
11.8506 -36.8759 574.195 0.770702 -0.0319371 0.636395
7.00532 -45.4076 580.337 0.667999 -0.141603 0.730566
10.3313 -38.9808 576.259 0.773794 -0.0140363 0.633281
-19.1934 -60.2403 588.56 -0.28942 -0.149756 0.945415
37.0631 -10.9678 560.553 -0.072549 -0.840653 -0.536692
-17.0376 -58.5108 589.489 -0.161021 -0.166395 0.972823
-29.9367 -47.8966 582.97 -0.683039 0.0380638 0.729389
43.223 -14.5683 564.806 -0.150102 -0.892346 -0.425661
34.2297 -11.9871 562.03 -0.112203 -0.920684 -0.373834
4.63703 -43.4987 582.64 0.618941 -0.108635 0.777888
0.376263 -50.3337 632.928 -0.0902447 -0.784319 -0.613759
-2.76926 -51.6665 634.099 -0.082965 -0.782024 -0.617701
-6.03397 -51.9574 635.759 -0.231244 -0.788189 -0.570337
-9.05237 -49.4939 633.87 -0.261187 -0.780305 -0.568247
136.166 -30.5414 632.429 0.686288 -0.586915 0.429581
-12.2965 -51.4217 637.994 -0.160978 -0.741451 -0.651412
4.23257 -59.3432 644.262 -0.0351437 -0.817076 -0.575457
0.167244 -62.9867 649.181 0.00289205 -0.81987 -0.572542
107.541 -37.611 642.059 0.421338 -0.878256 -0.226142
3.39084 -63.6784 651.333 -0.0135964 -0.827341 -0.561535
-0.480946 -65.1361 652.499 0.0342162 -0.807742 -0.588543
110.651 -37.7115 643.641 0.0226014 -0.851541 -0.523801
107.229 -38.9655 645.576 0.132384 -0.908057 -0.397376
-39.5941 -61.5803 650.295 -0.0215321 -0.812251 -0.58291
1.22042 -69.1032 658.633 0.0512487 -0.870767 -0.489018
-7.81977 -69.1653 659.044 -0.13614 -0.841578 -0.522697
-5.2326 -70.9004 661.117 -0.0545313 -0.848514 -0.526356
-8.46135 -71.5983 663.116 -0.0273266 -0.8004 -0.598843
-12.5421 -72.722 663.891 -0.028133 -0.761974 -0.646996
-20.9605 -72.0916 664.313 0.0588579 -0.763591 -0.643012
-13.3017 -77.5242 671.192 -0.106875 -0.856047 -0.505728
128.308 -20.3317 651.59 0.696882 -0.513258 0.500921
-16.5664 -77.8151 672.853 -0.0748176 -0.834339 -0.546151
125.947 -21.198 653.571 0.629989 -0.470921 0.617533
-8.06585 -80.3312 675.575 -0.0843408 -0.856874 -0.508579
120.403 -25.9638 656.742 0.726121 -0.35744 0.587354
6.40967 -82.965 679.184 -0.134896 -0.816054 -0.562012
7.92928 -89.6769 688.072 -0.0477972 -0.852159 -0.521096
122.49 -17.2577 662.069 0.632154 -0.594295 0.497187
10.1674 -91.1506 690.558 -0.100285 -0.842869 -0.528692
119.047 -19.172 663.396 0.689976 -0.504476 0.519073
11.769 -92.7556 692.522 -0.0439305 -0.71405 -0.698715
9.48993 -94.5195 693.83 -0.0170426 -0.768851 -0.639201
17.6927 -96.4326 696.524 -0.0952681 -0.935531 -0.340155
-13.3754 -82.652 694.734 -0.430335 -0.346837 0.833376
-5.91725 -83.0892 698.889 -0.630043 -0.399155 0.666124
