ply
format ascii 1.0
element vertex 890
property float x
property float y
property float z
property float nx
property float ny
property float nz
end_header
98.2416 106.619 543.81 -0.654465 -0.45452 -0.604225
63.4879 101.391 492.61 0.698381 -0.475283 -0.535136
89.1967 106.679 544.509 -0.124252 -0.818843 -0.560409
55.9273 99.0956 494.701 -0.131163 -0.898407 -0.419118
57.6875 98.3468 496.677 -0.21297 -0.843778 -0.492628
94.2338 103.913 548.829 -0.543636 -0.60777 -0.578857
49.4964 98.4912 496.31 -0.101284 -0.928535 -0.357163
57.1806 96.0709 500.747 -0.179212 -0.867514 -0.464007
53.7433 95.8851 502.01 0.00875096 -0.87311 -0.487444
56.0869 94.0446 504.159 -0.107472 -0.874475 -0.473016
35.8284 97.4012 501.906 -0.161603 -0.842108 -0.514527
90.9647 97.3176 554.772 -0.610009 0.343915 -0.713871
87.8041 98.2724 556.637 0.211603 -0.616484 -0.7584
84.5488 96.7133 557.412 0.122895 -0.5984 -0.791716
37.1773 95.5767 504.979 -0.187216 -0.852636 -0.487813
51.5459 92.171 509.077 -0.0346162 -0.894192 -0.446344
86.386 95.1111 558.922 -0.29529 -0.0872108 -0.951419
48.1335 91.6469 511.128 -0.0575911 -0.945674 -0.319976
44.7776 91.1142 512.935 -0.0285358 -0.899254 -0.436495
46.9501 89.8026 515.026 0.0122846 -0.889363 -0.457037
84.306 88.6553 551.474 0.590857 0.649817 -0.478149
-46.7963 93.8935 497.225 -0.697026 0.376822 -0.610049
-50.4109 93.4006 500.511 -0.696061 0.426943 -0.577251
-52.5573 93.2052 503.615 -0.668197 0.366024 -0.647719
-52.8233 90.7123 501.072 -0.685674 0.419564 -0.594825
-58.4879 91.5263 507.946 -0.676906 0.441159 -0.589217
-48.8134 86.9777 495.072 -0.678753 -0.197484 -0.707315
-52.2216 86.5817 498.275 -0.685846 -0.16911 -0.707826
-64.5481 91.3838 513.734 -0.641279 0.149056 -0.752691
-50.2261 84.8574 498.212 -0.423319 -0.728171 -0.539043
-63.5508 88.2097 512.023 -0.627904 0.363629 -0.688121
-48.4509 83.0261 500.889 -0.172305 -0.892417 -0.417016
-63.3026 86.1499 509.755 -0.66734 0.311427 -0.676513
-47.572 79.8855 506.779 -0.185792 -0.825032 -0.53367
-49.9311 79.2117 508.309 -0.245381 -0.820655 -0.516055
-48.0426 77.6655 510.763 -0.188041 -0.827838 -0.528511
-57.2125 79.3481 511.636 -0.225603 -0.858103 -0.461263
-55.6489 78.0112 514.214 -0.205879 -0.836508 -0.507807
-112.91 91.0414 528.839 0.0525525 -0.847131 -0.528779
-116.481 89.655 530.498 0.0417174 -0.83327 -0.55129
-114.18 88.3265 533.133 0.07217 -0.872469 -0.483311
-48.9117 75.5918 513.995 -0.445208 -0.613265 -0.652453
-52.698 75.5795 516.125 -0.352926 -0.777662 -0.520275
-123.448 88.6233 533.025 -0.0695644 -0.897025 -0.43647
-121.374 87.3289 536.634 -0.00912141 -0.851245 -0.524689
-19.9118 64.7349 499.992 0.801851 0.104938 -0.588237
-49.5798 72.448 516.673 -0.592819 -0.35373 -0.723492
-119.089 86.0003 538.238 -0.0581983 -0.752255 -0.656297
-18.1275 60.5721 500.937 0.697639 0.416383 -0.583031
-51.1428 69.5589 518.637 -0.647062 0.0479778 -0.760926
-55.4498 69.8077 521.395 -0.505208 0.189546 -0.841925
-58.766 70.616 523.222 -0.358883 -0.00170306 -0.933381
-35.1147 -5.56572 564.018 0.0722302 -0.862176 -0.501433
-38.6684 -6.57665 565.283 0.0890937 -0.881481 -0.463739
-45.48 -8.13744 566.838 0.0212156 -0.919927 -0.391514
-5.29536 -14.7813 581.536 0.0328307 -0.825053 -0.564101
-43.4379 -9.427 570.585 0.0345818 -0.906564 -0.42065
-8.73605 -15.8092 582.314 0.0541848 -0.665829 -0.744134
-12.9201 -16.5308 582.909 0.0589694 -0.567421 -0.821313
-9.42586 -19.1171 583.81 0.403346 0.0680702 -0.912512
-19.1113 -20.9075 583.678 -0.468702 0.161597 -0.86845
-22.6816 -20.3991 585.913 -0.566698 0.0450669 -0.822692
-26.9933 -19.6612 587.583 -0.183284 -0.356036 -0.916322
-17.6054 -23.1421 582.565 -0.0730147 0.676572 -0.732747
-24.9909 -22.4271 587.16 -0.454323 0.229984 -0.860638
-19.7297 -24.869 579.565 -0.11093 0.945773 -0.3053
-22.6862 -25.4642 578.557 -0.235139 0.944161 -0.230802
-26.9535 -25.867 581.004 -0.315901 0.92899 -0.192832
-97.7085 -16.8906 585.062 0.0147903 -0.868008 -0.496331
-101.136 -17.4149 586.082 -0.0359599 -0.854837 -0.517649
-98.9429 -19.2328 588.88 -0.0111847 -0.891691 -0.452506
-29.2042 -29.0965 575.458 -0.519997 0.78 -0.348142
-61.5862 -26.5009 597.637 -0.0238661 -0.871311 -0.49015
-65.366 -27.4778 599.875 -0.0665142 -0.851893 -0.519475
0.370562 -35.3216 559.688 0.425421 0.724849 -0.541858
-66.0824 -29.39 602.857 -0.0694856 -0.88339 -0.463459
-75.452 -28.0691 602.69 0.0104442 -0.822979 -0.567975
-39.2369 -33.2206 582.517 -0.668945 0.636341 -0.384165
-79.0755 -29.5752 603.956 0.0466562 -0.800928 -0.596941
-75.4387 -32.0966 608.997 -0.088059 -0.795589 -0.599403
-82.7422 -30.5691 605.707 0.0536222 -0.861898 -0.504239
-78.1447 -33.3285 610.055 -0.0193047 -0.786077 -0.617827
-98.7787 -43.0734 626.56 0.124822 -0.811758 -0.570499
-96.455 -44.2368 629.194 0.145383 -0.743292 -0.652978
-102.02 -41.4444 623.696 0.0213901 -0.821384 -0.569974
-97.798 -41.03 623.635 0.0200623 -0.868475 -0.495328
-109.975 -35.2925 614.957 -0.012549 -0.756843 -0.653477
-103.495 -33.6867 612.639 -0.0884263 -0.816359 -0.570736
-99.6032 -32.977 610.864 -0.0593566 -0.819937 -0.569368
-73.2712 -36.429 614.788 -0.0962365 -0.843219 -0.528886
-97.459 -32.0189 610.045 -0.067121 -0.840041 -0.538354
-75.7223 -35.0779 612.802 -0.0399526 -0.873829 -0.484588
-24.457 1.98897 549.794 0.0945456 -0.852066 -0.514825
-26.9835 3.35145 548.132 0.0252584 -0.842735 -0.537736
-23.4607 4.43787 546.418 0.0546387 -0.937706 -0.343106
-19.7897 4.34907 544.632 -0.0924716 -0.925158 -0.368147
-36.2452 8.24089 537.593 0.0626231 -0.843822 -0.532957
-15.3484 6.74321 540.443 0.0190112 -0.883797 -0.467483
-17.6488 8.07166 537.808 -0.0475925 -0.943752 -0.327211
-13.8807 8.04152 536.116 -0.00626777 -0.944428 -0.328657
-22.0237 10.6945 531.565 0.0470003 -0.88123 -0.470345
-15.1681 11.4915 529.919 -0.115059 -0.896506 -0.42783
-26.7627 22.5402 505.526 0.0456304 -0.938826 -0.341355
-19.6146 23.9264 503.542 0.0488764 -0.917531 -0.394648
-33.5005 26.3758 497.389 0.0378088 -0.911421 -0.409735
-35.8482 27.7089 493.863 0.0357224 -0.874194 -0.48426
-32.5188 28.2504 494.36 0.0708725 -0.871997 -0.484354
-29.285 29.0032 492.979 0.232028 -0.590066 -0.773295
-13.2509 29.2357 504.926 0.547362 0.523074 -0.65329
-10.4564 29.8153 508.108 0.549468 0.365437 -0.751359
-12.8681 32.9382 507.38 0.52526 0.193788 -0.828582
-5.00114 31.5803 512.394 0.614964 0.244971 -0.749539
-153.342 62.1384 578.883 -0.566968 -0.655575 -0.498767
-41.8702 36.7106 485.52 0.56952 0.290698 -0.768858
-39.347 38.2873 487.544 0.501006 0.434393 -0.748529
-36.3032 39.4809 490.726 0.576806 0.391705 -0.716842
-9.71841 39.3557 511.335 0.497988 0.226778 -0.837006
-154.429 67.8258 569.701 -0.340741 -0.8844 -0.318954
-39.5735 43.0865 490.406 0.547586 0.361964 -0.754408
-133.621 70.9318 561.07 -0.200818 -0.727282 -0.656302
-46.6901 60.5751 507.659 -0.148208 0.875766 -0.459421
-47.5145 63.0555 511.147 -0.428093 0.780386 -0.455779
-54.4196 66.7405 519.413 -0.094698 0.63424 -0.767315
-15.6542 57.1952 501.63 0.710907 0.174286 -0.681349
-114.499 81.4654 541.663 -0.49206 -0.279098 -0.82461
-61.5878 68.7713 523.943 0.0905075 0.607602 -0.789068
-48.4164 66.2185 513.909 -0.654703 0.361524 -0.663825
48.4268 161.329 529.304 0.508537 0.520691 -0.685763
45.2879 161.541 526.627 0.575557 0.550528 -0.604692
75.5534 149.446 539.099 0.409333 0.342513 -0.845654
77.3607 147.843 538.548 0.311208 0.431344 -0.846813
80.255 144.825 538.041 0.347193 0.420951 -0.838008
66.2147 143.24 529.811 0.454762 0.438624 -0.775113
49.1607 128.786 474.116 0.577004 -0.551852 -0.602101
74.7898 142.474 534.543 0.338982 0.533888 -0.774632
71.7688 140.674 532.364 0.425653 0.492531 -0.7591
69.2974 140.117 530.129 0.475351 0.380249 -0.79338
46.1083 128.008 475.591 0.326219 -0.746822 -0.579516
71.8731 137.321 529.937 0.256447 0.593019 -0.763258
74.6539 135.412 529.109 0.424854 0.41913 -0.802389
71.8742 133.781 527.836 0.326992 0.284472 -0.901195
54.6476 126.533 490.106 0.88902 0.414797 -0.193875
54.7578 123.761 486.662 0.8249 0.38638 -0.412614
80.0062 129.611 530.44 0.510086 0.286297 -0.811077
56.9985 123.005 490.861 0.760121 0.583939 -0.28501
54.8699 121.137 484.44 0.582533 0.45558 -0.673128
59.9793 120.903 491.627 0.610937 0.761934 -0.214974
58.7414 118.369 484.409 0.422302 0.789953 -0.444562
77.2225 127.06 527.943 0.47563 0.160765 -0.86483
74.1701 127.472 526.193 0.412752 -0.00672426 -0.910819
61.5505 117.98 487.642 0.743704 0.6042 -0.28609
55.5429 117.226 481.285 0.0485549 0.697333 -0.715101
62.0226 117.418 491.88 0.912251 0.398394 -0.0952946
56.0145 114.242 478.55 -0.00192278 0.218602 -0.975812
52.4834 115.293 479.748 -0.142573 0.384892 -0.911883
85.1223 122.719 530.785 0.338778 -0.0745229 -0.93791
63.3191 115.73 496.349 0.948089 0.308427 -0.0774627
81.6156 120.294 529.911 0.361521 -0.16601 -0.917466
58.197 111.364 478.986 0.219293 -0.272022 -0.936971
49.2363 112.742 479.602 -0.0745343 -0.265247 -0.961295
89.8452 116.109 532.348 0.197039 -0.190162 -0.961777
86.7028 114.533 532.637 -0.0576033 -0.570253 -0.819447
64.3831 114.607 513.071 0.959619 0.27932 -0.033331
41.9439 110.696 481.804 0.0668513 -0.688085 -0.722544
45.6401 108.095 483.266 -0.191594 -0.678243 -0.709421
88.991 112.74 535.048 0.0286515 -0.744622 -0.666871
65.5531 109.385 509.416 0.932065 0.32062 -0.168693
91.3902 110.852 536.935 -0.0568261 -0.775082 -0.6293
46.7544 106.579 485.324 -0.0939068 -0.703673 -0.704291
87.9722 110.495 538.38 -0.0658603 -0.872282 -0.484548
84.2717 109.843 540.111 -0.0692206 -0.849098 -0.523681
67.0646 106.827 514.65 0.961752 0.265809 -0.0661762
87.1334 108.432 541.424 -0.0479511 -0.86877 -0.492889
68.2326 104.985 517.383 0.94377 0.291963 -0.155098
45.0164 101.407 491.48 -0.12841 -0.865847 -0.48355
82.1067 105.718 546.361 0.011395 -0.834864 -0.550338
47.2674 99.8113 494.463 -0.0856116 -0.897465 -0.432697
37.6152 101.175 495.512 -0.0987678 -0.949698 -0.297184
46.1447 98.1823 498.111 -0.117503 -0.93206 -0.34272
42.2826 98.1707 500.296 -0.0950967 -0.875838 -0.473144
79.7883 99.5194 552.357 0.610288 -0.227163 -0.758911
47.0956 95.0109 504.811 -0.166599 -0.87655 -0.451559
49.3169 93.4912 507.229 -0.0267154 -0.897409 -0.44039
79.0602 95.9549 549.487 0.916073 0.326524 -0.23279
39.9207 93.8048 506.577 -0.0506501 -0.883697 -0.46531
36.5216 93.7842 508.87 -0.212939 -0.885042 -0.413953
81.6459 93.685 555.611 0.814131 0.350141 -0.46324
33.1594 93.5554 510.666 -0.236694 -0.888241 -0.393704
36.3454 91.2924 512.512 -0.177931 -0.86544 -0.468352
88.9101 82.9593 552.742 0.275947 -0.613834 -0.739636
90.9606 80.2586 558.243 -0.259871 -0.895661 -0.360914
83.4867 80.4075 553.48 0.561097 -0.492352 -0.665402
88.6974 78.9659 560.023 0.446567 -0.751265 -0.485982
84.6417 78.5167 554.988 0.51769 -0.604008 -0.605946
87.2524 78.156 558.346 0.564977 -0.660705 -0.494237
89.4341 77.0483 561.904 0.451405 -0.685032 -0.571808
-56.7061 84.6997 502.949 -0.607467 -0.461584 -0.646471
-53.9104 82.791 503.151 -0.341116 -0.806539 -0.48284
-58.0578 82.978 505.88 -0.249342 -0.814866 -0.52328
-61.4267 82.8516 507.909 -0.586398 -0.323136 -0.742779
-64.9089 83.0955 510.345 -0.627197 -0.167732 -0.760585
-66.5637 81.1347 513.038 -0.651357 -0.374057 -0.660164
-63.4711 78.1049 514.449 -0.209594 -0.806995 -0.552114
-101.354 88.6263 531.712 -0.0646684 -0.847182 -0.527352
-104.912 88.0297 533.241 -0.0254697 -0.813328 -0.581247
-102.482 86.6818 535.32 0.0119659 -0.821031 -0.570758
-111.916 86.9025 535.866 0.00265079 -0.8661 -0.499864
-110.061 85.7373 538.289 -0.117573 -0.719349 -0.684626
-34.9326 67.3807 498.852 -0.769772 0.301368 -0.562698
-37.0728 67.2849 501.696 -0.70739 0.273624 -0.651712
-103.576 83.1386 537.831 0.117579 0.2687 -0.956021
-107.861 83.9134 538.863 -0.297139 -0.165013 -0.940468
-122.444 84.8598 539.245 0.102243 -0.720706 -0.68566
-37.0529 63.7426 499.514 -0.752539 0.369313 -0.545246
-126.221 83.9781 539.049 0.0665726 -0.792711 -0.605952
-70.2261 72.0045 521.825 0.64807 0.36806 -0.666736
-26.9292 -7.2872 568.474 0.1108 -0.769879 -0.628498
-29.5498 -8.35807 569.517 0.0542471 -0.82168 -0.567362
-34.1108 -9.12787 569.923 -0.0163876 -0.854372 -0.519403
-31.6802 -10.6473 572.771 -0.0160675 -0.944114 -0.329228
-17.8281 -13.0206 578.565 -0.00713359 -0.887717 -0.460334
-21.199 -13.5535 579.341 0.00379612 -0.860856 -0.508834
-24.7904 -14.5587 580.768 0.0561189 -0.838655 -0.541763
-20.5303 -17.6755 584.703 -0.49503 -0.208967 -0.843373
-6.95091 -21.6106 584.472 0.299166 0.157695 -0.94108
-6.91771 -24.6493 582.532 0.314154 0.691853 -0.650113
-89.4109 -19.5693 587.853 -0.0163319 -0.876527 -0.481076
-39.9748 -29.0549 592.473 -0.627733 0.313071 -0.712697
-73.0851 -24.3806 594.893 -0.0190435 -0.86297 -0.504896
-76.7197 -24.8737 596.806 -0.0801703 -0.901808 -0.424636
-20.2685 -31.9052 560.169 -0.110213 0.845975 -0.521709
-24.0649 -31.3628 563.377 -0.455834 0.800667 -0.388777
-42.6708 -29.4244 595.968 -0.811146 0.248905 -0.529234
-79.3149 -25.5136 598.622 0.0678277 -0.879302 -0.47141
-16.4206 -32.7034 558.779 -0.123723 0.826229 -0.549581
-77.7524 -26.7407 600.055 0.022475 -0.847818 -0.529811
-12.5305 -33.726 556.453 0.0768607 0.797738 -0.598086
-42.6177 -32.2157 592.997 -0.726916 0.555586 -0.403631
-64.0229 -30.6846 605.435 -0.0101401 -0.759557 -0.650362
-67.6464 -32.1906 606.701 -0.132103 -0.772888 -0.620639
-71.0605 -32.2113 607.963 -0.124356 -0.812852 -0.569041
-68.5285 -34.0803 609.301 -0.127336 -0.800726 -0.58534
-66.3355 -35.8981 612.1 -0.127566 -0.865233 -0.484869
7.94698 -85.1015 680.887 0.650067 0.290996 -0.70195
-110.566 -41.5369 624.063 0.199426 -0.629681 -0.75082
-109.481 -38.8843 620.59 -0.0668869 -0.837117 -0.542918
-92.0337 -35.8014 615.545 0.0503007 -0.836759 -0.545256
-108.064 -30.529 607.53 -0.0304435 -0.879745 -0.474471
-35.8292 2.91265 546.779 0.00819452 -0.830719 -0.556632
-24.9842 6.6592 540.41 0.0759878 -0.872661 -0.482378
-22.0752 5.6777 543.027 -0.0865557 -0.895124 -0.437333
-27.1016 8.39382 537.4 0.0442525 -0.907578 -0.417545
-25.8134 9.64691 533.803 0.0131225 -0.930839 -0.365194
-33.5751 12.1149 528.628 0.0810579 -0.892666 -0.44337
-26.9349 13.0611 527.431 -0.0718392 -0.924782 -0.373655
6.80657 9.02864 532.026 -0.120341 -0.880406 -0.458697
11.3105 11.0329 526.795 -0.131035 -0.917291 -0.376042
14.7206 11.1251 524.967 -0.150244 -0.871673 -0.466489
-29.0736 18.7181 513.555 0.09175 -0.898891 -0.428459
-8.02171 17.7749 516.079 -0.0602249 -0.914829 -0.399326
-11.5123 19.2728 514.189 -0.0368228 -0.906857 -0.419827
-7.32646 19.2579 513.4 -0.061753 -0.888751 -0.454213
-8.00805 23.0544 506.845 0.421656 -0.302612 -0.85477
-4.82373 22.0221 509.483 0.339212 -0.375192 -0.862651
-142.904 48.2196 567.516 -0.570337 -0.202309 -0.796107
-45.1338 28.0107 494.924 -0.0490622 -0.917859 -0.393863
-47.4019 29.3343 492.15 0.028629 -0.887722 -0.459489
-144.442 50.7614 568.508 -0.502967 0.177214 -0.845943
-43.677 29.8163 490.944 -0.0429146 -0.957576 -0.284968
-5.75676 24.843 507.798 0.558588 0.236276 -0.79508
-40.5962 29.8836 489.474 -0.00698016 -0.926421 -0.376425
-7.11084 26.7193 508.787 0.524422 0.379482 -0.762218
-145.326 53.9185 569.733 -0.647768 0.336709 -0.683392
-138.926 53.7981 564.546 -0.623369 0.239093 -0.744477
-37.2454 30.9224 487.879 0.169328 -0.650649 -0.740259
-34.3194 32.3765 488.918 0.531188 -0.29055 -0.795877
-31.4063 31.9582 491.379 0.529336 -0.0741826 -0.845163
-27.7949 32.6342 494.533 0.490508 0.316236 -0.812033
-33.5363 35.5905 491.042 0.665845 0.287723 -0.688379
-25.9034 34.19 496.664 0.626715 0.331102 -0.705407
-146.411 61.6563 574.518 -0.439648 -0.0657617 -0.89576
-20.5378 34.6577 502.311 0.596955 0.284089 -0.750292
-18.0758 37.1427 504.336 0.564304 0.242953 -0.789009
-15.4154 36.9027 506.723 0.59784 0.159461 -0.785595
-33.6945 39.7921 493.324 0.641996 0.380855 -0.665425
-149.023 64.043 573.828 -0.178867 -0.715643 -0.675176
-145.418 64.8775 572.239 -0.233618 -0.698747 -0.676147
-30.5275 39.0838 496.755 0.596919 0.346872 -0.723441
-31.9503 41.301 495.32 0.732184 0.254428 -0.631802
-18.0179 40.6227 506.154 0.504688 0.34289 -0.792286
-33.0007 42.4607 496.063 0.696509 0.232376 -0.678879
-30.8102 48.1413 499.612 0.617893 0.181553 -0.765014
-27.9838 50.9807 501.552 0.456419 -0.304681 -0.835973
-24.6986 50.733 503.864 0.49692 -0.212369 -0.841409
-129.781 75.4244 554.101 -0.0882535 -0.727836 -0.680048
-24.2927 53.2718 501.535 0.0696309 -0.731894 -0.677852
-124.144 75.971 551.795 -0.405181 -0.71367 -0.571405
-20.92 53.8945 500.009 0.129974 -0.832229 -0.538982
-123.488 82.6912 542.365 -0.0614098 -0.841702 -0.536438
-42.9801 64.8465 506.573 -0.730766 0.345571 -0.588695
49.9593 160.101 528.675 0.486675 0.476169 -0.7324
53.0033 160.014 531.097 0.546298 0.448575 -0.707346
43.1876 158.815 520.163 0.649993 0.632105 -0.421844
55.5948 157.293 531.68 0.518826 0.400092 -0.755477
58.3333 154.888 531.829 0.407542 0.400677 -0.82059
55.3822 154.001 530.001 0.455503 0.436428 -0.775918
63.6199 149.67 532.065 0.415027 0.477156 -0.774645
61.4192 147.956 529.706 0.487833 0.453405 -0.745951
69.3168 143.673 531.983 0.525481 0.377542 -0.762451
74.7903 138.933 531.714 0.328414 0.565749 -0.756354
66.7537 138.544 528.192 0.506589 0.39957 -0.76401
48.7806 126.829 478.205 0.455497 -0.602503 -0.655372
61.423 137.769 522.873 0.529251 0.44622 -0.721652
69.3516 136.157 527.852 0.380903 0.461255 -0.801346
53.6021 126.924 485.998 0.922365 0.226186 -0.31318
45.7416 125.237 477.683 0.625922 -0.352639 -0.695606
66.031 134.601 525.921 0.53966 0.414591 -0.732722
63.6577 134.209 523.369 0.581839 0.430805 -0.689833
65.9995 131.479 523.408 0.575239 0.397042 -0.715163
49.4809 121.803 482.481 0.526698 -0.0393625 -0.84914
65.4936 128.607 521.057 0.697291 0.0890227 -0.711239
68.8948 127.881 524.055 0.440866 0.105834 -0.891312
61.8932 125.051 510.073 0.911642 0.384018 -0.146422
51.8434 118.552 482.743 0.185951 0.529331 -0.827787
62.3353 122.456 506.671 0.956679 0.275996 -0.0926887
102.435 119.795 535.9 0.793362 0.0297047 -0.608026
53.6185 113.02 478.784 -0.177982 -0.0401072 -0.983216
63.0907 113.726 488.834 0.973668 0.187166 -0.130153
63.7415 120.001 513.504 0.948456 0.286844 -0.134726
102.044 117.508 537.675 0.659389 -0.0831853 -0.747186
99.081 117.652 534.503 0.37261 -0.278028 -0.88536
54.5636 110.87 480.399 -0.0840359 -0.612068 -0.786327
63.7225 113.66 499.255 0.978852 0.201754 -0.0338128
95.6586 115.294 534.689 0.257391 -0.388719 -0.884674
92.7282 113.686 534.065 0.145567 -0.556918 -0.817712
64.1324 110.564 495.691 0.983522 0.129371 -0.126286
64.9214 109.451 498.995 0.973037 0.206993 -0.101752
59.7178 107.49 484.782 0.301999 -0.693447 -0.654162
61.065 105.928 486.924 0.596192 -0.565377 -0.570004
94.6931 112.179 535.944 0.0557675 -0.479923 -0.875536
65.2494 107.392 502.225 0.97679 0.196223 -0.0858998
52.6063 105.099 486.016 0.014172 -0.559584 -0.828653
93.6061 109.391 539.849 -0.0297886 -0.895651 -0.443759
90.2067 109.007 540.834 -0.0228968 -0.827632 -0.560804
92.6054 107.102 542.713 0.0376883 -0.803717 -0.593817
94.7988 106.015 545.942 -0.0661806 -0.777085 -0.625906
91.1691 104.844 546.339 -0.0294989 -0.783847 -0.620253
50.3984 99.7036 493.225 -0.0955964 -0.912819 -0.397017
58.738 97.1871 495.934 -0.224644 -0.871069 -0.436778
52.6262 99.0579 495.476 0.0158207 -0.937525 -0.347558
87.9262 104.295 547.659 -0.111015 -0.895313 -0.431383
55.0397 97.7124 497.625 -0.0566156 -0.872505 -0.485313
51.6373 96.8497 499.433 -0.0716337 -0.916015 -0.394697
48.3279 96.647 501.239 -0.129906 -0.862364 -0.489338
50.5436 94.8233 502.845 -0.0321946 -0.84552 -0.532973
85.3971 99.2129 554.44 0.133036 -0.730309 -0.670038
41.2265 96.2546 503.279 0.0796505 -0.869437 -0.487581
43.4894 94.8159 506.343 -0.0458371 -0.779698 -0.624476
33.6959 95.6925 506.607 -0.230037 -0.767905 -0.597833
89.1695 95.0453 554.435 -0.754927 0.440805 -0.485567
46.3001 92.9074 507.576 -0.100141 -0.846182 -0.523401
83.9038 93.7768 558.392 0.300444 0.270861 -0.914532
53.7656 90.4517 512.477 -0.0977606 -0.929984 -0.354363
50.0517 90.3736 514.314 -0.0717186 -0.912224 -0.403366
86.0979 92.1176 556.905 -0.52677 0.590606 -0.611309
85.1271 90.5686 555.707 0.013366 0.845581 -0.533681
53.0349 88.7444 515.859 -0.0958182 -0.888166 -0.449422
80.922 81.2336 550.014 0.559771 -0.637224 -0.529718
80.0571 78.1481 552.629 0.552437 -0.686216 -0.473203
77.877 78.2238 549.319 0.658135 -0.610812 -0.440189
-58.5875 94.9121 510.373 -0.602018 -0.0111231 -0.798405
87.6004 76.0974 562.95 0.507576 -0.664557 -0.54839
-50.0608 89.8102 497.637 -0.725188 0.354331 -0.590383
-62.3112 94.9936 512.758 -0.469276 -0.311702 -0.826209
-54.9575 88.491 502.195 -0.725583 0.189078 -0.661648
-60.6121 91.8316 510.524 -0.642627 0.274613 -0.715275
-46.6035 84.4856 495.837 -0.329636 -0.745731 -0.578987
-57.4253 88.3408 505.223 -0.667941 0.340867 -0.661562
-60.3528 88.7589 507.61 -0.67849 0.409532 -0.609865
-44.6222 83.0594 499.135 -0.168929 -0.917426 -0.360268
-53.4494 84.9078 500.274 -0.591462 -0.478741 -0.648829
-52.5806 83.6118 502.404 -0.290941 -0.853328 -0.432649
-65.7997 86.5088 512.844 -0.652065 0.29509 -0.698379
-52.7667 81.3395 506.843 -0.295404 -0.836848 -0.460893
-56.2278 81.687 508.521 -0.206473 -0.831742 -0.515338
-53.6953 79.5775 509.819 -0.248997 -0.811461 -0.528707
-52.2681 77.8668 512.265 -0.271654 -0.822725 -0.499326
-118.769 91.4311 528.078 -0.0799015 -0.814053 -0.575269
-58.3533 77.3853 515.405 -0.0844376 -0.825544 -0.557985
-122.334 90.9114 529.682 -0.0475041 -0.77645 -0.628386
-119.636 89.0916 531.223 -0.0409627 -0.869099 -0.492939
-117.76 87.8242 534.374 -0.0126342 -0.925984 -0.37735
-115.123 86.4484 537.089 -0.0371709 -0.81036 -0.584752
-124.632 86.779 536.924 0.0668936 -0.76251 -0.643509
-42.9069 68.1244 509.3 -0.734158 0.339287 -0.58813
-45.9099 68.5538 512.012 -0.706282 0.179341 -0.684837
-40.9556 -5.08328 561.96 0.112316 -0.893616 -0.434551
-37.2622 -7.27457 567.688 0.0629445 -0.856294 -0.512639
-44.5226 -6.25913 563.913 0.0571418 -0.862707 -0.502466
-39.8028 -8.42952 568.423 0.0464941 -0.885956 -0.461433
-11.851 -13.8603 579.982 -0.0213353 -0.78888 -0.614177
-37.7343 -10.2275 572.304 0.0674239 -0.910155 -0.408745
-47.6275 -9.84628 570.507 0.023711 -0.88152 -0.471552
-2.71069 -16.6557 583.743 -0.0109301 -0.621013 -0.783724
-6.46773 -17.6385 584.788 0.183787 -0.396422 -0.899484
-3.77948 -20.0365 585.154 0.185552 -0.167376 -0.968275
-21.7708 -22.549 585.173 -0.488168 0.613124 -0.621104
-22.818 -24.4283 581.914 -0.233292 0.894523 -0.381319
-28.1701 -24.6726 586.843 -0.454246 0.757416 -0.469022
-92.8317 -17.5763 585.961 -0.14116 -0.813197 -0.56461
-95.3515 -18.2275 587.454 -0.092405 -0.843851 -0.528562
-93.3968 -20.2648 590.033 -0.118019 -0.868526 -0.481387
-26.0195 -30.067 568.014 -0.466961 0.807877 -0.359559
-66.8287 -25.261 595.692 -0.0573321 -0.866048 -0.496663
-5.52847 -33.9885 558.014 0.236671 0.793167 -0.561135
-59.5816 -28.2904 601.247 -0.0594034 -0.842691 -0.53511
-62.8395 -28.8403 601.537 0.0197851 -0.846884 -0.53141
-80.7543 -27.3242 601.433 0.0218748 -0.814047 -0.580387
-45.4334 -33.328 595.463 -0.689462 0.57667 -0.438286
-60.4651 -30.0535 603.928 -0.0957267 -0.855 -0.509717
-73.1405 -30.4105 604.678 -0.108887 -0.77454 -0.623083
-76.7751 -30.9036 606.591 -0.0527024 -0.900767 -0.431093
-79.7769 -31.4872 607.969 0.0561849 -0.829371 -0.555867
-83.6619 -32.453 608.47 0.00743251 -0.851361 -0.524528
-92.8636 -43.2315 627.768 0.01547 -0.8661 -0.499632
-92.0137 -41.8426 625.006 -0.0363609 -0.896417 -0.441717
-111.302 -37.1201 617.281 -0.0760312 -0.83629 -0.542991
-109.098 -32.6462 611.73 -0.0464525 -0.90359 -0.425873
-67.3683 -37.7651 615.349 -0.119791 -0.841555 -0.526722
-105.763 -31.8575 610.165 0.00193889 -0.892168 -0.451699
-81.582 -34.2539 611.755 -0.0461819 -0.855406 -0.515896
-18.8987 1.21037 552.139 -0.0458493 -0.894304 -0.445105
-21.4252 2.57286 550.477 0.0849826 -0.867356 -0.490378
-17.766 3.56668 548.211 -0.092634 -0.944897 -0.313989
-25.9131 4.80632 543.605 0.0631359 -0.928172 -0.366757
-30.4285 7.42341 538.826 0.0179434 -0.865212 -0.501085
-21.1327 7.55584 539.072 -0.0339571 -0.894025 -0.446729
-23.4332 8.88429 536.437 -0.0307161 -0.935841 -0.351082
-19.8591 8.81008 535.068 -0.0490475 -0.925062 -0.376636
-16.2394 9.88191 532.936 -0.0617598 -0.851936 -0.519992
-21.2491 12.0948 529.128 0.0154959 -0.932221 -0.361557
-18.7659 11.2444 531.275 -0.00274946 -0.884265 -0.466977
-11.9477 17.5249 518.052 0.0277575 -0.905477 -0.423486
-25.6817 20.0872 511.726 0.0392103 -0.920276 -0.389299
-27.5738 20.5171 509.389 0.0224914 -0.927104 -0.37413
-24.4947 21.5959 508.525 0.037156 -0.905925 -0.421805
-144.233 45.18 569.573 -0.481316 -0.499102 -0.720578
-141.164 44.9954 567.673 -0.732114 -0.272738 -0.624198
-20.7074 22.5728 506.803 0.000426197 -0.919233 -0.393714
-25.5144 24.5866 502.021 0.0989042 -0.887959 -0.449163
-27.983 25.6019 499.284 -0.0608847 -0.880319 -0.470458
-30.0489 26.8965 496.265 0.0144586 -0.859664 -0.510654
-26.4084 27.8501 495.396 0.136808 -0.652632 -0.745221
-34.4821 29.1932 491.046 0.182886 -0.764 -0.618754
-5.42358 28.5835 510.852 0.555331 0.337785 -0.75994
-39.5534 33.3419 486.326 0.496319 -0.135782 -0.857456
-7.9945 31.8964 510.113 0.520612 0.248567 -0.81681
-36.7649 35.2732 487.993 0.456169 0.20381 -0.866239
-10.361 35.3312 509.786 0.561372 0.179132 -0.807944
-7.5603 35.2568 511.703 0.528709 0.27875 -0.801726
-44.2301 40.0872 485.375 0.634197 0.382807 -0.671754
-41.446 40.7055 488.205 0.514406 0.425343 -0.744628
-154.575 66.5059 572.452 -0.409116 -0.858219 -0.309973
-150.958 66.3276 570.217 -0.186106 -0.891105 -0.413879
-12.7761 38.829 508.795 0.494111 0.326193 -0.805886
-4.82936 38.7803 513.967 0.402779 0.0652445 -0.912969
-44.1464 44.1973 487.624 0.52543 0.366661 -0.767778
-36.4764 42.9427 492.414 0.480247 0.399472 -0.780887
-41.6809 56.2385 497.087 0.103244 0.80556 -0.58345
-17.4717 55.5006 500.166 0.431229 -0.137793 -0.891658
-20.162 56.3061 497.147 0.485614 -0.438078 -0.756483
-58.1788 67.5287 521.954 -0.235248 0.539802 -0.808253
-19.2736 58.9617 498.801 0.755933 0.14351 -0.638726
-45.6196 64.4685 509.826 -0.705486 0.463357 -0.536273
47.4574 160.856 527.863 0.480016 0.574415 -0.663047
80.2063 147.107 539.234 0.33689 0.428788 -0.83824
61.0405 146.622 528.638 0.502243 0.444456 -0.741762
77.4504 145.135 537.294 0.324609 0.432862 -0.840987
46.9915 129.091 473.602 0.263628 -0.748851 -0.608048
71.5713 142.926 533.438 0.44664 0.423753 -0.788001
68.6275 142.324 530.55 0.524758 0.415485 -0.742968
74.6889 140.465 533.049 0.331771 0.530424 -0.780115
66.5106 140.743 528.646 0.506275 0.356295 -0.785328
48.9861 127.746 476.166 0.487971 -0.643317 -0.589939
74.7653 136.915 530.623 0.430843 0.427058 -0.794982
72.0028 135.785 528.48 0.296055 0.4294 -0.85321
54.3634 126.063 487.745 0.908413 0.32674 -0.260819
44.9969 125.086 476.36 0.65713 -0.328241 -0.678555
74.3747 133.432 529.113 0.420095 0.342001 -0.840569
55.374 124.409 489.065 0.833467 0.485442 -0.263966
77.3231 129.84 528.456 0.488692 0.259932 -0.832836
57.2089 119.596 485.037 0.613879 0.578881 -0.536702
59.9039 119.56 488.232 0.590761 0.718948 -0.366217
55.2392 118.86 483.065 0.197873 0.700878 -0.685286
79.8444 126.826 529.473 0.437017 0.227834 -0.87012
71.6985 127.488 524.848 0.33042 0.0895096 -0.93958
61.9761 118.937 490.789 0.835297 0.529816 -0.146881
58.1474 116.763 481.588 0.341474 0.712043 -0.613506
62.1225 121.978 505.098 0.887285 0.447278 -0.112554
62.1777 116.547 488.523 0.928249 0.328634 -0.174224
58.7677 114.236 478.989 0.239936 0.351811 -0.904798
82.2444 123.287 529.457 0.365452 0.00527795 -0.930815
49.3833 115.495 479.988 0.00546902 0.304996 -0.952338
63.4887 116.721 498.408 0.968296 0.238134 -0.0754674
55.6715 111.937 478.858 -0.147511 -0.474275 -0.86793
84.7461 119.777 531.209 0.223171 -0.219056 -0.949847
52.1324 112.168 479.712 -0.183518 -0.363979 -0.913149
87.2819 116.469 531.779 0.0587186 -0.225239 -0.972533
44.8556 110.224 482.368 -0.138907 -0.596089 -0.790811
89.1942 114.038 533.086 0.0925547 -0.613254 -0.784445
86.0288 113.311 534.419 -0.133331 -0.758265 -0.638167
94.5084 110.411 536.647 -0.0735627 -0.741313 -0.667116
65.7227 110.375 511.475 0.934133 0.332987 -0.12851
49.5198 105.938 485.749 -0.0588698 -0.658281 -0.750467
84.9322 111.007 537.742 -0.101833 -0.832514 -0.544564
87.3145 109.414 540.148 -0.0482691 -0.842427 -0.536644
83.9437 108.881 540.925 -0.0943608 -0.842966 -0.529627
67.4132 107.374 517.879 0.954858 0.265173 -0.133903
68.176 103.977 514.837 0.951951 0.271148 -0.142367
47.75 100.747 491.888 -0.167714 -0.919063 -0.356644
85.2878 105.339 547.01 -0.119464 -0.833282 -0.539786
44.3187 100.226 494.02 -0.0957922 -0.883543 -0.45845
41.6709 99.5917 494.968 -0.188086 -0.934541 -0.302087
40.2991 100.796 495.635 -0.207452 -0.934424 -0.28951
43.2716 98.9921 497.159 -0.21974 -0.918733 -0.328091
45.245 97.3054 500.9 -0.169279 -0.890607 -0.422095
82.4428 99.5269 553.743 0.219261 -0.599871 -0.769467
49.8998 94.0776 505.118 -0.10117 -0.916463 -0.387118
46.6658 93.8636 506.6 -0.108155 -0.792805 -0.599803
43.0539 93.3646 507.32 -0.049273 -0.864287 -0.500579
79.6896 96.3771 552.187 0.921286 0.166091 -0.351633
34.0533 94.6348 507.754 -0.220794 -0.866493 -0.447706
35.9494 92.3549 511.062 -0.170849 -0.843008 -0.510048
88.9766 82.9549 554.959 -0.459034 -0.722406 -0.517125
83.2432 81.7351 551.127 0.611671 -0.633154 -0.474315
88.4348 80.3103 557.552 0.231075 -0.824502 -0.516528
85.7001 80.4877 554.754 0.488992 -0.498972 -0.715482
90.6746 79.1944 561.116 0.211976 -0.853339 -0.476318
82.5084 78.0948 554.361 0.377305 -0.686141 -0.621974
87.3292 76.9161 560.69 0.53212 -0.700685 -0.475278
-56.2872 87.6703 502.942 -0.671764 0.229257 -0.704396
-52.1523 82.5444 503.715 -0.256683 -0.871294 -0.418284
-59.4467 82.4714 507.937 -0.327657 -0.672026 -0.664095
-66.7715 83.4129 512.264 -0.719303 -0.152332 -0.677789
-104.259 89.5494 531.388 -0.116085 -0.805745 -0.580774
-61.784 77.8678 514.849 -0.114778 -0.787836 -0.605096
-101.056 87.488 534.155 -0.0227237 -0.883102 -0.468631
-105.269 87.0736 534.806 -0.0340872 -0.841671 -0.538913
-109.039 86.5985 536.236 -0.191691 -0.826646 -0.529065
-112.471 86.0759 537.717 -0.0295816 -0.731826 -0.680849
-41.2863 68.1429 506.851 -0.769611 0.349341 -0.534471
-106.502 83.4387 537.712 -0.153424 0.0914854 -0.983916
-35.5204 64.3643 497.793 -0.723558 0.275492 -0.632904
-41.0919 65.8384 504.666 -0.668007 0.286189 -0.686922
-125.184 85.1779 538.792 0.0829026 -0.691902 -0.717216
-72.8897 73.0084 520.529 0.296546 0.451205 -0.841709
-38.1931 64.1598 501.289 -0.751989 0.375397 -0.541839
-24.2926 -7.51335 569.094 0.0634487 -0.78188 -0.620192
-33.406 -7.81632 568.603 0.0143154 -0.803901 -0.59459
-31.1554 -9.39249 570.207 0.0423208 -0.830947 -0.55474
-14.4539 -13.4946 579.365 0.0213308 -0.855611 -0.517179
-34.9392 -10.4189 572.652 0.049716 -0.919038 -0.391021
-24.0912 -13.1471 578.656 -0.000782795 -0.865176 -0.501468
-22.0489 -14.9423 582.103 0.0353543 -0.802083 -0.596165
-4.19837 -23.0071 585.16 0.491006 0.298603 -0.818382
-6.93431 -23.13 583.502 0.346532 0.370988 -0.861559
-3.63992 -25.5429 583.177 0.482679 0.765887 -0.424781
-86.4489 -19.4805 588.537 0.0366939 -0.901186 -0.431876
-69.9519 -24.8207 595.636 -0.0568811 -0.85483 -0.515781
-41.5306 -29.8416 594.193 -0.724638 0.300949 -0.619943
-77.3868 -25.7845 599.079 0.029267 -0.862384 -0.505408
-80.0263 -24.8114 596.789 0.0458953 -0.870836 -0.489427
-22.4925 -32.0954 560.686 -0.276915 0.823975 -0.494352
-44.4161 -31.449 596.661 -0.734939 0.408624 -0.541194
-80.9205 -26.5481 599.313 0.0665778 -0.875509 -0.478593
-15.2048 -34.0168 556.154 -0.0653543 0.849272 -0.523894
-62.0948 -30.9555 605.892 -0.0407662 -0.754413 -0.655133
-70.655 -30.7604 604.925 -0.0662657 -0.790783 -0.608499
-68.1628 -33.1241 608.326 -0.123838 -0.7656 -0.631285
-70.532 -33.798 609.169 -0.120331 -0.807978 -0.576795
-22.6422 -37.6443 553.655 -0.393594 0.685389 -0.612638
-63.2184 -36.5887 612.762 -0.105128 -0.843582 -0.52661
6.45988 -83.8858 679.129 0.85449 0.0833486 -0.512738
-113.191 -40.8805 623.023 0.166292 -0.554472 -0.815419
-109.25 -40.4286 621.982 -0.0181807 -0.82379 -0.566604
-112.189 -38.5033 620.205 -0.0689759 -0.815962 -0.573975
-91.1261 -40.4594 622.082 -0.0835165 -0.851615 -0.517472
-96.1376 -37.7431 617.485 -0.0129876 -0.815238 -0.57898
-93.3634 -36.6221 616.293 0.0708527 -0.832331 -0.549731
-89.1415 -36.2077 616.231 -0.0183845 -0.856828 -0.515275
-91.2591 -34.4012 613.108 -0.0188375 -0.860904 -0.508418
-105.171 -30.9353 608.216 0.000325575 -0.897724 -0.440557
-38.95 3.51976 546.204 -0.0136271 -0.839081 -0.543836
-28.7413 5.1026 542.912 0.0380709 -0.934025 -0.355173
-24.2443 5.98243 542.513 0.024175 -0.907799 -0.418707
-21.7244 6.6337 541.021 -0.0103456 -0.90089 -0.433924
-29.5832 8.74075 536.041 -0.00911015 -0.906941 -0.42116
-28.7834 10.0351 532.997 -0.0455123 -0.916565 -0.397288
-26.5664 9.32446 535.694 0.00163293 -0.938679 -0.344789
-30.7002 11.9135 529.508 0.0407961 -0.870802 -0.489939
-28.4064 12.5988 528.989 -0.0320658 -0.870843 -0.490514
-24.2618 12.518 528.413 -0.0609622 -0.911096 -0.407661
13.9873 10.3687 527.611 -0.139065 -0.885263 -0.443814
11.8645 11.9607 525.008 -0.116709 -0.88935 -0.44208
-26.1754 18.7442 514.471 0.0811968 -0.909788 -0.407053
-10.9139 18.1812 515.393 -0.0368228 -0.906857 -0.419827
-9.81798 19.5363 513.032 -0.0553818 -0.899472 -0.433454
-5.33517 22.8162 508.072 0.465013 -0.278525 -0.840349
-144.469 48.2408 568.589 -0.417509 -0.183192 -0.890015
-141.403 47.2994 566.766 -0.558644 -0.238461 -0.794389
-47.9936 28.4122 494.1 -0.000421473 -0.931856 -0.362828
-44.7507 28.9619 492.779 -0.0383108 -0.894718 -0.444986
-142.598 50.8008 566.88 -0.602818 0.00515779 -0.797862
-46.8102 30.2565 490.201 -0.0639479 -0.950994 -0.302524
-7.85732 25.7189 506.968 0.570677 0.362237 -0.736961
-4.83108 25.6144 509.698 0.546631 0.413088 -0.728391
-37.6118 29.4646 490.31 -0.00612668 -0.917117 -0.39857
-39.6078 31.2542 487.29 0.235606 -0.66804 -0.705841
-33.1339 31.6944 490.245 0.679871 -0.0691176 -0.730067
-137.55 53.3117 562.828 -0.671093 0.254326 -0.696385
-25.7691 31.947 495.644 0.539027 0.365796 -0.758711
-137.583 56.3504 564.769 -0.62013 0.403569 -0.672734
-34.4636 34.5717 488.808 0.613451 0.178133 -0.769381
-31.2336 35.0334 492.521 0.630152 0.378714 -0.677852
-28.6429 34.8523 495.049 0.560106 0.370331 -0.741037
-25.644 35.3683 498.019 0.606234 0.362418 -0.707907
-149.19 62.7229 575.205 -0.327845 -0.472212 -0.81825
-135.74 60.1306 565.065 -0.690529 0.293675 -0.661002
-16.1663 35.8153 505.34 0.615436 0.12667 -0.777942
-144.93 62.4543 573.121 -0.629731 -0.176553 -0.756484
-44.9353 39.0655 483.138 0.569755 0.459683 -0.681228
-31.4122 38.666 494.989 0.660688 0.35716 -0.660248
-146.463 63.6817 573.75 -0.231458 -0.65803 -0.716536
-148.188 65.6026 571.228 -0.122831 -0.858497 -0.497891
-15.3703 39.856 507.658 0.617218 0.251934 -0.745367
-133.122 63.7976 563.49 -0.680433 0.0899495 -0.727269
-30.9946 42.1126 497.02 0.609975 0.258461 -0.749085
-18.203 39.3834 504.742 0.51886 0.39268 -0.759333
-33.8291 42.5733 494.154 0.622857 0.291206 -0.726119
-30.298 45.6222 499.661 0.638093 0.323046 -0.698913
-25.0554 50.6772 502.756 0.490219 -0.252782 -0.834138
-127.108 74.9032 554.079 -0.232791 -0.730564 -0.641938
-26.8609 53.4991 500.526 0.164087 -0.724712 -0.669229
-17.8998 53.4714 501.238 0.256445 -0.684736 -0.682182
-126.336 82.8784 541.8 -0.00619843 -0.919021 -0.394159
-40.0946 62.6643 502.954 -0.671075 0.396876 -0.626217
37.7616 138.981 475.735 -0.230828 0.84621 -0.480257
-0.021593 155.754 500.901 0.173645 0.569011 -0.803787
3.17331 148.777 492.528 0.59914 0.744479 -0.294589
1.55317 147.392 485.78 0.410861 0.816296 -0.406023
-0.946766 145.972 483.452 -0.0626143 0.888138 -0.455292
6.16575 146.758 493.293 0.339589 0.821326 -0.45837
4.15782 146.781 489.745 0.588433 0.743978 -0.316614
4.47191 144.203 485.799 0.610043 0.743076 -0.27511
-0.889201 143.934 479.085 -0.0868616 0.826514 -0.556174
-3.34031 144.791 481.91 -0.0248851 0.881838 -0.470896
-16.1325 136.315 476.154 0.304186 -0.952552 0.010745
-13.9579 136.112 479.675 0.134313 -0.91625 -0.37742
-17.6656 135.191 479.33 0.225282 -0.958938 -0.172297
-10.0157 132.101 482.858 -0.434758 -0.340771 -0.833583
-8.52723 129.742 481.745 -0.411172 -0.0033035 -0.911552
-16.0117 131.086 484.662 -0.345878 -0.143748 -0.927203
-25.605 131.736 486.348 -0.178122 -0.641715 -0.745972
-15.0221 127.759 483.902 -0.277284 0.0746575 -0.957883
-19.0069 128.577 485.516 -0.343197 -0.0109811 -0.939199
-22.8946 128.954 486.852 -0.163574 -0.140433 -0.976485
-26.9631 129.454 488.603 -0.326392 -0.323984 -0.887977
-30.919 129.006 490.439 -0.245661 -0.235433 -0.940331
-21.2004 125.355 486.66 -0.309276 0.0681457 -0.948528
-15.6504 118.434 489.047 -0.0304422 -0.696083 -0.717315
-13.1705 115.393 490.092 -0.0435836 -0.0793117 -0.995897
-17.3858 115.485 490.972 -0.131196 -0.246789 -0.960147
-39.973 104.411 493.819 -0.606985 0.0372752 -0.793839
8.16986 97.7237 507.799 -0.0203299 -0.910798 -0.41235
10.4052 96.3887 510.566 -0.051589 -0.84479 -0.532606
7.03149 95.4243 511.724 0.0113565 -0.817148 -0.576316
15.179 92.2639 515.487 -0.11141 -0.830899 -0.545156
8.3925 91.8113 517.405 0.0493265 -0.840943 -0.538871
22.8271 88.172 522.835 0.0144607 -0.900786 -0.434023
25.4816 86.7927 525.041 -0.001209 -0.860866 -0.508831
30.2819 83.0946 528.853 -0.0197042 -0.851329 -0.524263
21.6911 85.6489 527.225 -0.0158152 -0.892774 -0.450227
32.1074 81.9478 532.626 -0.0813908 -0.885018 -0.458388
34.6568 80.4717 535.096 -0.0279592 -0.875118 -0.483102
30.9365 79.8759 535.851 -0.0119113 -0.800539 -0.599162
62.2146 73.5788 545.404 0.106369 -0.869848 -0.481716
64.2999 72.2793 547.401 0.163325 -0.849062 -0.502413
66.8318 71.5247 550.275 0.231864 -0.85365 -0.466391
60.4175 69.3586 552.08 0.12119 -0.834502 -0.537512
56.2307 68.55 553.704 -0.182726 -0.802371 -0.568165
55.5743 66.5734 556.76 -0.109381 -0.919872 -0.376658
57.9924 65.5213 559.938 0.0307755 -0.871311 -0.489766
54.2223 64.6397 560.223 0.0105608 -0.789405 -0.613783
62.4063 62.8232 565.097 -0.0533509 -0.899564 -0.433519
58.9512 61.966 566.037 0.0367667 -0.837732 -0.544843
55.6557 61.4218 566.489 0.00197845 -0.859016 -0.511945
114.149 57.3977 649.89 0.978901 0.0421543 -0.199941
116.649 57.0602 656.645 -0.107526 -0.974518 -0.196856
115.096 57.9456 653.514 -0.483207 -0.87263 0.0709063
75.5023 -20.1553 563.506 -0.119822 -0.814786 -0.567245
142.139 -32.5565 574.789 0.897605 -0.0732025 -0.434679
127.206 -33.4779 575.976 -0.128562 -0.746636 -0.652692
65.6856 -24.8078 573.715 -0.185538 -0.872186 -0.452624
137.129 -35.8909 574.256 -0.275962 -0.685958 -0.673281
69.2515 -26.3171 575.281 -0.149125 -0.88755 -0.435909
129.589 -35.4929 577.856 -0.160303 -0.755984 -0.634658
71.2617 -28.613 578.567 -0.136248 -0.871019 -0.471978
61.7563 -27.2693 580.079 -0.120659 -0.862842 -0.490861
132.461 -38.251 579.418 -0.328598 -0.734124 -0.59421
64.3581 -28.6431 581.416 -0.12552 -0.824521 -0.551733
128.976 -37.7562 580.851 -0.294668 -0.782872 -0.547979
124.857 -37.8024 582.773 -0.129527 -0.886569 -0.444093
60.8721 -28.9564 582.809 -0.182864 -0.816923 -0.54699
56.9394 -29.3565 584.94 -0.213048 -0.81387 -0.540579
52.7807 -29.0196 586.274 -0.155455 -0.802113 -0.576584
121.17 -38.2336 584.866 -0.191206 -0.837129 -0.512499
59.6908 -31.0033 586.578 -0.154094 -0.834324 -0.529299
61.7298 -32.901 589.104 -0.129584 -0.881487 -0.45408
66.4514 -35.6432 593.96 -0.12704 -0.912709 -0.388361
62.9631 -35.9882 596.072 -0.154412 -0.911746 -0.380626
73.5046 -39.9869 601.741 -0.118385 -0.885959 -0.448399
75.323 -41.2476 604.262 -0.136584 -0.871947 -0.470163
72.3212 -41.8311 605.64 -0.122604 -0.875059 -0.468231
68.9071 -41.8519 606.902 -0.0954424 -0.867165 -0.48879
65.3534 -42.8628 608.167 0.025865 -0.842252 -0.538464
62.3515 -43.4463 609.545 -0.164332 -0.864196 -0.475563
43.3541 -41.2714 610.022 -0.0689263 -0.875491 -0.478294
45.3964 -43.0666 613.47 -0.0404524 -0.867945 -0.495009
47.8475 -44.4177 615.456 -0.0490401 -0.844577 -0.533184
44.2892 -44.722 616.284 -0.102937 -0.870772 -0.480792
29.085 -43.7901 616.213 -0.0210252 -0.843107 -0.537335
31.6115 -45.1525 617.875 -0.045966 -0.883187 -0.466764
33.9119 -46.481 620.51 -0.0487374 -0.907198 -0.417872
24.3462 -46.1418 620.588 -0.033506 -0.860671 -0.508058
26.9442 -47.5127 623.037 0.0139056 -0.862143 -0.506475
16.8708 -61.3585 569.822 0.987255 0.124041 -0.0997037
50.6435 -74.9958 666.479 -0.145284 -0.881427 -0.449421
46.7474 -74.9489 667.627 -0.00750665 -0.873862 -0.486116
17.2947 -62.6717 573.818 0.988976 0.138058 -0.053532
65.1675 -80.0657 670.029 -0.260307 -0.808006 -0.528551
17.5323 -65.4884 571.147 0.982808 0.166314 -0.0801749
66.5829 -81.775 672.343 -0.520133 -0.668797 -0.531199
17.2064 -67.9819 564.482 0.972667 0.0343155 -0.229656
67.3616 -85.4231 670.726 -0.815678 0.478984 -0.324412
17.8769 -68.5723 568.595 0.993511 0.0736545 -0.0866619
17.3078 -71.7796 566.179 0.97355 -0.12315 -0.192442
48.3431 -73.6674 663.844 -0.0492666 -0.902248 -0.428394
56.839 -74.864 664.489 -0.0770826 -0.831345 -0.550384
52.1516 -71.1829 660.191 -0.0570156 -0.867084 -0.494889
67.5112 -72.8441 660.049 -0.185271 -0.865539 -0.465314
71.4279 -72.2904 657.857 -0.231718 -0.767736 -0.597401
67.8004 -70.3693 655.92 -0.0319807 -0.753544 -0.656619
66.6036 -68.1861 653.512 -0.0485556 -0.829459 -0.556453
22.5229 -55.948 636.686 -0.0722735 -0.877643 -0.473835
25.2987 -55.3305 636.281 -0.0307631 -0.869427 -0.493102
29.1948 -55.3774 635.133 -0.0587803 -0.867156 -0.494556
21.1798 -52.7413 631.126 0.0197749 -0.868698 -0.494948
13.5769 -49.185 612.801 0.995308 0.0846733 0.046815
25.1457 -52.2932 629.977 0.0102966 -0.839718 -0.542925
22.2591 -50.5442 627.875 0.0456485 -0.727423 -0.684669
19.9764 -48.5443 625.564 0.115292 -0.810814 -0.573837
23.818 -48.2807 624.392 -0.0448603 -0.890001 -0.453746
59.3095 -14.8555 557.506 -0.162695 -0.902969 -0.397714
57.7736 -12.8794 553.999 -0.197464 -0.805239 -0.559105
66.8856 -14.249 553.766 -0.113991 -0.797561 -0.59237
96.3314 -18.062 554.915 0.255986 -0.422634 -0.869397
58.5572 -10.7245 550.877 -0.146592 -0.851142 -0.504052
99.1815 -16.4428 555.52 0.521796 0.0322814 -0.852459
62.0325 -10.2088 549.025 -0.170773 -0.86376 -0.474084
59.9494 -8.90926 547.175 -0.163851 -0.774984 -0.610371
86.0969 -9.5623 549.16 0.587842 0.0750478 -0.805487
84.4359 -7.81156 549.912 0.445895 0.447619 -0.775122
86.2809 -6.21603 551.825 0.557249 0.481717 -0.67633
142.904 -12.4278 592.239 0.681202 0.700516 -0.212699
139.553 -9.93973 590.347 0.378886 0.867813 -0.321476
73.2707 3.02087 550.193 0.519701 0.44803 -0.727447
88.9981 2.505 558.657 0.533503 0.462139 -0.70838
102.352 1.06798 570.025 0.562601 0.730053 -0.387946
121.063 -1.25368 599.104 0.443021 0.883634 -0.151403
125.75 -0.870549 614.559 0.455712 0.881564 -0.123168
136.728 -0.836577 644.841 0.774915 0.59956 -0.200086
138.164 -1.53415 649.308 0.82358 0.553739 -0.122835
110.618 2.21517 588.34 0.45765 0.873143 -0.167864
128.337 1.83192 631.501 0.479515 0.767451 -0.42554
130.92 1.477 635.708 0.625447 0.725043 -0.288319
119.481 3.0488 617.075 0.48641 0.860668 -0.150517
121.1 2.82932 621.054 0.496287 0.846894 -0.19097
84.0616 7.40989 559.051 0.558994 0.694663 -0.452735
96.3163 6.22577 576.661 0.48161 0.861661 -0.159972
86.4208 7.58943 562.332 0.497822 0.796757 -0.342566
92.5398 7.75703 571.622 0.450646 0.867465 -0.210765
135.104 9.02176 660.812 0.657721 0.670545 -0.34318
117.985 11.8742 630.8 0.733442 0.50882 -0.450739
116.487 24.7364 643.1 0.384055 -0.476462 -0.790877
130.066 23.8573 654.758 0.926892 0.11717 -0.356571
117.36 27.3003 640.388 0.0393324 -0.779448 -0.625231
118.834 30.0724 636.91 0.0934436 -0.676132 -0.730831
125.355 29.0394 642.697 0.835063 -0.348019 -0.426089
27.4774 36.834 539.52 0.697189 0.344728 -0.628562
128.464 30.1368 652.112 0.849165 -0.412944 -0.329236
37.7948 36.6428 552.765 0.72027 0.153472 -0.676504
125.753 31.8511 645.602 0.813762 0.430505 -0.390457
127.646 31.592 649.132 -0.341436 -0.806409 -0.48283
129.594 31.9987 652.823 -0.677176 -0.674121 -0.294949
119.576 33.3712 634.641 0.665415 -0.319124 -0.674821
121.594 32.8922 638.094 0.86994 0.207494 -0.447383
123.477 32.3316 641.633 0.85479 0.441733 -0.272407
24.7264 40.1982 538.4 0.692966 0.345862 -0.632597
28.0167 40.2413 541.694 0.753522 0.302601 -0.583642
22.8657 43.7646 537.921 0.729017 0.208957 -0.651822
28.0877 43.7999 544.354 0.747184 0.204232 -0.63246
20.3165 46.982 536.361 0.689157 0.17553 -0.70303
23.649 47.0921 539.87 0.71402 0.133306 -0.687317
119.933 41.4265 646.655 0.910622 0.363952 -0.195721
32.8801 48.2302 547.11 0.651396 0.0461365 -0.757334
118.424 44.668 646.191 0.883943 0.423273 -0.198706
30.7655 51.5059 546.376 0.730476 0.0969477 -0.676022
33.3377 51.4801 549.394 0.728325 0.249147 -0.638333
117.617 52.4028 667.305 0.995634 0.0826008 -0.0434808
114.668 51.2523 644.062 0.923516 0.369781 -0.101881
116.729 54.5346 661.374 -0.98811 0.102312 -0.114763
114.694 54.2917 650.125 0.986071 -0.0263284 -0.164229
31.0671 165.78 522.036 0.349404 0.58716 -0.730178
24.5669 164.668 518.169 0.305922 0.526933 -0.792939
19.0096 161.908 513.722 0.45482 0.535265 -0.711779
24.4675 157.803 512.77 0.214943 0.730857 -0.647802
7.9392 158.173 506.099 0.289959 0.460062 -0.839206
5.21186 156.258 504.039 0.347469 0.52119 -0.779504
35.6015 130.304 467.127 -0.0245042 -0.374906 -0.926739
43.9139 128.873 472.234 0.462233 -0.636239 -0.617689
40.5598 126.31 471.48 0.284668 -0.514755 -0.808697
43.076 125.673 474.455 0.522623 -0.522837 -0.673429
38.2003 124.267 471.729 0.0899338 -0.730788 -0.676654
20.7228 128.568 471.629 -0.198639 -0.204375 -0.958527
33.995 124.662 473.512 -0.0935706 -0.73636 -0.670089
29.4968 124.996 474.69 -0.085916 -0.859315 -0.504179
25.8659 124.334 476.395 -0.00820998 -0.838867 -0.544275
28.0991 122.677 478.39 -0.0664272 -0.802797 -0.592541
18.5431 123.158 478.356 -0.0590685 -0.89679 -0.438496
21.0667 121.655 481.195 -0.190697 -0.802966 -0.564695
10.748 123.111 481.83 -0.226926 -0.73094 -0.643608
38.8466 117.332 482.393 -0.260675 0.0587237 -0.963639
-3.10337 123.49 480.199 -0.165235 -0.605049 -0.778854
-6.85277 123.505 481.633 -0.0959371 -0.456268 -0.884655
35.6073 114.388 481.915 -0.132389 0.194868 -0.971854
-4.43753 121.217 483.507 -0.0191929 -0.778942 -0.626802
36.2683 111.936 480.956 0.0373028 -0.151783 -0.98771
32.7707 111.565 481.478 -0.13227 -0.162145 -0.977862
-2.11601 119.8 485.636 -0.00380052 -0.735473 -0.677543
29.3442 110.391 482.484 -0.247313 -0.742036 -0.623072
27.6622 112.65 483.042 -0.250996 -0.0130861 -0.9679
-5.29354 118.314 486.491 -0.104041 -0.709673 -0.696807
32.0748 109.236 485.292 -0.142273 -0.926883 -0.347342
-9.12039 118.1 487.921 -0.0994864 -0.518448 -0.849302
28.0478 107.564 491.527 -0.575763 -0.229502 -0.784746
-6.90596 114.71 489.187 -0.128476 0.0659901 -0.989515
31.2097 106.68 488.917 -0.459418 -0.239139 -0.855422
29.4684 103.492 491.143 -0.427778 -0.662467 -0.614934
31.0663 101.081 492.454 -0.0971145 -0.94907 -0.299725
31.9439 101.97 493.654 -0.0674981 -0.981317 -0.180167
11.4461 105.873 494.921 -0.000900059 -0.379803 -0.925067
-45.0641 116.768 493.848 -0.274766 -0.0942226 -0.956883
28.701 101.421 494.975 -0.125271 -0.95834 -0.256694
24.8941 101.792 496.303 -0.15694 -0.905619 -0.393984
20.3378 101.964 498.056 -0.0563708 -0.936384 -0.34642
-48.2965 114.747 495.006 -0.296498 0.0104778 -0.954976
10.0017 101.042 501.432 -0.0392098 -0.91402 -0.403769
31.2414 95.0298 507.087 -0.0633925 -0.861303 -0.504122
12.0187 99.4195 505.209 -0.0122276 -0.848889 -0.528429
-43.6813 107.587 494.388 -0.190562 -0.203985 -0.960248
27.1082 95.0557 508.98 -0.147071 -0.890931 -0.429665
-53.9197 105.001 498.851 -0.155462 -0.812789 -0.561431
-54.9108 102.724 502.119 -0.260743 -0.704417 -0.660159
85.8212 75.1324 561.133 0.568354 -0.672515 -0.474023
76.958 68.8419 561.246 0.495604 -0.720842 -0.484523
73.4067 67.3891 560.781 0.285475 -0.829109 -0.480711
75.9829 66.2921 563.848 0.305005 -0.797785 -0.520106
107.011 59.8242 607.06 0.935494 -0.141028 -0.323978
108.486 59.3834 615.892 0.940471 -0.246391 -0.234106
105.935 56.4373 605.216 0.947034 -0.0640422 -0.314684
108.145 55.1322 612.623 0.9681 0.176794 -0.177558
107.677 56.2009 609.395 0.972136 0.123478 -0.199263
108.361 52.5716 610.194 0.936216 0.0894696 -0.339844
112.101 53.603 630.03 0.883082 0.442757 -0.155345
52.1522 -15.3511 562.025 -0.196629 -0.865044 -0.461557
42.8898 -14.0427 563.038 -0.23237 -0.847955 -0.47642
44.9529 -15.8423 565.849 -0.210595 -0.850589 -0.481818
43.632 -17.6683 569.244 -0.182083 -0.841173 -0.50919
40.2102 -18.191 571.335 -0.152462 -0.859826 -0.487293
42.8959 -19.5761 572.937 -0.11455 -0.873492 -0.47317
