ply
format ascii 1.0
comment PCL generated
element vertex 700
property float x
property float y
property float z
property float nx
property float ny
property float nz
property float curvature
element camera 0
property float view_px
property float view_py
property float view_pz
property float x_axisx
property float x_axisy
property float x_axisz
property float y_axisx
property float y_axisy
property float y_axisz
property float z_axisx
property float z_axisy
property float z_axisz
property float focal
property float scalex
property float scaley
property float centerx
property float centery
property int viewportx
property int viewporty
property float k1
property float k2
end_header
8.9460592 -74.319069 546.83228 0.54182613 -0.189211 -0.81891608 0
-39.790974 -71.3246 547.50946 -0.38588509 -0.213715 -0.89745122 0
-36.41925 -71.877953 546.64587 -0.4125872 -0.60769421 -0.67858648 0
-33.7132 -72.221611 545.55103 -0.3505201 -0.73925787 -0.57500738 0
-31.397579 -73.104027 544.76288 -0.29545039 -0.69197911 -0.65869123 0
-28.5079 -73.928078 543.78021 -0.2066444 -0.73204792 -0.64915639 0
-16.60533 -76.438248 540.55048 -0.185569 -0.56646192 -0.80292279 0
-0.13509764 -74.154266 539.99664 0.4131366 -0.28855869 -0.86374313 0
1.8280895 -73.864021 541.59399 0.53470671 -0.12798791 -0.83528912 0
5.414783 -73.50145 543.13239 0.53525001 -0.33072591 -0.77725673 0
7.3205719 -73.210571 545.00098 0.70773631 -0.27459699 -0.65092701 0
8.6036301 -73.523399 546.2796 0.81608468 -0.30446351 -0.49123079 0
-40.230133 -70.527657 547.4884 -0.3863402 -0.1357951 -0.91230541 0
-38.354198 -69.710793 546.32208 -0.6454578 -0.55527443 -0.5244565 0
-37.404888 -70.652 546.2254 -0.49249011 -0.50998151 -0.70524633 0
-34.319351 -70.699768 544.40747 -0.34031561 -0.4164452 -0.84306508 0
2.4514771 -72.006561 541.25275 0.50380158 -0.2089175 -0.83817512 0
7.8865442 -70.522072 544.37262 0.72775519 -0.18997981 -0.65899932 0
-38.564194 -67.28891 546.57178 -0.76517892 -0.3814868 -0.5186224 0
-37.153728 -66.74054 545.35083 -0.51357228 -0.1115926 -0.85075879 0
-35.330208 -67.169014 543.4248 -0.55640709 -0.1458682 -0.81800592 0
-32.669231 -67.993813 542.1369 -0.4315415 -0.25300831 -0.86588609 0
-29.253374 -69.573357 540.79205 -0.35788611 -0.27641109 -0.89191622 0
6.1467738 -67.428123 541.42621 0.58245802 -0.083147801 -0.80859703 0
8.2427092 -67.424049 543.95697 0.6505754 -0.083037153 -0.75488842 0
-37.839729 -65.464699 545.83667 -0.84386331 -0.2252318 -0.48699641 0
-36.929119 -64.198059 545.39362 -0.53561431 0.02342293 -0.84413791 0
-35.084793 -64.296715 542.65851 -0.3915129 0.067525089 -0.91769171 0
-33.080952 -64.846764 541.96997 -0.57249928 -0.1020979 -0.81352359 0
9.0945539 -64.454674 545.2381 0.8232829 -0.01154148 -0.567514 0
-36.352249 -61.420361 545.61121 -0.57123172 0.1513799 -0.8067084 0
-35.17416 -61.58873 543.43549 -0.68874907 -0.0016417101 -0.72499812 0
-33.88813 -60.277187 542.49493 -0.59337968 0.1151382 -0.79664528 0
-30.89423 -61.85178 541.54108 -0.45949221 0.043610819 -0.88711047 0
6.4551959 -61.45475 541.65942 0.60916239 0.1018477 -0.78647828 0
7.893899 -62.207291 543.01678 0.61391109 0.1238173 -0.77960408 0
-29.942711 -58.406448 540.85028 -0.48619819 0.1784371 -0.85543638 0
-1.422702 -56.9534 540.79242 0.52317291 0.2052429 -0.82714307 0
5.6073341 -56.723297 541.42889 0.58603227 0.2203695 -0.77974582 0
8.7690945 -58.186039 544.01929 0.65840149 0.2131272 -0.72186172 0
8.5824137 -58.4571 545.16351 0.92167741 0.050172482 -0.3846994 0
-36.016586 -56.707039 547.57526 -0.59748292 0.3321535 -0.729855 0
4.126349 -53.625221 542.88208 0.55450457 0.32381189 -0.76659667 0
7.7917719 -54.984409 544.0705 0.60480273 0.31102419 -0.73312861 0
8.2071466 -56.007141 545.48279 0.91954923 0.1086311 -0.37766209 0
-26.422852 -52.666256 541.86816 -0.42945379 0.33104691 -0.84022468 0
-4.748137 -51.487911 542.08783 0.41324291 0.36573711 -0.83394641 0
1.6490549 -51.073952 544.09821 0.46804851 0.41700849 -0.77912432 0
4.158886 -53.112671 543.15277 0.51276869 0.38251981 -0.76860058 0
8.2055712 -53.181568 547.00012 0.92654091 0.172065 -0.33453801 0
-25.834 -49.521969 543.17548 -0.35852349 0.52143091 -0.77431953 0
-22.323059 -47.976921 542.23322 -0.33403999 0.4774307 -0.81269753 0
-13.88476 -48.13752 541.62872 0.2026484 0.56783563 -0.79780728 0
-10.62074 -47.949768 542.66132 0.2438253 0.53524691 -0.80873972 0
-7.5792379 -48.531311 543.26801 0.31882551 0.4863475 -0.81352103 0
-4.6973939 -49.37545 543.96259 0.4263275 0.43423891 -0.79352468 0
-1.745398 -49.496761 544.69678 0.39033681 0.47952911 -0.78593189 0
1.802959 -49.893101 544.58252 0.43773109 0.45576569 -0.77502853 0
4.0590858 -49.549252 544.86267 0.50659192 0.43710601 -0.74317092 0
6.6211219 -50.388889 545.79791 0.88652158 0.23603059 -0.39795619 0
-26.734131 -47.34549 545.51562 -0.57107592 0.4839699 -0.6630578 0
-14.0242 -45.23597 543.31262 0.042854179 0.61324447 -0.78872979 0
6.0898652 -46.63908 545.81299 0.85305732 0.31303409 -0.41749609 0
-14.01877 -43.565769 544.55542 0.01643068 0.62638402 -0.77934152 0
-11.39477 -43.216831 545.10779 0.14914671 0.61001402 -0.77822763 0
-18.221462 -42.019905 546.36658 -0.0051821829 0.66248941 -0.74905342 0
-17.420231 -42.284618 545.96973 -0.31635901 0.63508201 -0.70468998 0
-14.772384 -42.593689 545.19019 -0.25786701 0.60401303 -0.75410402 0
-11.26802 -41.94149 546.16028 -0.21768171 0.62476492 -0.7498557 0
-13.398932 -85.364319 550.62494 -0.79924172 -0.46612611 -0.3793931 0
-5.9841247 -86.658119 549.63849 0.081204943 -0.79829037 -0.59677333 0
-4.5454721 -86.548477 549.34338 0.035556249 -0.81968802 -0.57170558 0
3.8101971 -86.268951 550.20862 0.1391917 -0.64417809 -0.75210392 0
-17.324829 -83.375793 548.18793 -0.0089261075 -0.81455398 -0.58001912 0
-15.243856 -82.991371 548.51849 0.003034933 -0.81370002 -0.58127731 0
-12.838729 -84.185577 548.75323 -0.0017001081 -0.81064463 -0.58553612 0
-4.847549 -84.740288 547.46472 -0.1044514 -0.74992079 -0.65322942 0
4.1587014 -84.604927 549.45636 0.4065547 -0.7155351 -0.56808692 0
-20.859533 -79.789543 549.54584 -0.2294879 -0.87070781 -0.43497491 0
-16.740021 -82.091385 547.10443 -0.28183481 -0.7849229 -0.55178368 0
-13.673564 -83.411049 547.51965 -0.53999698 -0.70596021 -0.4582831 0
-11.20017 -83.362457 546.61298 -0.2973561 -0.7170552 -0.63040572 0
-8.1832542 -83.700974 546.55988 -0.158841 -0.72838968 -0.66649681 0
-4.2257009 -83.126717 545.27087 0.081570677 -0.61855191 -0.78149837 0
-1.278944 -82.822197 545.81458 0.19408961 -0.57126272 -0.79748869 0
1.511389 -82.347473 546.98163 0.30789161 -0.49748859 -0.81099188 0
5.689568 -81.097488 548.44513 0.45306429 -0.53090012 -0.71615499 0
-38.54607 -75.557159 550.22668 -0.52733111 -0.73375022 -0.4284071 0
-33.461937 -76.509956 549.02643 -0.33502111 -0.82266331 -0.4593322 0
-28.041983 -77.12986 548.41217 -0.083832636 -0.84746879 -0.52418393 0
-25.117243 -77.505074 548.74109 -0.04786554 -0.83953178 -0.5411979 0
-22.456898 -78.775322 549.15417 -0.2718595 -0.74501562 -0.60913402 0
-20.18177 -79.727226 547.54468 -0.2524069 -0.77789068 -0.57547969 0
-18.056784 -80.828888 546.75433 -0.36126211 -0.76081407 -0.53912121 0
-15.19296 -81.916367 546.23352 -0.2971096 -0.74821907 -0.59320658 0
-12.40298 -82.788483 545.784 -0.18844999 -0.70132393 -0.68748188 0
-0.1780206 -80.935753 544.80737 0.28303701 -0.58718902 -0.75835288 0
5.175004 -79.816704 547.15332 0.49842659 -0.34856671 -0.79377091 0
7.1565733 -79.203873 548.54755 0.5796271 -0.4706172 -0.66524571 0
8.0982628 -78.967033 549.45258 0.63460422 -0.45424569 -0.62525082 0
-40.379028 -73.319191 549.41705 -0.64034587 -0.61866802 -0.4551999 0
-39.769459 -74.343918 549.91431 -0.3525984 -0.57978427 -0.73452342 0
-37.301941 -75.372414 549.54242 -0.28809091 -0.64335859 -0.70929068 0
-34.527199 -75.587303 548.32458 -0.22493879 -0.72650242 -0.64930481 0
-28.80393 -77.077629 547.63757 -0.2260945 -0.71441972 -0.66218263 0
-25.431976 -76.950035 547.67395 -0.24119221 -0.76893812 -0.59208161 0
-23.070269 -77.590439 547.48853 -0.26812091 -0.75474048 -0.59873033 0
-20.96422 -78.545776 546.47638 -0.35792971 -0.78161299 -0.51084977 0
-17.365108 -80.071899 544.71021 -0.2375229 -0.68549788 -0.68824089 0
2.4383044 -77.247826 543.40137 0.50230891 -0.21979471 -0.83628708 0
5.6147761 -76.824783 545.03363 0.53971207 -0.2543231 -0.80251521 0
9.0892277 -75.795471 548.5788 0.745278 -0.32923719 -0.5797962 0
-41.224255 -71.647552 549.10388 -0.71175969 -0.38928959 -0.58468097 0
-40.293369 -72.983047 548.70721 -0.56048971 -0.55945212 -0.61062652 0
-33.16629 -73.509483 545.54968 -0.34004629 -0.47691309 -0.81050748 0
-29.487608 -75.559196 545.323 -0.19796111 -0.76724118 -0.61004293 0
-26.289701 -76.212242 546.48492 -0.20773511 -0.90837538 -0.36290529 0
-23.799946 -76.441505 546.35828 -0.32310921 -0.8876009 -0.32827589 0
4.9944458 -74.783272 543.8363 0.60725951 -0.1059782 -0.7874037 0
7.2654157 -73.7341 545.12085 0.57495117 -0.26346409 -0.77460831 0
9.9711475 -73.498909 547.91852 0.78328729 -0.2424169 -0.57244658 0
-41.552494 -70.200043 549.31195 -0.45362589 -0.136189 -0.88072479 0
-40.464012 -70.142181 547.81714 -0.6782127 -0.4492428 -0.58155692 0
-39.750572 -69.447815 546.90637 -0.53947097 -0.1661436 -0.82544982 0
-35.84864 -71.553322 545.39093 -0.48280939 -0.29965341 -0.82286263 0
9.2938824 -70.931503 545.64825 0.6911211 -0.2065234 -0.69260359 0
-41.416176 -68.890953 548.98828 -0.49562821 -0.061161969 -0.86637872 0
-38.475964 -66.474449 546.40344 -0.40843019 0.034418419 -0.91214043 0
-42.010235 -64.063667 550.6178 -0.68702823 0.1577099 -0.70930952 0
-37.693729 -64.155609 545.46161 -0.59679371 0.08282315 -0.79810888 0
9.9034204 -64.452042 545.84277 0.7102927 0.01726309 -0.7036947 0
11.05861 -64.453491 547.43811 0.83191538 0.00182632 -0.55489957 0
-39.584991 -61.376442 549.21918 -0.65542358 0.19647729 -0.72925758 0
-35.969681 -60.608871 544.32123 -0.7294631 0.106515 -0.67567611 0
10.85245 -60.944778 547.77759 0.92929518 0.02003441 -0.36879411 0
-40.452473 -60.295494 549.81354 -0.87867242 0.095802844 -0.46771419 0
-39.060329 -59.48698 549.13593 -0.66020173 0.26840419 -0.70149332 0
-36.08934 -57.63842 546.4541 -0.70103347 0.2355471 -0.67310441 0
8.8120022 -57.756378 545.22455 0.67839032 0.2154021 -0.70241618 0
11.431309 -60.107693 549.09735 0.94174922 0.067940712 -0.32938209 0
-41.04834 -58.585388 551.95758 -0.8954581 0.163008 -0.41422611 0
9.8119678 -55.654369 547.50592 0.66081113 0.31902701 -0.67937511 0
10.41655 -56.481529 548.90918 0.94244802 0.1208939 -0.31173149 0
-1.1785305 -50.575199 543.95538 0.51221311 0.383441 -0.76851213 0
5.5774269 -49.217304 545.84827 0.57564819 0.4284488 -0.69646299 0
-7.7019668 -45.401131 545.04828 0.28449631 0.56740779 -0.77272922 0
-17.17766 -41.998169 546.013 0.024467921 0.68443161 -0.72866642 0
-11.17325 -42.384941 545.60797 0.1124356 0.65929872 -0.74342692 0
-25.31583 -42.295582 548.99957 -0.110831 0.67840523 -0.72628021 0
-10.82204 -39.96714 548.15277 0.1387991 0.67517811 -0.72447872 0
-7.62989 -40.24094 548.73651 0.2064887 0.65493321 -0.72692841 0
-12.068955 -39.70298 548.49011 -0.27409399 0.67761892 -0.68242592 0
-8.8410158 -39.337784 549.2196 0.106755 0.68407202 -0.72156 0
-12.68068 -88.049873 553.81293 -0.4218196 -0.70777112 -0.5666818 0
-5.6621041 -88.899681 552.42987 -0.1335199 -0.87431753 -0.46662769 0
1.04441 -88.804893 552.34949 -0.0199742 -0.71601999 -0.69779402 0
-16.393393 -85.924942 553.13995 0.0078976583 -0.79949439 -0.60062158 0
-15.595926 -86.208252 553.01416 0.00034203951 -0.79673189 -0.60433292 0
-12.229298 -86.818016 551.72406 -0.27818641 -0.74846429 -0.60200793 0
-11.044549 -86.660713 551.02905 0.002083079 -0.78240079 -0.6227718 0
-4.5234995 -88.164017 551.13464 -0.03847336 -0.75773352 -0.65142912 0
1.258953 -87.774757 550.85571 0.08813487 -0.76689118 -0.63569659 0
-17.58003 -84.340248 551.7251 -0.31530201 -0.82037407 -0.47704399 0
-13.472801 -85.21833 550.40613 -0.4770157 -0.70069218 -0.53055298 0
-10.434356 -86.493256 550.29144 -0.26707599 -0.73489487 -0.6233778 0
-7.6085172 -86.234612 549.31952 -0.1988039 -0.68870401 -0.6972546 0
-5.3355403 -87.01992 549.98438 0.01445487 -0.60239828 -0.79806483 0
-1.658725 -86.699707 549.47803 0.09894865 -0.63319957 -0.76763773 0
4.0711122 -86.37841 549.98712 0.45025301 -0.64738119 -0.61495513 0
7.7984071 -84.634804 552.66333 0.49891421 -0.50024217 -0.70770222 0
-22.143879 -80.642532 552.74762 -0.25413069 -0.81292993 -0.52398717 0
-17.17123 -83.17141 549.87842 -0.38147709 -0.72453552 -0.57404149 0
-14.276828 -84.051018 549.26624 -0.3399992 -0.71690619 -0.60864288 0
-5.2301278 -85.467682 547.75781 -0.07677599 -0.66473591 -0.74312288 0
1.928154 -83.741417 547.86188 0.29294059 -0.60589439 -0.73964721 0
-37.310886 -77.840248 552.6109 -0.34990641 -0.7676487 -0.53691798 0
-30.65543 -78.501953 551.63208 -0.04936472 -0.81293428 -0.58025938 0
-22.390368 -79.214676 550.11816 -0.2543382 -0.78417557 -0.56602192 0
-19.879339 -80.534019 549.75903 -0.42018929 -0.75245661 -0.50719798 0
5.8658357 -80.238235 547.9632 0.52020389 -0.47816089 -0.70763701 0
8.0889425 -79.684753 549.49847 0.58678043 -0.3102057 -0.74797148 0
-39.097149 -75.595589 550.88959 -0.41874999 -0.58091921 -0.69798368 0
-37.322868 -76.395729 550.30212 -0.3914946 -0.59624439 -0.70087433 0
-31.59866 -77.864128 550.16309 -0.1904875 -0.78027183 -0.59572679 0
-27.729759 -77.952705 549.9682 -0.1542879 -0.717058 -0.67972279 0
-26.24608 -78.207626 550.28461 -0.22177871 -0.83912939 -0.49666491 0
-23.06921 -78.492737 549.29144 -0.35768721 -0.8365193 -0.41508469 0
-21.241043 -79.731728 550.06805 -0.32864109 -0.82498431 -0.45977819 0
-42.326973 -70.697502 550.85248 -0.87958157 -0.4145768 -0.2333719 0
-41.849205 -71.62249 550.71484 -0.46089789 -0.36153829 -0.810471 0
-40.700989 -73.595108 550.48596 -0.65048152 -0.59013861 -0.47813219 0
-39.266483 -74.704613 549.38129 -0.54925632 -0.49990341 -0.66963732 0
-29.515289 -77.406067 548.07092 -0.1237005 -0.89419621 -0.4302457 0
-24.058706 -77.719269 548.52466 -0.28445309 -0.85283428 -0.43790421 0
9.918334 -75.233513 548.755 0.73872077 -0.33767089 -0.58332682 0
10.98611 -73.158333 549.89221 0.88774902 -0.257642 -0.38147399 0
-43.670475 -68.706306 552.64667 -0.58797169 -0.04198125 -0.80779141 0
-42.336559 -69.830246 550.46094 -0.71277529 -0.29443669 -0.636599 0
-41.992882 -70.981171 550.30762 -0.73861277 -0.22647411 -0.63494933 0
-40.790913 -71.34481 548.38818 -0.69592887 -0.2461969 -0.67458892 0
11.65116 -71.561028 550.10632 0.78904068 -0.1671506 -0.59116453 0
12.06379 -70.45649 551.13623 0.93006831 -0.1629716 -0.32926181 0
-43.2243 -67.598877 551.66736 -0.58739078 0.1318143 -0.79849678 0
-42.562729 -67.328972 550.77063 -0.6964336 -0.03724898 -0.71665388 0
-41.88681 -67.67363 549.32208 -0.76027799 -0.091867052 -0.64306903 0
-39.261227 -66.85688 546.96539 -0.71962082 -0.116434 -0.68453568 0
12.495386 -67.762367 549.88794 0.86922163 -0.076433606 -0.48847899 0
12.67448 -67.33252 550.28717 0.89795732 -0.050037529 -0.43722871 0
13.03358 -66.634979 550.72467 0.64880532 0.052759022 -0.75912333 0
-43.690033 -65.008339 552.48596 -0.6153338 0.30123079 -0.72843969 0
-42.496452 -64.281296 551.54022 -0.83216679 0.0080066863 -0.55446768 0
-41.233879 -63.694199 549.9516 -0.72888237 0.16022021 -0.66562748 0
-41.156269 -63.062969 549.72302 -0.7779671 0.095133811 -0.62106109 0
-43.502331 -62.58844 552.62622 -0.57485622 0.38187319 -0.72368032 0
-40.843307 -60.440952 550.07501 -0.74388522 0.26178861 -0.61489958 0
-39.996086 -61.281918 548.80371 -0.52465272 0.32493871 -0.78686363 0
11.805558 -60.431465 549.82886 0.88030702 0.1071751 -0.46213961 0
-42.235378 -59.505909 552.76788 -0.88700962 0.1769295 -0.42650899 0
11.402324 -58.572472 549.54926 0.8307631 0.1763127 -0.52796459 0
10.73214 -54.932991 549.70258 0.77578491 0.26849619 -0.57102323 0
11.25636 -55.534458 551.11871 0.68812412 0.33265409 -0.64484608 0
-30.91638 -47.196941 549.72662 -0.69150668 0.48062581 -0.53927481 0
8.699481 -46.732559 549.73749 0.6487869 0.4687652 -0.59944528 0
7.8115129 -43.941185 551.10699 0.90793377 0.3370845 -0.2490589 0
-16.13813 -39.344028 548.50342 -0.049652379 0.72288579 -0.68918121 0
-13.13736 -39.396679 548.66669 0.055304691 0.71819502 -0.69364059 0
-10.697481 -39.403862 548.93927 0.17708839 0.69941169 -0.69243258 0
-7.3297648 -39.450611 549.51837 0.20714749 0.69620788 -0.68730241 0
-4.3117099 -39.642262 550.82257 0.29753491 0.65356088 -0.69593912 0
7.4848962 -42.779888 552.22717 0.89100271 0.37279591 -0.2591089 0
-24.742229 -39.214729 552.91199 -0.077128612 0.72657722 -0.68274218 0
-19.7654 -37.822029 551.13849 -0.1659762 0.74578989 -0.64517391 0
-2.896225 -39.248219 551.25513 0.275341 0.65903199 -0.69990301 0
-18.60095 -36.725384 552.02899 -0.034115609 0.74300212 -0.66841912 0
-8.7198343 -36.996731 552.91278 0.091545977 0.75912482 -0.64447582 0
-14.142653 -90.612976 556.16919 -0.80446512 -0.404156 -0.43530899 0
-17.077431 -89.182823 555.20691 0.0095939413 -0.8298496 -0.55790478 0
-15.811702 -89.347542 555.71655 0.01536126 -0.82465988 -0.56542039 0
-12.94474 -89.809097 554.9671 -0.2454748 -0.75366908 -0.60969257 0
-7.396256 -90.702721 554.97223 -0.039236501 -0.78602451 -0.61694902 0
1.022621 -90.346123 554.50598 0.037764698 -0.82900423 -0.55796582 0
-14.024386 -88.438957 554.38702 -0.38704979 -0.60402358 -0.69666922 0
-10.64478 -88.692863 553.02197 -0.34256881 -0.72921193 -0.59236532 0
4.738441 -88.209473 553.32562 0.44626009 -0.64551783 -0.61980551 0
6.4859648 -86.703232 554.24408 0.47048569 -0.70105708 -0.53587508 0
-34.00256 -81.49366 555.91443 0.048930511 -0.77767521 -0.62675917 0
-22.326494 -82.608543 555.77466 -0.210831 -0.83054298 -0.51550812 0
-19.40164 -84.633018 554.52332 -0.2196157 -0.78071213 -0.58502781 0
-16.784811 -85.669556 553.40442 -0.35330191 -0.73489559 -0.57888353 0
-14.2125 -86.657112 552.61267 -0.46669811 -0.66204119 -0.58642513 0
-11.22704 -87.86293 552.52716 -0.30074999 -0.65589911 -0.69234812 0
-9.1886816 -87.37281 551.15033 -0.4073379 -0.62379187 -0.66705292 0
-5.025146 -87.754013 550.703 -0.032453891 -0.70285273 -0.71059471 0
6.079206 -87.569054 554.03333 0.62400812 -0.73215508 -0.27306199 0
7.18224 -85.504517 552.89532 0.64106399 -0.59212708 -0.4882853 0
-34.70055 -79.053879 553.69177 -0.386933 -0.79196292 -0.47231099 0
-28.14782 -80.092003 553.99323 0.016666699 -0.79652488 -0.60437602 0
-22.34639 -82.11805 554.7453 -0.17522261 -0.75801247 -0.62826282 0
-19.75045 -82.817383 553.38458 -0.31424451 -0.71829158 -0.62073147 0
-17.709896 -84.162354 552.93188 -0.49750161 -0.65708292 -0.56633413 0
-14.99503 -84.708656 551.12341 -0.47002009 -0.70173508 -0.53539628 0
-11.594383 -85.959839 550.40942 -0.432942 -0.63875401 -0.63604599 0
9.0107574 -83.503403 553.43109 0.73307562 -0.57832652 -0.35796469 0
10.42061 -81.601059 554.0191 0.81579918 -0.54970628 -0.1797068 0
10.43017 -82.087463 555.22388 0.73895991 -0.3869409 -0.55155689 0
-38.131115 -77.576126 553.80957 -0.2056459 -0.67900401 -0.7047435 0
-36.849899 -78.698242 553.43622 -0.29125309 -0.6775704 -0.67532951 0
-34.934109 -79.553322 554.04498 -0.2233151 -0.74473488 -0.62888807 0
-28.465122 -80.022499 553.37354 -0.14685079 -0.7916441 -0.59307212 0
-22.966749 -80.421303 552.89203 -0.24195381 -0.7632885 -0.59904009 0
-20.652531 -81.322273 552.94379 -0.34747651 -0.76465762 -0.54273278 0
-17.957331 -82.56105 552.21112 -0.45835999 -0.75992411 -0.46089211 0
9.8341703 -79.88578 552.05859 0.70536202 -0.418874 -0.57184702 0
10.54444 -79.904984 552.91962 0.80728012 -0.41422349 -0.420378 0
10.84141 -79.738907 553.93488 0.72751099 -0.303835 -0.61515212 0
-39.230511 -76.872467 553.90442 -0.64273149 -0.62593782 -0.441699 0
-37.594257 -77.652077 552.74036 -0.52264577 -0.63080561 -0.57352048 0
-37.036205 -77.971603 552.24536 -0.41665611 -0.82066917 -0.39102411 0
-31.636339 -79.189438 552.13751 -0.221892 -0.81986302 -0.52781498 0
-23.237047 -79.561119 551.57294 -0.34110871 -0.75881147 -0.55484241 0
-39.71616 -76.655548 553.43268 -0.5509581 -0.78528911 -0.2824291 0
-44.346687 -66.162163 553.12555 -0.63564968 0.2297927 -0.73698348 0
-43.822998 -67.917526 552.84625 -0.89799619 -0.2143483 -0.38426241 0
-43.467144 -68.284126 552.11591 -0.79958773 -0.094881453 -0.59300679 0
13.97724 -66.780258 554.83112 0.94487458 -0.0053923442 -0.3273879 0
-45.45628 -63.127659 554.0899 -0.9894374 -0.1334061 0.056713719 0
-45.718327 -63.66396 554.90906 -0.91075802 0.096945561 -0.40139949 0
-44.418934 -65.50882 553.05682 -0.78471881 0.1049835 -0.61089689 0
-42.900692 -64.670029 551.21851 -0.82078421 0.074563101 -0.56635129 0
-44.994541 -62.303635 554.41754 -0.88974178 0.1760601 -0.42114419 0
-43.794189 -61.692444 553.10632 -0.84964138 0.20092081 -0.4875862 0
-41.577961 -60.635311 550.3714 -0.78743708 0.19558799 -0.58454108 0
-45.228584 -60.739964 555.74188 -0.97933757 0.0140279 0.2017449 0
-43.504311 -59.644726 554.0946 -0.84134811 0.30839109 -0.44387871 0
-43.448792 -58.656754 554.94275 -0.68664593 0.43794709 -0.58027548 0
-44.507172 -57.996387 554.98047 -0.95314282 0.089981578 0.28882891 0
11.59317 -55.944481 551.65271 0.8784731 0.21949901 -0.42438811 0
-42.016632 -53.282757 555.97784 -0.93746179 0.3005105 -0.17566679 0
-40.358631 -52.84959 554.93811 -0.7201255 0.48502931 -0.49615109 0
-40.823441 -50.590611 556.21478 -0.91269451 0.34291819 -0.2222521 0
-39.50877 -50.70961 555.86682 -0.71313858 0.50665498 -0.4844937 0
10.220021 -48.651844 552.72577 0.81100702 0.36739099 -0.455293 0
10.953963 -49.855209 553.90222 0.76038319 0.39198709 -0.51784509 0
-32.399479 -46.762939 553.58148 -0.72767812 0.50447011 -0.46475211 0
0.98874742 -42.588051 551.22998 0.61321199 0.55013812 -0.56685019 0
7.8727522 -43.303295 552.3493 0.60951787 0.53891307 -0.58142978 0
8.7411575 -44.90379 552.42236 0.92426658 0.30416489 -0.23068389 0
-30.248249 -41.75116 555.17212 -0.43927091 0.73459798 -0.51711398 0
-28.34 -40.559849 554.26031 -0.53267467 0.67974138 -0.5041917 0
-4.5318952 -38.42942 551.98773 0.38773689 0.69201589 -0.60891229 0
7.1623611 -40.788731 553.76489 0.55501419 0.55112422 -0.62307417 0
7.20225 -41.71376 553.90808 0.90018308 0.37929001 -0.2140317 0
-23.34129 -37.08234 553.7074 -0.32396179 0.75868469 -0.56519592 0
-20.029097 -36.170761 553.10565 -0.2320939 0.77529371 -0.58741128 0
-17.040066 -35.910027 552.78485 -0.1295896 0.78913701 -0.60039097 0
6.1005125 -39.924927 553.67303 0.86297458 0.44059849 -0.2472807 0
-25.271 -36.73074 555.76819 -0.058217529 0.76503551 -0.64135128 0
-22.043566 -36.304169 554.01703 -0.052058991 0.75738353 -0.65089178 0
-19.004089 -35.24168 554.10449 -0.2922107 0.75103271 -0.59208351 0
-16.51783 -34.76252 554.17822 -0.0071742311 0.77158308 -0.63608807 0
-13.86054 -35.146839 553.76392 -0.021702729 0.78375149 -0.62069517 0
3.0267229 -34.94323 554.9743 0.79273897 0.548365 -0.266197 0
-14.30081 -33.388229 556.21082 -0.3349629 0.74880481 -0.5719189 0
-5.5933161 -94.455711 558.72601 -0.1238519 -0.68438357 -0.71852618 0
-16.543005 -90.549515 557.54071 0.041159201 -0.8602435 -0.50821948 0
-15.60295 -92.338303 558.81738 0.058705151 -0.8784793 -0.47416019 0
-13.30684 -92.287788 558.15698 -0.55377299 -0.66864097 -0.4962405 0
-17.10984 -90.675529 557.89929 -0.36310449 -0.62336338 -0.69251227 0
-13.177324 -91.276703 556.58069 -0.57167971 -0.55778497 -0.60171288 0
-7.3056951 -92.353256 555.84833 -0.1111735 -0.84316528 -0.52603489 0
-4.6452641 -92.786049 556.0589 -0.02265195 -0.84505701 -0.53419632 0
5.2007375 -88.843689 557.38593 0.43586561 -0.76257432 -0.4780184 0
-16.813433 -89.314011 556.06287 -0.4400343 -0.69217581 -0.57206857 0
-14.168664 -89.639763 555.32825 -0.42415541 -0.6811136 -0.59680527 0
-11.38752 -90.376503 554.70898 -0.233235 -0.66473848 -0.70973539 0
-5.010819 -91.488739 554.65802 -0.13087299 -0.68690622 -0.71486521 0
2.6289518 -90.238144 555.44971 0.48003331 -0.79262573 -0.3759155 0
5.481771 -89.107117 556.69318 0.63069201 -0.76078498 -0.153081 0
6.8357821 -87.779259 557.52063 0.61915249 -0.69951308 -0.35683551 0
7.6450362 -86.425537 556.4137 0.62365329 -0.70711201 -0.3332406 0
-34.659443 -82.72966 557.70453 -0.1996785 -0.79984647 -0.56601608 0
-32.246071 -83.282372 557.81897 -0.080631547 -0.78208357 -0.61793512 0
-29.078979 -82.800583 557.57532 -0.070126973 -0.77821678 -0.62406802 0
-25.832319 -83.524834 558.13239 -0.067444228 -0.76582271 -0.63950533 0
-22.327408 -85.31826 557.97046 -0.1992936 -0.76714331 -0.60973197 0
-19.894529 -85.853416 556.26691 -0.27803329 -0.66570592 -0.69248319 0
-15.334022 -87.310318 553.88519 -0.25754461 -0.67814487 -0.68832427 0
6.3275704 -88.394844 557.24756 0.69211709 -0.71621108 -0.089529723 0
9.7959499 -83.929726 556.58136 0.72853518 -0.61713898 -0.29728109 0
9.8977919 -84.532204 558.09967 0.74516088 -0.46608791 -0.47696689 0
-37.95694 -80.166206 558.07202 -0.1458277 -0.7009989 -0.69809371 0
-34.073757 -81.945778 556.39978 -0.18493509 -0.76570809 -0.61602771 0
-31.6824 -82.842003 556.99292 -0.092323013 -0.70556688 -0.70260358 0
-28.71191 -82.202728 556.33478 -0.21557119 -0.70641172 -0.67417473 0
-25.7827 -82.680962 556.55688 -0.18425541 -0.69637543 -0.69362187 0
-22.518173 -83.019409 556.27197 -0.23544531 -0.68188512 -0.69253039 0
-20.23398 -83.189087 555.26099 -0.36711329 -0.68509859 -0.62918019 0
-18.666349 -84.670639 554.48907 -0.4676348 -0.71979278 -0.51304579 0
10.487574 -83.678429 557.46338 0.80121142 -0.59800029 -0.02135491 0
10.318308 -83.091103 555.99182 0.73112881 -0.31769899 -0.60375339 0
11.73422 -81.763184 557.93079 0.82079959 -0.53331017 -0.2046172 0
-38.632004 -79.301186 557.32733 -0.52686518 -0.70929462 -0.46831009 0
-37.436821 -79.49485 555.83142 -0.4299356 -0.75112993 -0.50095832 0
-34.6768 -81.422501 555.69702 -0.34745401 -0.73260182 -0.58529502 0
-29.0665 -81.153603 554.66412 -0.1671043 -0.78382319 -0.59807807 0
-25.248569 -81.720871 555.09741 -0.2063098 -0.73916167 -0.64115232 0
-23.070885 -82.183395 555.03058 -0.24976151 -0.781277 -0.57203633 0
12.6984 -79.662827 557.11328 0.82521832 -0.28341979 -0.48855701 0
13.03775 -79.723671 557.96393 0.79116583 -0.59723389 0.131789 0
-41.667641 -74.305397 556.43701 -0.85698289 -0.50018799 -0.124066 0
-39.377369 -78.04911 556.11792 -0.62221777 -0.69150561 -0.36696741 0
-36.389854 -79.528053 554.76691 -0.42356911 -0.76375818 -0.4870961 0
-42.375721 -73.425591 556.34753 -0.82130653 -0.36463261 -0.43874681 0
-42.149097 -73.896423 555.85919 -0.77422029 -0.61011767 -0.16834299 0
-44.179588 -69.039131 557.09882 -0.9582215 -0.2157404 -0.1877968 0
-43.107529 -72.525177 555.56671 -0.84100991 -0.30873999 -0.44427699 0
13.52101 -70.189217 554.41443 0.85590822 0.093654089 -0.50857657 0
14.14116 -70.441902 555.90302 0.96461678 -0.1366124 -0.22550251 0
-44.603458 -68.070793 556.51727 -0.95214021 -0.25881049 -0.16262311 0
14.41853 -68.868423 556.8526 0.90569818 0.00029820309 -0.42392311 0
-46.813168 -64.289719 555.94385 -0.71049649 0.37838379 -0.5933131 0
-45.596752 -64.436356 556.42999 -0.98658979 -0.12364 0.106554 0
-45.997368 -64.417831 556.48804 -0.91385663 0.098440669 -0.39392349 0
-44.438633 -65.816521 553.41254 -0.8349154 0.020234611 -0.55000621 0
14.53563 -64.826843 556.35498 0.94817913 0.0398954 -0.315222 0
14.63733 -65.465858 556.85718 0.98277301 0.023404511 -0.183329 0
-45.673676 -61.937325 556.10437 -0.7181294 0.43170941 -0.54581791 0
-45.45369 -61.55563 556.5719 -0.9965685 0.078715824 -0.025595499 0
-44.544956 -61.187271 554.34149 -0.86374217 0.2161831 -0.45520809 0
14.02021 -62.64415 557.16028 0.96569312 0.095405757 -0.24152569 0
-44.804684 -59.03466 556.55359 -0.90453452 0.28754109 -0.31486109 0
-44.90247 -58.862793 556.56079 -0.75537282 0.40642411 -0.51403451 0
-43.952713 -58.709198 555.07941 -0.85668588 0.29880601 -0.420481 0
-44.039539 -56.348751 557.7818 -0.97150272 0.1279012 0.199559 0
-43.187279 -56.409691 555.83661 -0.62816298 0.52925098 -0.570355 0
-42.625381 -54.722019 556.13177 -0.78466511 0.42250559 -0.45364049 0
12.4803 -54.75885 555.27533 0.91815108 0.209286 -0.336449 0
-42.394104 -52.70089 557.37445 -0.89081722 0.38786691 -0.2366516 0
-41.470436 -52.603622 556.10406 -0.73014867 0.49108621 -0.475097 0
12.85901 -53.67498 556.81702 0.92317998 0.22378699 -0.31250301 0
12.68565 -53.566139 556.38202 0.95030642 0.2250713 -0.21508271 0
-41.343262 -49.375568 557.51959 -0.93331969 0.34564301 -0.097186074 0
-41.280155 -49.033676 557.96954 -0.73863697 0.54471493 -0.39711609 0
10.662441 -48.225613 554.56262 0.83445549 0.37626931 -0.40262321 0
12.78069 -50.173649 558.78552 0.67562199 0.43525901 -0.59504998 0
-41.692162 -48.302147 558.34729 -0.94796568 0.128811 0.2911509 0
-39.020962 -48.44841 557.5658 -0.70895708 0.55550587 -0.43450329 0
11.31519 -46.620892 557.52087 0.62775111 0.487829 -0.60658997 0
-39.405617 -46.289719 559.62799 -0.89328587 0.4219203 -0.15499561 0
-34.58519 -43.445419 558.78943 -0.59393382 0.67983621 -0.4301922 0
-32.394249 -42.850609 556.25647 -0.64189988 0.61444253 -0.45872101 0
7.109776 -40.816528 553.77002 0.56460369 0.59340471 -0.57366669 0
9.0411167 -41.791328 556.67871 0.64119619 0.57995611 -0.5025121 0
-33.12196 -42.09771 558.38959 -0.55539739 0.70777202 -0.43656921 0
-31.344681 -41.18544 556.52759 -0.6018061 0.66606432 -0.44066769 0
-28.776182 -39.782391 555.31549 -0.54682273 0.65960622 -0.51565951 0
-27.340303 -39.040359 555.00824 -0.51589692 0.70755082 -0.4829309 0
8.4284925 -41.305611 557.17902 0.58271289 0.53890789 -0.60829592 0
-31.621901 -40.024422 558.3653 -0.52122122 0.73011363 -0.44188529 0
-27.653271 -38.364689 556.08099 -0.47854301 0.73356569 -0.4825744 0
-26.198351 -36.767231 556.21619 -0.4648985 0.73491251 -0.49373391 0
-23.30286 -35.7472 555.1123 -0.38955069 0.75247669 -0.53106397 0
-20.315758 -35.545895 554.25549 -0.082304388 0.81625402 -0.57180017 0
-7.8951888 -35.79826 554.07281 0.24451029 0.78126508 -0.57431668 0
3.2046549 -36.750736 555.23523 0.51846248 0.67624241 -0.52334791 0
4.9257588 -37.26503 555.82068 0.48058999 0.63115442 -0.60883272 0
7.5947461 -40.140179 557.96442 0.9096899 0.38441601 -0.15712599 0
-25.916321 -36.1385 557.08643 -0.25032371 0.81422788 -0.52380443 0
-20.51317 -33.726051 557.1925 -0.24952459 0.81811708 -0.51809448 0
-16.503 -33.647591 555.70892 -0.1406806 0.82357568 -0.54948348 0
-13.43937 -33.93042 555.16742 0.0080077033 0.82937968 -0.55862802 0
-9.8583269 -34.531368 555.52661 0.066335097 0.82041401 -0.567909 0
4.201714 -36.85532 555.98029 0.82856739 0.50879288 -0.23367891 0
-22.009701 -34.537601 556.88739 -0.051909611 0.79313308 -0.60683209 0
-19.677 -33.17355 557.98499 -0.1805516 0.80412579 -0.56637698 0
-16.39732 -32.7855 557.54547 -0.40237039 0.75309342 -0.52052701 0
-13.08911 -31.828939 558.22729 0.080113992 0.82625991 -0.55756289 0
-17.131639 -94.610947 562.45837 0.089307673 -0.92638773 -0.36582789 0
-14.340062 -94.01989 560.29803 -0.72864121 -0.50018418 -0.4678652 0
-11.19578 -94.421158 561.1424 -0.26181689 -0.6988045 -0.66567582 0
-2.518934 -93.980392 560.95227 -0.2234621 -0.81727022 -0.53116322 0
2.0089765 -93.617989 561.88043 0.205459 -0.76002991 -0.61655593 0
2.1978755 -93.688095 562.29834 -0.056374788 -0.83679593 -0.54460502 0
-16.374222 -93.406075 560.33472 0.1027991 -0.91512638 -0.3898412 0
-16.136206 -93.689026 560.55713 -0.2186812 -0.76598102 -0.60452598 0
-13.74045 -93.935379 560.14978 -0.3571251 -0.75333738 -0.55221772 0
-10.40349 -94.32505 560.13531 -0.081566438 -0.85339189 -0.51484883 0
-7.2058859 -94.587479 559.36902 -0.044974409 -0.87417382 -0.4835262 0
-2.012414 -93.78933 559.58728 0.066585682 -0.85041201 -0.52188683 0
1.3688709 -93.138542 559.85577 0.1010255 -0.82976341 -0.54889578 0
2.8797948 -92.58725 560.15692 0.140016 -0.7858147 -0.60240418 0
4.4120569 -91.88752 560.5899 0.02687549 -0.7938267 -0.60754979 0
-32.75806 -88.571053 562.92609 -0.0013144501 -0.68717688 -0.72648889 0
-19.64045 -90.578987 559.89563 -0.3510136 -0.63348359 -0.68955642 0
-16.74176 -92.290199 559.03662 -0.36612591 -0.74701703 -0.55490309 0
-13.83357 -92.939758 558.37793 -0.33083361 -0.69105548 -0.64264399 0
2.5050559 -92.388168 558.57068 0.48694709 -0.85799527 -0.1634828 0
4.742691 -90.65741 559.06799 0.50028539 -0.82173049 -0.27289829 0
5.9454279 -89.663742 559.7486 0.4924508 -0.67004478 -0.55545682 0
-30.846359 -87.077591 561.24957 -0.1000479 -0.79092407 -0.60368001 0
-27.254431 -86.683723 561.09253 -0.077078432 -0.76166463 -0.64337093 0
-24.79454 -87.543694 561.13593 -0.13726459 -0.70118701 -0.69963938 0
-22.015261 -88.160294 559.7027 -0.20916191 -0.70707053 -0.67550182 0
-17.427845 -89.776772 557.47778 -0.43023819 -0.57518172 -0.69574499 0
-14.846407 -90.863487 556.88525 -0.3730067 -0.6450966 -0.66687047 0
5.5782452 -90.26841 559.9115 0.6421169 -0.76659578 0.0040953942 0
7.334651 -87.974457 559.42188 0.67157078 -0.60413378 -0.42896989 0
8.1865139 -87.199112 560.35327 0.67280573 -0.55840391 -0.48530149 0
-34.120445 -84.881798 560.12842 -0.1311582 -0.74776602 -0.65087909 0
-22.030979 -86.759651 558.60992 -0.27841681 -0.60465348 -0.74624282 0
-20.852766 -86.060532 556.96362 -0.3498961 -0.58664149 -0.73035908 0
8.2994385 -87.074936 558.90936 0.73953402 -0.67287892 -0.017988861 0
9.4524021 -85.595444 559.08075 0.74887151 -0.62634939 -0.21651299 0
-31.248249 -83.482536 557.72247 -0.2286704 -0.72190452 -0.65311861 0
-28.31636 -83.41217 557.71368 -0.1983889 -0.72334093 -0.66137731 0
-22.817141 -84.077011 557.56183 -0.32271519 -0.72585642 -0.60744327 0
-19.871901 -85.122818 557.05847 -0.445943 -0.66876203 -0.59488851 0
10.59686 -84.463036 559.74792 0.81280142 -0.57491952 0.093922928 0
10.949283 -83.61097 558.63788 0.81132537 -0.45032421 -0.37277219 0
12.252993 -81.716972 559.34021 0.85819972 -0.32716039 -0.39554971 0
-38.525261 -80.374336 558.45361 -0.5549283 -0.68000299 -0.4792186 0
-36.126831 -82.049606 557.43549 -0.4545469 -0.67048079 -0.5863809 0
12.76372 -81.514107 559.07922 0.87173653 -0.48256981 0.084864803 0
13.65984 -79.587967 559.53259 0.92047328 -0.37566739 -0.1077166 0
14.108766 -78.811981 560.87848 0.91217017 -0.40951139 -0.015680511 0
-42.591599 -75.136948 559.95312 -0.87555778 -0.46121639 -0.1437979 0
-41.198662 -77.47905 559.37128 -0.75775337 -0.5819782 -0.29514611 0
15.38126 -73.876427 559.69312 0.79595017 -0.46122611 0.3920891 0
15.62103 -69.955467 558.58282 0.98633838 -0.075339213 -0.1464947 0
15.64566 -71.723793 561.00122 0.9453463 -0.056344219 -0.32116309 0
-45.310032 -66.226929 559.12738 -0.98899448 -0.042156849 -0.14181919 0
-45.084438 -67.00489 558.0589 -0.95554489 -0.28874299 0.059679091 0
15.31134 -68.845367 559.6441 0.93653142 0.005779773 -0.35053611 0
15.19325 -68.836342 561.09277 0.9512316 0.0023405091 -0.30846891 0
-45.379589 -65.981934 558.11871 -0.92997319 0.047849111 -0.36450011 0
14.503524 -64.151657 557.63916 0.89170468 0.20090321 -0.40558669 0
14.965765 -63.709866 560.86572 0.96806258 0.051862679 -0.2452859 0
14.69892 -62.276779 560.23163 0.95014638 0.1240119 -0.28608179 0
-45.378292 -59.643185 558.19543 -0.76841837 0.494322 -0.40642229 0
-44.912376 -58.635918 558.89819 -0.97996253 0.19887809 0.01099869 0
-44.65419 -58.191528 559.5564 -0.89484167 0.30262491 -0.32814091 0
-44.285709 -56.423618 557.94897 -0.89111543 0.32822919 -0.31333521 0
-44.311794 -56.845577 558.75787 -0.78065819 0.48867369 -0.3895776 0
-44.07795 -55.404572 559.86737 -0.92878652 0.3308917 -0.16693211 0
-42.759792 -52.753185 558.54083 -0.95289832 0.124492 0.27656209 0
-42.798027 -52.62344 558.68445 -0.91144347 0.38060641 -0.1562355 0
-42.741543 -50.987862 558.21027 -0.78903818 0.4635998 -0.4031055 0
-42.67794 -51.008438 560.7384 -0.95334733 0.130381 0.27226809 0
-42.187401 -49.933769 559.91827 -0.92796999 0.36917919 -0.050779011 0
-41.499542 -48.306988 558.86646 -0.78116691 0.49623021 -0.37885889 0
-39.165161 -47.503563 558.25946 -0.78821123 0.49526879 -0.3652834 0
-41.501617 -48.277454 559.63611 -0.96269232 0.23238 0.1386472 0
-40.111591 -46.705814 559.78766 -0.85223562 0.4821679 -0.20299929 0
-37.907791 -45.38205 559.08588 -0.74478239 0.54162478 -0.389797 0
12.07645 -46.25309 559.32507 0.93142688 0.32467851 -0.16440129 0
-40.506695 -46.479778 560.95526 -0.95224363 0.123092 0.2794289 0
-38.86216 -44.911835 561.00299 -0.9197343 0.39142641 -0.029566269 0
-37.50082 -44.453384 559.8175 -0.68734622 0.61689979 -0.38339251 0
-34.439335 -43.001213 558.80322 -0.68813568 0.60181832 -0.40531951 0
-33.581066 -42.98457 557.6618 -0.64238691 0.59819788 -0.4790599 0
-37.395424 -42.054585 562.2663 -0.88448697 0.46285799 -0.058696199 0
-30.57798 -38.778801 559.07458 -0.58962679 0.69548279 -0.41066289 0
8.7857533 -39.199848 560.0033 0.7296375 0.58224988 -0.35862821 0
9.7109385 -40.586342 560.06897 0.90819681 0.39465061 -0.13938969 0
6.0158272 -36.411301 558.47662 0.60385668 0.67464352 -0.42451531 0
6.3943868 -36.930191 559.46552 0.50992298 0.63688701 -0.578233 0
8.6361485 -39.245899 560.2829 0.57658619 0.5723002 -0.58311319 0
-28.06764 -36.439651 560.25452 -0.36323541 0.80815172 -0.4636279 0
-23.67383 -33.58746 559.14191 -0.3970266 0.80234528 -0.4456591 0
-20.192699 -32.44619 558.974 -0.19125959 0.84965497 -0.49143279 0
-17.159517 -32.837856 557.26624 -0.0149239 0.85936081 -0.51115191 0
-13.93821 -32.41431 557.02417 0.05634303 0.85871267 -0.50935072 0
-7.7496881 -33.53159 557.13068 0.2448297 0.82075888 -0.51615238 0
4.067101 -33.662941 559.22559 0.43710399 0.70176911 -0.56254798 0
5.7001581 -36.168961 559.94122 0.85474741 0.50130862 -0.13452341 0
-22.775801 -32.9795 560.25012 -0.252202 0.82897788 -0.4991892 0
-19.880459 -31.740913 560.14288 -0.31259739 0.8346408 -0.453495 0
-17.039295 -31.852936 558.99255 -0.093429491 0.84080929 -0.53320801 0
-7.2096872 -31.7367 559.41278 0.105639 0.85831839 -0.50212532 0
-4.462327 -31.694811 560.35059 0.32629809 0.82253432 -0.46579719 0
3.9099205 -33.640175 560.30139 0.8107627 0.5648908 -0.1534999 0
4.3473744 -33.600857 560.68805 0.82041359 0.55468768 -0.1387189 0
-18.33411 -31.56016 560.15332 -0.45760599 0.76662701 -0.45042199 0
-7.266696 -30.91885 561.18439 0.26887289 0.84313172 -0.46565679 0
2.5741653 -31.04307 561.25537 0.78208101 0.61206597 -0.117152 0
-15.526505 -95.929771 564.15363 -0.76866269 -0.55799383 -0.31273091 0
-17.198542 -95.000748 563.15601 -0.02243856 -0.90211117 -0.4309198 0
-15.772248 -95.469482 563.34302 0.01398372 -0.90796608 -0.41881031 0
-14.215271 -95.533997 563.03729 -0.59061527 -0.62327099 -0.51254928 0
-1.0338711 -95.198471 563.89752 -0.049339678 -0.83833408 -0.54291952 0
0.6307503 -95.112701 563.46552 -0.057975061 -0.83913082 -0.54083133 0
2.6514068 -93.831024 563.0835 0.1540902 -0.82940233 -0.53698069 0
-24.104294 -92.13166 564.99493 -0.1881638 -0.66709232 -0.72082061 0
-21.997789 -92.412804 564.19238 -0.2900008 -0.68835789 -0.66487807 0
-16.823057 -94.804817 562.60126 -0.2829285 -0.67329848 -0.68309629 0
-9.6977816 -95.580833 562.94043 0.124993 -0.98792368 -0.091561399 0
-1.404406 -94.193779 562.12811 0.2647002 -0.82780111 -0.49465051 0
0.99367249 -93.603416 562.94623 0.46162191 -0.79946047 -0.38440621 0
4.9946432 -91.297371 561.59039 0.45252621 -0.75093228 -0.48095819 0
-33.815678 -89.515282 564.93182 -0.15620659 -0.66826928 -0.72733462 0
-31.27426 -89.665489 564.13269 -0.1126263 -0.68383777 -0.72088921 0
-28.44685 -90.013809 563.98853 -0.1057292 -0.66189802 -0.74210012 0
-25.333691 -90.030357 563.47528 -0.1372631 -0.65108317 -0.74649137 0
-17.430433 -94.218391 561.4671 -0.4631817 -0.72089583 -0.51553071 0
-14.31421 -94.739548 560.60211 -0.2789652 -0.7939294 -0.5402357 0
-11.43819 -94.711281 560.14508 -0.36302 -0.70969701 -0.60377699 0
-2.1991839 -94.934914 563.19458 0.39486599 -0.91764122 0.04489471 0
-0.26413009 -93.319908 563.90582 0.37255579 -0.91962928 0.1244354 0
2.1332667 -93.405136 561.65863 0.4778423 -0.87705767 0.049362808 0
3.9363308 -91.552284 562.27728 0.56894392 -0.7334159 -0.37202701 0
5.7910523 -90.602127 561.82745 0.64895111 -0.67507929 -0.35089949 0
6.3680382 -89.960373 561.68335 0.56837487 -0.66318792 -0.4869619 0
-36.799309 -87.593826 564.49182 -0.108536 -0.67700332 -0.72793299 0
-34.45792 -87.559471 562.97968 -0.2601845 -0.73568451 -0.62535781 0
-31.38051 -88.224068 562.26257 -0.22969911 -0.67053843 -0.70541942 0
-25.12351 -88.812576 561.85992 -0.2516675 -0.83927047 -0.48196319 0
4.0515108 -91.186348 563.57373 0.62294751 -0.76958549 0.1402663 0
6.9901133 -89.354218 561.57855 0.63105887 -0.77104688 0.085155196 0
7.2965212 -88.174103 562.05859 0.69076878 -0.7176879 -0.088105068 0
7.7906823 -86.986 562.92035 0.79317337 -0.5637033 -0.2304661 0
-28.883341 -87.392303 561.2428 -0.23347069 -0.66745782 -0.70710081 0
-26.313145 -87.908539 561.52234 -0.214909 -0.61267602 -0.76055402 0
8.3686171 -86.233818 563.09283 0.76224911 -0.6194315 0.18783259 0
-33.291939 -85.072662 559.27209 -0.26479599 -0.74625301 -0.61072892 0
-41.299728 -78.690079 563.5152 -0.81503439 -0.43456221 -0.38324219 0
13.64291 -79.462738 561.93982 0.92750138 -0.2173223 -0.30415809 0
14.35839 -78.741943 562.31842 0.92236298 -0.260409 -0.285366 0
-42.45134 -75.940826 562.44873 -0.87893403 -0.41716731 -0.2311852 0
-42.22757 -77.286148 563.54132 -0.93119669 -0.33259791 -0.149169 0
15.2108 -76.652222 562.43939 0.95641953 -0.27752039 0.090797611 0
-44.462448 -72.294487 561.30341 -0.93709582 -0.251369 -0.242209 0
-43.78476 -73.67498 562.46838 -0.93905038 -0.34079409 -0.045208499 0
-42.94508 -75.463943 561.39368 -0.8869611 -0.4420411 -0.13379 0
15.509999 -73.593056 563.47101 0.97118759 -0.2093883 0.1138035 0
15.77618 -72.637047 561.78912 0.79149169 -0.4188709 0.44507089 0
-44.917309 -70.782692 561.93121 -0.97087598 -0.16721679 -0.1715758 0
-45.056938 -71.135529 561.92188 -0.94244468 -0.32865891 0.06149178 0
15.595558 -70.229324 561.67963 0.99693662 -0.078066759 0.004793569 0
15.649328 -70.499481 563.27203 0.98680758 -0.1614989 -0.01134776 0
15.63606 -67.121529 563.2439 0.9923867 -0.01067364 0.1226982 0
15.63639 -68.549004 563.5321 0.98644722 -0.057995711 -0.153488 0
14.963341 -64.498901 561.40546 0.99863118 0.043495439 0.029051971 0
14.75555 -65.724777 562.15381 0.95793349 0.1032939 -0.26775691 0
15.028084 -62.792198 562.33234 0.95262212 0.15392201 -0.26233399 0
-44.53326 -57.950729 560.94427 -0.97632867 0.071550079 0.2041149 0
-44.064529 -56.02861 561.68372 -0.93248957 0.34804651 -0.096574977 0
-43.69912 -54.779461 562.97803 -0.9683646 0.2490323 0.01590234 0
14.175077 -55.326229 562.8924 0.98938447 0.13762569 0.046662759 0
14.58937 -57.0326 562.25262 0.94326282 0.2034959 -0.26238301 0
-43.179371 -53.301708 560.72308 -0.8071577 0.4840472 -0.3379271 0
-43.149891 -52.987202 561.92249 -0.92747962 0.35857609 -0.1058528 0
-43.221905 -52.360043 562.01532 -0.90588778 0.38179311 -0.18330669 0
13.67892 -54.03952 563.45892 0.93438888 0.23788001 -0.26519901 0
-42.053612 -50.15033 562.39258 -0.9478246 0.3170248 0.033524912 0
-41.214779 -47.13792 563.27222 -0.95363897 0.2131822 0.2124292 0
-40.851093 -46.43959 562.34729 -0.71054691 0.57898992 -0.39986721 0
-39.792545 -45.116734 562.03754 -0.76428002 0.55430633 -0.32957631 0
-37.477264 -43.83741 560.43805 -0.66811281 0.58378088 -0.46132991 0
-39.77076 -44.71656 563.53473 -0.94741768 0.128821 0.29292491 0
-39.877453 -45.0098 562.60876 -0.86128622 0.4943687 -0.1174129 0
-36.868294 -42.240826 561.4184 -0.74299592 0.59293222 -0.31046519 0
-36.541279 -41.768581 561.96503 -0.65042418 0.67088342 -0.35617951 0
-34.82008 -39.821041 562.06073 -0.6886459 0.6329841 -0.35369211 0
10.27549 -40.337559 563.46832 0.95225602 0.30094859 0.0513652 0
10.87718 -41.076 563.5495 0.61323923 0.55545419 -0.56161219 0
-37.243504 -40.46954 563.93524 -0.89454007 0.44612911 0.0276927 0
-33.273911 -39.234631 562.69171 -0.56443012 0.72874153 -0.38775581 0
8.445179 -36.85054 563.31702 0.69310617 0.64902771 -0.3136349 0
-26.45785 -34.06575 562.31232 -0.4867391 0.75246388 -0.4437153 0
-23.154131 -32.630852 561.04608 -0.38982821 0.79302943 -0.46812221 0
-7.5846272 -31.4286 560.09613 0.2360298 0.85967177 -0.45304999 0
3.54842 -31.82394 561.91821 0.53697532 0.76299977 -0.3598457 0
4.9677324 -33.786022 561.54712 0.53904408 0.71598572 -0.44361681 0
6.877553 -36.074772 563.17609 0.84888297 0.51547241 -0.1169864 0
-23.014681 -31.975281 562.82397 -0.44898379 0.80314893 -0.391619 0
-19.836309 -30.926611 561.44928 -0.06346868 0.89296472 -0.4456296 0
-7.8084369 -29.98177 563.44427 0.144481 0.89750701 -0.41666099 0
-3.80181 -31.12009 561.59229 0.2416309 0.86348158 -0.44273481 0
1.893695 -30.858662 562.05774 0.31771591 0.80783361 -0.49644899 0
3.5044405 -31.891401 563.37439 0.7999652 0.5988571 -0.03776031 0
4.3382564 -32.879448 562.30817 0.82017732 0.56863117 -0.062990531 0
-21.193907 -30.957125 562.90436 -0.52246612 0.77397013 -0.35777009 0
-14.536805 -28.526487 563.38171 0.032127012 0.88665217 -0.46131951 0
-11.918061 -29.347418 563.03845 0.152136 0.87330091 -0.46281791 0
-8.6153927 -29.79707 564.138 0.30421591 0.86970681 -0.38866791 0
1.944806 -30.909828 562.42572 0.78210908 0.61885512 -0.072963692 0
-14.469524 -27.937569 564.51941 -0.42195901 0.81413108 -0.39892501 0
-15.133766 -96.884865 566.02344 -0.7381379 -0.64003593 -0.213323 0
-14.208131 -97.035233 567.03076 0.25006479 -0.94983691 -0.18782321 0
-10.20989 -96.37822 567.66101 -0.14929099 -0.88166112 -0.44764501 0
-21.433977 -94.158493 567.86945 -0.19915091 -0.72474623 -0.65960753 0
-16.125858 -96.562698 565.60321 -0.043564729 -0.91175652 -0.40841439 0
-13.719673 -96.788582 565.3772 -0.1663477 -0.89808381 -0.4071534 0
-10.634052 -96.502068 566.25928 -0.2021616 -0.7429232 -0.63811898 0
-36.56604 -91.451843 567.92657 -0.21091349 -0.72377789 -0.65700918 0
-30.815748 -91.689926 567.47809 -0.13460509 -0.71142751 -0.68974799 0
-25.328369 -92.685753 567.14032 -0.1938898 -0.66568547 -0.7206037 0
-21.99365 -93.651718 566.60687 -0.2576651 -0.70757848 -0.65798289 0
-16.870903 -95.82618 564.88416 -0.3811819 -0.80720937 -0.45068109 0
3.2673481 -91.177307 562.86591 0.6397962 -0.71555722 -0.28042611 0
-37.61314 -89.269806 566.36279 -0.1782786 -0.71098721 -0.6802308 0
-37.027039 -89.48156 566.45715 -0.1905192 -0.7152009 -0.6724509 0
-31.441339 -90.634903 566.14398 -0.3166098 -0.68357128 -0.65763873 0
-25.469437 -91.010605 564.2005 -0.30286041 -0.89381403 -0.33071461 0
-22.991056 -92.802277 565.40625 -0.34687671 -0.84239292 -0.41237211 0
-20.251751 -94.156273 564.185 -0.41729161 -0.80056798 -0.43006811 0
-13.84686 -96.981796 565.00781 -0.120441 -0.99066359 -0.063870981 0
-38.750233 -87.79628 567.66174 -0.1699573 -0.71400112 -0.67920321 0
-36.628922 -89.244781 565.8161 -0.50800812 -0.60672712 -0.61140013 0
-35.380123 -88.673286 564.74573 -0.48628849 -0.79750371 -0.3570874 0
-32.010288 -89.907326 564.85724 -0.37623471 -0.88052863 -0.28830001 0
-29.50561 -90.297722 563.87518 -0.3232834 -0.76467413 -0.55745971 0
-26.12417 -90.85231 563.94879 -0.2204241 -0.60613322 -0.76420927 0
-23.147476 -91.870911 563.86188 -0.29562211 -0.57653809 -0.76171613 0
5.556087 -88.790901 565.01819 0.67653883 -0.70382601 0.2166198 0
7.5352898 -86.601357 563.84814 0.6486311 -0.72581309 0.22906999 0
7.7853713 -86.082039 564.40399 0.84107637 -0.52493322 -0.1305211 0
-37.7043 -86.441116 564.8678 -0.62050188 -0.67996478 -0.39067289 0
6.6836429 -86.751762 565.90472 0.72679901 -0.63114101 0.270969 0
-41.790161 -78.239639 565.38092 -0.87923348 -0.45810139 -0.1307347 0
14.328091 -77.457024 564.45911 0.94974601 -0.15851291 -0.26991889 0
-42.930241 -75.245796 565.06232 -0.94081569 -0.33583379 -0.0456241 0
-42.498779 -76.739967 565.97888 -0.97383863 -0.20780391 -0.091956757 0
14.107051 -75.920082 565.63416 0.78839248 -0.4420597 0.4278087 0
14.554383 -76.133583 565.62433 0.94620812 0.0052138991 -0.32351661 0
-43.99184 -72.400368 563.97888 -0.96669978 -0.2286559 -0.114926 0
15.187934 -73.379921 565.21954 0.99439919 -0.1056873 -0.00062945043 0
15.243849 -73.709686 564.99194 0.78389603 -0.425163 0.45248601 0
15.573357 -73.083 564.47638 0.97382379 -0.09426523 -0.20683619 0
14.671724 -69.764793 566.5672 0.89025098 -0.15868101 0.42693499 0
15.722629 -70.20993 565.72906 0.94517767 0.14657991 -0.2918106 0
15.507271 -70.641937 565.18988 0.9358387 -0.26687759 0.230179 0
15.962943 -68.568039 565.97821 0.95655179 -0.1860792 0.22446179 0
14.579749 -68.910942 567.16882 0.88946497 -0.15243 0.43083301 0
15.819774 -67.050331 566.85492 0.94593638 0.17426559 -0.2735616 0
15.112644 -68.191582 566.60388 0.99594659 -0.053687979 -0.07216578 0
15.86057 -68.587067 566.11469 0.98416698 0.031458799 -0.17443 0
15.434916 -66.372871 566.64062 0.97796118 0.107358 -0.17907 0
14.99491 -58.170132 565.11682 0.98895901 0.1130392 0.095824488 0
14.50921 -58.281319 564.81201 0.96959561 0.173126 -0.1729506 0
