ply
format ascii 1.0
comment PCL generated
element vertex 609
property float x
property float y
property float z
property float nx
property float ny
property float nz
property float curvature
element camera 0
property float view_px
property float view_py
property float view_pz
property float x_axisx
property float x_axisy
property float x_axisz
property float y_axisx
property float y_axisy
property float y_axisz
property float z_axisx
property float z_axisy
property float z_axisz
property float focal
property float scalex
property float scaley
property float centerx
property float centery
property int viewportx
property int viewporty
property float k1
property float k2
end_header
-17.796461 -101.06087 574.31976 0.66995615 0.63950193 -0.37708887 0.021312796
-15.225334 -101.54812 573.93365 0.23771194 -0.87852263 -0.41435608 0.0073339702
-11.0678 -101.307 573.74799 -0.060310353 -0.9622432 -0.26542565 0.0045951414
-32.5 -97.5 573 -0.20234446 -0.86853683 -0.45243838 0.003549976
-29.960049 -97.913895 573.078 -0.20080906 -0.8864435 -0.41700566 0.0037413684
-25.968956 -98.300781 573.82233 -0.23231539 -0.88752657 -0.39790228 0.0030088446
-21.844311 -98.719406 573.10382 -0.23456427 -0.92900372 -0.28623709 0.0030464712
-17.891365 -98.368996 573.96173 -0.93722093 -0.032509007 -0.34721756 0.019465981
-13.764875 -97.458649 573.89648 -0.82388538 0.53234828 -0.19446889 0.052152555
-10.35935 -99.919701 575.02747 0.11736907 0.98684782 0.1111571 0.00064230012
-33.77985 -92.898804 573.80347 0.19565764 0.019377353 -0.98048079 0.0041074818
-30.5452 -94.508301 573.79895 0.68503386 0.53620189 -0.49316952 0.0022731996
-27.9888 -95.8013 574.00098 -0.38183087 -0.90354848 -0.19443589 0.0014910912
-20.552349 -93.41925 574.11951 0.31457871 0.92902559 -0.19481191 0.0063792202
-17.527473 -93.196396 574.04004 0.24649461 0.95611089 -0.15840556 0.025931666
-14.103984 -94.187836 574.07257 -0.28116694 0.91622639 -0.28543729 0.027706325
-10.616489 -93.046425 574.07281 -0.39397922 0.86331856 -0.31537512 0.014688563
-7.8107376 -92.273872 574.49524 -0.49535668 0.80410093 -0.32869965 0.032360315
-37.665565 -88.965111 574.30804 0.83947074 0.5315811 -0.1127402 0.0084058819
-32.4328 -88.123703 572.50299 0.45609778 0.84022886 -0.29324102 0.0026735861
-30.254425 -89.329124 572.68628 0.3924081 0.83512217 -0.38546962 0.011410449
-26.03772 -90.084961 573.87726 0.3787275 0.85606748 -0.35173005 0.0052001886
-22.090477 -91.044998 574.64374 0.36510596 0.88672078 -0.28359106 0.005948429
-17.658899 -91.6334 574.55603 0.06799446 0.97606617 -0.20657115 0.010811348
-14.9195 -91.489197 575.18701 -0.045868769 0.94959742 -0.31009811 0.0069054319
-10.18714 -91.379906 574.45599 -0.30912754 0.85778141 -0.41067156 0.010187462
-6.2706366 -90.226295 574.21881 -0.56703073 0.72761893 -0.38606572 0.015549107
-2.9302001 -88.222099 573.883 -0.54903966 0.74500239 -0.37884942 0.0024148065
5.6193848 -89.402153 574.0235 -0.89497811 0.43276477 -0.10829975 0.0021823302
-39.52935 -85.238129 573.90479 0.82876927 0.53032178 -0.17860648 0.0097875698
-33.882339 -86.140427 574.14618 0.54246068 0.67602789 -0.49872094 0.015127999
-30.614 -87.451897 575.13599 0.46234471 0.75347471 -0.46745411 0.0073662768
-4.1039 -87.7966 573.96301 -0.36332205 0.69412076 -0.62144464 0.018796403
-1.3561981 -86.684021 574.43054 -0.60083944 0.65450007 -0.45893529 0.0097889407
1.5767431 -86.101494 573.66907 -0.54413235 0.52618098 -0.65349346 0.014206348
6.3233962 -85.75219 573.20709 -0.80281681 0.47007713 -0.36675969 0.0091077406
-41.683167 -82.641388 573.51953 -0.14593136 0.8388539 -0.52443141 0.034531079
-38.567234 -81.992966 573.57666 0.81758517 0.38948232 -0.42409658 0.0021179083
-0.719989 -83.925903 575.599 -0.40788847 0.61337233 -0.67631465 0.0092150792
1.9990274 -82.472847 573.8175 -0.71489024 0.32047209 -0.62147373 0.0068346472
6.2536173 -82.294495 573.58374 -0.63029486 0.38479578 -0.67428523 0.0081790527
8.8986931 -81.756866 574.65802 -0.91029966 0.33889151 -0.23771243 0.0050295922
-42.020435 -77.678162 574.22705 0.94236386 0.15406503 -0.29700863 0.017226353
-38.7271 -78.856735 574.77631 0.77154809 0.28245318 -0.57002956 0.01202611
1.9982276 -78.205566 573.77368 -0.85392737 0.050592311 -0.51792705 0.012807846
7.0310631 -78.571663 574.51904 -0.67473865 0.3089259 -0.67029297 0.0044237114
9.7706728 -77.372337 573.22601 -0.91018164 0.25519919 -0.3262558 0.0023666183
15.064051 -77.724747 573.77002 -0.98954654 0.14330764 -0.016141165 0.0056653358
-44.610401 -73.204803 572.112 0.97929084 0.11912577 -0.16370258 0.0035778864
-41.795704 -74.139481 574.02966 0.92751133 0.03021791 -0.37257153 0.0095091294
-39.859001 -74.914902 575.672 0.79659265 0.27121502 -0.54026157 0.0019386871
2.3628287 -74.424599 573.72101 -0.85740131 0.26953298 -0.43842325 0.013787416
9.9469681 -73.344421 574.15039 -0.85434985 0.29235196 -0.42967051 0.0038462903
15.4506 -73.100899 574.96301 -0.99573731 0.088352837 0.026475504 0.0039223097
-44.680946 -69.766754 574.21594 0.98449516 0.093394302 -0.14848132 0.003083573
-41.517246 -70.138573 573.76752 0.93064976 -0.00046405155 -0.36591098 0.0064351894
-39.393951 -69.711105 575.21552 0.9552266 0.0054495917 -0.29582494 0.006983527
4.4891949 -69.683098 574.24597 -0.86636955 0.29519454 -0.40282002 0.012632184
11.229816 -69.989632 574.19086 -0.96421874 0.10539144 -0.24325888 0.0039940798
13.82165 -69.732544 572.84705 0.29717213 0.32344639 -0.8983714 0.0017852866
-44.8759 -66.240005 574.98199 0.97974569 -0.0020064053 -0.20023578 0.0047397348
-41.826851 -65.188202 574.10474 0.95192266 -0.0060514295 -0.30627853 0.0059057022
-39.925098 -67.077103 574.14697 0.96019453 0.090588972 -0.26423502 0.013827872
5.4823484 -65.899948 573.84503 -0.9086771 0.084118597 -0.40893769 0.01246741
11.366366 -66.178772 574.30133 -0.93727237 0.028160542 -0.34745848 0.0011863668
14.0041 -65.906868 573.88434 0.81340683 0.2409102 -0.52946353 0.00068359572
16 -66.75 574.75 0.96644574 0.16004297 -0.20092008 0.00036502208
-44.317799 -61.075199 574.46198 0.95851988 -0.16695659 -0.23100889 0.0008595339
-41.86964 -62.264015 573.62305 0.93795621 -0.037248645 -0.34474733 0.0030158651
-39.900501 -60.319 575.61603 0.93009287 -0.2003585 -0.30786967 0.0057775141
5.4881425 -61.649178 573.68732 -0.90748024 -0.048081819 -0.41733408 0.0058002872
11.387962 -62.049652 574.5271 -0.97295421 0.017589364 -0.23032735 0.0046215295
14.262225 -61.881771 573.17041 0.58925074 0.34566736 -0.73027235 0.0010147397
-42.332523 -57.789612 574.31238 0.95240897 -0.13803689 -0.2717776 0.0036325408
-39.643501 -56.397202 573.62 0.943331 -0.1054393 -0.31465736 0.0046754871
4.9178748 -57.056431 574.35101 -0.85614431 -0.0017577679 -0.51673383 0.0024132086
11.171533 -57.430332 573.95898 -0.64622492 0.182694 -0.74095637 0.0086960634
13.822525 -58.56675 573.1272 0.81965888 0.26163411 -0.50961453 0.0017352873
-42.153961 -53.857067 573.9494 0.9579643 -0.1628406 -0.23619363 0.0045108544
-39.415783 -53.130066 574.76398 0.90537244 -0.2486437 -0.34420493 0.0056412667
5.4018979 -54.458302 573.74548 -0.84223622 0.02777599 -0.53839272 0.0017008841
10.4373 -54.130447 574.50201 -0.96950328 -0.22380221 -0.099879593 0.010934301
13.3355 -54.868328 573.78192 0.22400174 0.29836524 -0.9277938 0.003038347
-41.613182 -50.040455 573.53021 0.93082309 -0.23840643 -0.27700332 0.0023555679
-38.731041 -50.09589 574.4809 0.91220242 -0.22179139 -0.34452194 0.0048785401
5.1217284 -49.737122 574.27936 -0.86894119 -0.10853849 -0.482867 0.0034722683
10.640203 -49.826187 573.90228 0.9229539 0.34025636 -0.17994893 0.0088921702
12.462466 -50.528534 574.43604 0.46939752 0.39616203 -0.78912711 0.001977168
-46 -45.833332 573.33331 -0.7926057 0.5851351 -0.17144442 0.0029445579
-40.462029 -45.672874 573.771 0.89453918 -0.36411238 -0.25927168 0.0031797714
-38.194469 -45.80212 574.30859 0.91636473 -0.30056438 -0.26445556 0.0043222727
3.86832 -44.33535 574.26349 -0.90862352 -0.07948371 -0.40998247 0.0070514213
5.8930511 -46.490387 573.78247 0.02535167 0.31658316 -0.94822592 0.003631366
10.130106 -46.156281 574.26038 0.90365195 0.39627814 -0.16240934 0.0025817296
13.54475 -46.377853 573.68298 -0.83717096 0.025777848 -0.54633349 0.0016853241
-45 -44 575 -0.7879222 0.59875166 -0.14378831 0.00078632403
-41.851154 -41.945099 573.27979 -0.28592375 0.7186529 -0.63386559 0.0010056361
-37.791801 -41.678181 574.14496 0.612535 -0.24198192 -0.75249296 0.0043448815
-35.3195 -40.63525 574.59149 0.89119905 -0.32564816 -0.31578094 0.0019054222
3.3268025 -42.174599 575.38025 -0.93309021 -0.065956935 -0.35354248 0.0082460484
6.0822253 -41.8377 573.97791 0.36261714 0.60375822 -0.70991898 0.0053413468
8.7874174 -42.79018 573.13177 0.82715684 0.48652327 -0.28125903 0.0021080908
12.862 -41.341499 574.53796 -0.85113639 0.038522754 -0.52352917 0.0051993178
-41 -40 573 -0.72098958 0.6545701 -0.2274027 0.00072358496
-38.146538 -38.119652 573.84821 -0.097910605 0.6418063 -0.76059061 0.0015019436
-34.079449 -37.566994 573.83893 0.79725128 0.082873777 -0.59793168 0.0044828085
3.1243043 -37.5937 573.96539 0.17643687 0.83883756 -0.51499659 0.0052943598
5.8023496 -38.378777 573.83801 0.76210696 0.6109677 -0.21426962 0.0031141338
-37.492714 -33.937199 574.27112 0.75562268 -0.07016401 -0.65123832 0.0021247012
-34.1866 -33.945164 573.70599 -0.0018586742 0.62702924 -0.77899349 0.0020911999
-30.151779 -33.807823 574.06342 -0.22954345 0.64595586 -0.72804588 0.0023086772
-2.0467451 -32.827549 573.32849 0.60418373 0.7817573 -0.15432961 0.0015465938
1.5588648 -34.096294 574.16846 -0.34792745 0.093017966 -0.93289554 0.0055156131
4.666667 -36 575.66669 0.68905282 0.70136237 -0.18247497 0.0024001347
17.52795 -34.623276 574.54199 0.6525315 0.53682441 -0.53481042 0.004914239
94.834503 -33.368301 573.87598 0.26630327 -0.28348738 -0.92125869 0.016575845
96.703552 -35.450401 574.987 0.17411382 -0.45233202 -0.87468863 0.0082797566
100.604 -34.184898 575.69098 0.36698279 -0.20384932 -0.90761727 0.048944652
106.73 -32.173553 574.909 -0.061172407 -0.87609601 -0.47824037 0.0065227943
109.45847 -33.798134 575.13733 -0.83788228 -0.071195431 -0.54118794 0.033550851
115.2877 -33.203773 574.79053 -0.33729795 -0.82029313 -0.46189743 0.010615754
117.76911 -33.212467 574.0434 -0.2734029 -0.82957041 -0.48689204 0.014370068
122.37613 -33.024509 574.07202 -0.042292945 -0.82364953 -0.56551987 0.011838702
125.59708 -33.649517 574.3736 0.053205837 -0.69490838 -0.7171272 0.023691712
129.53729 -33.496532 574.83618 0.29720867 -0.45457312 -0.83966076 0.051300179
132.23251 -33.966 575.75952 0.23108289 -0.32817814 -0.91591477 0.050496206
-36.209999 -29.5413 573.44598 0.8276822 -0.31973839 -0.46120456 0.0036338104
-32.664749 -31.361324 573.80078 0.74427718 -0.095678985 -0.66098189 0.002821893
-30.26387 -29.901102 573.7804 0.13643992 0.73643553 -0.66260612 0.0037489131
-25.997343 -30.119301 574.07184 -0.41317263 0.80491972 -0.42590225 0.0021511533
-23.120926 -28.856651 572.61975 -0.37170532 0.88985807 -0.26455221 0.0011972296
-18.453701 -28.35025 573.09351 0.016976049 0.93277866 -0.36004964 0.00067905016
-13.5713 -28.572201 573.74298 0.15657482 0.92416966 -0.34841749 0.00010394727
-9.7005072 -28.814657 573.40143 0.22242899 0.92981327 -0.29321107 0.00097075693
-5.8031058 -30.044779 573.70898 0.44388461 0.86786157 -0.22312041 0.00242093
-3.2307656 -30.590277 573.94391 -0.014847036 0.81787854 -0.57519937 0.0026034655
9.5334053 -28.865101 572.34998 0.41573143 0.78378475 -0.46135539 0.0025939872
13.943267 -30.956116 573.71686 0.57858837 0.62769854 -0.52079749 0.0062355679
16.367701 -31.390499 575.51801 0.66878104 0.51350701 -0.53762674 0.0049650995
82.5765 -28.412048 575.05634 -0.18186551 -0.86318511 -0.4709951 0.0032082007
85.950729 -28.579317 575.07471 -0.1717672 -0.88146979 -0.43989438 0.0045922762
90.208092 -28.845949 574.51239 -0.12421854 -0.88387102 -0.45093444 0.0059554991
93.973961 -29.650579 573.67053 0.16838723 -0.58507943 -0.79330182 0.04922694
98.14254 -29.853998 574.11499 -0.058492746 -0.79739404 -0.60061753 0.017206414
101.59608 -29.90922 573.86572 -0.12371033 -0.83211803 -0.54062498 0.0056465082
105.41809 -30.652161 574.09369 -0.098206989 -0.85571182 -0.508048 0.0042335722
110.19801 -30.41498 573.75647 -0.19422373 -0.80688488 -0.55786544 0.013655595
113.94227 -31.535482 573.64496 -0.2683917 -0.81128776 -0.51940173 0.010316159
117.76566 -31.780251 573.30634 -0.20894209 -0.81975579 -0.53323877 0.017098593
122.21067 -30.765833 573.52368 0.36583418 -0.5088976 -0.77922302 0.03485183
125.88144 -30.172806 573.42664 0.44709054 -0.060574628 -0.89243531 0.02846862
129.35966 -30.635889 574.49719 0.49438983 0.074232131 -0.86606479 0.033399802
-37.4147 -24.9422 573.35999 -0.11816212 0.81014168 -0.5742023 0.0030673519
-34.614052 -25.709999 572.64148 0.54257238 0.46463108 -0.69980943 0.0036374354
-29.701834 -24.919367 572.75665 0.46079475 0.69816637 -0.54793417 0.0014164684
-25.2351 -24.173901 573.61902 0.064678721 0.93240482 -0.35558128 0.00098932383
-21.695007 -26.446806 574.90625 -0.1307072 0.94641888 -0.29530835 0.0021722997
-17.733099 -25.977449 573.9057 -0.18487278 0.96148282 -0.20340315 0.0055033229
-13.617217 -27.095749 573.80865 0.15620914 0.96394068 -0.2154461 0.0051018079
-10.521008 -26.358452 574.52173 0.18024357 0.97273028 -0.14597276 0.0055578221
-6.1252632 -25.426989 574.14862 -0.91541153 0.083019294 -0.39386487 0.0027197024
-2.0833874 -26.805574 574.74548 -0.76731193 0.43674543 -0.46955925 0.0012504576
10.3459 -27.360901 575.505 0.38155696 0.84018987 -0.38535082 0.0024411217
55.370003 -24.385349 575.5675 -0.16515875 -0.88559103 -0.43410954 0.0042210813
59.508301 -24.337799 573.55701 -0.22941624 -0.89814991 -0.37509325 0.0071735359
61.084366 -24.668833 574.14868 -0.19907102 -0.88473749 -0.42143831 0.0038567064
65.517235 -25.25964 574.86536 -0.15511197 -0.88829315 -0.43229094 0.0021190667
70.151146 -25.401249 573.89478 -0.1548817 -0.88577348 -0.43751225 0.0014608033
73.948349 -25.599749 574.35992 -0.16875125 -0.86694884 -0.46895915 0.0034944257
77.842667 -26.071899 573.8067 -0.14691213 -0.87324196 -0.46461311 0.0036666829
81.984253 -26.204218 573.92682 -0.20383105 -0.87495059 -0.43922028 0.0056245057
85.952271 -26.458344 573.64984 -0.15282804 -0.84712869 -0.50893676 0.0044301744
90.013313 -26.78068 574.09564 -0.27375826 -0.89104915 -0.36206061 0.013079349
97.315048 -27.698601 573.74402 -0.10049193 0.14667928 -0.98406625 0.010419731
100.665 -27.980801 572.138 -0.083539665 -0.89173633 -0.44477797 0.0027727156
119.645 -25.1241 572.16199 0.4958052 0.37707046 -0.78230119 0.00015910788
122.723 -25.3853 573.48865 0.58527774 0.4036192 -0.70323646 0.0090208733
125.84196 -25.947647 574.64026 0.51885653 0.44733971 -0.7284745 0.0090275016
-37.550701 -23.562099 575.66803 -0.094069108 0.78347462 -0.6142627 0.0036965113
-34.410351 -23.140982 574.45386 0.69267589 0.14219365 -0.70709342 0.0025130892
-28.7789 -23.330999 575.61401 0.069766492 0.89913332 -0.43207866 0.0025506257
-26.41925 -22.753275 574.13275 0.86990416 -0.32793766 -0.36840677 0.002205601
-16.9562 -23.2211 575.38098 -0.46810675 0.87236851 -0.14088731 0.0035184037
-13.64465 -22.1919 573.57751 -0.51446921 0.848086 -0.126774 0.0039999271
-9.2128201 -21.621666 573.54218 0.88052291 0.42450094 -0.2108988 0.010121173
-7.0039854 -23.458351 573.94 -0.68085951 -0.71268898 -0.1688336 0.0055772448
29.919001 -20.0791 573.88599 -0.084270902 -0.82438594 -0.55971986 0
33.921337 -21.098684 574.64862 -0.17560789 -0.82981032 -0.5296948 0.0027824955
38.024254 -21.147892 574.29584 -0.10235959 -0.86382681 -0.49328056 0.0013947717
41.816635 -20.9979 573.99872 -0.091741197 -0.88554776 -0.45539951 0.003155557
45.695709 -21.741005 574.18073 -0.17512824 -0.87649637 -0.44842425 0.0034231439
50.113331 -21.86788 574.64868 -0.11281168 -0.86190772 -0.49435678 0.0025856323
53.874905 -21.948286 573.98181 -0.18343908 -0.87413192 -0.44971487 0.0030151305
57.697811 -22.124086 573.42133 -0.12598081 -0.8885119 -0.44122031 0.00217478
61.811985 -22.477621 573.66547 -0.12631947 -0.88031065 -0.45727077 0.003212834
65.431694 -22.651894 573.06799 -0.14054778 -0.90122479 -0.40992698 0.0038784791
69.144783 -22.878469 573.00812 -0.10731002 -0.89055222 -0.44204211 0.0044022477
72.930138 -23.658468 572.927 -0.19077571 -0.87894261 -0.43710929 0.0021483263
78.084045 -23.64175 574.44104 0.006087733 -0.82374495 -0.56692773 0.0050863982
81.131599 -22.4925 573.43103 -0.051151901 -0.94761616 -0.3152889 0.010831498
85.114601 -23.46825 573.0025 -0.25434846 -0.88460368 -0.39087483 0.015694916
118.69567 -21.300533 572.8642 0.52123702 0.45800355 -0.72010052 0.0068482845
122.0257 -23.0156 574.27521 0.52673203 0.46454567 -0.71186417 0.0051855482
124.2205 -22.249699 575.93152 0.51153886 0.5166055 -0.68661982 0.004861047
-151.981 -16.228901 575.14899 0.44620523 -0.88469249 -0.13498217 0.018099315
-33.3102 -19.3284 573.64398 0.86841142 -0.19439378 -0.45614994 0.0020624301
-31.8668 -17.993999 575.854 0.88141012 0.048233043 -0.46988279 0.016837958
-22.7169 -17.797699 574.26746 -0.32568884 -0.52815318 -0.78420722 0.00226657
-12.9494 -16.790951 574.50806 0.81467849 0.29983544 -0.49638471 0.034366105
-10.742792 -19.076433 574.11816 0.27768683 0.9003846 -0.33495906 0.0082539897
-7.2606502 -17.499201 572.65198 -0.74705064 0.54888284 -0.3750239 0.018439572
14.607234 -16.560301 574.10034 -0.29234228 -0.84404355 -0.44958478 0.0022724839
17.664154 -17.726963 574.37488 -0.61968166 -0.47091728 -0.62787861 0.022793693
22.097391 -17.595598 573.85846 -0.16530295 -0.87156081 -0.46158075 0.0016664189
26.013023 -18.160172 574.06555 -0.15559833 -0.8668052 -0.47374883 0.0017993179
29.653124 -17.89954 573.82422 -0.18992803 -0.85616279 -0.48053369 0.0015357668
33.904133 -18.310204 573.99994 -0.18115656 -0.86607164 -0.46594229 0.0027159275
38.068214 -18.477295 573.86664 -0.11572642 -0.89304912 -0.43482247 0.0023309046
42.02457 -18.510099 573.88269 -0.19581555 -0.89657766 -0.39724651 0.0018500711
45.748085 -19.115513 572.54492 -0.13795893 -0.87393469 -0.46605313 0.0044987919
49.455704 -19.500935 572.84033 -0.20158333 -0.8385374 -0.50618094 0.004704298
113.165 -16.192101 572.13702 0.57679695 0.40613848 -0.70877141 0.00087028166
117.45113 -18.674587 574.31012 0.49349505 0.43536785 -0.75293922 0.0060156477
120.1855 -19.17355 575.13202 0.53950787 0.43636438 -0.72008163 0.0056801648
-158.37801 -12.0117 573.65002 -0.35531005 -0.78370655 -0.50946915 0.023678055
-153.4695 -13.101236 574.48065 -0.10846239 -0.83716482 -0.53608859 0.005490269
-150.0732 -12.94663 574.61212 -0.059643053 -0.85697228 -0.51189971 0.011004344
-146.00163 -13.213565 574.38562 -0.0618954 -0.89599401 -0.4397313 0.0092374012
-141.87825 -12.94055 574.17664 0.047898542 -0.87863642 -0.4750829 0.0036658039
-137.19078 -12.705876 574.55573 0.070644483 -0.85907453 -0.50695193 0.0049910741
-134.04626 -12.95475 574.24872 -0.050260313 -0.85982162 -0.50811476 0.007827118
-129.47667 -12.342578 574.34344 0.089439586 -0.86505502 -0.49363995 0.0047988328
-125.39834 -12.655856 574.89673 -0.074348226 -0.82840568 -0.55517244 0.0023563446
-121.88875 -12.835642 574.38879 0.0011785415 -0.86216933 -0.50661886 0.0021035157
-118.79536 -12.768052 574.77063 0.010477651 -0.84356582 -0.53692353 0.001131754
-113.61301 -13.014 575.11304 0.027847096 -0.83363283 -0.55161649 0.0025944912
-109.742 -13.4249 574.729 0.1123241 -0.86425608 -0.49035177 0.0036321064
-106.18 -12.572333 574.23901 -0.057676997 -0.84919518 -0.52491987 0.0023167685
-102.18156 -12.339845 574.47357 -0.078510463 -0.84535503 -0.52840424 0.0045306706
-97.90918 -12.759868 574.47522 -0.041983791 -0.85772884 -0.51238513 0.0055212541
-94.140076 -12.7999 574.78772 0.044763908 -0.87184381 -0.48773405 0.0091568651
-90.220947 -12.2023 575.026 0.0084019955 -0.89370918 -0.44856805 0.0067853169
-85.453903 -12.640162 575.54602 -0.070427455 -0.86726063 -0.49284777 0.0027474952
-81.686401 -12.603701 575.11914 -0.027311211 -0.8549943 -0.51791787 0.00408307
-77.789276 -12.640326 575.28748 0.13706967 -0.82044607 -0.55504966 0.0052763703
-75.842499 -12.7219 575.42999 0.1086892 -0.82151932 -0.55972552 0.009487371
-69.710953 -12.465508 575.11023 0.034235351 -0.86326617 -0.50358659 0.0053786105
-65.005936 -12.900735 575.36755 -0.02449757 -0.86678255 -0.49808425 0.0027666823
-61.047451 -12.479876 575.09424 -0.059836905 -0.8489669 -0.52504742 0.0013706363
-57.869202 -12.882875 575.625 0.039608326 -0.84421438 -0.53454018 0.0045141103
-53.503078 -12.32224 574.77655 0.034396067 -0.87520766 -0.48252311 0.0038833655
-50.5574 -12.96315 575.57178 0.023328302 -0.87742758 -0.47914147 0.00096628611
-46.38052 -12.37185 574.69745 0.010739837 -0.89257956 -0.45076203 0.0021726182
-42.106926 -12.4208 574.92749 -0.052052218 -0.902336 -0.42787886 0.0060932133
-38.0751 -12.83125 575.20599 -0.14673878 -0.91550004 -0.374603 0.003901294
-34.154373 -13.437901 574.20111 0.70278203 -0.2015359 -0.68226141 0.023663281
-30.568951 -12.4858 575.85449 0.079347014 -0.88396609 -0.460769 0.0036890223
-25.034401 -12.2205 575.73297 0.03541135 -0.84729654 -0.52993834 0.00581398
-21.04845 -14.605101 574.005 -0.92872977 0.29181671 -0.22870074 0.022316277
-17.641525 -12.3765 575.08502 -0.095832162 -0.8857643 -0.4541342 0.00080919667
-13.436434 -14.01129 573.6698 0.74826241 -0.31720793 -0.58265132 0.045016564
-9.9515524 -12.776756 574.03931 -0.10500888 -0.84088117 -0.53093505 0.011048391
-6.7606306 -13.919301 573.70245 -0.40371501 -0.61214423 -0.67992175 0.026773974
-2.4840109 -12.5191 574.24451 -0.027455082 -0.90192026 -0.4310292 0.0014857836
2.1928942 -12.790576 574.7652 -0.13955241 -0.86591804 -0.48032403 0.0010314402
6.1043425 -13.255091 574.15271 -0.20094621 -0.87522477 -0.44000247 0.0036123223
10.149365 -13.59 574.13055 -0.16315112 -0.88022602 -0.44562751 0.0021996209
14.318954 -14.270551 574.24835 -0.20307405 -0.86972892 -0.4498139 0.0011186043
18.088057 -14.10229 574.21405 -0.17600499 -0.89142084 -0.41760167 0.0011531037
22.03842 -14.36205 573.67889 -0.22383103 -0.88279575 -0.41300285 0.0057244399
24.993608 -15.067967 574.29071 -0.31198904 -0.87027532 -0.38116094 0.010702469
28.777399 -14.881 572.36401 -0.13238126 -0.84344643 -0.52064699 0.0017081817
33.1819 -15.3912 572.67603 -0.14989689 -0.8285777 -0.53943479 0.0016488525
117.238 -15.594999 575.41504 0.52348411 0.38078821 -0.76221043 0.0081799272
-160.22751 -10.89905 575.18701 -0.7525146 -0.44743955 -0.48323879 0.03544886
-157.81564 -10.153244 573.91418 -0.61303318 -0.50579894 -0.60692495 0.02502509
-154.11783 -10.228166 573.82733 -0.23788269 -0.77468175 -0.58590096 0.013283689
-150.11641 -10.411969 573.72296 -0.034957979 -0.85455954 -0.5181756 0.0032212636
-145.79941 -10.644162 573.63812 0.10727224 -0.86535281 -0.48954788 0.0091137495
-142.34998 -10.33679 573.61615 0.026684403 -0.8488726 -0.52792346 0.0057729231
-137.84717 -9.9229422 573.9021 -0.040242776 -0.85938007 -0.5097512 0.0022052405
-133.85307 -10.510707 573.86517 -0.00097950199 -0.84899199 -0.52840471 0.0031038022
-130.26958 -10.138093 573.84552 0.0076141544 -0.84170187 -0.53988892 0.0025005343
-126.3446 -10.355002 573.91443 -0.025596129 -0.85824353 -0.51260388 0.0030373824
-121.60757 -10.356645 573.23376 -0.024418261 -0.85428184 -0.51923621 0.0031073336
-118.12325 -10.937076 573.94482 -0.0097633209 -0.852099 -0.52328956 0.0046438812
-113.82558 -10.248989 573.78064 0.03379431 -0.8725282 -0.48739365 0.0032943655
-109.85162 -10.474523 573.48334 -0.014825488 -0.88188285 -0.47123536 0.0038118151
-105.93945 -10.545873 573.43024 0.020196931 -0.88808638 -0.45923269 0.0055969576
-102.04265 -10.430886 573.55597 -0.0056755771 -0.86860514 -0.49547246 0.0063566053
-97.916405 -10.589746 573.49249 -0.028562319 -0.8395021 -0.54260522 0.0054044998
-93.959129 -10.426762 573.65851 0.0015362902 -0.83208352 -0.55464828 0.0053654066
-89.990425 -10.750448 573.4621 -0.023020979 -0.85697001 -0.51485187 0.0020782514
-86.066833 -10.631804 573.59155 -0.022564329 -0.87102014 -0.49072874 0.0019752679
-81.9356 -10.920797 573.62494 0.030616229 -0.85038728 -0.52526581 0.001589554
-78.393463 -9.9913235 573.63086 0.11592318 -0.88794881 -0.44509411 0.0070554111
-73.960564 -10.381394 573.79816 -0.037259806 -0.87148213 -0.48900986 0.0059418413
-70.103081 -10.407966 574.14813 -0.037627432 -0.86182863 -0.50580198 0.004857786
-65.616402 -10.245112 574.01837 -0.080600351 -0.84359068 -0.53090328 0.0031377263
-61.787395 -10.535208 573.84772 -0.074269712 -0.84611529 -0.52780008 0.0023433415
-58.228523 -10.776246 573.34613 0.012968776 -0.86619413 -0.49953941 0.0032113022
-54.178341 -10.75668 573.56543 0.058858734 -0.87152356 -0.48680821 0.0018428093
-50.251522 -10.299163 573.41223 0.044237852 -0.87399834 -0.48391107 0.0017549656
-46.396736 -9.9309263 573.74139 0.024413731 -0.88081408 -0.4728325 0.0017010042
-41.991863 -10.182617 573.83124 0.027072661 -0.88046736 -0.47333309 0.0013870172
-38.122551 -10.568171 573.59827 -0.041725527 -0.89989907 -0.43409756 0.0076661301
-34.13763 -10.633817 573.76813 0.012612666 -0.87033576 -0.4922972 0.0027450053
-30.249441 -10.379717 574.02667 -0.025746804 -0.86198193 -0.50628483 0.00289329
-26.02729 -10.533705 573.54706 -0.020500846 -0.87979466 -0.47491172 0.0021085804
-21.938301 -10.230262 574.117 -0.052259419 -0.85714114 -0.51242369 0.0089431731
-18.319775 -10.381662 573.85205 -0.043143891 -0.86379796 -0.5019877 0.0023085475
-14.361882 -10.761722 573.65674 -0.024507485 -0.87011784 -0.49223414 0.0026911616
-9.9791412 -10.565255 573.56879 -0.036517937 -0.8781684 -0.47695565 0.0028096964
-6.4346924 -10.784476 573.47546 -0.079485588 -0.88409054 -0.46050608 0.0018919737
-2.1547375 -11.229824 573.88287 -0.048944533 -0.9028188 -0.4272266 0.0016300551
2.0825624 -11.4638 573.33887 -0.2080916 -0.86030525 -0.46537381 0.0030869246
6.3824272 -11.58585 572.53723 -0.073985755 -0.91335207 -0.40039247 0.0013417876
9.8470926 -11.715425 572.716 -0.044986881 -0.90995044 -0.41226971 0.0026176539
14.5692 -11.9978 573.01599 -0.05730018 -0.86651498 -0.49585125 0.0025655171
-158.259 -6.1674132 573.73322 -0.85375285 0.035684828 -0.51945406 0.0054279305
-155.8 -6.0999999 574.29999 -0.85586303 -0.077813379 -0.51131552 0.017921153
-141.15199 -7.9920201 572.565 0.062089913 -0.94843942 -0.31081757 0.0046613952
-135.686 -7.8162298 572.38501 0.018796822 -0.83196378 -0.55451149 0.0050726403
-130.448 -7.56637 572.43597 0.0010438788 -0.8274129 -0.56159306 0.0055435975
-73.032303 -7.9735098 572.83502 -0.005825277 -0.90588915 -0.42347488 0.0019673966
-71.038803 -7.85707 572.63397 0.052603193 -0.89765251 -0.43755338 0.0007052992
-67.865799 -7.9849401 573.07397 -0.019951679 -0.90574163 -0.42336035 0.0053228978
-31.893101 -7.87151 572.677 -0.023599733 -0.89654064 -0.44233233 0.0073934128
-25.5 -8 572 0.082626887 -0.87305385 -0.48057237 0
-23 -8 572 -0.077833027 -0.87357569 -0.48042431 0.0025224611
-157.52901 -2.2033026 574.07306 -0.90012562 0.28280374 -0.33135447 0.0048037842
-155.15799 -1.6963949 573.29449 -0.8957268 0.2057437 -0.39413586 0.0030880705
-156.69533 1.9575939 573.4848 -0.63217252 0.52915502 -0.56599718 0.0055773854
-154.30826 2.1465354 573.3468 -0.89577234 0.26110753 -0.35974264 0.0023949086
94.610214 2.0723968 573.2218 0.523812 0.80802745 -0.26965272 0.0030886717
-156.095 5.27669 574.42798 -0.90745121 0.2448459 -0.3414422 0.0028449306
-153.81224 6.0245385 574.0528 -0.89444375 0.30179518 -0.3299849 0.0021981506
83.308403 7.9930902 572.57703 0.41763186 0.85928941 -0.29530552 0.0085305292
85.562729 7.1508503 573.81024 0.42004588 0.87008083 -0.25791624 0.0020674884
90.061623 5.2170906 573.95312 0.46139175 0.85505748 -0.23663135 0.0033216241
-153.72159 10.05973 574.03619 -0.15059234 -0.62974316 -0.76206654 0.0061670579
-151.467 9.8770304 572.56299 -0.90474743 0.30002564 -0.30235198 0.0035115776
81.281204 9.5088196 574.60376 0.44235468 0.86837965 -0.22414096 0.005029547
86.265701 8.0682602 575.35999 0.40454966 0.87106377 -0.27854523 0.0082204118
-152.19099 13.7539 572.72699 0.82365441 -0.54859024 0.1436743 0.0074822782
-151.0985 13.946136 573.89563 0.40671399 -0.84550607 -0.34598154 0.0039495006
70.60257 15.443375 573.37622 0.49622691 0.84938568 -0.17972991 0.0030550289
73.760925 13.381801 573.46765 0.49499187 0.84345382 -0.20873109 0.0017108507
-149.17551 18.115425 573.60278 0.84008807 -0.52774876 0.12543228 0.0029962873
-146.632 18.433668 574.30298 0.78983718 -0.61329973 0.0045407098 0.0040716077
62.381802 19.7918 572.96399 0.59595656 0.77096069 -0.22462282 0.0042266161
65.851425 18.421799 574.04926 0.54157883 0.80743843 -0.23395602 0.0025595168
68.103745 16.83255 573.98199 0.51688719 0.82956994 -0.21128498 0.0019934436
-148.32001 20.694901 573.62097 0.86884582 -0.44499093 0.21700247 0.003619845
-146.2005 21.5247 573.97754 0.79261225 -0.60801381 0.045661464 0.0061048744
-143.00699 22.713999 573.70044 0.68881202 -0.72433919 -0.029507797 0.0014981341
62.052723 21.358921 574.26819 0.63338226 0.63335985 -0.44461471 0.005295611
67 23.66667 573.33331 0.42885563 0.84246475 -0.32609206 0.0042050523
70.5 21.666664 572.66663 0.42172697 0.85272783 -0.30822334 0.0014080575
73.5 20.5 573.5 0.30380395 0.87524611 -0.37636083 0.0032773765
-145.287 25.971149 573.30396 0.86315465 -0.49086601 0.11838335 0.0024392365
-140.83701 24.833599 573.31299 0.74724835 -0.66334498 0.039915938 0.0018156935
-139.07875 26.160049 573.91779 0.73215556 -0.67935383 -0.049261279 0.004402996
58.45517 26.452776 573.75983 0.67996311 0.29282334 -0.67223853 0.0084989779
60.497967 25.923965 574.44635 0.65106773 0.3612828 -0.66752189 0.0083694579
64.099998 25.966665 574.53333 0.47667256 0.6852929 -0.55059689 0.0089135244
-142.709 29.6894 573.284 0.82169664 -0.55495375 0.12977286 0.0040686554
-136.5645 29.722099 573.82971 0.73371661 -0.67938751 0.0096205855 0.0043383259
-134.73926 30.2279 573.72052 0.68715966 -0.72635925 -0.014623177 0.0056055686
55.667152 29.7472 572.81653 0.67920649 0.21934073 -0.70040578 0.0053837379
58.373272 30.143972 574.15826 0.66269362 0.21332724 -0.71786392 0.0031753716
61.333336 29.16667 574.16663 0.64548606 0.27664757 -0.71190858 0.0054218806
-141.6245 32.8461 573.93848 -0.22757477 -0.87534648 -0.42658904 0.0025787412
-139.5515 35.126198 574.37695 0.83097208 -0.52614123 0.18072312 0.0025022388
-133.2845 34.260452 573.60901 0.73814416 -0.67463094 -0.0040382263 0.0032747826
-129.91701 34.294899 573.36749 0.63961816 -0.76839501 -0.021390984 0.002527891
55.114281 34.070194 572.69373 0.65983576 0.29633245 -0.6905098 0.0026676487
57.724403 33.837044 574.41583 0.63496178 0.35190055 -0.68774235 0.003818003
61.125 32.125 574.625 0.6306411 0.33188844 -0.70152825 0.0081012957
-141 36.5 574 -0.90618777 0.2261923 -0.35729653 0.0045101475
-138.8855 38.749802 573.06549 -0.8948195 0.31860536 -0.31271181 0.0048383977
-130.60251 37.09045 573.82703 0.65340167 -0.75599205 0.039271075 0.0067145736
-126.51199 37.747131 573.68597 0.67472416 -0.73806983 0.00033307952 0.0037587862
-123.606 39.364498 574.21802 0.72769958 -0.6852262 -0.030305823 0.0029212472
54.209415 38.169895 573.30939 0.6802994 0.33039561 -0.65424109 0.0029938268
56.59948 37.665459 575.10828 0.67186826 0.41201615 -0.61549634 0.0043330793
-149.616 42.7211 575.2995 -0.357063 -0.65980047 -0.66118789 0.010072513
-146.78949 42.919548 572.80798 -0.47994196 -0.6341179 -0.60625923 0.0065316325
-138.1965 40.683647 573.86304 -0.0024123825 -0.85078591 -0.52550691 0.018094419
-135.297 42.862301 573.495 -0.92821544 0.13846724 -0.34531569 0.027182916
-125.682 41.869049 573.96649 0.84186262 -0.51182055 0.17119291 0.014429623
-121.3665 41.614151 573.68347 0.69331318 -0.72049844 0.014099961 0.0051468415
-119.044 43.7388 573.078 -0.78999323 0.57291275 -0.21836142 0.019117553
51.264317 43.082134 573.00879 0.76764148 0.25070581 -0.58980781 0.0046865982
53.674175 41.943935 574.66229 0.67644495 0.3280977 -0.659374 0.0054629026
59.623699 41.122047 573.87451 0.57997018 0.41588169 -0.70048344 0.0023260638
-151.177 44.591301 573.80902 -0.27512094 -0.72056115 -0.63647479 0.0078491429
-144.67 46.919201 575.18103 -0.36496094 -0.43023771 -0.82565069 0.012308874
-141.48999 46.524052 574.57526 -0.4067241 -0.48821583 -0.77215338 0.023394039
-138.07959 46.52002 573.65521 -0.39546931 -0.63063228 -0.66776264 0.029916417
-134.58 46.178371 574.30499 -0.56317127 -0.48382616 -0.66988838 0.018812558
-129.522 47.148399 575.60797 -0.020502986 -0.73900926 -0.6733833 0.0056219827
-126.669 47.469173 575.36377 -0.1465029 -0.72406173 -0.67399669 0.011335175
-123.057 46.672249 574.30554 -0.64152497 0.014521672 -0.76696473 0.091004804
-117.94967 46.555935 573.90363 -0.87125242 0.12313162 -0.47513983 0.033716414
50.246899 46.080696 573.08289 0.70868081 0.29313645 -0.64174962 0.0025504779
52.88224 46.107117 574.18713 0.68806857 0.22024532 -0.69141418 0.0064957403
56.937126 45.92025 574.78149 0.5769226 0.35250494 -0.7368179 0.0064569288
-145.13033 49.892365 575.63837 -0.66819751 0.059038151 -0.74163771 0.019498287
-142.04564 49.794487 574.034 -0.58658886 -0.17828156 -0.79001838 0.030057253
-138.16701 49.315136 573.06561 -0.19788076 -0.66826117 -0.71712631 0.046744999
-134.04735 49.461884 573.55438 0.034489848 -0.86047691 -0.50832075 0.0029582474
-129.99326 49.435776 574.47101 -0.03457541 -0.84900856 -0.52724659 0.0041929828
-125.76517 49.794315 572.89368 -0.089541763 -0.78305376 -0.61547464 0.0069151991
-120.71899 48.875252 573.41504 -0.59436387 -0.16619807 -0.78683531 0.052537173
46.799999 49.099998 572.09998 0.63703215 0.25489262 -0.72747493 0.00095868483
50.274548 50.148117 573.97504 0.67506284 0.044026941 -0.73644537 0.004941659
53.921265 50.437069 574.33264 0.59656703 -0.076358341 -0.79892254 0.018416731
57.113453 50.91045 575.37054 0.43309405 -0.37969053 -0.81747448 0.024326527
-144.35699 52.6702 575.01099 -0.72441399 0.22676791 -0.65099978 0.009386912
-141.42186 54.093346 574.19012 -0.71755058 0.21597782 -0.66217422 0.0077251694
-139.37199 52.5933 573.19501 -0.75664234 -0.17986807 -0.62860161 0.0096997451
46.920074 53.866325 573.20374 0.5982182 -0.19899794 -0.77623111 0.018851075
49.64307 54.32251 573.94159 0.51076674 -0.36306077 -0.77929735 0.018085521
54.109314 54.627319 573.47607 0.26137295 -0.59284878 -0.76171815 0.016052365
58.145386 54.056499 574.39648 0.16599669 -0.73758852 -0.65452909 0.008877893
62.329754 54.821991 574.08099 0.10865919 -0.82862824 -0.54915249 0.0055659153
65.691734 54.423439 574.13721 0.12941232 -0.80420411 -0.5800932 0.012383865
69.245125 54.4613 574.59949 0.39351192 -0.73432589 -0.55309474 0.0084298598
-149.60234 57.8423 574.91199 -0.58968353 0.28132838 -0.75705194 0.015673188
-145.7045 57.737999 574.19495 -0.67978561 0.13210122 -0.72141582 0.011563462
-141.27962 58.38554 574.52234 -0.66162801 0.025119556 -0.74941128 0.018375311
-138.9839 58.378044 573.61993 -0.71646541 0.0062390654 -0.69759464 0.023329321
46 56 572.11108 0.42850932 -0.33246723 -0.84014606 0.043309815
50.12006 57.00259 572.66852 0.29288441 -0.68636101 -0.66567791 0.015677804
53.802303 57.183025 573.26654 0.29576737 -0.72081745 -0.62685233 0.0053899442
57.828575 57.739193 573.96692 0.22487657 -0.75427258 -0.6168496 0.0053510377
62.332996 57.697399 574.06104 0.10757205 -0.83104146 -0.54570907 0.0057623698
66.181534 56.785934 573.87427 0.32681265 -0.81203866 -0.48351493 0.011770048
70.386147 58.308674 574.09821 0.36536804 -0.80331975 -0.47030163 0.010466048
74.089447 57.797352 574.06116 0.18074553 -0.84853518 -0.49731186 0.013859165
77.254623 57.9813 573.98975 0.12758523 -0.83226931 -0.53949034 0.0098160906
81.155701 58.427418 574.49615 0.48654422 -0.71472734 -0.50243354 0.0070564132
-166.8905 63.067253 574.67798 -0.16265018 -0.91892546 -0.3593339 0.018912558
-158.679 63.954201 575.26599 0.07310687 -0.86384046 -0.49843264 0.0079987496
-152.85001 63.335201 575.43298 -0.075901844 -0.75684166 -0.64917612 0.0084929541
-150.72525 63.415047 574.7428 -0.18400048 -0.67486316 -0.71463525 0.021946291
-146.3717 62.240398 574.97235 -0.37218451 -0.36643934 -0.85276073 0.026826879
-141.38394 62.206551 573.8457 -0.56785423 -0.30611086 -0.76409274 0.010974829
-138.54594 61.906139 572.78815 -0.58485526 -0.1747328 -0.79209393 0.0060944422
57.925922 60.814816 573.92596 0.40404198 -0.71998435 -0.56424522 0.011766039
61.8773 61.171116 573.93768 0.22936131 -0.797405 -0.55815643 0.0091821374
65.783005 62.216145 574.04755 0.42839226 -0.73300326 -0.52838081 0.016682513
69.889999 60.717499 572.19897 0.33287832 -0.88637602 -0.32176015 0.035432499
73.958153 60.653301 572.65576 0.22091606 -0.8653748 -0.44980276 0.0065723043
78.284569 62.064198 574.03302 0.54371232 -0.70333326 -0.45792928 0.0095537258
82.027367 62.474827 574.12762 0.3192288 -0.81428427 -0.48480311 0.008536824
85.359932 62.297718 574.64966 0.47660047 -0.70426875 -0.52617258 0.005746583
89.915802 63.500549 575.49597 0.55257905 -0.65660828 -0.51334393 0.051176157
-178.7504 66.231544 573.92499 -0.056134682 -0.85108852 -0.52201271 0.037077989
-174.21027 65.252159 574.38263 0.01983056 -0.88264096 -0.46962932 0.0064896517
-170.00066 65.455345 574.02063 -0.24867758 -0.86180496 -0.44209933 0.010455693
-165.85225 66.218025 573.83484 -0.16283354 -0.8777042 -0.45068902 0.0085467426
-162.14812 65.866158 573.87518 -0.16551292 -0.87560463 -0.45378631 0.0097168246
-158.42873 65.750107 573.6059 0.089231461 -0.85393119 -0.51267844 0.01273872
-154.11606 65.355247 573.82819 -0.042638503 -0.83868945 -0.54293829 0.0066421595
-149.83678 65.812241 573.90106 0.084899455 -0.74646962 -0.65998125 0.0080107497
-146.21837 65.957664 573.62549 -0.11400567 -0.69559312 -0.70933276 0.018192103
-142.08598 65.781578 572.86365 -0.31465501 -0.49076331 -0.81249219 0.014292113
-138 65.224045 572.01147 -0.47067344 -0.50596446 -0.72281837 0.023268774
67.199997 64.800003 572.79999 0.6140669 -0.60719633 -0.50421667 0.0097543309
69.533524 65.807327 573.6604 0.43009353 -0.69977355 -0.57038277 0.0088565247
73.8741 66.36927 574.81134 0.10037072 -0.85644376 -0.50638908 0.011322938
77.758682 66.024796 574.0816 0.075576574 -0.87256688 -0.48261297 0.0065902337
82.043991 65.103912 574.21729 -0.089940608 -0.93767881 -0.33566222 0.013647357
86.384186 66.162193 573.91138 0.29688236 -0.81440973 -0.49859563 0.010518361
89.667702 65.965157 574.11108 0.55158794 -0.63373959 -0.54233277 0.017022526
-181.85767 69.604637 573.60864 0.89389342 0.085137792 -0.44012037 0.082363851
-177.408 68.833 573.95947 0.79814851 -0.29582947 -0.52482754 0.01739727
-173.49666 69.068794 572.99237 0.10037733 -0.84324384 -0.52807587 0.0092587257
-170.64275 69.699699 572.39856 -0.22722706 -0.84434694 -0.48522785 0.014641722
-167.8 68.577301 572.81097 -0.6091395 -0.73558348 -0.29642215 0.020769021
-145.606 68.078697 572.08002 -0.11494066 -0.91571367 -0.38504177 0.015709944
73.083328 69.25 572.75 0.17923698 -0.80761027 -0.56181818 0.012215139
77.512497 69.275002 572.83752 0.12900507 -0.76349568 -0.63279694 0.0066795726
82 71 573 0.43419296 -0.61484563 -0.65836263 0.0050590755
84.76667 71.23333 574.53333 0.29218534 -0.69498372 -0.65698206 0.023040779
90.502357 69.574135 573.74072 0.61847478 -0.55508476 -0.55621022 0.023922119
93.160133 70.043266 574.87231 0.49602544 -0.74797428 -0.4410139 0.048720345
-181.28439 74.269417 573.83051 0.92977804 0.18069968 -0.32071874 0.012609879
-178.743 74.9356 575.09698 0.75593555 -0.37467989 -0.53682071 0.0020295086
83 73 572 0.24875389 -0.63664168 -0.72993761 0.010137938
86.535713 73.60714 573.36908 -0.14342155 -0.89958018 -0.41253579 0.057671767
89.780128 73.58606 573.95337 -0.79593325 -0.60485846 0.025228359 0.010363976
-184.09399 78.256203 573.68298 0.86865163 0.49368638 -0.041451659 0.0020811087
-181.95401 77.52565 573.77051 0.94777554 0.10635475 -0.30068278 0.001214134
-178.229 78.266174 573.82977 0.81356293 -0.27077496 -0.51458365 0.0057957461
87.215881 78.329613 574.2984 -0.91088367 -0.408737 0.056789823 0.0041817003
88.513878 76.765198 574.33301 -0.85604471 -0.50566125 0.10721102 0.0024469232
-201.401 82.49305 575.13501 0.98277605 -0.17489441 -0.059691895 0.015158329
-185.44949 80.97805 573.9425 0.86293811 0.50235933 -0.054524619 0.0014675276
-178.34517 82.002563 573.57281 0.88035572 -0.12771428 -0.45679626 0.010275346
-201.502 84.693001 574.70099 0.9145714 -0.17348354 -0.36532542 0.026710413
-198.67583 86.757538 573.45538 0.57968169 -0.81101853 -0.078855366 0.021307342
-194.011 87.742554 575.53101 -0.088669412 -0.95082778 -0.29675606 0.015793625
-189.19075 86.98439 573.74976 -0.17598063 -0.89010549 -0.42040804 0.024840552
-186.11116 86.222633 574.77667 0.29674125 -0.71268404 -0.63563049 0.01462998
-181.61725 87.010353 575.3208 0.0040038521 -0.82879782 -0.55953395 0.0070571443
-177.86024 86.551826 574.21155 0.51615369 -0.47226718 -0.71452725 0.063989498
-175.53101 85.0812 575.88397 0.9153403 0.20508672 -0.34654239 0.04983367
83.291084 86.65699 573.41064 0.76556593 0.025789296 -0.64284021 0.022027269
84.3591 84.813995 574.66449 0.22719467 -0.8838647 -0.40885922 0.0081704184
-199.19099 88.080101 573.40198 0.28040487 -0.94548577 -0.16561952 0.023674384
-194.25099 89.402145 573.78723 0.429961 -0.66527992 -0.6103574 0.1003246
-189.97166 89.303406 573.31598 -0.24929242 -0.77990884 -0.57410419 0.099283911
-186.78 88.479698 573.29498 0.039583769 -0.90227222 -0.42934602 0.007597188
-181.886 88.202148 573.1015 -0.10405445 -0.85350323 -0.5105927 0.011653606
-179.28 88.9086 573.12 -0.2888118 -0.82037586 -0.49352938 0.026965257
83.533867 89.58197 573.3067 -0.93673372 0.22642438 -0.26694939 0.02626615
85.173164 89.785919 574.63031 0.67926013 -0.34907621 -0.64556295 0.01990035
86.422821 94.074013 573.79486 -0.80278927 0.46857449 -0.36873728 0.012493663
90.572266 101.68472 573.91547 -0.89796424 0.30652997 -0.31575239 0.0084968694
91.126495 105.86042 573.64008 -0.93597388 0.19683617 -0.29190493 0.0052694092
92.601135 106.57467 573.5257 -0.91027158 0.182138 -0.37179479 0.0062923431
91.187149 109.978 574.19946 -0.94063014 0.19043504 -0.28097942 0.0012502724
92.949554 110.095 573.61194 -0.91989785 0.14406498 -0.36473715 0.0071986225
91.786797 112.156 573.51703 -0.91893756 0.18955097 -0.34586734 0.0022326452
93.532967 113.10767 573.37628 -0.92001647 0.24144521 -0.30866477 0.012873002
-16.669001 -101.485 578.22174 0.79091358 0.60823762 -0.067101993 0.0127551
-25.473068 -97.789528 578.30072 0.47998014 0.8623687 -0.16105701 0.0060188789
-22.1714 -98.916199 578.2525 -0.13773857 0.12953147 -0.98196214 0.0046339417
-17.969782 -97.911079 577.93622 -0.76913708 0.60353523 -0.21017438 0.063350976
-15.4219 -98.112747 578.00647 -0.50177222 0.86487579 -0.014645889 0.047718033
-30.537535 -94.909142 578.51703 0.54703653 0.83227831 -0.089799047 0.0068385587
-21.343599 -92.523598 576.98199 0.42611387 0.84606707 -0.32030842 0.0095578684
-17.905958 -93.998161 577.90118 -0.26381961 0.78505957 -0.56042898 0.03823204
-14.115067 -93.524353 577.98761 -0.02106029 0.88749599 -0.46033403 0.051665794
-10.906616 -92.804977 577.44916 -0.30849364 0.8581562 -0.41036513 0.023932103
-35.490002 -91.487999 576.32001 0.72458172 0.68355292 -0.08795926 0.0076994742
-25.679167 -89.011269 577.55634 0.44183263 0.81506652 -0.37476727 0.0032195784
-22.264999 -89.997375 577.45996 0.40145341 0.86745691 -0.29385999 0.00892027
-18.2432 -90.960701 578.09399 0.1039772 0.95805973 -0.26703998 0.02171796
-14.3725 -91.220238 579.18134 -0.1363021 0.85232675 -0.50493646 0.013211119
-9.887475 -89.627014 578.09131 -0.45635989 0.70708096 -0.54015934 0.0096254796
-6.5271473 -89.465149 576.81824 -0.52730489 0.66481245 -0.52912569 0.022563364
-38.152866 -85.54287 578.14801 0.90403521 0.33687511 -0.26312634 0.0059225089
-29.899769 -86.272766 578.02045 0.51097947 0.68729073 -0.51626676 0.0073550465
-27.042601 -87.378799 578.5675 0.448742 0.78713292 -0.42314583 0.0064164465
-23.8785 -87.913399 579.84003 0.47978431 0.81470793 -0.32566553 0.025366809
-8.7453299 -86.811501 579.91803 -0.33963156 0.75418931 -0.56200445 0.0040671583
-5.4475417 -86.335327 578.47125 -0.5087114 0.66474932 -0.54710239 0.0035578867
-3.1287231 -85.449089 577.67767 -0.55343479 0.60680908 -0.57051957 0.0068767979
6.8651299 -85.175499 577.10797 -0.8991161 0.35481045 -0.25631985 0.0019471594
-38.572075 -81.951675 577.46082 0.73703414 0.29242036 -0.6093201 0.010548632
-33.806118 -82.013435 577.97748 0.6325624 0.51003516 -0.58286273 0.0066161933
-30.5341 -83.904198 578.46698 0.612679 0.54259491 -0.57464367 0.0099248961
-1.5509006 -82.445358 578.29767 -0.71499574 0.35194901 -0.60408026 0.0077656289
1.0863729 -80.530418 578.2309 -0.56905651 0.44884077 -0.68899679 0.0070736408
7.258945 -82.395798 578.01501 -0.89336962 0.29494774 -0.33896393 0.003500523
-40.534302 -77.871651 576.94 0.92248338 0.24791308 -0.29591119 0.0064526601
-38.241051 -78.131584 577.65436 0.75550747 0.28995851 -0.58747989 0.0088013634
-35.2425 -79.654251 578.47595 0.6443854 0.43330461 -0.63009095 0.0031532338
-0.54926103 -78.034622 579.17999 -0.80347258 0.22912991 -0.54948276 0.0088345557
2.2217603 -77.987885 577.99023 -0.66352671 0.35807231 -0.65689915 0.006503019
5.7870698 -77.353302 576.31 -0.65421319 0.33561242 -0.67776799 0.00051654608
9.1702995 -78.024872 576.96552 -0.91089451 0.24871209 -0.32926211 0.0059704091
-42.198231 -75.452766 578.67798 0.97202998 0.18284932 -0.1473898 0.0068336767
-38.181 -74.076218 578.03149 0.73665237 0.22469026 -0.63785386 0.0073106322
1.3099872 -73.59816 578.026 -0.84548306 0.27265921 -0.45914623 0.010227967
6.07517 -74.177704 577.82367 -0.64891583 0.39259556 -0.65174919 0.0020343037
10.2245 -73.4067 576.62402 -0.94251096 0.18575765 -0.27778983 0.0023933796
-41.698524 -70.077026 578.14697 0.95971614 0.025240755 -0.27983537 0.0065525188
-38.974335 -70.633217 578.05438 0.83499902 0.16742679 -0.52416116 0.0053720861
1.9174557 -70.222145 578.32843 -0.78976816 0.19586948 -0.58129293 0.0080348449
7.24684 -69.803551 578.987 -0.69488591 0.13736907 -0.70587772 0.0034133606
10.067117 -69.956703 577.30475 -0.90177226 0.1527576 -0.4043166 0.0042936765
15.4803 -70.318199 576.48798 0.99871778 0.041769963 -0.028601354 0.00059984106
-41.369942 -65.74472 577.52649 0.95583248 -0.0072015482 -0.29382369 0.0071390048
-39.268478 -65.786125 578.95471 0.83504993 0.073967367 -0.54517919 0.018105952
2.6220567 -66.309807 578.99548 -0.77165705 0.27104387 -0.57539606 0.0049585956
4.1782451 -65.960144 576.60229 -0.88565892 0.1523049 -0.4386473 0.010121548
9.9757233 -66.284599 578.32703 -0.89747322 0.018260444 -0.44069088 0.0026618596
15.047725 -65.674973 578.18799 0.99018252 0.13191612 -0.046224151 0.00045655653
-42.136288 -62.017914 577.61035 0.95758587 -0.10399613 -0.26872697 0.0036952787
-39.226215 -61.820965 578.70062 0.86653394 -0.092662863 -0.49044117 0.011587131
3.5332325 -61.88195 578.63049 -0.86376786 -0.083029144 -0.49700221 0.0057997946
5.9159002 -60.865299 577.66052 -0.82686138 -0.00109994 -0.56240457 0.0028774827
9.8746119 -62.3643 577.86658 -0.88817465 0.028410152 -0.45862678 0.0041032103
14.5994 -61.33075 578.39349 0.99223328 0.11611385 -0.044617303 0.00041351753
-41.799 -58.065151 577.19653 0.93643349 -0.10942712 -0.3333438 0.0013267741
-39.043915 -58.443798 577.98914 0.91867971 -0.12893501 -0.37336743 0.0053058662
2.6063063 -58.584698 578.58527 -0.87673205 -0.038045574 -0.47947198 0.0081454301
4.2032199 -59.414001 576.40601 -0.92722821 -0.093616851 -0.36260694 0.0027258757
10.214222 -58.050755 577.35071 -0.90245897 0.03936841 -0.42897308 0.0075643547
14.44734 -57.861988 577.88617 0.97991276 0.16662224 -0.10958159 0.00058976846
-42.437466 -53.930332 578.21869 0.95812535 -0.16548263 -0.23369066 0.0052162618
-38.669277 -53.878822 578.43835 0.90270329 -0.14520179 -0.40502244 0.0025129237
2.8254364 -53.908562 578.46124 -0.89472705 0.008172445 -0.44653848 0.0044195801
4.4373798 -52.889599 576.159 -0.89906168 0.034824058 -0.43643489 0.0035668642
10.327895 -53.875126 577.88123 -0.92088717 -0.0030387889 -0.38981733 0.0026451633
13.6546 -53.903503 577.50427 0.96431786 0.21888301 -0.14893359 0.00073334819
-41.496498 -50.385902 577.58698 0.88129687 -0.37938091 -0.281755 0.0052454886
-38.081963 -49.648552 578.47528 0.89168316 -0.20749876 -0.40230024 0.0037669884
2.8109818 -50.041321 578.29218 -0.87888104 -0.061706349 -0.47303313 0.012098305
9.9835167 -49.912933 578.27704 -0.95041871 -0.13705502 -0.27914187 0.00368233
12.742763 -50.31303 577.63538 0.94675827 0.28121135 -0.15674473 0.0011721267
-38.171112 -46.028648 578.37427 0.8685497 -0.31068012 -0.38613373 0.0033532614
-35.312302 -45.052101 579.05499 0.84676331 -0.32352683 -0.42228237 0.0030754996
2.8948567 -46.3624 577.78912 -0.92159325 -0.070463695 -0.38170761 0.0075420476
