ply
format ascii 1.0
comment PCL generated
element vertex 693
property float x
property float y
property float z
property float nx
property float ny
property float nz
property float curvature
element camera 0
property float view_px
property float view_py
property float view_pz
property float x_axisx
property float x_axisy
property float x_axisz
property float y_axisx
property float y_axisy
property float y_axisz
property float z_axisx
property float z_axisy
property float z_axisz
property float focal
property float scalex
property float scaley
property float centerx
property float centery
property int viewportx
property int viewporty
property float k1
property float k2
end_header
19.314438 -69.422607 659.16864 -0.042605489 -0.84034848 -0.54036945 0
22.085169 -69.09935 658.68512 -0.031190425 -0.83386135 -0.55109203 0
25.330528 -70.018623 658.96008 -0.044849936 -0.82816321 -0.55868965 0
28.280649 -70.846115 659.16327 -0.036788255 -0.83068937 -0.55551946 0
31.536522 -70.515984 658.69452 -0.028498683 -0.8375929 -0.54555112 0
34.664982 -70.390846 658.76318 -0.022732679 -0.84116381 -0.5403024 0
37.244713 -70.142349 658.05902 -0.039248712 -0.84355491 -0.53560668 0
40.293072 -70.481117 658.46124 -0.049164463 -0.84274495 -0.53606331 0
43.053558 -70.453827 657.948 -0.058198825 -0.83974475 -0.53985339 0
46.481953 -70.865219 658.34509 -0.06187962 -0.83891904 -0.54072702 0
49.758198 -70.462303 657.59558 -0.083991364 -0.84236479 -0.53232235 0
53.108604 -71.033409 657.71869 -0.080050111 -0.84695542 -0.52560306 0
55.533939 -71.433502 657.97021 -0.12636183 -0.83000714 -0.54325032 0
58.199081 -71.54335 657.28046 -0.12605804 -0.81425482 -0.56665558 0
61.155685 -72.290352 657.31189 -0.27438673 -0.74424404 -0.60894406 0
68.63031 -72.270836 656.12659 -0.12410801 -0.82083207 -0.55752307 0
93.208984 -70.566399 658.66852 0.7156176 -0.67649543 0.17391215 0
-96.865295 -66.250908 658.32385 -0.30413333 -0.95262623 0.0024915885 0
-93.569733 -67.051483 658.87756 -0.25307664 -0.96234959 -0.099174321 0
-91.069061 -67.323738 658.18793 -0.19447175 -0.9588936 -0.20664917 0
-88.167671 -67.508919 658.23859 -0.11777394 -0.9590261 -0.25767854 0
-85.203911 -67.895538 658.63397 -0.1073224 -0.93683547 -0.33289814 0
-82.596329 -67.527191 658.2135 -0.085046344 -0.91348821 -0.3978774 0
-78.843315 -67.607193 658.21338 -0.070587784 -0.86736888 -0.49263439 0
-75.921394 -67.654343 658.22614 -0.03888442 -0.83595777 -0.54741448 0
-73.565033 -67.749641 658.36298 -0.026276335 -0.81108677 -0.58433533 0
-70.95871 -67.821236 658.23102 -0.0060525755 -0.82186007 -0.56965721 0
-67.390404 -68.273277 658.08496 0.0055449517 -0.81183928 -0.58385462 0
-63.958622 -68.726746 657.91711 0.012772966 -0.81485569 -0.57952321 0
-61.367069 -68.443237 657.49213 0.054913539 -0.76719427 -0.63905978 0
-57.987514 -68.318146 658.48218 0.068051159 -0.75031346 -0.6575703 0
-55.396904 -67.588165 658.43866 0.042435564 -0.79053867 -0.6109401 0
-52.928787 -67.47551 658.71948 -0.0055801827 -0.83560973 -0.54929519 0
-49.478912 -67.394928 658.39551 -0.027490446 -0.83569789 -0.54850096 0
-46.314476 -67.660881 658.35492 0.0043003876 -0.8162241 -0.57771951 0
-42.942108 -67.598602 658.2113 -0.013656293 -0.81059372 -0.58544964 0
-39.863094 -68.1455 658.19763 -0.0073306053 -0.8035816 -0.59514946 0
-37.0396 -67.808105 657.6698 0.080473319 -0.83901227 -0.53812861 0
-34.494946 -67.485809 657.74524 -0.033898685 -0.83587748 -0.54786831 0
-31.25634 -67.560135 658.51984 -0.039684974 -0.83937168 -0.54210734 0
-28.303478 -67.401695 658.39484 -0.043965537 -0.84214342 -0.53745824 0
-25.116941 -67.883698 658.82318 -0.025861699 -0.8247301 -0.56493479 0
-22.488037 -67.622139 658.28064 -0.044378847 -0.8381741 -0.54359424 0
-19.038519 -68.216682 658.32819 -0.080885373 -0.84483272 -0.52888125 0
-16.1542 -68.180939 657.95392 -0.017724127 -0.848288 -0.52923852 0
-13.755978 -68.29969 658.02209 -0.046385933 -0.82929432 -0.55688351 0
-10.324223 -68.230461 658.58746 -0.043572303 -0.84674489 -0.53021187 0
-7.5596142 -68.059143 658.33087 -0.046942286 -0.85318244 -0.51949602 0
-4.2572541 -67.810753 657.57416 -0.0509158 -0.83707774 -0.54470956 0
-1.6724989 -68.096237 657.3736 -0.035932414 -0.83268172 -0.55258477 0
1.0652503 -68.144913 657.53955 -0.03086829 -0.84395897 -0.53551883 0
3.6865399 -68.237419 657.64117 -0.029171366 -0.83418357 -0.55071491 0
6.8615227 -68.842491 657.99323 -0.04413908 -0.84160429 -0.53828794 0
10.360541 -69.18705 657.60413 -0.050483759 -0.85248041 -0.52031589 0
13.98054 -68.687424 657.3313 0.013564066 -0.85110646 -0.52481794 0
16.52236 -69.197266 658.70361 0.039885607 -0.87419832 -0.48392814 0
19.053465 -68.286858 657.40912 -0.005640096 -0.85911196 -0.51175666 0
22.920835 -68.468231 657.49384 -0.053240459 -0.85197169 -0.52087396 0
26.015814 -68.87072 656.87714 -0.033243537 -0.84733379 -0.53001922 0
28.270222 -69.539703 657.15607 -0.059834026 -0.85309744 -0.51830935 0
32.142685 -69.95005 657.53314 -0.055273786 -0.84685832 -0.52893829 0
38.321598 -69.158226 656.43561 -0.085201189 -0.84898186 -0.52150792 0
94.779778 -66.00457 658.3551 0.78704631 -0.49155918 0.37273011 0
-102.74116 -63.591457 657.95526 -0.45282871 -0.82407868 0.34035355 0
-100.42823 -65.078865 657.92029 -0.31688157 -0.94690001 0.054465514 0
-58.639427 -65.887466 656.26868 0.12606989 -0.65928102 -0.74125224 0
-54.972237 -66.065376 657.03918 0.12804499 -0.66193002 -0.73854798 0
-51.80022 -65.996796 656.95392 0.087894469 -0.7154544 -0.69310862 0
-49.303417 -66.75103 657.50958 0.065298349 -0.72904098 -0.6813482 0
-43.414837 -66.53479 656.71222 -0.021242099 -0.80003887 -0.59957194 0
-40.959095 -66.802856 656.60815 -0.021539314 -0.79642749 -0.60435033 0
-32.618076 -67.094551 657.69641 0.24783204 -0.79248512 -0.55726713 0
-27.710939 -67.126266 657.77332 0.14078601 -0.76554501 -0.62778997 0
-22.260071 -67.137985 657.46588 0.049895488 -0.7926898 -0.60757989 0
-20.261423 -66.535187 656.05835 -0.0011822104 -0.83105421 -0.55619019 0
94.893845 -64.927467 659.12103 0.81489849 -0.44786677 0.36790735 0
-108.09315 -59.967136 657.04517 -0.10668902 -0.92003125 -0.3770411 0
-105.28548 -61.02438 658.1427 -0.44250301 -0.66810596 0.59818524 0
-103.02362 -61.456882 659.18939 -0.40031675 -0.86167449 0.31187108 0
-101.8325 -61.849632 659.63251 -0.46362302 -0.58991903 0.66109705 0
96.49736 -62.031567 657.60608 0.823569 -0.35672069 0.44100404 0
-109.0386 -58.165398 657.04767 -0.43811604 -0.48954204 0.75392509 0
-105.83173 -58.411224 658.79382 -0.50021714 -0.56650513 0.65487009 0
-105.18739 -57.906315 659.28632 -0.42794093 -0.42355093 0.79841787 0
96.756371 -58.851688 658.89001 0.83573419 -0.38899288 0.3875989 0
-110.54007 -55.345261 656.99408 -0.44297519 -0.38313714 0.81054235 0
-107.6894 -54.788967 658.98657 -0.43815666 -0.36924636 0.81955832 0
-104.36588 -55.995609 660.17291 -0.4208 -0.32494801 0.84695703 0
98.444344 -54.649014 658.86658 0.78920913 -0.53073913 0.30897406 0
98.745697 -55.050442 657.75391 0.81215334 -0.46006674 0.35881132 0
-113.07353 -51.647671 657.41766 -0.43685806 -0.31925201 0.84097159 0
-110.40276 -52.640697 658.53589 -0.44206262 -0.32100067 0.83757931 0
-107.35795 -52.695652 660.15839 -0.40591791 -0.29983193 0.86332583 0
99.185829 -52.87849 658.79425 0.7344678 -0.65513283 0.17708196 0
99.939301 -51.682266 657.90344 0.75291228 -0.61565667 0.23257253 0
-112.30833 -49.330994 659.08484 -0.42901847 -0.27381322 0.86079586 0
100.51947 -50.40303 658.52826 0.65465307 -0.75154406 0.081307605 0
102.93668 -48.064529 658.10431 0.60228336 -0.79699713 0.04528008 0
107.32467 -47.436459 659.13495 0.43188903 -0.89980108 -0.061886504 0
-118.27957 -45.33585 656.88837 -0.4026871 -0.21073005 0.89075023 0
-114.49098 -46.986595 658.33417 -0.42349124 -0.22896788 0.87648666 0
101.96093 -48.412628 659.02563 0.41466385 -0.88747072 -0.20112093 0
104.05807 -47.769878 659.14636 0.38160706 -0.90487009 -0.18864302 0
106.61945 -47.067837 658.08527 0.4559778 -0.88568819 -0.087410897 0
109.58894 -46.813515 658.61945 0.44487643 -0.89440912 -0.046015155 0
113.0752 -45.223122 659.15637 0.51038879 -0.8420741 0.17439774 0
114.01218 -45.083393 657.63959 0.29848015 -0.94881046 -0.10328805 0
-121.01606 -42.525368 656.98041 -0.36775121 -0.21706913 0.90423453 0
-118.82846 -42.660145 657.62 -0.36994183 -0.097586058 0.92391557 0
-115.27983 -43.560158 658.75885 -0.38935 -0.15392053 0.90813828 0
-113.13563 -43.664005 659.92755 -0.41604719 -0.18751508 0.88979936 0
113.69482 -44.898884 659.22845 0.55412787 -0.81370485 0.17557596 0
115.287 -43.877346 658.11719 0.30451995 -0.94976377 -0.072223887 0
117.30993 -42.498116 657.42621 0.49668077 -0.85438788 0.15274024 0
-120.17086 -40.814449 657.52252 -0.37728706 -0.023894504 0.9257881 0
-118.1801 -40.856766 658.20227 -0.36072513 -0.13525806 0.92281234 0
-114.83605 -39.874542 659.34448 -0.37518883 -0.022265775 0.92668092 0
116.30296 -43.154747 658.53918 0.59121394 -0.77138126 0.23545079 0
118.06696 -39.727371 658.55249 0.67953676 -0.56037086 0.47351259 0
119.7379 -40.002537 656.91858 0.42973718 -0.89634281 0.1090667 0
-121.60723 -37.554409 656.91986 -0.35950497 -0.030339297 0.93264991 0
-117.67222 -37.599915 658.29163 -0.35380113 0.034935474 0.934668 0
-116.82785 -38.618896 658.69165 -0.36521015 -0.061061826 0.92892039 0
117.30328 -37.666012 660.25336 0.7205801 -0.49704909 0.48343208 0
120.18276 -36.783272 657.54596 0.69527209 -0.43982238 0.56846547 0
-120.24988 -36.034996 657.16388 -0.34740502 -0.00052341708 0.93771505 0
-117.22163 -34.842274 657.61841 -0.35288978 0.098773234 0.93043685 0
-114.59958 -35.684582 658.82025 -0.34424281 0.15513892 0.92597461 0
-112.50696 -34.526306 659.33484 -0.35246566 0.10615127 0.92978489 0
120.68552 -35.192211 658.30426 0.71581006 -0.45247707 0.53186506 0
121.94608 -33.317089 657.28516 0.69772381 -0.37096491 0.61283487 0
-116.57969 -32.682331 657.34601 -0.34235999 0.189677 0.92022401 0
-112.33765 -31.810511 659.10413 -0.3378197 0.18877023 0.92208654 0
120.71314 -32.147499 659.98608 0.71617508 -0.40444905 0.56878304 0
122.00392 -31.451097 658.51221 0.69795096 -0.39887109 0.59478259 0
122.63799 -31.697502 657.70929 0.69448918 -0.3748441 0.61414713 0
-112.68318 -28.770519 659.0589 -0.38536593 0.08182469 0.91912889 0
-109.96741 -28.548008 659.93951 -0.35757607 0.16834703 0.91858518 0
122.47443 -29.229576 659.70844 0.70449024 -0.42419112 0.56899518 0
124.19592 -27.340929 658.02972 0.68330181 -0.41744089 0.59903395 0
-117.19495 -26.936121 657.02179 -0.3774479 0.10926697 0.91956174 0
-114.60442 -25.259636 657.84583 -0.39580381 0.081837565 0.91468138 0
-111.74122 -25.864618 659.49597 -0.40444106 0.063697807 0.91234314 0
-107.71729 -26.616634 660.34259 -0.37354791 0.12402097 0.91928273 0
124.51067 -25.686697 659.24335 0.6941818 -0.46677914 0.54793143 0
126.65408 -24.105179 658.16364 0.67659283 -0.46063784 0.57448655 0
-113.73999 -23.129656 658.30701 -0.41203612 0.051104214 0.9097333 0
126.41865 -23.410818 659.242 0.68812406 -0.49231702 0.53301907 0
127.69643 -21.92906 659.08728 0.66597384 -0.48959088 0.56283188 0
128.85104 -21.80525 657.88831 0.66948688 -0.4878189 0.5601964 0
128.94943 -20.841795 658.91675 0.67822599 -0.514364 0.52482301 0
130.6356 -18.637558 659.07098 0.65834254 -0.52236789 0.54195654 0
132.15796 -19.142797 657.12146 0.6621632 -0.51983941 0.53972858 0
-114.05451 -17.941778 657.55078 -0.54685622 -0.2423161 0.80139333 0
-112.35813 -15.667239 658.76074 -0.56074423 -0.41775322 0.71487635 0
130.32787 -17.874027 660.03284 0.67622495 -0.53336394 0.50817597 0
133.58421 -16.85578 658.83575 0.65329838 -0.53219074 0.53849256 0
135.34865 -15.493567 658.77539 0.94601911 -0.21581203 0.24181204 0
-114.38132 -13.093574 658.15649 -0.57934576 -0.57865 0.57404059 0
-110.66168 -14.543592 659.81342 -0.57098299 -0.61630398 0.54235399 0
134.64381 -15.11701 660.29321 0.65298802 -0.52524 0.54564601 0
137.60428 -12.307298 659.28326 0.70896637 -0.47149125 0.52446425 0
-120.28886 -8.9141111 659.63831 -0.49857083 -0.82933873 0.2522389 0
-117.46523 -10.510877 657.92218 -0.52499741 -0.75360864 0.39553982 0
-112.86371 -11.773481 659.44049 -0.54420507 -0.74669105 0.38248307 0
137.83679 -11.584293 659.68213 0.69768208 -0.46035707 0.54891807 0
140.94501 -9.7212925 657.36969 0.85379618 -0.34726706 0.38786307 0
-130.09781 -5.7726545 656.93103 -0.49472493 -0.82569689 0.27105698 0
-127.45768 -6.436439 658.22583 -0.50371814 -0.83176112 0.23332705 0
-124.22981 -7.8688817 659.36163 -0.51870346 -0.82340437 0.23011297 0
-122.44872 -8.2722654 657.93079 -0.49732903 -0.83297503 0.24252102 0
140.86589 -8.5990133 658.74963 0.84842038 -0.27188811 0.45415819 0
141.46803 -6.6230955 659.10114 0.93257171 -0.15288815 0.3270095 0
-131.17334 -4.5599389 658.53241 -0.51633012 -0.81310517 0.26881805 0
142.368 -4.6300836 657.40741 0.96445942 -0.040974356 0.26103464 0
-134.83937 -1.3319725 657.79602 -0.61655009 -0.68933308 0.38037604 0
-133.9334 -1.4514159 658.82336 -0.60128105 -0.69779199 0.3892909 0
-132.06973 -2.7110665 659.7229 -0.56825894 -0.70882392 0.41791195 0
141.43948 -0.57063079 659.55432 0.81802529 0.52077615 -0.24418609 0
141.74187 -1.9151136 658.26868 0.97307414 0.20840304 0.098462202 0
-137.18214 2.6245105 657.58557 -0.65072608 -0.65005207 0.39241302 0
-135.11983 1.8628864 659.68384 -0.57078636 -0.72133642 0.39227125 0
139.76443 2.0800958 657.513 0.86754215 0.47304839 -0.15360928 0
141.0079 0.3987391 659.23236 0.95298183 0.29936114 0.046994843 0
-138.75432 5.4232674 658.35944 -0.62990075 -0.71176964 0.31081998 0
-137.25244 4.1094708 658.82281 -0.5504356 -0.76499939 0.33435988 0
137.08865 5.6566329 657.6203 0.77671158 0.54564083 -0.31463501 0
138.70294 4.1159391 658.12256 0.9141559 0.37659663 -0.14997976 0
-142.69917 7.5048866 658.30524 -0.66532862 -0.73677272 0.12043197 0
-139.68845 6.0308638 658.23315 -0.57799393 -0.77886689 0.24349397 0
134.60863 8.8928137 658.01459 0.78514969 0.45168054 -0.4237034 0
136.21916 7.0452561 658.77686 0.91749078 0.27632111 -0.28610724 0
-147.02985 10.615294 659.10675 -0.871732 -0.37803301 0.311728 0
-146.37886 10.029497 658.41699 -0.84429103 -0.51661527 0.14241225 0
132.23477 11.77467 657.49432 0.81478101 0.24401121 -0.52591866 0
-147.29416 12.164453 658.71613 -0.97799885 -0.20327145 0.046893366 0
-147.26711 13.235921 659.7243 -0.93148202 -0.185957 0.312668 0
132.08783 13.367697 657.479 0.76038563 -0.03891848 -0.6483047 0
132.97395 13.545915 658.85608 0.825535 0.1816026 -0.53433359 0
134.43144 13.404158 660.35754 0.88897365 0.14638175 -0.43393338 0
-147.70775 16.014936 657.64136 -0.97180587 -0.044414517 0.23156145 0
-147.12898 17.28231 658.30023 -0.89059776 0.029424593 0.45383888 0
130.33131 15.26643 655.37317 0.81233901 0.116357 -0.57146001 0
132.77928 16.233572 657.23059 0.83346385 -0.006259169 -0.55253863 0
133.05655 15.849693 657.771 0.81098515 -0.071111016 -0.58072913 0
134.91389 16.768736 659.37726 0.8554635 0.10856638 -0.50635523 0
-147.18944 20.450823 657.3999 -0.90513176 0.19320495 0.37869292 0
-146.27675 19.235107 659.59418 -0.89231062 0.15481319 0.42404547 0
134.94208 18.941368 659.61902 0.88709563 0.11463923 -0.44712314 0
-145.88721 22.905916 658.29254 -0.86647671 0.22493111 0.44567257 0
133.79391 22.088123 657.34271 0.89510441 -0.08807347 -0.43707108 0
133.49205 22.727196 659.25659 0.87717038 0.35027784 -0.32844719 0
133.98009 20.971882 658.89801 0.87565577 0.27313891 -0.39827389 0
-145.26636 25.359001 658.13568 -0.85517746 0.21261947 0.47272021 0
132.14552 26.358566 657.41016 0.91561121 0.1448952 -0.37504867 0
132.72484 24.480635 658.17407 0.88855261 0.35011035 -0.2964744 0
-144.33453 28.36603 658.43036 -0.82950056 0.22941528 0.50921261 0
-143.57243 28.016039 659.58618 -0.8423897 0.24608791 0.47939581 0
131.25282 28.412827 658.55768 0.85220903 0.48645476 -0.19261742 0
131.99832 27.358629 659.70447 0.92213291 -0.030779596 -0.38564694 0
-143.8625 30.703709 657.7309 -0.82517225 0.23097707 0.51550019 0
128.02414 32.271278 658.57605 0.81252009 0.57343769 -0.10478727 0
129.1143 30.876186 657.11322 0.8393026 0.51949376 -0.16030392 0
-142.00813 35.174225 657.39148 -0.78411019 0.26984507 0.55888712 0
-141.96873 37.366325 657.38379 -0.80344331 0.24010609 0.54481918 0
124.42743 36.973984 658.23993 0.80912215 0.5818541 -0.082262985 0
122.56838 39.936356 659.07715 0.81247652 0.57892448 -0.068763651 0
120.31364 42.827435 658.30981 0.84974384 0.51946545 -0.089950696 0
118.31577 46.188248 658.82141 0.89188367 0.43676892 -0.11737284 0
116.41527 50.336357 659.03906 0.91493344 0.36819559 -0.16531444 0
116.55415 49.222721 657.97803 0.91184032 0.38747567 -0.13568267 0
115.60582 51.639553 658.01105 0.92016393 0.35444519 -0.16633368 0
115.53396 54.994019 658.78772 0.9263202 0.31993848 -0.19892254 0
115.68073 55.048447 659.31177 0.94704074 0.29621094 -0.12398797 0
114.09943 57.915714 658.57233 0.88018125 0.44849125 -0.15535946 0
114.27815 57.949215 658.84601 0.90225458 0.035082821 -0.42977425 0
111.92529 60.410789 657.98236 0.88903028 0.42719874 -0.16470093 0
73.32383 -77.156464 662.63458 -0.40459219 -0.66508323 -0.62766987 0
78.446671 -77.676094 661.91357 -0.3748239 -0.68342084 -0.6264528 0
81.673134 -77.950096 663.13928 0.18524395 -0.90514374 -0.38262191 0
28.123186 -73.112289 662.71704 0.26029363 -0.80713904 -0.52988094 0
53.416054 -74.275574 663.17645 -0.056889422 -0.82686538 -0.55951524 0
56.369392 -74.874779 663.36139 -0.049910381 -0.82609671 -0.56131381 0
59.519039 -75.242554 662.96552 -0.058174677 -0.82435173 -0.56308085 0
60.18219 -74.999863 662.42035 -0.59607613 -0.5321371 -0.60126811 0
64.397743 -75.469742 662.47058 -0.37839532 -0.69930869 -0.60645229 0
67.929985 -75.852478 662.69489 -0.20167314 -0.801916 -0.56236869 0
69.976181 -75.985268 661.90948 -0.12427289 -0.82275307 -0.55464727 0
73.453018 -76.495132 661.5246 -0.12751129 -0.82810199 -0.54588258 0
76.181023 -77.123665 661.41571 -0.12816563 -0.82127923 -0.55594426 0
79.463547 -77.345711 661.79272 -0.0029504297 -0.87151337 -0.49036288 0
82.719376 -76.713142 661.01794 0.18302774 -0.90685582 -0.37962264 0
85.102341 -76.121391 660.79095 0.33135536 -0.8949551 -0.29876247 0
87.751984 -75.718735 661.68469 0.47803268 -0.86178213 -0.1697536 0
-52.356918 -70.613243 662.31525 0.16759695 -0.60596728 -0.77763414 0
-40.65736 -70.888435 662.57465 -0.029266305 -0.83152813 -0.5547111 0
-36.193188 -71.541191 663.4173 0.0034107396 -0.82695287 -0.56226093 0
-32.801544 -70.579292 662.16211 0.22265108 -0.76645529 -0.60247225 0
-28.922773 -71.457085 663.31201 -0.00043679893 -0.82548088 -0.56442994 0
-20.856167 -70.858391 662.97363 -0.013692402 -0.8373661 -0.54647106 0
-13.685394 -70.467896 662.16296 -0.27841496 -0.77291685 -0.57016194 0
-11.925488 -72.699425 664.55225 -0.28886914 -0.76296937 -0.57830131 0
-6.3836002 -70.792725 662.78839 -0.0065425276 -0.8440327 -0.53625184 0
-2.3778839 -71.743767 663.54486 0.0017210811 -0.84415948 -0.5360893 0
3.3987026 -71.46212 662.89825 0.0021396803 -0.8375001 -0.54643303 0
7.4176064 -71.434067 662.42413 0.17070054 -0.84695357 -0.50351864 0
13.230702 -71.471207 662.74152 -0.02963225 -0.83337224 -0.55191725 0
17.139084 -71.626648 662.77679 -0.037658367 -0.83228862 -0.55306196 0
19.605867 -72.174019 663.09015 -0.043142747 -0.83700675 -0.54548901 0
22.629072 -71.380203 661.80859 -0.046531983 -0.84142917 -0.53836024 0
25.335443 -71.903557 661.74158 -0.040442508 -0.8285681 -0.55842578 0
28.627327 -72.548546 661.23114 0.033583973 -0.83365709 -0.55126035 0
31.432116 -72.802612 662.04016 0.00031845461 -0.83222699 -0.55443484 0
34.785732 -72.369652 662.33575 -0.016007826 -0.83887631 -0.54408669 0
38.296921 -72.817398 662.33881 -0.058347914 -0.83359247 -0.54928964 0
40.849808 -72.741692 661.88873 -0.062391296 -0.83670968 -0.54408109 0
43.183907 -72.43438 661.03296 -0.065529041 -0.83933473 -0.53965098 0
46.041912 -72.882217 661.65613 -0.061019037 -0.83296472 -0.54995131 0
49.309319 -72.869606 661.38898 -0.089381017 -0.82621479 -0.55621958 0
52.141273 -73.167084 661.63702 -0.12583318 -0.82149249 -0.556162 0
55.639931 -73.914474 662.11212 -0.087105073 -0.84625274 -0.52561295 0
58.153244 -73.724358 660.80859 -0.1714336 -0.8079468 -0.5637663 0
61.561672 -74.296143 660.63776 -0.13876072 -0.81749827 -0.55896521 0
64.407272 -74.545479 660.47906 -0.099509798 -0.82963848 -0.54936117 0
67.043198 -74.90625 661.08002 -0.13791966 -0.82080483 -0.55430824 0
70.571533 -75.165543 660.60028 -0.21007438 -0.78925699 -0.57701141 0
72.80899 -75.000137 659.83771 -0.083359778 -0.8540948 -0.51339388 0
82.762077 -75.805573 659.81995 0.0598232 -0.86689144 -0.49489433 0
90.996559 -72.401649 660.7937 0.71012354 -0.69793737 0.09277992 0
-87.820442 -69.159363 662.82812 -0.29145798 -0.91738188 0.27103996 0
-85.048988 -69.026276 660.83472 -0.21599765 -0.97343558 -0.075948119 0
-82.694946 -69.136124 661.15509 -0.16755702 -0.96989912 -0.17669302 0
-79.923431 -70.015884 661.95093 -0.1487709 -0.95870686 -0.2423805 0
-76.744316 -69.750053 661.54498 -0.11896054 -0.9229582 -0.3660554 0
-72.748779 -70.134499 662.12994 -0.12166005 -0.90487057 -0.40793139 0
-69.936295 -69.027145 660.61945 -0.067127533 -0.8628251 -0.5010258 0
-68.046867 -69.899918 661.93799 -0.090542026 -0.87345392 -0.47841454 0
-64.624237 -69.726425 661.41357 -0.013582797 -0.81469339 -0.57973289 0
-61.585876 -70.102905 661.80627 0.023646995 -0.81342286 -0.58119196 0
-58.71944 -70.194534 661.38904 0.024056533 -0.82935601 -0.55820227 0
-55.216824 -70.218498 661.31104 0.049079049 -0.7561332 -0.65257484 0
-52.499176 -70.391815 661.83734 0.091154471 -0.73355579 -0.67348856 0
-49.6115 -70.267548 662.05853 -0.029877238 -0.83548343 -0.54870284 0
-46.426159 -70.233185 662.16766 -0.013484156 -0.80904305 -0.58759475 0
-43.575684 -69.914276 661.27075 -0.022688175 -0.80723977 -0.58978742 0
-40.159561 -70.427963 661.77692 0.029793484 -0.76107568 -0.64797854 0
-37.458668 -70.340828 661.48566 0.05582086 -0.81534189 -0.57628256 0
-35.164375 -70.276421 661.90955 0.086154282 -0.81874269 -0.56765997 0
-31.748493 -70.459343 661.9209 0.061563767 -0.80826312 -0.58559436 0
-28.722023 -70.060364 661.62305 0.0042872634 -0.82400519 -0.56656599 0
-25.559519 -70.021416 661.63037 -0.052339584 -0.840532 -0.5392276 0
-22.571772 -70.289406 661.95892 -0.029809732 -0.83018625 -0.55668855 0
-19.049566 -70.212517 661.63525 -0.045469638 -0.85028774 -0.52435023 0
-16.986044 -69.894882 661.02002 -0.071422592 -0.84283072 -0.5334183 0
-13.883459 -70.133591 661.58569 -0.028499739 -0.8432765 -0.53672373 0
-10.698848 -70.148628 661.45581 -0.030662956 -0.84262621 -0.53762519 0
-7.701292 -70.184235 661.76886 -0.038380153 -0.8411485 -0.53944063 0
-4.1257133 -70.676926 662.3017 -0.032039672 -0.83933765 -0.54266548 0
-0.86139244 -70.67485 661.78345 -0.033419769 -0.83870524 -0.54355919 0
1.5549686 -70.459419 661.16656 -0.027543714 -0.83716112 -0.54626232 0
5.0653901 -70.795052 661.46436 -0.042531163 -0.83565241 -0.54760939 0
7.0183377 -71.020744 661.59521 -0.037256479 -0.83112365 -0.55483818 0
10.244415 -70.916107 661.36139 -0.037786379 -0.83857846 -0.54346883 0
13.74206 -70.846367 661.48328 0.0010537893 -0.8484695 -0.52924311 0
16.799429 -70.589668 660.92834 0.003584781 -0.86031467 -0.50975072 0
19.383022 -70.926193 661.24939 -0.010793903 -0.84060395 -0.54154259 0
21.612797 -71.184258 661.33234 -0.053580966 -0.83688486 -0.54475015 0
25.185627 -71.408585 660.94928 -0.049219813 -0.84796834 -0.52775669 0
27.965698 -71.833466 660.30804 -0.052467812 -0.84497058 -0.53223282 0
30.728958 -72.534874 661.10931 -0.069547154 -0.84649801 -0.52782971 0
34.398083 -71.490158 660.60699 0.023398835 -0.84488744 -0.53443205 0
37.658474 -71.706947 660.48657 -0.041237026 -0.84149742 -0.5386852 0
40.127571 -71.819252 660.45129 -0.042102408 -0.84593397 -0.53162307 0
43.334381 -71.791779 659.84174 -0.064898476 -0.85961622 -0.5068019 0
46.332912 -71.850479 659.84296 -0.067945823 -0.86117649 -0.50374442 0
49.593769 -71.817879 659.72778 -0.074048787 -0.86004281 -0.50481987 0
52.191032 -72.857124 661.03558 -0.080972999 -0.860264 -0.50337797 0
91.965996 -70.027245 661.25507 0.76647282 -0.60545182 0.2143535 0
-93.655006 -66.728249 661.13831 -0.31309021 -0.94480902 0.096490204 0
-91.256935 -67.669197 662.12598 -0.35249171 -0.91369063 0.20228469 0
-88.593147 -68.695915 660.94891 -0.20886734 -0.97204787 -0.10722548 0
-85.632751 -69.268997 661.25415 -0.093147211 -0.89933109 -0.42723206 0
-82.364548 -69.033005 660.88049 -0.12796672 -0.93540215 -0.3296169 0
-79.96106 -68.880135 660.30133 -0.12152304 -0.95065129 -0.2854721 0
-74.028183 -69.062256 660.56464 -0.10534207 -0.92119002 -0.37458235 0
-69.060791 -68.955482 660.22699 -0.0064446176 -0.86907369 -0.49464083 0
-65.819 -69.255394 660.58344 -0.0025251808 -0.85208017 -0.52340513 0
-62.660831 -69.848946 660.72968 -0.018172102 -0.84842414 -0.52900505 0
-57.155502 -68.900505 659.26971 0.080687843 -0.83075947 -0.55075234 0
-55.189556 -68.96814 659.74542 0.07821966 -0.84285057 -0.53243273 0
-51.965122 -68.786049 660.07092 0.1007963 -0.7346366 -0.67093158 0
-49.771385 -69.096016 660.4693 0.10616224 -0.68097556 -0.72457016 0
-47.166817 -69.083191 660.43042 0.027876319 -0.79089451 -0.61131722 0
-43.010376 -69.142036 660.08069 0.014361293 -0.81341058 -0.58151269 0
-40.510181 -69.019119 659.91791 -0.019747378 -0.83507204 -0.54978609 0
-36.868793 -69.258347 660.18274 -0.0073326821 -0.80293524 -0.59602118 0
-34.474777 -68.967125 660.01929 0.025568865 -0.82145959 -0.56969321 0
-31.249319 -68.920486 660.05127 0.029456355 -0.81097043 -0.58434522 0
-26.0984 -69.492218 660.81403 0.10638701 -0.73113006 -0.67389208 0
-19.647865 -69.519547 660.46637 0.010092966 -0.79584986 -0.60540992 0
-16.579609 -69.237534 659.63977 -0.01337589 -0.82325524 -0.56751382 0
-13.323371 -68.949928 659.56146 -0.048834629 -0.83661526 -0.54560977 0
-11.680465 -69.354904 660.36572 -0.029883189 -0.85405368 -0.51932579 0
-7.7287221 -69.780243 661.08392 -0.036874484 -0.84686071 -0.5305348 0
-4.237536 -69.5765 660.44135 -0.046384774 -0.85028875 -0.52426851 0
-1.5308503 -69.815399 660.20459 -0.042807616 -0.85167128 -0.52232516 0
4.9321814 -69.48484 659.34442 -0.054445609 -0.85408318 -0.51727915 0
21.574675 -70.209061 660.03815 0.015715102 -0.86877704 -0.49495402 0
92.109283 -67.028664 663.24536 0.86051631 -0.44126114 0.2545591 0
93.148476 -66.386528 661.31482 0.82250541 -0.45129719 0.34614417 0
-99.995781 -63.109001 660.03265 -0.44808999 -0.762784 0.466236 0
-97.586906 -64.114693 660.51007 -0.35025018 -0.92414361 0.15258911 0
-95.088501 -64.412971 661.88629 -0.4414961 -0.68775815 0.57625514 0
94.024994 -64.292908 661.25702 0.83922356 -0.38691264 0.38210273 0
-99.727737 -61.525661 660.72949 -0.47927248 -0.57773942 0.66069287 0
-97.459625 -61.428925 661.84491 -0.46932614 -0.58615315 0.66042221 0
-95.724098 -62.031391 662.39221 -0.45829615 -0.55546319 0.69384819 0
-102.31361 -57.64933 660.62231 -0.45442185 -0.44882086 0.76945472 0
-100.9097 -58.283901 661.29681 -0.45709708 -0.42686963 0.78028488 0
-97.599213 -59.232937 662.54279 -0.44136855 -0.41955495 0.79320073 0
95.203812 -59.737743 661.56061 0.83914208 -0.40492839 0.36314395 0
-104.90238 -53.859592 660.52112 -0.46992412 -0.32264808 0.82162619 0
-103.31797 -55.482201 660.71906 -0.46634099 -0.37227741 0.80245602 0
-101.13764 -55.247162 661.95953 -0.41441104 -0.27414802 0.86781704 0
96.985367 -55.730175 661.20862 0.80105996 -0.52980113 0.27859223 0
-106.67244 -51.786182 660.72406 -0.42436793 -0.28759998 0.8586024 0
-104.20689 -52.95985 661.08508 -0.3972193 -0.28708327 0.87166506 0
-101.53345 -52.969135 662.33447 -0.40024915 -0.27250209 0.87495327 0
97.958755 -52.820045 662.45062 0.71473533 -0.67436051 0.18544886 0
99.012939 -51.581562 660.27753 0.72313094 -0.66331697 0.19259398 0
-110.27411 -50.52393 659.84442 -0.4386948 -0.25415188 0.8619476 0
-106.7868 -49.542492 661.67627 -0.41310066 -0.22317126 0.88291699 0
-104.11499 -49.317028 662.42291 -0.40345594 -0.19916669 0.89305985 0
100.87819 -49.570866 661.30469 0.61453956 -0.78316104 0.09486793 0
103.17623 -48.851509 662.1214 0.53144616 -0.84620839 0.038680632 0
106.10723 -48.054993 661.20642 0.52980709 -0.84572893 0.063615985 0
108.65508 -47.377827 660.65155 0.52783275 -0.8439098 0.095962323 0
-111.83465 -45.218502 660.6366 -0.4016096 -0.15964663 0.90178859 0
-110.05746 -47.139938 661.41327 -0.41392931 -0.19813184 0.88848537 0
-107.14114 -46.046818 662.61041 -0.37760887 -0.12853651 0.91700053 0
100.99877 -49.632187 661.37476 0.43898585 -0.88581771 -0.15039495 0
106.63916 -48.217262 662.24811 0.49107575 -0.87099558 0.014538494 0
110.34211 -46.501675 662.13806 0.50989228 -0.85538936 0.091207214 0
112.11082 -45.560749 660.78265 0.52213329 -0.83730167 0.16218089 0
-112.53261 -42.023815 660.32697 -0.35471106 0.020503804 0.93475115 0
-109.93697 -43.179024 661.71967 -0.37869519 -0.068232782 0.9230029 0
-106.91748 -42.833794 662.87079 -0.35959288 0.03282769 0.93253165 0
111.84022 -43.904076 663.53424 0.67371994 -0.66354495 0.32528397 0
114.59319 -43.050995 660.90302 0.56182349 -0.78086782 0.27312961 0
115.48597 -41.405399 661.07721 0.33255106 -0.94236016 -0.036975507 0
-112.24389 -40.077068 660.31989 -0.37663609 -0.021973092 0.92610061 0
-108.98731 -40.331715 661.74707 -0.36591601 0.0056807208 0.93063051 0
-106.46519 -39.372505 662.4917 -0.32684109 0.10064302 0.93970525 0
114.98077 -41.89114 661.67072 0.65042108 -0.66235155 0.37181029 0
115.54678 -40.077244 661.40863 0.69324666 -0.50165367 0.51744825 0
-109.26328 -38.844677 661.44696 -0.32919604 0.10331101 0.93859303 0
-106.65762 -36.345558 662.12244 -0.35204667 0.085182913 0.93209821 0
-103.3947 -37.81966 663.37866 -0.33243397 0.14356999 0.93213487 0
116.35014 -36.742336 661.72272 0.72318184 -0.44143689 0.53116989 0
117.57073 -36.557228 660.21649 0.70482606 -0.3919459 0.5912686 0
-111.27421 -35.952229 660.10608 -0.38538608 0.019457603 0.92255026 0
-108.85516 -34.561485 660.97906 -0.35626072 0.10866838 0.92804605 0
-103.86201 -34.517044 663.00629 -0.32697749 0.15587166 0.93208891 0
118.06094 -34.899609 661.01721 0.72246081 -0.41140592 0.55569386 0
119.5456 -33.914501 659.48279 0.69998384 -0.360284 0.61661828 0
-110.07009 -30.547272 659.96472 -0.38737231 0.068156332 0.91940057 0
-107.04797 -31.457106 661.40076 -0.35285828 0.12579012 0.92718285 0
119.93046 -31.176504 661.01129 0.69135088 -0.37717134 0.61625952 0
-108.83481 -27.720335 660.11353 -0.40787175 0.045926075 0.91188347 0
-105.5389 -28.654303 661.44983 -0.40133974 0.059341896 0.91400486 0
-104.33357 -27.12554 661.41833 -0.39221486 0.084062271 0.91602468 0
119.68051 -29.972963 662.11176 0.71276802 -0.41272017 0.56711888 0
120.51086 -27.790663 662.68677 0.67779529 -0.42299619 0.60138822 0
122.70795 -27.634958 659.89862 0.67980927 -0.41377917 0.60551322 0
-107.54016 -25.928585 660.35681 -0.4383741 -0.00084468618 0.89879221 0
-101.88636 -26.495153 662.60547 -0.40544394 0.014872098 0.9139989 0
-99.423576 -25.728029 663.83636 -0.47639188 -0.1427025 0.86757523 0
122.08876 -26.41151 661.89636 0.68436331 -0.45468152 0.57001019 0
123.22314 -24.593973 662.03894 0.66583282 -0.46513483 0.58336633 0
-101.94065 -22.333368 662.4632 -0.5221824 -0.33882192 0.78263992 0
123.95941 -22.874739 662.83069 0.66931105 -0.51154208 0.53883904 0
126.20664 -21.834745 660.83881 0.65816426 -0.49140605 0.57038575 0
-101.64598 -20.275723 663.67523 -0.55914485 -0.50230086 0.65958381 0
126.10133 -20.852604 662.32489 0.66966999 -0.52949631 0.5207454 0
126.90505 -19.548895 662.35205 0.64675307 -0.52194709 0.55613106 0
129.4483 -18.351311 660.44019 0.65685892 -0.52310896 0.54304093 0
-109.46114 -16.45155 660.85919 -0.56518108 -0.46117041 0.68402642 0
-106.41453 -15.598384 662.80524 -0.59879714 -0.59777212 0.53302014 0
128.59558 -18.381264 661.50989 0.67031825 -0.5462712 0.50225616 0
130.01599 -16.269461 661.67157 0.65184873 -0.52154946 0.5505265 0
132.38567 -15.524496 661.2262 0.65282673 -0.51590496 0.55467051 0
135.38341 -14.694919 659.95081 0.94541144 -0.2160541 0.24396311 0
-111.20928 -11.920941 660.71375 -0.55477709 -0.74720407 0.36593503 0
-106.56315 -15.122114 663.16101 -0.5279758 -0.8271547 0.19250092 0
129.42731 -15.583796 662.98175 0.68417901 -0.53355902 0.497206 0
131.58763 -13.77575 663.22516 0.69376606 -0.52159005 0.49662107 0
134.93549 -14.581562 660.5506 0.65395558 -0.51279372 0.55622363 0
135.30553 -13.172518 661.56354 0.92781776 -0.24025793 0.28535995 0
-120.87721 -8.9732819 660.52667 -0.48321483 -0.8640157 0.14135195 0
-117.99702 -9.7453756 660.97852 -0.46404156 -0.87626493 0.12971207 0
-115.18976 -10.191361 660.67163 -0.49231273 -0.84865373 0.19342966 0
-112.84568 -10.812002 661.59186 -0.47927591 -0.86075968 0.17142774 0
136.27058 -11.441551 661.80206 0.6570155 -0.46011382 0.59718168 0
138.3103 -9.4526243 660.87531 0.72666693 -0.40301093 0.55636096 0
-126.70704 -6.4440513 661.29041 -0.52215451 -0.82045221 0.23283659 0
-123.88486 -8.19555 662.60779 -0.53318447 -0.82332122 0.19456744 0
138.8407 -7.7516646 661.76343 0.75822973 -0.30402505 0.57676381 0
-129.30823 -4.4922409 660.63452 -0.5525434 -0.77936518 0.29544163 0
-126.57792 -6.522326 661.56409 -0.55742675 -0.77533764 0.29686186 0
140.19211 -5.5802526 661.79706 0.82159936 -0.19211547 0.53671801 0
141.22757 -3.639636 660.69598 0.90298921 -0.06205466 0.42515844 0
-131.80574 -1.4667139 660.54816 -0.6320852 -0.6768772 0.3772341 0
-129.72348 -2.3858304 662.31885 -0.59489197 -0.71549195 0.36629897 0
-128.92342 -2.8826919 662.83771 -0.58210915 -0.72302222 0.37200511 0
140.91554 -0.86329585 662.82904 0.85468167 0.017142056 0.5188694 0
141.34953 -2.0599477 660.922 0.96004283 0.27591974 0.04675461 0
-134.20113 1.0160382 659.96173 -0.63526773 -0.67000973 0.38408586 0
-133.05037 0.88839102 661.28925 -0.60794991 -0.69810879 0.37820765 0
-131.91315 0.10596763 661.74957 -0.60647064 -0.70298761 0.3714858 0
140.36816 1.1137351 662.00775 0.96141905 0.26936311 0.055829566 0
140.4492 0.96160656 661.39423 0.97699654 0.20209731 0.068076059 0
-136.36948 5.2084975 661.51825 -0.5511871 -0.81146163 0.19422357 0
-134.23763 4.0602651 662.79523 -0.47207803 -0.86845309 0.15143201 0
138.31912 5.5478969 661.95636 0.8457123 0.43698719 -0.30628908 0
139.06953 4.0322938 661.25568 0.96360546 0.26559013 -0.030436667 0
139.77003 2.9330437 661.15869 0.91833788 0.36636698 -0.14976898 0
-146.22635 7.6568332 662.93951 -0.91201597 0.221031 0.345503 0
-145.67201 7.9784365 661.56244 -0.71311915 -0.70057887 -0.025499932 0
-142.86801 6.8444524 661.2915 -0.66557813 -0.74287683 0.07169278 0
-139.65878 6.537118 661.64258 -0.54430634 -0.83594644 0.070172235 0
-137.63797 5.8083386 660.83643 -0.50254017 -0.8496803 0.15967706 0
136.21765 8.873168 660.59265 0.80427736 0.30915612 -0.50750422 0
136.89433 7.7467427 660.50085 0.89722776 0.33657274 -0.28583413 0
137.34567 6.8981156 662.94653 0.99626243 -0.0015532207 -0.086364634 0
-146.67543 10.589032 661.79089 -0.94206405 -0.33297417 -0.040541191 0
-146.79112 11.67578 661.79694 -0.91659838 -0.26710311 0.29749513 0
133.71127 11.966275 659.62494 0.8546232 0.28783807 -0.43216708 0
134.98846 10.881638 661.01599 0.82800418 0.3388561 -0.4467501 0
135.61812 9.9399872 661.73322 0.95752829 0.079226412 -0.27724123 0
136.71001 10.477568 663.43536 0.95460701 0.106533 -0.278166 0
-147.12134 13.081374 659.90424 -0.81607419 -0.52738911 -0.23639706 0
133.18733 14.289781 658.62268 0.85602587 0.19484498 -0.47880593 0
134.39505 13.461574 659.58282 0.81031954 0.01752143 -0.5857262 0
136.84439 12.798276 662.21588 0.89105076 0.10662773 -0.44120187 0
137.7567 13.053286 663.04962 0.95529664 0.056042582 -0.29028893 0
-146.34 15.638058 661.31458 -0.92991883 0.06660337 0.36168355 0
136.44675 16.16997 661.32532 0.91071445 0.18044852 -0.37153399 0
137.62442 16.12257 662.55505 0.90969211 0.10601346 -0.40152386 0
-144.71181 19.927402 661.81799 -0.87765849 0.2292666 0.42089486 0
135.24698 19.409861 659.97479 0.92969257 0.023830689 -0.36756483 0
135.84923 19.193068 662.07489 0.90067399 0.27227738 -0.33860216 0
-143.86311 23.929794 661.46307 -0.83748233 0.2360781 0.49283922 0
133.88274 22.954355 661.60907 0.92023939 0.27827001 -0.27518216 0
134.27039 21.992632 661.58508 0.91168725 0.27198866 -0.30797476 0
-143.03133 25.761152 661.89185 -0.83139509 0.27216479 0.4844673 0
133.06325 24.990967 661.32355 0.92269099 -0.060538199 -0.38075799 0
132.99059 25.378105 661.55219 0.87040859 0.45284793 -0.19317789 0
-141.75583 29.269491 661.38629 -0.81008476 0.25973612 0.52564228 0
131.15782 29.00901 662.10156 0.8213008 0.55865616 -0.11562099 0
132.01334 27.758881 662.25476 0.93439102 0.029962899 -0.354987 0
-141.45399 30.606493 660.43378 -0.80531472 0.28692392 0.51878983 0
128.24913 32.195709 660.13702 0.81783658 0.5661177 -0.10321794 0
129.73434 30.534718 660.33142 0.80844522 0.5781762 -0.11013003 0
126.33599 34.71962 661.07135 0.80553067 0.58594197 -0.088274539 0
124.49443 37.504112 661.57111 0.80491889 0.58798718 -0.079853706 0
122.61418 39.965649 660.61078 0.83161646 0.54448527 -0.10931507 0
119.33231 44.88562 660.11426 0.853544 0.51898599 -0.046002202 0
120.49876 43.222702 661.62079 0.84733117 0.5190115 -0.11250356 0
118.66067 46.442196 662.04108 0.8937096 0.42648393 -0.13926473 0
117.07984 49.298031 661.45526 0.91670436 0.37338489 -0.1422563 0
117.14281 49.020973 660.76398 0.92426443 0.35846502 -0.13129385 0
116.33686 52.969723 661.5979 0.93343341 0.30924499 -0.18185033 0
116.09044 55.566887 661.98627 0.9362449 0.26106751 -0.23513649 0
114.58968 58.275135 660.7334 0.87099904 0.46631768 -0.15462412 0
115.0843 57.547787 661.80566 0.90897161 -0.10220795 -0.40413383 0
59.496914 -77.80983 666.24487 -0.72706378 -0.39091542 -0.56441426 0
63.091331 -77.707626 665.91803 -0.54022413 -0.55281711 -0.63446915 0
67.038803 -78.165787 666.05005 -0.31225601 -0.75838691 -0.57214111 0
70.911011 -78.227043 664.58862 -0.2177425 -0.7890228 -0.57448345 0
73.563133 -78.816544 664.77203 -0.2065015 -0.79453957 -0.57102019 0
75.813461 -78.803192 665.2959 0.032875244 -0.89653921 -0.44174284 0
79.740379 -78.857788 665.60175 0.19209668 -0.91386008 -0.35771292 0
82.765755 -78.460838 664.74036 0.32165346 -0.90564895 -0.27629516 0
85.538704 -77.653831 664.30621 0.46934542 -0.86724997 -0.1661098 0
-43.230198 -74.214165 666.08649 0.10352702 -0.67267907 -0.73265606 0
-11.060001 -74.371017 666.40076 -0.20437601 -0.76186907 -0.61464304 0
22.812952 -74.08091 666.34003 -0.044844884 -0.8353678 -0.54785913 0
29.060661 -74.017418 664.14966 0.26114511 -0.81308901 -0.52027839 0
30.872463 -74.691612 665.18518 0.10472918 -0.82689118 -0.55252403 0
37.39819 -74.405876 665.49652 -0.050389048 -0.83165652 -0.55299944 0
40.524162 -75.262566 665.92535 -0.015304244 -0.83928907 -0.54346997 0
44.197369 -74.534401 663.96259 -0.066713579 -0.83348495 -0.54849988 0
46.663891 -75.156441 664.70801 -0.061065387 -0.83255821 -0.55056137 0
50.308468 -75.547859 665.37982 -0.069129735 -0.83437485 -0.54684526 0
52.30468 -75.653618 665.32623 -0.12159283 -0.82453108 -0.55259717 0
55.205116 -76.143051 665.31598 -0.13724975 -0.82713395 -0.54498798 0
58.50629 -76.226822 664.64734 -0.1678987 -0.80884689 -0.56353945 0
61.551765 -76.633644 664.44934 -0.13590333 -0.82212687 -0.55284512 0
64.693733 -76.968056 664.41235 -0.14055093 -0.8264761 -0.54514468 0
68.255875 -77.437401 664.60852 -0.068816215 -0.84569925 -0.52920431 0
70.276253 -77.456772 663.8222 -0.16519092 -0.79683143 -0.58118129 0
72.980324 -78.226601 664.18298 -0.11290629 -0.83353633 -0.54080427 0
76.728333 -78.536667 663.84058 0.048580628 -0.88306683 -0.46672562 0
86.455223 -77.14019 665.03979 0.58432949 -0.80762517 -0.079376765 0
87.211143 -76.316559 665.44147 0.67507929 -0.73502129 0.063337833 0
-77.399612 -71.818146 665.90216 -0.27632013 -0.9590075 0.062863432 0
-70.512848 -72.280472 665.04413 -0.20010899 -0.94677001 -0.25215656 0
-67.455338 -72.053864 664.84729 -0.17996486 -0.91767222 -0.35424614 0
-65.50946 -72.49276 665.35687 -0.16459951 -0.89788038 -0.40831101 0
-61.173576 -72.220215 665.12115 -0.044161927 -0.87296069 -0.48578751 0
-58.220188 -72.051315 664.77728 0.00031925476 -0.84604961 -0.53310406 0
-54.502499 -72.583458 665.54883 -0.031953398 -0.83144403 -0.55468899 0
-51.038624 -71.495712 664.2099 -0.058605283 -0.83062685 -0.55373687 0
-48.976906 -72.225533 665.55481 0.083804868 -0.70716548 -0.70206392 0
-46.215172 -72.481331 665.151 0.03288272 -0.75712126 -0.65244627 0
-43.533928 -73.230698 665.2995 0.027477052 -0.76556873 -0.64276707 0
-39.335918 -72.65213 664.70959 -0.021890394 -0.83819979 -0.5449239 0
-37.78355 -73.107109 665.27588 -0.058609951 -0.85076147 -0.5222736 0
-34.397747 -72.060501 664.5556 -0.029400151 -0.84431726 -0.53503656 0
-31.317724 -72.513252 664.85992 -0.021601927 -0.82271492 -0.56804365 0
-28.294983 -72.495621 665.1676 0.025360547 -0.81771702 -0.57506144 0
-25.73774 -72.676201 665.42566 0.0085388636 -0.84564 -0.53368539 0
-23.016058 -72.400215 664.99091 -0.03818595 -0.83397591 -0.55047792 0
-19.306225 -72.317108 665.61005 -0.051724456 -0.8384409 -0.5425325 0
-16.467625 -72.254646 665.21307 -0.020315552 -0.8534568 -0.52076745 0
-14.03108 -72.522774 664.86572 -0.119056 -0.81157726 -0.57198602 0
-10.430916 -72.589211 664.21997 -0.032795306 -0.84202331 -0.53844333 0
-7.8128924 -72.582825 664.83905 -0.025489492 -0.83779949 -0.54538268 0
-5.102376 -72.354515 665.03973 -0.034341849 -0.84061706 -0.54054016 0
-1.5501368 -72.849731 665.32996 -0.036738791 -0.84373862 -0.5354954 0
1.6707668 -72.701889 664.94244 -0.038978558 -0.83898669 -0.54275405 0
4.2140465 -72.787758 665.48218 -0.026448 -0.83850694 -0.5442487 0
6.9238482 -72.934448 665.23309 -0.037416369 -0.83612138 -0.5472669 0
10.176703 -72.722832 664.49518 0.017546885 -0.84425342 -0.53565687 0
13.347005 -72.784927 665.05762 -0.0012860675 -0.84328461 -0.53746575 0
16.344675 -72.935265 664.8609 -0.040002558 -0.83976626 -0.54147243 0
19.588873 -73.647247 665.56488 -0.040337332 -0.83747095 -0.54499108 0
22.738979 -72.992287 664.29089 -0.045424253 -0.83754343 -0.54447919 0
25.835741 -73.835396 664.58575 -0.051756147 -0.83680606 -0.54504758 0
28.8046 -74.127525 664.29932 -0.056541823 -0.83639777 -0.54519892 0
31.15996 -74.190163 664.43164 -0.040228009 -0.83179498 -0.55362326 0
34.249363 -73.705215 664.63922 -0.050096754 -0.83392084 -0.54960567 0
37.617214 -73.825195 664.32263 -0.040698599 -0.83856767 -0.54327506 0
40.157707 -74.197701 664.15649 -0.051683165 -0.84060043 -0.53918427 0
42.516422 -73.746231 663.16736 -0.045674056 -0.83999228 -0.5406726 0
45.851959 -74.435547 663.72717 -0.080401942 -0.83836693 -0.5391441 0
49.321178 -74.623932 663.88202 -0.099803276 -0.83114398 -0.54702747 0
52.416561 -74.1688 663.10687 -0.088764012 -0.85333532 -0.51375079 0
55.221478 -75.039467 663.71826 -0.13744582 -0.8094331 -0.57089996 0
58.071255 -74.934975 662.78833 -0.098403186 -0.85269576 -0.51305622 0
59.958878 -75.553871 663.12671 -0.088728592 -0.8529309 -0.51442796 0
63.850891 -75.444603 662.41156 -0.1155536 -0.84582007 -0.52080303 0
89.487442 -73.638115 663.5672 0.73199803 -0.67664665 0.079550222 0
-88.303741 -68.823265 663.38055 -0.41244611 -0.84245324 0.34664208 0
-86.254448 -69.799553 664.33099 -0.42153201 -0.83057201 0.36395201 0
-83.372643 -70.424744 664.79773 -0.29246551 -0.94563437 0.1422658 0
-80.210907 -71.202042 664.99902 -0.26931956 -0.96159369 -0.05295939 0
-76.305832 -71.467255 664.13141 -0.14987341 -0.92918426 -0.33786771 0
-73.428604 -72.401207 665.09644 -0.25919858 -0.95013648 -0.17336905 0
-70.158012 -71.33136 663.96722 -0.03644906 -0.8922708 -0.45002687 0
-68.718918 -72.541748 665.31525 -0.035703696 -0.89212489 -0.45037594 0
-65.188805 -71.285034 664.26453 -0.035043303 -0.87433803 -0.4840506 0
-62.026474 -70.83522 663.2276 -0.032494493 -0.84609312 -0.5320437 0
-59.317726 -71.287514 663.65887 -0.049545508 -0.86618114 -0.49726805 0
-55.768974 -71.66893 663.38776 0.0038662395 -0.84148186 -0.54027152 0
-53.222473 -71.613388 663.80231 0.028976647 -0.83178419 -0.55434233 0
-49.46804 -71.59684 664.24573 0.030405886 -0.79874933 -0.60089517 0
-46.503639 -71.524834 663.86011 0.039112981 -0.77993649 -0.62463528 0
-43.414886 -71.758018 663.62885 0.028915001 -0.76032519 -0.64889872 0
-40.769165 -71.851822 663.73138 0.010910675 -0.78729713 -0.61647719 0
-37.433216 -72.075966 664.0199 0.035697259 -0.77744675 -0.62793493 0
-33.860149 -71.832008 663.71234 0.032142092 -0.77030408 -0.63686603 0
-31.593555 -71.195557 662.65717 0.0042411676 -0.78711969 -0.61678571 0
-28.598661 -71.639343 663.59601 0.0081753153 -0.79444718 -0.60727811 0
-26.230049 -71.929665 664.2887 -0.02369903 -0.81867927 -0.57376182 0
-22.734221 -71.762192 663.83954 0.045960926 -0.77109057 -0.63506454 0
-19.983276 -71.358925 663.93176 -0.051118691 -0.78429782 -0.61827493 0
-16.605297 -71.356834 663.87524 -0.046824951 -0.81351036 -0.57966238 0
-14.141212 -71.56839 663.63409 -0.0099135768 -0.82989788 -0.55782717 0
-10.696402 -71.963051 663.34027 -0.031912193 -0.83111531 -0.55518377 0
-7.7970462 -71.894882 663.75287 -0.05203351 -0.8453092 -0.53173763 0
-5.9488158 -71.106667 663.09619 -0.047657307 -0.83790016 -0.54373914 0
-1.2351902 -72.067184 663.80042 -0.03825324 -0.83249646 -0.55270821 0
2.8684008 -72.173721 664.16022 -0.03965731 -0.84395617 -0.53494412 0
7.6474209 -72.645981 664.13336 -0.051667009 -0.84963816 -0.52482909 0
11.310399 -71.744919 662.89728 0.23447801 -0.84091008 -0.48774004 0
13.705839 -72.074196 663.37665 -0.001666614 -0.86299521 -0.50520927 0
16.818279 -72.905075 664.73755 0.074217483 -0.88061076 -0.46799189 0
19.52426 -72.571587 663.6438 -0.0249219 -0.86432058 -0.50232333 0
25.061434 -73.314934 663.69977 -0.060115892 -0.86482185 -0.49846694 0
32.999496 -72.867004 662.63104 -0.097266309 -0.84976304 -0.51811403 0
90.557709 -70.250923 664.336 0.82357103 -0.50916994 0.24995345 0
-91.526253 -65.82811 663.64984 -0.47794971 -0.6859296 0.54869372 0
-88.834785 -67.936356 664.16162 -0.38868415 -0.74207932 0.54611623 0
-86.694756 -68.602036 665.06744 -0.32608238 -0.92728633 0.18387619 0
-14.909076 -70.542381 662.35748 0.057840694 -0.80461586 -0.59097195 0
91.800781 -66.617294 663.90027 0.84903169 -0.4056651 0.3384982 0
-92.125015 -63.920452 663.98407 -0.47668791 -0.57888675 0.66155785 0
-89.289116 -65.563782 665.30688 -0.4737511 -0.62828737 0.61710197 0
92.378571 -64.117828 664.74591 0.86277014 -0.36727735 0.34746957 0
-94.088364 -62.236397 663.10541 -0.47277787 -0.57914591 0.66413182 0
-91.315872 -61.142765 664.73431 -0.46129766 -0.41970909 0.78169608 0
-89.138199 -62.419868 666.06006 -0.46032175 -0.4526425 0.76368749 0
93.045197 -60.789623 665.69342 0.86436647 -0.42435724 0.26979914 0
93.546127 -60.985695 664.25592 0.83980668 -0.41065705 0.35508519 0
-97.404343 -57.353367 663.78882 -0.44301966 -0.30573994 0.84276724 0
-92.394104 -59.992283 664.33838 -0.42136785 -0.37144288 0.82733268 0
94.957352 -57.902424 663.38812 0.82289761 -0.48530185 0.29550222 0
-99.039917 -54.802902 663.47351 -0.43066072 -0.27436808 0.85979861 0
-95.575111 -55.291458 665.58862 -0.4144232 -0.25897926 0.8724581 0
95.323677 -55.798748 664.30798 0.7902953 -0.56532592 0.23630457 0
-99.560898 -51.914959 663.74994 -0.40279207 -0.27011907 0.87452519 0
-98.129776 -52.39666 664.70056 -0.41831508 -0.2137564 0.8827914 0
97.325348 -52.318378 664.85004 0.68455607 -0.71087074 0.16138697 0
100.47063 -50.875759 664.60413 0.61805916 -0.77481252 0.13292292 0
102.58395 -50.219429 665.44324 0.59824663 -0.78714079 0.15003459 0
-102.16698 -48.338417 663.27985 -0.37612706 -0.23316105 0.89675218 0
-100.31545 -49.908394 663.74286 -0.41345376 -0.15324138 0.89753723 0
-96.244576 -51.086483 666.1698 -0.39851907 -0.21582302 0.89140511 0
96.75222 -52.586395 666.07959 0.53921425 -0.84151542 -0.033163216 0
99.888412 -50.997437 664.42523 0.50859576 -0.85968256 -0.047710877 0
103.26624 -49.805771 665.32611 0.53621244 -0.84152561 0.065656684 0
106.78519 -48.259071 664.21045 0.52469289 -0.84382886 0.11247367 0
108.48904 -47.430359 663.04224 0.55017668 -0.81230855 0.19354714 0
-107.52655 -45.078026 662.58954 -0.39000911 -0.19145606 0.90068728 0
-103.88253 -46.017876 663.37177 -0.37376416 -0.078694873 0.92417932 0
-100.62811 -46.765598 664.26935 -0.38770998 -0.10041891 0.91629523 0
-98.346329 -46.890945 665.31134 -0.39501536 -0.10669187 0.91245806 0
109.06036 -46.279247 664.83319 0.57083482 -0.77806163 0.26223603 0
110.74294 -45.155441 663.48743 0.49918565 -0.85766143 0.12341174 0
-105.26718 -43.224205 663.37085 -0.36937714 -0.13576005 0.91930938 0
-103.91852 -43.471088 663.69543 -0.36042386 -0.046580635 0.93162489 0
-100.15225 -43.388615 664.91376 -0.37129152 -0.056218024 0.92681295 0
