ply
format ascii 1.0
comment VCGLIB generated
element vertex 783
property float x
property float y
property float z
property float nx
property float ny
property float nz
element face 0
property list uchar int vertex_indices
end_header
11.45584 -52.59318 553.6301 0.8539183 0.3054116 -0.4213638 
-40.82344 -50.59061 556.2148 -0.9126945 0.3429182 -0.2222521 
-39.50877 -50.70961 555.8668 -0.7131386 0.506655 -0.4844937 
-34.73849 -48.75502 554.2958 -0.6614093 0.5429622 -0.5174262 
10.34595 -48.6413 552.6726 0.811007 0.367391 -0.455293 
10.88466 -49.86864 553.9248 0.7603832 0.3919871 -0.5178451 
11.35084 -50.55393 554.5504 0.8992985 0.2936922 -0.324048 
-32.39948 -46.76294 553.5815 -0.7276781 0.5044701 -0.4647521 
-31.89828 -45.29875 553.5664 -0.6243055 0.5986363 -0.5018737 
9.275795 -45.22679 552.572 0.6942033 0.4926294 -0.5247838 
10.09307 -47.05283 554.3242 0.8704261 0.3550232 -0.3410527 
-31.10556 -43.27028 554.3462 -0.6035287 0.6497878 -0.4620918 
-29.12831 -42.29677 552.7623 -0.550835 0.6282771 -0.5494077 
-1.437081 -42.01404 550.5433 0.5170009 0.5875917 -0.6224517 
0.9887474 -42.58805 551.23 0.613212 0.5501381 -0.5668502 
4.262119 -41.79699 551.4412 0.5637513 0.5890594 -0.578959 
8.091033 -43.23311 552.3025 0.6095179 0.5389131 -0.5814298 
8.407581 -45.03212 552.5776 0.9242666 0.3041649 -0.2306839 
-30.24825 -41.75116 555.1721 -0.4392709 0.734598 -0.517114 
-28.34 -40.55985 554.2603 -0.5326747 0.6797414 -0.5041917 
-26.61126 -40.33478 552.4036 -0.483798 0.6649231 -0.5690491 
-24.41676 -39.24228 552.0903 -0.4387799 0.6904248 -0.5751399 
-4.531436 -38.47142 552.0338 0.3877369 0.6920159 -0.6089123 
-0.5881884 -39.44558 552.9243 0.455907 0.652145 -0.6056862 
2.255958 -39.74502 552.3964 0.4724386 0.6243964 -0.6220377 
4.568855 -40.02724 552.7492 0.5467968 0.5937234 -0.5903438 
7.164186 -40.77564 553.8541 0.5550142 0.5511242 -0.6230742 
7.20225 -41.71376 553.9081 0.9001831 0.37929 -0.2140317 
-25.36498 -38.56382 553.7714 -0.4539006 0.7198895 -0.5251034 
-23.34129 -37.08234 553.7074 -0.3239618 0.7586847 -0.5651959 
-20.04026 -36.10497 553.0588 -0.2320939 0.7752937 -0.5874113 
-17.05016 -35.76057 552.6563 -0.1295896 0.789137 -0.600391 
-13.2781 -36.30074 552.3958 0.02591014 0.7806023 -0.6244908 
-10.15678 -36.51984 552.7626 0.1138775 0.7759907 -0.6203793 
-6.099587 -37.32095 552.8409 0.2051669 0.7384204 -0.6423721 
-3.894269 -37.54408 552.7319 0.23498 0.7055191 -0.668601 
-1.444278 -37.20462 552.7982 0.3494065 0.6867561 -0.637402 
1.107676 -36.85163 554.2463 0.4316874 0.6722398 -0.601448 
6.105323 -39.92007 553.6646 0.8629746 0.4405985 -0.2472807 
-25.271 -36.73074 555.7682 -0.05821753 0.7650355 -0.6413513 
-22.0532 -36.2773 553.9922 -0.05205899 0.7573835 -0.6508918 
-19.00409 -35.24168 554.1045 -0.2922107 0.7510327 -0.5920835 
-16.51783 -34.76252 554.1782 -0.007174231 0.7715831 -0.6360881 
-13.86054 -35.14684 553.7639 -0.02170273 0.7837515 -0.6206952 
-10.8856 -34.89725 554.5946 0.05545164 0.7919473 -0.6080663 
-7.226332 -35.94342 554.484 0.104189 0.7949103 -0.5977142 
-5.152895 -36.24765 554.6903 0.2696009 0.7340509 -0.6232854 
3.026723 -34.94323 554.9743 0.792739 0.548365 -0.266197 
-14.30081 -33.38823 556.2108 -0.3349629 0.7488048 -0.5719189 
-8.09087 -94.36429 559.0354 -0.2061552 -0.6547337 -0.7272027 
-5.593316 -94.45571 558.726 -0.1238519 -0.6843836 -0.7185262 
-16.5195 -90.52564 557.5822 0.0411592 -0.8602435 -0.5082195 
-15.60295 -92.3383 558.8174 0.05870515 -0.8784793 -0.4741602 
-13.30684 -92.28779 558.157 -0.553773 -0.668641 -0.4962405 
-10.50216 -93.06193 557.9669 -0.05880723 -0.8238257 -0.5637844 
-7.976375 -93.02581 557.4001 0.01006817 -0.8225845 -0.5685539 
-4.62348 -93.46268 557.2095 -0.09785487 -0.7995671 -0.5925513 
-1.988959 -92.453 557.0072 -0.115462 -0.755932 -0.6443876 
0.5875323 -92.05793 557.4182 0.09291383 -0.7239023 -0.6836172 
-17.10984 -90.67553 557.8993 -0.3631045 -0.6233634 -0.6925123 
-13.17724 -91.2764 556.5809 -0.5716797 -0.557785 -0.6017129 
-10.29309 -91.40388 555.8917 -0.1820286 -0.8341054 -0.5207051 
-7.305695 -92.35326 555.8483 -0.1111735 -0.8431653 -0.5260349 
-4.645264 -92.78605 556.0589 -0.02265195 -0.845057 -0.5341963 
-1.27865 -92.49729 556.4846 0.2405816 -0.848999 -0.4704479 
0.5924055 -90.86022 555.0258 0.3305419 -0.7579522 -0.5623617 
3.099226 -90.58896 556.6085 0.3358085 -0.7723969 -0.5391064 
5.200953 -88.84413 557.3862 0.4358656 -0.7625743 -0.4780184 
-19.05747 -87.69044 557.0348 -0.3207999 -0.7365207 -0.5955037 
-16.81101 -89.12945 556.1081 -0.4400343 -0.6921758 -0.5720686 
-14.20714 -89.75494 555.1937 -0.4241554 -0.6811136 -0.5968053 
-11.38752 -90.3765 554.709 -0.233235 -0.6647385 -0.7097354 
-7.560669 -90.64859 554.3827 -0.1556142 -0.6907471 -0.7061534 
-5.010819 -91.48874 554.658 -0.130873 -0.6869062 -0.7148652 
2.679938 -90.36482 555.3826 0.4800333 -0.7926257 -0.3759155 
5.481771 -89.10712 556.6932 0.630692 -0.760785 -0.153081 
6.831102 -87.77388 557.5233 0.6191525 -0.6995131 -0.3568355 
7.645036 -86.42554 556.4137 0.6236533 -0.707112 -0.3332406 
-34.63866 -82.66965 557.744 -0.1996785 -0.7998465 -0.5660161 
-32.24607 -83.28237 557.819 -0.08063155 -0.7820836 -0.6179351 
-29.07898 -82.80058 557.5753 -0.07012697 -0.7782168 -0.624068 
-25.83232 -83.52483 558.1324 -0.06744423 -0.7658227 -0.6395053 
-22.30037 -85.29809 558.002 -0.1992936 -0.7671433 -0.609732 
-19.89453 -85.85342 556.2669 -0.2780333 -0.6657059 -0.6924832 
-17.73799 -86.59964 554.8394 -0.4639837 -0.6115252 -0.6409025 
-15.2907 -87.23414 553.9698 -0.2575446 -0.6781449 -0.6883243 
6.404834 -88.55259 557.3651 0.6921171 -0.7162111 -0.08952972 
7.997249 -86.33331 555.5964 0.7027741 -0.6587415 -0.2686416 
9.814983 -83.96735 556.567 0.7285352 -0.617139 -0.2972811 
9.819799 -84.45942 558.1262 0.7451609 -0.4660879 -0.4769669 
-37.95694 -80.16621 558.072 -0.1458277 -0.7009989 -0.6980937 
-36.35342 -81.2531 557.3092 -0.2472241 -0.7366132 -0.6295088 
-34.09328 -82.06158 556.3252 -0.1849351 -0.7657081 -0.6160277 
-31.6824 -82.842 556.9929 -0.09232301 -0.7055669 -0.7026036 
-28.71191 -82.20273 556.3348 -0.2155712 -0.7064117 -0.6741747 
-25.7827 -82.68096 556.5569 -0.1842554 -0.6963754 -0.6936219 
-22.53007 -82.92576 556.3368 -0.2354453 -0.6818851 -0.6925304 
-20.23398 -83.18909 555.261 -0.3671133 -0.6850986 -0.6291802 
-18.66635 -84.67064 554.4891 -0.4676348 -0.7197928 -0.5130458 
10.65533 -83.85921 557.4218 0.8012114 -0.5980003 -0.02135491 
10.49413 -83.25117 555.8561 0.7311288 -0.317699 -0.6037534 
11.73422 -81.76318 557.9308 0.8207996 -0.5333102 -0.2046172 
-38.49358 -79.13787 557.4261 -0.5268652 -0.7092946 -0.4683101 
-37.43682 -79.49485 555.8314 -0.4299356 -0.7511299 -0.5009583 
-34.6768 -81.4225 555.697 -0.347454 -0.7326018 -0.585295 
-31.63739 -81.33146 555.2073 -0.1651103 -0.7959422 -0.5824213 
-29.0665 -81.1536 554.6641 -0.1671043 -0.7838232 -0.5980781 
-25.24857 -81.72087 555.0974 -0.2063098 -0.7391617 -0.6411523 
-23.06931 -82.16711 555.0383 -0.2497615 -0.781277 -0.5720363 
12.63533 -79.51132 555.7888 0.8853783 -0.4576581 -0.08157408 
12.6984 -79.66283 557.1133 0.8252183 -0.2834198 -0.488557 
13.03775 -79.72367 557.9639 0.7911658 -0.5972339 0.131789 
-41.66764 -74.3054 556.437 -0.8569829 -0.500188 -0.124066 
-40.64856 -76.61584 556.6849 -0.7072628 -0.530593 -0.4671728 
-39.37737 -78.04911 556.1179 -0.6222178 -0.6915056 -0.3669674 
-36.52591 -79.81814 554.5801 -0.4235691 -0.7637582 -0.4870961 
13.54785 -75.95752 555.8118 0.9280393 -0.2565955 -0.2700035 
14.11671 -77.32874 558.2167 0.8773651 -0.211594 -0.430649 
-42.42035 -73.45649 556.3566 -0.8213065 -0.3646326 -0.4387468 
-42.19073 -73.92525 555.8677 -0.7742203 -0.6101177 -0.168343 
13.97228 -73.36142 556.7328 0.9696491 -0.1620571 -0.1830796 
14.90973 -74.38209 558.1789 0.8994408 -0.143167 -0.4129279 
-44.17959 -69.03913 557.0988 -0.9582215 -0.2157404 -0.1877968 
-43.9816 -70.26335 556.5782 -0.9076802 -0.2453655 -0.3404591 
-43.10753 -72.52518 555.5667 -0.8410099 -0.30874 -0.444277 
13.52101 -70.18922 554.4144 0.8559082 0.09365409 -0.5085766 
14.14116 -70.4419 555.903 0.9646168 -0.1366124 -0.2255025 
14.89194 -71.59021 558.059 0.9224334 -0.05037692 -0.3828562 
-44.60346 -68.07079 556.5173 -0.9521402 -0.2588105 -0.1626231 
14.51345 -67.97208 556.9902 0.9880124 -0.05434716 -0.1444922 
14.41853 -68.86842 556.8526 0.9056982 0.0002982031 -0.4239231 
-46.81267 -64.28221 555.9449 -0.7104965 0.3783838 -0.5933131 
-45.59539 -64.4157 556.4328 -0.9865898 -0.12364 0.106554 
-45.99903 -64.44305 556.4846 -0.9138566 0.09844067 -0.3939235 
-44.57919 -65.72736 553.3954 -0.8349154 0.02023461 -0.5500062 
14.53563 -64.82684 556.355 0.9481791 0.0398954 -0.315222 
14.63733 -65.46586 556.8572 0.982773 0.02340451 -0.183329 
-46.02615 -61.92599 555.9595 -0.7181294 0.4317094 -0.5458179 
-45.45369 -61.55563 556.5719 -0.9965685 0.07871582 -0.0255955 
-44.70128 -61.11566 554.1958 -0.8637422 0.2161831 -0.4552081 
13.91408 -61.52011 556.4365 0.9773615 0.08336486 -0.1944607 
14.02021 -62.64415 557.1603 0.9656931 0.09540576 -0.2415257 
-44.752 -59.06324 556.5632 -0.9045345 0.2875411 -0.3148611 
-44.89678 -58.85312 556.5673 -0.7553728 0.4064241 -0.5140345 
-43.69576 -58.65008 555.2399 -0.8566859 0.298806 -0.420481 
13.67784 -59.00303 556.2138 0.9509236 0.1426931 -0.2745598 
-44.03954 -56.34875 557.7818 -0.9715027 0.1279012 0.199559 
-43.18728 -56.40969 555.8366 -0.628163 0.529251 -0.570355 
-42.62538 -54.72202 556.1318 -0.7846651 0.4225056 -0.4536405 
12.4803 -54.75885 555.2753 0.9181511 0.209286 -0.336449 
13.18499 -55.99878 556.7132 0.9698428 0.1751393 -0.1695029 
-42.47055 -52.69822 557.3461 -0.8908172 0.3878669 -0.2366516 
-41.63115 -52.43799 555.9517 -0.7301487 0.4910862 -0.475097 
-38.61831 -50.86358 554.5912 -0.762246 0.4546954 -0.4606877 
12.85901 -53.67498 556.817 0.92318 0.223787 -0.312503 
12.68565 -53.56614 556.382 0.9503064 0.2250713 -0.2150827 
-41.33765 -49.48658 557.629 -0.9333197 0.345643 -0.09718607 
-41.04804 -48.85931 557.8851 -0.738637 0.5447149 -0.3971161 
-37.84639 -48.16221 556.7726 -0.7725609 0.4957182 -0.3967533 
-35.93423 -48.53488 555.5123 -0.7240915 0.5178304 -0.4555692 
10.82964 -48.17326 554.5176 0.8344555 0.3762693 -0.4026232 
11.83895 -49.28273 556.3441 0.9325005 0.2737865 -0.2355502 
12.78069 -50.17365 558.7855 0.675622 0.435259 -0.59505 
-41.80999 -48.39066 558.3902 -0.9479657 0.128811 0.2911509 
-39.02096 -48.44841 557.5658 -0.7089571 0.5555059 -0.4345033 
-34.6717 -46.75865 556.246 -0.7232795 0.546373 -0.4223073 
-33.03675 -46.2583 554.948 -0.639654 0.572642 -0.512761 
10.9307 -46.30384 556.65 0.9073015 0.3453501 -0.239869 
11.31519 -46.62089 557.5209 0.6277511 0.487829 -0.60659 
-39.31873 -46.3966 559.7042 -0.8932859 0.4219203 -0.1549956 
-34.58519 -43.44542 558.7894 -0.5939338 0.6798362 -0.4301922 
-32.39425 -42.85061 556.2565 -0.6418999 0.6144425 -0.458721 
7.107673 -40.83161 553.6672 0.5646037 0.5934047 -0.5736667 
9.041117 -41.79133 556.6787 0.6411962 0.5799561 -0.5025121 
9.572386 -43.53702 556.7602 0.858715 0.406046 -0.3126263 
-33.12196 -42.09771 558.3896 -0.5553974 0.707772 -0.4365692 
-31.34468 -41.18544 556.5276 -0.6018061 0.6660643 -0.4406677 
-28.80545 -39.7416 555.2772 -0.5468227 0.6596062 -0.5156595 
-27.37297 -38.99483 554.9655 -0.5158969 0.7075508 -0.4829309 
6.61903 -39.12648 555.5211 0.6089236 0.6188569 -0.4962138 
8.428493 -41.30561 557.179 0.5827129 0.5389079 -0.6082959 
-31.6219 -40.02442 558.3653 -0.5212212 0.7301136 -0.4418853 
-27.65327 -38.36469 556.081 -0.478543 0.7335657 -0.4825744 
-26.19835 -36.76723 556.2162 -0.4648985 0.7349125 -0.4937339 
-23.30286 -35.7472 555.1123 -0.3895507 0.7524767 -0.531064 
-20.32741 -35.50981 554.2356 -0.08230439 0.816254 -0.5718002 
-7.895189 -35.79826 554.0728 0.2445103 0.7812651 -0.5743167 
-4.882905 -35.61474 555.515 0.3541241 0.7603959 -0.544421 
-1.499084 -36.25487 555.2457 0.426584 0.701816 -0.570509 
3.225827 -36.75468 555.1867 0.5184625 0.6762424 -0.5233479 
4.925759 -37.26503 555.8207 0.48059 0.6311544 -0.6088327 
6.733602 -38.50852 557.6658 0.8156614 0.4972889 -0.2956356 
7.594746 -40.14018 557.9644 0.9096899 0.384416 -0.157126 
-25.91632 -36.1385 557.0864 -0.2503237 0.8142279 -0.5238044 
-22.43454 -34.76746 556.6429 -0.4260833 0.7573094 -0.4949095 
-20.51317 -33.72605 557.1925 -0.2495246 0.8181171 -0.5180945 
-16.503 -33.64759 555.7089 -0.1406806 0.8235757 -0.5494835 
-13.43937 -33.93042 555.1674 0.008007703 0.8293797 -0.558628 
-9.858327 -34.53137 555.5266 0.0663351 0.820414 -0.567909 
-6.666836 -34.84742 556.3163 0.2122367 0.8039086 -0.5555958 
-3.434477 -34.90554 556.9438 0.310691 0.7722309 -0.5541936 
-1.420406 -34.54468 556.8002 0.4062359 0.7399198 -0.5361819 
1.822948 -35.2067 555.4521 0.401599 0.6864981 -0.6061671 
4.201714 -36.85532 555.9803 0.8285674 0.5087929 -0.2336789 
-24.64714 -34.79267 558.1216 -0.05893373 0.7884824 -0.6122274 
-22.0097 -34.5376 556.8874 -0.05190961 0.7931331 -0.6068321 
-19.677 -33.17355 557.985 -0.1805516 0.8041258 -0.566377 
-16.39732 -32.7855 557.5455 -0.4023704 0.7530934 -0.520527 
-13.08911 -31.82894 558.2273 0.08011399 0.8262599 -0.5575629 
-10.19112 -33.91611 556.2072 0.150095 0.7912439 -0.5927939 
-7.296114 -33.4022 557.6134 0.200737 0.8027952 -0.5614486 
2.455449 -32.68613 557.2901 0.7840859 0.5842767 -0.2093564 
-17.09029 -94.53476 562.4725 0.08930767 -0.9263877 -0.3658279 
-14.35035 -94.03767 560.2556 -0.7286412 -0.5001842 -0.4678652 
-11.19578 -94.42116 561.1424 -0.2618169 -0.6988045 -0.6656758 
-2.518934 -93.98039 560.9523 -0.2234621 -0.8172702 -0.5311632 
2.006243 -93.64203 561.8776 0.205459 -0.7600299 -0.6165559 
2.17723 -93.86964 562.2772 -0.05637479 -0.8367959 -0.544605 
-16.37304 -93.38903 560.3491 0.1027991 -0.9151264 -0.3898412 
-16.12511 -93.66059 560.5915 -0.2186812 -0.765981 -0.604526 
-13.74045 -93.93538 560.1498 -0.3571251 -0.7533374 -0.5522177 
-10.40349 -94.32505 560.1353 -0.08156644 -0.8533919 -0.5148488 
-7.205886 -94.58748 559.369 -0.04497441 -0.8741738 -0.4835262 
-4.087211 -94.3232 559.3139 0.1382043 -0.9158892 -0.3768907 
-2.012414 -93.78933 559.5873 0.06658568 -0.850412 -0.5218868 
1.348056 -93.08435 559.8729 0.1010255 -0.8297634 -0.5488958 
2.864688 -92.55486 560.1669 0.140016 -0.7858147 -0.6024042 
4.439766 -91.95149 560.5954 0.02687549 -0.7938267 -0.6075498 
-32.75806 -88.57105 562.9261 -0.00131445 -0.6871769 -0.7264889 
-19.64045 -90.57899 559.8956 -0.3510136 -0.6334836 -0.6895564 
-16.74176 -92.2902 559.0366 -0.3661259 -0.747017 -0.5549031 
-13.83357 -92.93976 558.3779 -0.3308336 -0.6910555 -0.642644 
-10.67607 -93.27248 557.416 -0.3160716 -0.6786614 -0.6629611 
-0.6675844 -94.01929 559.5359 0.305999 -0.9493164 -0.07185414 
2.505056 -92.38817 558.5707 0.4869471 -0.8579953 -0.1634828 
4.742691 -90.65741 559.068 0.5002854 -0.8217305 -0.2728983 
5.945428 -89.66374 559.7486 0.4924508 -0.6700448 -0.5554568 
-33.43608 -86.11169 561.1603 -0.04027278 -0.6926678 -0.7201316 
-30.84636 -87.07759 561.2496 -0.1000479 -0.7909241 -0.60368 
-27.25443 -86.68372 561.0925 -0.07707843 -0.7616646 -0.6433709 
-24.79454 -87.54369 561.1359 -0.1372646 -0.701187 -0.6996394 
-22.01526 -88.16029 559.7027 -0.2091619 -0.7070705 -0.6755018 
-19.8234 -89.29404 558.7155 -0.2922978 -0.6464435 -0.7047502 
-17.38116 -89.72451 557.5264 -0.4302382 -0.5751817 -0.695745 
-14.88795 -90.97519 556.8289 -0.3730067 -0.6450966 -0.6668705 
5.812664 -90.52266 559.8463 0.6421169 -0.7665958 0.004095394 
7.447695 -88.10296 559.3898 0.6715708 -0.6041338 -0.4289699 
8.186514 -87.19911 560.3533 0.6728057 -0.5584039 -0.4853015 
-35.64532 -84.18629 560.9511 -0.1974494 -0.7689676 -0.6080317 
-34.07985 -84.83238 560.1597 -0.1311582 -0.747766 -0.6508791 
-31.81483 -85.39143 559.8045 -0.2045291 -0.6816089 -0.7025506 
-28.99048 -85.05708 559.7565 -0.213903 -0.7148682 -0.6657395 
-25.24959 -85.99854 559.9081 -0.2401614 -0.6505945 -0.7204508 
-22.03098 -86.75965 558.6099 -0.2784168 -0.6046535 -0.7462428 
-20.7513 -86.15949 557.1533 -0.3498961 -0.5866415 -0.7303591 
8.371327 -87.12685 558.9125 0.739534 -0.6728789 -0.01798886 
9.350309 -85.52374 559.1305 0.7488715 -0.6263494 -0.216513 
-36.84207 -82.15075 559.8871 -0.5512038 -0.7132643 -0.4329301 
-35.05707 -83.50188 559.0195 -0.325323 -0.709797 -0.6247825 
-31.24825 -83.48254 557.7225 -0.2286704 -0.7219045 -0.6531186 
-28.31636 -83.41217 557.7137 -0.1983889 -0.7233409 -0.6613773 
-25.64286 -83.90467 558.2726 -0.2044375 -0.6935439 -0.6907982 
-22.81714 -84.07701 557.5618 -0.3227152 -0.7258564 -0.6074433 
-19.8719 -85.12282 557.0585 -0.445943 -0.668762 -0.5948885 
10.61945 -84.48187 559.7363 0.8128014 -0.5749195 0.09392293 
10.81204 -83.48185 558.6752 0.8113254 -0.4503242 -0.3727722 
12.26621 -81.76083 559.337 0.8581997 -0.3271604 -0.3955497 
-41.07245 -77.6583 560.9085 -0.8300221 -0.5516601 -0.0820642 
-40.05063 -78.66009 559.2731 -0.7231202 -0.6008344 -0.3407275 
-38.52526 -80.37434 558.4536 -0.5549283 -0.680003 -0.4792186 
-36.12683 -82.04961 557.4355 -0.4545469 -0.6704808 -0.5863809 
12.76372 -81.51411 559.0792 0.8717365 -0.4825698 0.0848648 
13.65984 -79.58797 559.5326 0.9204733 -0.3756674 -0.1077166 
13.98314 -78.73009 560.8828 0.9121702 -0.4095114 -0.01568051 
-42.5916 -75.13695 559.9531 -0.8755578 -0.4612164 -0.1437979 
-41.19866 -77.47905 559.3713 -0.7577534 -0.5819782 -0.2951461 
14.72252 -77.31281 558.6032 0.9514076 -0.3013758 -0.06321616 
14.66657 -76.52696 560.5567 0.9309757 -0.3650795 -0.00106304 
-44.03224 -71.88895 558.8126 -0.9347976 -0.3140806 -0.1658519 
-43.40767 -73.80827 558.7234 -0.8725569 -0.4380168 -0.2163005 
15.86623 -73.27018 559.5557 0.9836183 -0.175297 -0.04202666 
15.38126 -73.87643 559.6931 0.7959502 -0.4612261 0.3920891 
-44.69649 -69.94788 559.8152 -0.9644912 -0.2098007 -0.1604385 
-45.05443 -69.18376 559.4769 -0.9378836 -0.3397029 0.07054397 
15.62103 -69.95547 558.5828 0.9863384 -0.07533921 -0.1464947 
15.64566 -71.72379 561.0012 0.9453463 -0.05634422 -0.3211631 
-45.31003 -66.22693 559.1274 -0.9889945 -0.04215685 -0.1418192 
-45.20837 -67.03992 558.0489 -0.9555449 -0.288743 0.05967909 
15.10768 -66.8015 559.9464 0.9998062 0.01883831 0.005723832 
15.31134 -68.84537 559.6441 0.9365314 0.005779773 -0.3505361 
15.19325 -68.83634 561.0928 0.9512316 0.002340509 -0.3084689 
-45.26881 -64.22675 559.5684 -0.9791319 -0.1004076 0.1766891 
-45.37959 -65.98193 558.1187 -0.9299732 0.04784911 -0.3645001 
14.78295 -64.09127 557.6146 0.8917047 0.2009032 -0.4055867 
15.01725 -63.70119 560.8654 0.9680626 0.05186268 -0.2452859 
14.68086 -64.89974 558.916 0.9938366 0.03273221 -0.1059124 
-45.12734 -61.80746 559.6786 -0.9965086 0.03547074 0.07558111 
-45.49413 -61.17537 559.7661 -0.9415027 0.2366809 -0.2399059 
14.7278 -61.72915 559.0568 0.9815818 0.07601246 -0.1752692 
14.69892 -62.27678 560.2316 0.9501464 0.1240119 -0.2860818 
-45.38506 -59.63786 558.1954 -0.7684184 0.494322 -0.4064223 
-44.67062 -58.74635 558.936 -0.9799625 0.1988781 0.01099869 
-44.90625 -58.10434 559.5467 -0.8948417 0.3026249 -0.3281409 
-44.28571 -56.42362 557.949 -0.8911154 0.3282292 -0.3133352 
14.66603 -58.3458 559.7209 0.9854091 0.1321621 -0.1072474 
14.90456 -60.04251 560.8867 0.9394737 0.183402 -0.2894009 
-44.13371 -56.88867 558.78 -0.7806582 0.4886737 -0.3895776 
-44.07795 -55.40457 559.8674 -0.9287865 0.3308917 -0.1669321 
13.92559 -55.33106 559.1586 0.975315 0.1722832 -0.1381278 
14.13434 -56.18948 559.6981 0.9205218 0.2155358 -0.3258589 
-42.8278 -52.75548 558.5248 -0.9528983 0.124492 0.2765621 
-42.73409 -52.62128 558.6995 -0.9114435 0.3806064 -0.1562355 
-42.74652 -50.98803 558.2091 -0.7890382 0.4635998 -0.4031055 
12.78908 -51.36029 557.8488 0.9159841 0.27365 -0.293409 
13.3325 -52.68671 560.0452 0.9716222 0.2120077 -0.1048951 
-42.60791 -51.04829 560.7328 -0.9533473 0.130381 0.2722681 
-42.1874 -49.93377 559.9183 -0.92797 0.3691792 -0.05077901 
-41.37252 -48.21157 558.8202 -0.7811669 0.4962302 -0.3788589 
-39.34175 -47.31491 558.06 -0.7882112 0.4952688 -0.3652834 
12.62539 -47.89883 560.0524 0.8957403 0.3589301 -0.2623331 
12.62867 -49.73371 559.129 0.9602396 0.2501047 -0.1240464 
-41.31104 -48.3483 559.6718 -0.9626923 0.23238 0.1386472 
-40.10952 -46.71044 559.7902 -0.8522356 0.4821679 -0.2029993 
-37.90779 -45.38205 559.0859 -0.7447824 0.5416248 -0.389797 
-35.64153 -45.68928 557.7548 -0.6835824 0.5742967 -0.4504425 
12.07645 -46.25309 559.3251 0.9314269 0.3246785 -0.1644013 
-40.66123 -46.35647 560.856 -0.9522436 0.123092 0.2794289 
-38.93808 -44.84801 560.9394 -0.9197343 0.3914264 -0.02956627 
-37.38741 -44.56989 559.925 -0.6873462 0.6168998 -0.3833925 
-34.57006 -42.86875 558.7089 -0.6881357 0.6018183 -0.4053195 
-33.61353 -42.95181 557.6377 -0.6423869 0.5981979 -0.4790599 
10.49083 -43.38134 558.9885 0.9198733 0.3572076 -0.1619751 
11.32775 -44.36652 559.7126 0.6226528 0.5149198 -0.5892038 
-37.28539 -42.15581 562.3771 -0.884487 0.462858 -0.0586962 
-34.74826 -40.61698 561.4703 -0.597183 0.703806 -0.384746 
-32.51434 -40.06718 559.121 -0.6856601 0.6192641 -0.3825994 
-30.57798 -38.7788 559.0746 -0.5896268 0.6954828 -0.4106629 
8.785753 -39.19985 560.0033 0.7296375 0.5822499 -0.3586282 
9.710938 -40.58634 560.069 0.9081968 0.3946506 -0.1393897 
10.95125 -42.2681 560.7634 0.6104279 0.542423 -0.5771959 
-30.67834 -38.64607 560.2249 -0.4768923 0.766853 -0.4295465 
-28.90922 -37.3497 559.114 -0.5276507 0.7238917 -0.4444836 
3.645785 -35.08807 557.6054 0.4773669 0.7295588 -0.4897599 
6.015827 -36.4113 558.4766 0.6038567 0.6746435 -0.4245153 
6.394387 -36.93019 559.4655 0.509923 0.636887 -0.578233 
8.636148 -39.2459 560.2829 0.5765862 0.5723002 -0.5831132 
-28.06764 -36.43965 560.2545 -0.3632354 0.8081517 -0.4636279 
-25.83089 -34.49762 559.9169 -0.4219126 0.7801417 -0.4619185 
-23.67383 -33.58746 559.1419 -0.3970266 0.8023453 -0.4456591 
-20.1927 -32.44619 558.974 -0.1912596 0.849655 -0.4914328 
-17.16013 -32.92133 557.3152 -0.0149239 0.8593608 -0.5111519 
-13.93821 -32.41431 557.0242 0.05634303 0.8587127 -0.5093507 
-7.749688 -33.53159 557.1307 0.2448297 0.8207589 -0.5161524 
-4.254886 -32.99389 559.1062 0.305006 0.8199161 -0.4844677 
-0.2854044 -33.53402 558.2787 0.3663294 0.7805361 -0.5065237 
1.865808 -33.6384 558.1362 0.5005613 0.7325611 -0.4612947 
4.067101 -33.66294 559.2256 0.437104 0.7017691 -0.562548 
5.700158 -36.16896 559.9412 0.8547474 0.5013086 -0.1345234 
-22.7758 -32.9795 560.2501 -0.252202 0.8289779 -0.4991892 
-19.87558 -31.78548 560.1696 -0.3125974 0.8346408 -0.453495 
-17.06972 -31.7551 558.927 -0.09342949 0.8408093 -0.533208 
-13.50325 -31.355 559.0278 -0.0824577 0.8669419 -0.4915408 
-10.48138 -31.75851 558.7216 0.01155477 0.868771 -0.4950793 
-7.209687 -31.7367 559.4128 0.105639 0.8583184 -0.5021253 
-4.462327 -31.69481 560.3506 0.3262981 0.8225343 -0.4657972 
-1.694157 -32.23051 559.209 0.3096931 0.8080931 -0.5010747 
0.670527 -31.10161 560.134 0.5305059 0.7601868 -0.3750729 
3.912162 -33.62393 560.3014 0.8107627 0.5648908 -0.1534999 
4.240906 -33.70889 560.7354 0.8204136 0.5546877 -0.1387189 
-18.33411 -31.56016 560.1533 -0.457606 0.766627 -0.450422 
-15.622 -29.62417 561.8544 -0.2010644 0.8473487 -0.4915011 
-12.5648 -30.26452 561.4192 0.105615 0.8563968 -0.5054009 
-10.47315 -31.23523 559.9777 0.1496799 0.8350316 -0.5294508 
-7.266696 -30.91885 561.1844 0.2688729 0.8431317 -0.4656568 
2.542297 -31.12834 561.2479 0.782081 0.612066 -0.117152 
-15.54363 -96.28931 564.024 -0.7686627 -0.5579938 -0.3127309 
-17.13323 -94.77374 563.2726 -0.02243856 -0.9021112 -0.4309198 
-15.77637 -95.48499 563.3319 0.01398372 -0.9079661 -0.4188103 
-14.20687 -95.50095 563.0739 -0.5906153 -0.623271 -0.5125493 
-10.8445 -95.07334 563.6242 -0.2020366 -0.7872748 -0.5825629 
-8.185494 -94.94717 563.9744 -0.1094283 -0.7963902 -0.5948009 
-4.831429 -94.5088 563.4645 -0.05666418 -0.8286613 -0.5568749 
-1.033871 -95.19847 563.8975 -0.04933968 -0.8383341 -0.5429195 
0.6307503 -95.1127 563.4655 -0.05797506 -0.8391308 -0.5408313 
2.659121 -93.76319 563.0914 0.1540902 -0.8294023 -0.5369807 
-23.94752 -91.91176 565.0944 -0.1881638 -0.6670923 -0.7208206 
-21.99779 -92.4128 564.1924 -0.2900008 -0.6883579 -0.6648781 
-19.54613 -93.20444 563.187 -0.2899732 -0.6554286 -0.6973729 
-16.86594 -94.88383 562.5867 -0.2829285 -0.6732985 -0.6830963 
-13.67097 -95.5995 562.9209 -0.2959859 -0.8165854 -0.495561 
-9.697782 -95.58083 562.9404 0.124993 -0.9879237 -0.0915614 
-7.405055 -95.54373 562.1439 0.1749356 -0.9810216 -0.0836316 
-4.282861 -95.41074 562.7707 0.3281611 -0.9443857 0.0211194 
-1.404406 -94.19378 562.1281 0.2647002 -0.8278011 -0.4946505 
0.9939172 -93.60322 562.9466 0.4616219 -0.7994605 -0.3844062 
5.113295 -91.42929 561.621 0.4525262 -0.7509323 -0.4809582 
-33.78748 -89.42732 564.9754 -0.1562066 -0.6682693 -0.7273346 
-31.27426 -89.66549 564.1327 -0.1126263 -0.6838378 -0.7208892 
-28.44685 -90.01381 563.9885 -0.1057292 -0.661898 -0.7421001 
-25.33369 -90.03036 563.4753 -0.1372631 -0.6510832 -0.7464914 
-21.75985 -91.08591 562.4735 -0.2429088 -0.6329198 -0.7351244 
-19.96268 -91.9505 561.1672 -0.3081527 -0.7171796 -0.6250563 
-17.42055 -94.2724 561.4429 -0.4631817 -0.7208958 -0.5155307 
-14.31421 -94.73955 560.6021 -0.2789652 -0.7939294 -0.5402357 
-11.43819 -94.71128 560.1451 -0.36302 -0.709697 -0.603777 
-2.199184 -94.93491 563.1946 0.394866 -0.9176412 0.04489471 
-0.2641301 -93.31991 563.9058 0.3725558 -0.9196293 0.1244354 
2.142908 -93.48645 561.6332 0.4778423 -0.8770577 0.04936281 
3.994203 -91.94232 562.3948 0.5689439 -0.7334159 -0.372027 
5.717255 -90.53423 561.8288 0.6489511 -0.6750793 -0.3508995 
6.386365 -89.97665 561.6988 0.5683749 -0.6631879 -0.4869619 
-38.13482 -86.51445 565.5963 -0.1537668 -0.7006562 -0.6967329 
-36.79931 -87.59383 564.4918 -0.108536 -0.6770033 -0.727933 
-34.45792 -87.55947 562.9797 -0.2601845 -0.7356845 -0.6253578 
-31.38051 -88.22407 562.2626 -0.2296991 -0.6705384 -0.7054194 
-28.37625 -88.74708 562.6763 -0.2092161 -0.7150213 -0.6670631 
-25.12351 -88.81258 561.8599 -0.2516675 -0.8392705 -0.4819632 
-22.96462 -89.03465 561.0486 -0.2576875 -0.7094979 -0.655904 
4.051511 -91.18635 563.5737 0.6229475 -0.7695855 0.1402663 
6.982976 -89.3486 561.5693 0.6310589 -0.7710469 0.0851552 
7.296521 -88.1741 562.0586 0.6907688 -0.7176879 -0.08810507 
7.689829 -86.89671 562.8578 0.7931734 -0.5637033 -0.2304661 
-36.94478 -85.40938 563.1736 -0.5831945 -0.6912509 -0.4266807 
-35.33914 -86.55595 561.8466 -0.3952928 -0.6724978 -0.6256918 
-28.88334 -87.3923 561.2428 -0.2334707 -0.6674578 -0.7071008 
-26.32164 -87.94052 561.4565 -0.214909 -0.612676 -0.760554 
8.407583 -86.27188 563.1173 0.7622491 -0.6194315 0.1878326 
9.311134 -84.42821 562.5141 0.8080744 -0.5889285 0.01337925 
11.2366 -82.11416 560.7374 0.838625 -0.39114 -0.379101 
-39.23148 -81.83669 563.6849 -0.7547237 -0.5939122 -0.2786763 
-37.78893 -82.84573 561.1218 -0.5583849 -0.6361078 -0.5325159 
-36.97905 -84.96099 562.5028 -0.478721 -0.670683 -0.566578 
-33.29194 -85.07266 559.2721 -0.264796 -0.746253 -0.6107289 
-29.54965 -85.33804 559.3867 -0.176519 -0.7286009 -0.6618019 
-25.59657 -85.65359 559.5712 -0.212923 -0.7055311 -0.6759361 
10.66013 -82.88451 562.5648 0.8449087 -0.5259183 0.09767003 
-41.29973 -78.69008 563.5152 -0.8150344 -0.4345622 -0.3832422 
-40.04712 -79.83818 562.3643 -0.7470343 -0.5947682 -0.2969692 
-40.26381 -79.87324 561.8299 -0.8308281 -0.437984 -0.343358 
11.87931 -80.72887 563.9588 0.8638074 -0.4106737 0.2918628 
13.64291 -79.46274 561.9398 0.9275014 -0.2173223 -0.3041581 
14.35839 -78.74194 562.3184 0.922363 -0.260409 -0.285366 
-42.45134 -75.94083 562.4487 -0.878934 -0.4171673 -0.2311852 
-42.22757 -77.28615 563.5413 -0.9311967 -0.3325979 -0.149169 
15.2108 -76.65222 562.4394 0.9564195 -0.2775204 0.09079761 
15.11139 -75.38704 562.1863 0.9584368 -0.278167 -0.06342002 
-44.45181 -72.29001 561.3026 -0.9370958 -0.251369 -0.242209 
-43.78476 -73.67498 562.4684 -0.9390504 -0.3407941 -0.0452085 
-42.94508 -75.46394 561.3937 -0.8869611 -0.4420411 -0.13379 
15.638 -73.61607 563.483 0.9711876 -0.2093883 0.1138035 
15.77618 -72.63705 561.7891 0.7914917 -0.4188709 0.4450709 
-44.91731 -70.78269 561.9312 -0.970876 -0.1672168 -0.1715758 
-45.05694 -71.13553 561.9219 -0.9424447 -0.3286589 0.06149178 
15.89542 -70.18345 561.6451 0.9969366 -0.07806676 0.004793569 
15.73339 -70.50084 563.2869 0.9868076 -0.1614989 -0.01134776 
-44.9782 -67.84386 561.8969 -0.996954 -0.0684737 -0.03733943 
-45.32347 -68.4407 563.2538 -0.9621866 -0.1930056 0.1922126 
15.63606 -67.12153 563.2439 0.9923867 -0.01067364 0.1226982 
15.63639 -68.549 563.5321 0.9864472 -0.05799571 -0.153488 
-44.87747 -64.40341 562.0699 -0.9830879 0.07786899 -0.165755 
-45.1324 -64.90387 562.0566 -0.9577751 -0.141156 0.2504832 
15.06708 -64.50099 561.4249 0.9986312 0.04349544 0.02905197 
14.75555 -65.72478 562.1538 0.9579335 0.1032939 -0.2677569 
-44.89087 -62.15516 562.1749 -0.9865889 0.1485421 -0.06765778 
-45.00204 -61.2926 562.5756 -0.9576246 -0.02512179 0.2869217 
15.17147 -61.59668 563.0724 0.9962302 0.07812712 -0.03770198 
14.82275 -62.7882 562.3331 0.9526221 0.153922 -0.262334 
-44.53326 -57.95073 560.9443 -0.9763287 0.07155008 0.2041149 
-44.66701 -58.19955 562.1408 -0.9813027 0.1922151 -0.009916462 
14.76079 -57.78908 561.9644 0.9825535 0.07067994 0.1720261 
-44.06453 -56.02861 561.6837 -0.9324896 0.3480465 -0.09657498 
-43.69912 -54.77946 562.978 -0.9683646 0.2490323 0.01590234 
14.36432 -55.25539 562.8554 0.9893845 0.1376257 0.04666276 
14.58937 -57.0326 562.2526 0.9432628 0.2034959 -0.262383 
-43.17937 -53.30171 560.7231 -0.8071577 0.4840472 -0.3379271 
-43.14989 -52.9872 561.9225 -0.9274796 0.3585761 -0.1058528 
-43.37091 -52.32861 561.9807 -0.9058878 0.3817931 -0.1833067 
13.67892 -54.03952 563.4589 0.9343889 0.23788 -0.265199 
-42.05361 -50.15033 562.3926 -0.9478246 0.3170248 0.03352491 
-42.48389 -49.76443 562.332 -0.8078782 0.4901199 -0.3272847 
13.03816 -49.98615 562.4269 0.9655683 0.2475112 -0.08010086 
-41.21478 -47.13792 563.2722 -0.953639 0.2131822 0.2124292 
-41.00585 -46.34633 562.3431 -0.7105469 0.5789899 -0.3998672 
-40.01102 -44.89605 561.964 -0.76428 0.5543063 -0.3295763 
-37.54279 -43.77987 560.36 -0.6681128 0.5837809 -0.4613299 
12.24134 -47.18859 563.0384 0.9735972 0.198063 0.1134883 
12.32244 -46.89642 561.878 0.847488 0.424236 -0.319042 
-39.77076 -44.71656 563.5347 -0.9474177 0.128821 0.2929249 
-39.87067 -45.01658 562.6111 -0.8612862 0.4943687 -0.1174129 
-37.00374 -42.1296 561.3526 -0.7429959 0.5929322 -0.3104652 
11.76556 -43.07365 562.4205 0.9163718 0.3809722 -0.1229752 
-38.47889 -43.14351 562.3669 -0.9132851 0.407317 0.00178921 
-36.54128 -41.76858 561.965 -0.6504242 0.6708834 -0.3561795 
-34.82008 -39.82104 562.0607 -0.6886459 0.6329841 -0.3536921 
-32.58971 -38.95336 561.8146 -0.6216599 0.6749293 -0.397504 
10.27549 -40.33756 563.4683 0.952256 0.3009486 0.0513652 
10.87718 -41.076 563.5495 0.6132392 0.5554542 -0.5616122 
-37.25069 -40.45613 563.9322 -0.8945401 0.4461291 0.0276927 
-33.27391 -39.23463 562.6917 -0.5644301 0.7287415 -0.3877558 
-31.17671 -37.50291 562.8335 -0.6552821 0.6848813 -0.318658 
-29.37769 -36.75303 561.5314 -0.5708569 0.7093925 -0.413382 
6.664738 -35.17994 562.4309 0.6353791 0.6977122 -0.3308944 
8.445179 -36.85054 563.317 0.6931062 0.6490277 -0.3136349 
8.892748 -38.21147 562.4727 0.8570562 0.4707491 -0.2094035 
-27.82775 -35.06231 562.7119 -0.525209 0.7672465 -0.3680876 
-26.45785 -34.06575 562.3123 -0.4867391 0.7524639 -0.4437153 
-23.15413 -32.63085 561.0461 -0.3898282 0.7930294 -0.4681222 
-7.584627 -31.4286 560.0961 0.2360298 0.8596718 -0.45305 
3.765613 -31.50707 561.9445 0.5369753 0.7629998 -0.3598457 
4.973695 -33.77929 561.5428 0.5390441 0.7159857 -0.4436168 
6.877553 -36.07477 563.1761 0.848883 0.5154724 -0.1169864 
-25.94644 -33.43586 563.4101 -0.4637472 0.8060085 -0.3678163 
-23.01468 -31.97528 562.824 -0.4489838 0.8031489 -0.391619 
-19.83631 -30.92661 561.4493 -0.06346868 0.8929647 -0.4456296 
-17.68743 -29.91319 561.6818 -0.1536746 0.889245 -0.4308452 
-14.45883 -30.1623 560.6891 -0.05549848 0.8935812 -0.4454577 
-10.22897 -29.89678 562.4479 0.06012544 0.9021302 -0.4272541 
-7.808437 -29.98177 563.4443 0.144481 0.897507 -0.416661 
-3.80181 -31.12009 561.5923 0.2416309 0.8634816 -0.4427348 
-1.700265 -30.52278 562.3046 0.3031715 0.8479398 -0.4348392 
1.977326 -30.63489 562.0772 0.3177159 0.8078336 -0.496449 
3.626293 -31.81338 563.4188 0.7999652 0.5988571 -0.03776031 
4.429727 -32.82793 562.2952 0.8201773 0.5686312 -0.06299053 
-21.23822 -30.87615 562.8679 -0.5224661 0.7739701 -0.3577701 
-18.09048 -30.0047 562.3065 -0.4844009 0.7833409 -0.3895289 
-14.53806 -28.51184 563.374 0.03212701 0.8866522 -0.4613195 
-11.9278 -29.38913 563.0626 0.152136 0.8733009 -0.4628179 
-8.615393 -29.79707 564.138 0.3042159 0.8697068 -0.3886679 
-4.856092 -30.3415 562.6227 0.2465269 0.8726046 -0.4216465 
0.04360812 -29.29669 561.2645 0.7466785 0.6552288 -0.1146577 
1.879581 -31.08435 562.4105 0.7821091 0.6188551 -0.07296369 
-16.31178 -28.62523 563.5757 -0.4464729 0.8102177 -0.3797489 
-14.46572 -27.85221 564.4808 -0.421959 0.8141311 -0.398925 
-15.21413 -97.31121 565.8571 -0.7381379 -0.6400359 -0.213323 
-14.05582 -97.33056 566.9963 0.2500648 -0.9498369 -0.1878232 
-10.20989 -96.37822 567.661 -0.149291 -0.8816611 -0.447645 
-21.42156 -94.16512 567.8612 -0.1991509 -0.7247462 -0.6596075 
-18.41331 -95.29057 566.8986 -0.2114264 -0.7232551 -0.65742 
-15.99705 -96.31089 565.684 -0.04356473 -0.9117565 -0.4084144 
-13.78765 -96.56564 565.4294 -0.1663477 -0.8980838 -0.4071534 
-10.80657 -96.07406 566.2768 -0.2021616 -0.7429232 -0.638119 
-7.040686 -96.48927 566.9437 -0.06163233 -0.8941388 -0.4435283 
-36.56604 -91.45184 567.9266 -0.2109135 -0.7237779 -0.6570092 
-34.26917 -91.40896 568.0098 -0.2168977 -0.7285509 -0.6497453 
-30.82737 -91.69943 567.4761 -0.1346051 -0.7114275 -0.689748 
-27.54305 -91.74207 566.6069 -0.2174501 -0.6824777 -0.6978106 
-25.32837 -92.68575 567.1403 -0.1938898 -0.6656855 -0.7206037 
-21.99365 -93.65172 566.6069 -0.2576651 -0.7075785 -0.6579829 
-19.43667 -94.46257 565.2721 -0.339898 -0.7163062 -0.6094053 
-16.98578 -96.06225 564.7689 -0.3811819 -0.8072094 -0.4506811 
-10.17696 -96.60906 565.3922 0.2668267 -0.9636898 -0.01027218 
-7.068753 -96.14561 565.2728 0.311535 -0.9479139 0.06637127 
-4.877214 -95.09822 566.7433 0.4316009 -0.8928128 0.128864 
3.267348 -91.17731 562.8659 0.6397962 -0.7155572 -0.2804261 
-37.74102 -89.58033 566.4155 -0.1782786 -0.7109872 -0.6802308 
-37.11578 -89.82796 566.4715 -0.1905192 -0.7152009 -0.6724509 
-34.03025 -90.01891 566.0449 -0.2390941 -0.6426283 -0.7279168 
-31.44134 -90.6349 566.144 -0.3166098 -0.6835713 -0.6576387 
-28.40953 -91.14687 565.8107 -0.3120969 -0.9015005 -0.2998208 
-25.47462 -90.98461 564.235 -0.3028604 -0.893814 -0.3307146 
-23.14178 -93.16888 565.2371 -0.3468767 -0.8423929 -0.4123721 
-20.25175 -94.15627 564.185 -0.4172916 -0.800568 -0.4300681 
-13.84686 -96.9818 565.0078 -0.120441 -0.9906636 -0.06387098 
-3.784611 -93.51627 567.1901 0.3249967 -0.9216913 0.2118074 
-1.480939 -93.06931 565.433 0.3627052 -0.9201378 0.1476195 
1.401804 -90.69546 564.9749 0.5014949 -0.839352 0.2097407 
3.961012 -89.21281 565.1561 0.490984 -0.8286 0.268992 
5.658001 -89.21359 563.5047 0.728141 -0.646152 -0.228688 
-38.76011 -87.80482 567.6637 -0.1699573 -0.7140011 -0.6792032 
-36.62758 -89.206 565.8244 -0.5080081 -0.6067271 -0.6114001 
-35.4603 -88.85287 564.559 -0.4862885 -0.7975037 -0.3570874 
-32.05091 -90.0563 564.7851 -0.3762347 -0.8805286 -0.2883 
-29.50561 -90.29772 563.8752 -0.3232834 -0.7646741 -0.5574597 
-26.12417 -90.85231 563.9488 -0.2204241 -0.6061332 -0.7642093 
-23.27855 -92.09661 563.7013 -0.2956221 -0.5765381 -0.7617161 
1.782223 -89.90563 567.0283 0.6085671 -0.7405676 0.2849664 
5.556087 -88.7909 565.0182 0.6765388 -0.703826 0.2166198 
7.65019 -86.71359 563.9203 0.6486311 -0.7258131 0.22907 
7.649358 -85.97885 564.3442 0.8410764 -0.5249332 -0.1305211 
-39.40757 -84.20245 565.5513 -0.7131635 -0.570672 -0.4071012 
-37.7043 -86.44112 564.8678 -0.6205019 -0.6799648 -0.3906729 
6.683643 -86.75176 565.9047 0.726799 -0.631141 0.270969 
7.436723 -85.53161 566.4208 0.7118933 -0.6125275 0.3435374 
-40.99511 -81.11993 566.5742 -0.8113969 -0.4467055 -0.3769473 
-40.40986 -83.51427 566.4864 -0.7986546 -0.5909209 -0.113857 
-39.45529 -82.52048 564.1935 -0.7561114 -0.5351236 -0.3767469 
9.265663 -83.41303 565.786 0.8089786 -0.4877969 0.3280363 
9.838305 -82.36159 565.0878 0.8233299 -0.5211243 0.2248497 
11.47792 -80.76223 564.2121 0.9236819 -0.364664 -0.11761 
-41.79016 -78.23964 565.3809 -0.8792335 -0.4581014 -0.1307347 
-41.42529 -80.54667 566.0036 -0.8747228 -0.4285915 -0.2262066 
10.20371 -80.527 566.0289 0.840053 -0.3961264 0.3706682 
11.9794 -78.78281 565.0071 0.9212817 -0.3771872 0.09471004 
14.32842 -77.45667 564.4586 0.949746 -0.1585129 -0.2699189 
-42.93024 -75.2458 565.0623 -0.9408157 -0.3358338 -0.0456241 
-42.49878 -76.73997 565.9789 -0.9738386 -0.2078039 -0.09195676 
12.55321 -77.0968 566.4958 0.8772842 -0.2786718 0.3907872 
14.10445 -75.90768 565.6117 0.7883925 -0.4420597 0.4278087 
14.66221 -76.01948 565.4738 0.9462081 0.005213899 -0.3235166 
-43.99184 -72.40037 563.9789 -0.9666998 -0.2286559 -0.114926 
-44.00238 -72.2785 565.0928 -0.9642021 -0.2425466 0.1071701 
-43.17634 -74.85854 566.0493 -0.9825681 -0.183309 -0.0309471 
12.41638 -74.12962 568.0319 0.8621623 -0.2100081 0.4610562 
15.41249 -73.22572 565.2756 0.9943992 -0.1056873 -0.0006294504 
15.2016 -74.03178 564.8635 0.783896 -0.425163 0.452486 
15.53421 -73.07158 564.4686 0.9738238 -0.09426523 -0.2068362 
-44.55938 -69.87939 565.3506 -0.9901401 -0.12509 -0.0630478 
-44.59314 -70.00516 565.8796 -0.9809425 -0.116897 0.1551993 
14.58753 -69.74207 566.4939 0.890251 -0.158681 0.426935 
15.48661 -70.17358 565.5726 0.9451777 0.1465799 -0.2918106 
15.26921 -70.78265 565.1588 0.9358387 -0.2668776 0.230179 
16.28494 -68.65388 566.3405 0.9565518 -0.1860792 0.2244618 
-44.54904 -67.0658 565.6113 -0.9995378 -0.004005939 -0.03013779 
-44.5295 -67.29053 566.1505 -0.9953701 0.04003191 0.08738271 
14.27945 -68.78821 566.9404 0.889465 -0.15243 0.430833 
15.46342 -66.76057 566.7006 0.9459364 0.1742656 -0.2735616 
15.02645 -68.17912 566.3718 0.9959466 -0.05368798 -0.07216578 
15.79551 -68.56442 566.0017 0.984167 0.0314588 -0.17443 
-44.76929 -65.37852 564.5378 -0.9950697 -0.0004354923 0.09917679 
-44.79057 -64.69826 565.5295 -0.9783976 -0.01407302 0.2062525 
15.52616 -63.78446 565.5074 0.9693044 -0.03590914 0.2432272 
14.48084 -63.86454 565.7746 0.9861051 0.06891398 -0.1511539 
15.47465 -66.37576 566.6077 0.9779612 0.107358 -0.17907 
-44.27174 -61.34313 565.2018 -0.986132 0.1178451 0.1168595 
-44.22212 -60.79381 565.7277 -0.9745253 0.08437783 0.2078 
15.57798 -60.91425 567.0673 0.9864743 0.04850031 0.1565767 
14.32175 -61.85025 565.8423 0.9754497 0.1325023 -0.1759006 
-44.16459 -59.24854 564.4347 -0.9582079 0.06954459 0.277491 
-43.85215 -57.80301 565.4471 -0.9773356 0.1917714 0.08965949 
14.99491 -58.17013 565.1168 0.988959 0.1130392 0.09582449 
14.50921 -58.28132 564.812 0.9695956 0.173126 -0.1729506 
-43.11839 -55.62313 565.5099 -0.9728875 0.207446 0.1022555 
-43.3333 -54.25621 564.4222 -0.925887 0.36137 -0.110205 
14.62669 -55.54791 564.7701 0.9062284 0.27087 -0.3246222 
14.33597 -55.12064 566.4297 0.9839942 0.1464202 0.101571 
14.27209 -57.15729 565.3638 0.9567979 0.19522 -0.215469 
-42.51995 -52.53695 565.4424 -0.946481 0.1434219 0.2891435 
-42.13907 -50.719 566.8891 -0.9230363 0.3778591 -0.07229442 
13.84382 -52.11846 566.3183 0.8963283 0.3122189 -0.3148252 
13.62839 -52.59941 565.4991 0.9807239 0.171453 0.09372541 
13.74236 -53.66713 564.7617 0.9429746 0.2389669 -0.2317189 
-41.75751 -50.01086 564.7181 -0.9367397 0.34999 0.005070256 
-41.71947 -48.11735 564.921 -0.812599 0.5126182 -0.2773185 
13.23118 -49.75583 565.4481 0.9640775 0.2627757 -0.038777 
13.03764 -50.9077 566.1479 0.9253583 0.3070101 -0.2223891 
-41.22235 -48.15154 565.3376 -0.9292492 0.3694336 -0.003851125 
-40.97965 -46.06506 566.0278 -0.8645847 0.4806602 -0.1464892 
-40.27858 -43.95894 565.7537 -0.8666324 0.4859176 -0.1132799 
12.56247 -46.58649 566.105 0.9622942 0.1755869 0.207748 
12.35171 -47.26141 565.7534 0.9068882 0.3724267 -0.1971094 
-40.03062 -44.24664 565.9178 -0.8748279 0.4831925 -0.03465894 
-38.78423 -41.4654 565.2747 -0.7462667 0.5971753 -0.2940542 
-37.80997 -40.83429 563.6313 -0.6583861 0.6134821 -0.4360821 
11.66094 -43.97139 565.6039 0.9629329 0.2128785 0.1656594 
11.66357 -44.17566 564.5858 0.8259389 0.4837679 -0.289471 
-39.29654 -43.25182 565.959 -0.9407122 0.142918 0.3076281 
-38.8125 -42.11976 565.869 -0.8510946 0.5201408 -0.07135534 
-37.39693 -40.43598 564.7024 -0.665481 0.6698726 -0.3292503 
-35.86811 -38.68498 565.4501 -0.6605186 0.6651009 -0.3483621 
10.37361 -41.03263 565.0366 0.9217163 0.3876893 -0.01166357 
-37.43032 -40.20858 565.361 -0.8999934 0.4212932 0.1119101 
-37.1157 -39.71885 566.8654 -0.9044382 0.3977581 0.154208 
-34.81851 -38.38261 565.3947 -0.6102738 0.7197602 -0.3309248 
-32.51814 -37.0213 564.9673 -0.6272671 0.6994025 -0.3425962 
8.571824 -36.57224 566.3086 0.7190864 0.6502637 -0.2450959 
9.315721 -38.28101 565.1396 0.9341423 0.3434814 0.09694713 
-35.30465 -37.78973 567.4484 -0.8747578 0.4526369 0.17297 
-34.20764 -36.46877 567.9082 -0.8528491 0.5071951 0.124104 
-31.01273 -35.32694 566.2156 -0.4826758 0.8074505 -0.3391871 
-29.31356 -34.52963 565.5445 -0.6011254 0.7321873 -0.3202343 
-27.23421 -33.06215 565.7917 -0.551873 0.7775179 -0.3015 
5.552264 -33.11663 564.6287 0.6089822 0.737277 -0.2925122 
7.400199 -35.38441 566.1354 0.8231945 0.5665499 -0.03704158 
8.026271 -35.49738 565.3769 0.5217074 0.6666089 -0.5324039 
-28.35695 -33.82117 566.1792 -0.3731866 0.850503 -0.3706433 
-24.89522 -31.82329 565.4049 -0.4479456 0.8246947 -0.3452876 
-22.23782 -30.98188 564.276 -0.2794289 0.8823767 -0.3785905 
-20.85206 -30.13302 564.3057 -0.2049379 0.8871207 -0.4135425 
-13.90688 -28.71125 562.7701 0.0595277 0.915199 -0.3985815 
-11.34431 -28.74828 564.6072 0.01695451 0.9117146 -0.4104742 
-7.733305 -29.95722 563.4377 0.2442784 0.8878069 -0.3900345 
-4.498089 -30.13295 565.0536 0.2787549 0.8820038 -0.3799541 
-0.9166813 -29.95788 566.5198 0.335543 0.87795 -0.341489 
1.621 -30.66775 564.8317 0.5172643 0.8004037 -0.3029715 
3.669528 -32.08428 565.5215 0.371174 0.7887651 -0.4899791 
5.626867 -33.79376 564.8738 0.7545183 0.6381268 -0.1532853 
-22.86767 -30.51872 566.1666 -0.5782471 0.7737941 -0.2585981 
-19.4584 -29.13817 565.5316 -0.2884659 0.8864309 -0.3619776 
-17.16429 -27.79121 565.4314 -0.2493443 0.9079437 -0.3368469 
-13.50573 -28.38247 563.7595 -0.1301799 0.9113806 -0.3904338 
-11.24137 -28.64734 565.5674 0.06988346 0.9170125 -0.3926887 
-7.580559 -29.61632 566.0665 0.1829101 0.912223 -0.3665968 
-4.733827 -29.70481 565.5617 0.3999289 0.8669199 -0.297501 
-1.842001 -29.69925 565.4871 0.3331689 0.8686025 -0.3667809 
0.3610494 -29.76892 565.0511 0.7618502 0.6466109 0.0384537 
2.778008 -31.40511 564.2221 0.791082 0.611708 0.00162322 
-17.5102 -27.86839 566.5173 -0.4841011 0.8152162 -0.3179131 
-15.36984 -27.36167 565.7696 0.10148 0.8956111 -0.4331081 
-13.92345 -26.88196 567.2081 0.2023461 0.9108854 -0.3596442 
-1.505711 -26.76402 565.9106 0.7449684 0.6658577 0.0406898 
-14.73862 -26.97104 566.6061 -0.4538271 0.8197751 -0.349299 
-18.11106 -96.70174 568.9522 -0.2091271 -0.8743432 -0.4379381 
-15.96868 -97.60253 569.0714 -0.5036927 -0.8146918 -0.2873515 
-13.42155 -97.53056 569.4403 0.04350837 -0.9380001 -0.3438937 
-28.72224 -95.75301 570.8409 -0.2279581 -0.7870817 -0.5731819 
-24.96946 -94.60619 570.1907 -0.2345744 -0.7456996 -0.6236241 
-22.06425 -95.23085 569.7363 -0.223456 -0.7371525 -0.6377098 
-18.91268 -95.63544 568.8672 -0.2819076 -0.7887931 -0.5461991 
-15.63429 -96.66933 568.5764 -0.1659871 -0.822728 -0.5436606 
-13.93907 -96.82348 568.1716 0.2205516 -0.9637297 -0.1502732 
-34.16584 -94.00726 569.3931 -0.278288 -0.7276125 -0.6270054 
-30.52081 -92.24874 568.4781 -0.146433 -0.632901 -0.760259 
-28.40978 -93.04305 569.7362 -0.2832247 -0.7464351 -0.6021781 
-25.52422 -94.08804 569.5588 -0.2874373 -0.7856519 -0.5478421 
-23.26332 -94.11618 569.1363 -0.290465 -0.781768 -0.551787 
-21.62415 -95.02924 568.6345 -0.5226087 -0.8407875 -0.1412679 
-16.92067 -96.96648 568.9884 -0.6528699 -0.7574439 -0.006300679 
-13.69642 -97.44883 569.1617 -0.1633316 -0.9861836 0.02765265 
-11.16512 -96.96386 567.8697 0.247449 -0.9678982 0.04406958 
-7.741739 -93.91122 568.7183 0.5341651 -0.8356898 0.1276332 
-37.6877 -88.94175 567.3953 -0.1879706 -0.7197599 -0.668291 
-36.378 -89.69503 567.399 -0.5357947 -0.6665586 -0.5182892 
-34.03131 -91.18463 568.871 -0.500371 -0.7046326 -0.503112 
-31.04133 -91.55631 570.1934 -0.3934461 -0.9191482 0.0191543 
-30.02048 -92.62306 567.3042 -0.364931 -0.924551 -0.109686 
-26.15718 -93.7104 567.806 -0.3080366 -0.9479718 -0.08039265 
-24.41582 -94.25748 567.6028 -0.3027239 -0.9483661 -0.09465696 
-21.35323 -95.33166 568.6277 -0.1815151 -0.9833473 -0.008965603 
-18.24645 -96.4009 569.3368 -0.133418 -0.9906683 0.02785561 
-8.13585 -93.04509 569.8645 0.114186 -0.9647644 0.2370471 
-4.608739 -92.11694 568.9008 0.4399519 -0.852068 0.2835887 
-1.582146 -90.80671 568.7312 0.4237666 -0.8388031 0.3418058 
1.047707 -89.28008 568.2469 0.418967 -0.8289499 0.370552 
-39.05587 -87.2794 568.6948 -0.6718791 -0.5590408 -0.4858519 
-38.08785 -88.65343 567.9376 -0.6338331 -0.7242414 -0.2715329 
-35.70206 -89.91293 568.6564 -0.5520402 -0.8210709 -0.1452386 
-33.1568 -90.77177 569.7004 -0.452657 -0.88147 0.134582 
-0.5093464 -89.79232 569.3066 0.56967 -0.7332913 0.3711605 
3.131592 -88.44711 567.8533 0.6596045 -0.6760065 0.3285378 
3.71593 -87.98697 567.6434 0.4993041 -0.7797892 0.3776561 
-40.68508 -84.53745 569.2515 -0.7634757 -0.4981518 -0.4110349 
-39.9206 -85.22811 567.8085 -0.7334303 -0.6632062 0.149123 
-39.17175 -86.86742 569.1111 -0.7230549 -0.6881841 -0.05995229 
5.107814 -86.40254 568.3671 0.7215176 -0.5868334 0.3674766 
6.609528 -83.88988 568.7007 0.6624867 -0.5731888 0.4822508 
-41.58386 -82.19313 569.261 -0.8428558 -0.4377689 -0.3129739 
-41.40286 -82.83869 568.4373 -0.8652892 -0.5007733 -0.0223777 
6.170334 -84.26505 569.3894 0.7749481 -0.473267 0.418896 
7.832465 -83.03434 568.048 0.7906038 -0.4639958 0.3995669 
8.193968 -81.95335 567.9124 0.7361416 -0.5056698 0.4498818 
-42.21264 -78.83196 569.3283 -0.9204263 -0.3244811 -0.2180081 
-42.24144 -79.90194 569.0599 -0.889511 -0.4431509 0.1112995 
8.41338 -79.61272 568.5588 0.8292216 -0.346963 0.4381874 
14.80752 -76.42112 565.7645 0.9686531 -0.175389 -0.175926 
-42.53374 -76.44567 567.9868 -0.9349772 -0.3375443 0.1090027 
-42.5486 -76.81377 569.0582 -0.9934765 -0.09244794 0.06676786 
8.671744 -76.63967 569.2971 0.8405905 -0.2650276 0.4724066 
12.51918 -75.45674 566.232 0.8987156 -0.3478371 0.2670574 
15.78251 -74.46233 566.306 0.9793388 -0.116623 -0.165211 
-43.44815 -72.88456 567.8204 -0.9860458 -0.165356 -0.0192683 
-43.33921 -73.25854 568.3787 -0.9579569 -0.2186434 0.1857786 
-43.44376 -73.00679 568.1207 -0.9872407 -0.09037847 0.131102 
9.085227 -73.31493 570.3177 0.8423233 -0.206102 0.4980095 
11.64243 -72.28748 568.6126 0.8573569 -0.1943 0.4766409 
13.97044 -74.17372 566.3403 0.9772494 -0.2120861 -0.001791121 
14.11553 -72.52885 566.4968 0.9762687 -0.1657346 0.1393968 
15.98246 -71.7305 566.4902 0.9857837 -0.04003999 -0.163179 
-43.53042 -69.63346 568.5236 -0.9653388 -0.1079332 0.2376371 
-43.22556 -69.9062 569.552 -0.979109 -0.0573733 0.195074 
10.93118 -71.18162 569.1821 0.8503561 -0.1919522 0.4899478 
15.04702 -69.94637 566.9022 0.9903613 -0.114391 0.07809687 
-43.86529 -67.47893 568.0891 -0.9964963 -0.0136312 0.08251932 
-43.95267 -66.91878 568.1711 -0.9735389 -0.0007179207 0.2285203 
-42.57391 -67.33693 570.6329 -0.9680245 -0.01674931 0.2502961 
11.4231 -67.95527 569.8663 0.8642223 -0.1636408 0.4757536 
14.70952 -67.43501 568.3112 0.9773928 -0.09131312 0.1906968 
16.73813 -66.57345 568.1088 0.9587191 -0.1133949 0.260767 
-43.72896 -64.59351 568.5588 -0.9931898 0.07856157 0.08603688 
-43.98685 -64.67932 567.8875 -0.969492 0.03702257 0.2423111 
-43.45988 -64.50727 569.6012 -0.9587314 -0.02996177 0.2827303 
13.96335 -65.09554 569.2725 0.8876344 -0.1178347 0.4452192 
15.46583 -64.68665 567.9774 0.9455134 0.1850748 -0.2678652 
15.11311 -65.20242 568.5074 0.927855 -0.1477077 0.3424436 
