ply
format ascii 1.0
comment PCL generated
element vertex 713
property float x
property float y
property float z
property float nx
property float ny
property float nz
property float curvature
element camera 0
property float view_px
property float view_py
property float view_pz
property float x_axisx
property float x_axisy
property float x_axisz
property float y_axisx
property float y_axisy
property float y_axisz
property float z_axisx
property float z_axisy
property float z_axisz
property float focal
property float scalex
property float scaley
property float centerx
property float centery
property int viewportx
property int viewporty
property float k1
property float k2
end_header
-7.06709 -34.939499 553.73199 0.10418904 0.79491031 -0.59771425 0
-4.9859967 -35.2785 553.97662 0.2696009 0.73405087 -0.62328541 0
5.63797 -33.8708 554.729 0.79273897 0.548365 -0.266197 0
-14.3917 -31.0854 554.32703 -0.3349629 0.74880481 -0.5719189 0
3.3554249 -30.5828 553.70947 0.74465454 0.59868777 -0.2950637 0
-0.64136279 -27.54705 553.32654 0.2922107 0.79907095 -0.52545083 0
2.10005 -27.4592 553.39301 -0.17896894 0.75106668 -0.63550675 0
-7.6486897 -19.886667 553.14233 0.68057507 0.69237989 -0.23964067 0
100.1429 -19.42857 554.85712 -0.094476782 -0.74505383 -0.66027951 0
102.8571 -19.57143 554.57141 -0.036060099 -0.69316483 -0.71987653 0
105.9464 -19.089279 553.51782 0.06492316 -0.5500977 -0.83257282 0
114.925 -19.075001 553.625 0.1557952 -0.43867531 -0.88503778 0
117.9167 -19 554.41669 0.1034342 -0.33038831 -0.93816042 0
-12.77755 -15.773676 553.12646 0.76853579 0.48366839 -0.41882885 0
73.270401 -15.6642 552.31799 -0.026526105 -0.4788771 -0.87748116 0
75.500748 -16.83485 554.63348 -0.08783105 -0.474179 -0.87603652 0
78.475601 -15.4419 554.32397 -0.09871038 -0.83150584 -0.54667586 0
82.345291 -15.765333 553.94366 -0.050947089 -0.78598601 -0.61614144 0
85.315536 -16.08832 553.99341 -0.013420759 -0.75451899 -0.65614092 0
88.79525 -15.597726 553.34729 0.031711061 -0.68983197 -0.72327471 0
91.640579 -16.183355 553.46112 0.042997092 -0.68738186 -0.72502238 0
94.057373 -16.185904 554.07483 0.10907659 -0.6361863 -0.76378608 0
97.365898 -17.032101 552.77197 0.0036176338 -0.64527619 -0.76394075 0
100.631 -17.55695 553.349 0.024805104 -0.63026243 -0.77598578 0
103.6155 -17.074051 552.38867 0.1348675 -0.50139588 -0.85464197 0
106.026 -16.511299 553.43597 0.21283305 -0.36185706 -0.90761316 0
109.5425 -15.47785 553.66101 0.21643658 -0.16588756 -0.96210009 0
-16.258251 -13.0823 553.36694 0.048699025 0.61634314 -0.78597045 0
45.799999 -12.6 554.79999 -0.12854372 -0.87712663 -0.46273693 0
49.089653 -13.606501 553.34302 -0.21381673 -0.95247871 -0.21694879 0
52.521248 -12.1382 553.09851 -0.093416467 -0.87116563 -0.48202047 0
55.79105 -12.573435 553.4519 -0.09267132 -0.87303209 -0.47877654 0
58.647881 -12.680857 553.95917 -0.14361474 -0.86531568 -0.48021203 0
61.329102 -13.12385 553.56372 -0.085130766 -0.87047547 -0.48479399 0
65.04216 -12.808693 552.87036 -0.11778548 -0.86766922 -0.48298737 0
67.395157 -13.0944 552.86566 -0.11832073 -0.81194139 -0.57162178 0
69.876945 -13.051658 553.23633 -0.095628999 -0.85127199 -0.51593721 0
73.519165 -13.867517 553.52985 -0.067883931 -0.82502228 -0.56100798 0
76.058228 -14.3294 553.50952 -0.061469577 -0.81533182 -0.57572168 0
79.219032 -14.191087 553.41211 -0.037447821 -0.76635444 -0.64132565 0
83.08075 -14.5539 552.10199 -0.030548938 -0.74136752 -0.6704036 0
85.57737 -14.077034 552.79901 0.097231634 -0.52702141 -0.8442716 0
88.125465 -14.292966 553.26398 0.17111041 -0.49068049 -0.8543734 0
91.274406 -13.134601 552.69537 0.15586768 -0.5629555 -0.81165653 0
94.396004 -13.7098 554.51801 0.44916087 -0.10459998 -0.88730675 0
103.924 -13.7932 552 0.25134516 -0.17652309 -0.95166451 0
106.4895 -12.9321 552.85095 0.32732135 -0.022463223 -0.944646 0
109.798 -12.6345 554.18103 0.33005002 0.12635802 -0.93546814 0
-18.9049 -10.41154 553.00348 0.7141124 0.033960015 -0.69920683 0
-15.5522 -11.9906 554.03601 0.74808425 0.35200313 -0.5625512 0
25.9004 -9.4490604 554.66998 -0.18400395 -0.87449682 -0.44877389 0
27.9175 -10.011735 553.90845 -0.053166769 -0.9267562 -0.37188196 0
32.446301 -9.7155104 554.02197 -0.15287605 -0.88554525 -0.43867812 0
34.860035 -10.0085 553.32764 -0.14897291 -0.87930715 -0.45235616 0
37 -10.25 553.33337 -0.17321609 -0.86304879 -0.47449225 0
40.465866 -10.75049 553.82935 -0.13095146 -0.85393488 -0.5036338 0
43.967854 -10.193862 552.6272 -0.14200135 -0.88183004 -0.44967926 0
46.978149 -10.78193 553.51196 -0.17188282 -0.887528 -0.42749307 0
49.174213 -10.71436 553.71399 -0.14894688 -0.89613438 -0.41804069 0
52.446716 -10.559245 554.07056 -0.18675816 -0.86085576 -0.47333783 0
55.374847 -10.690926 553.98126 -0.17875694 -0.87199336 -0.45571211 0
58.655403 -11.09202 552.47137 -0.16690288 -0.86892366 -0.465956 0
61.666603 -11.276674 553.33594 -0.17536294 -0.86662465 -0.46712902 0
63.838299 -11.2159 553.24298 -0.165197 -0.85691899 -0.488262 0
67.878899 -10.8138 552.14001 -0.065616094 -0.80146891 -0.59442592 0
76.531403 -11.9056 552.427 0.092458196 -0.67710197 -0.73005795 0
88.54023 -10.707009 552.70032 0.40449864 -0.049278777 -0.91320992 0
91.27845 -9.6433201 554.48102 0.30351549 -0.25728542 -0.91743261 0
103.083 -10.7449 552.56598 0.32719091 0.036637492 -0.94424778 0
106.118 -10.490496 553.52197 0.37521261 0.14555496 -0.91543937 0
108.875 -10.125 552.5 0.31556442 0.24273491 -0.91733253 0
112 -10 554.44452 0.36347193 0.26283953 -0.89375818 0
19.06345 -6.9972949 554.17053 -0.19418523 -0.87319314 -0.4470188 0
21.751755 -7.1657314 553.13379 -0.17176075 -0.86097008 -0.47877833 0
24.926849 -7.1634626 553.66693 -0.16620411 -0.86571628 -0.47213504 0
28.287241 -7.0556297 553.85449 -0.13189852 -0.88810349 -0.44031233 0
31.355551 -7.7445297 553.59235 -0.11939836 -0.87008989 -0.47821283 0
33.933014 -7.4749069 553.36871 -0.13349067 -0.88691443 -0.44222519 0
37.273685 -7.4357657 553.71179 -0.1378032 -0.89154023 -0.4314698 0
40.134083 -7.6896119 553.76105 -0.14846633 -0.9065392 -0.3951512 0
43.18092 -7.8826804 553.36926 -0.15673999 -0.8919065 -0.42418796 0
46.467468 -8.8003607 553.04565 -0.15975149 -0.88375795 -0.43983111 0
50.480999 -7.8516898 553.09399 -0.16181302 -0.88656008 -0.43339103 0
85.620934 -6.8589463 552.86963 0.49112469 0.20193724 -0.84735936 0
88.518051 -6.8127851 554.612 0.48682246 0.27479744 -0.82915038 0
109.4445 -8 554.22229 0.35270691 0.3761268 -0.85681182 0
-136.418 -3.1598001 553.474 0.28973502 -0.88314205 -0.36893603 0
-42.768799 -3.08061 554.69098 -0.58794212 -0.73354113 -0.34094205 0
-21.879551 -5.6960301 554.21704 0.36194199 -0.51549613 -0.77669924 0
-15.993366 -3.5381899 554.07196 0.23170125 -0.70955032 -0.66547197 0
-8.1386499 -3.14258 553.73901 -0.075000145 -0.88027251 -0.46850327 0
-4.9974151 -3.7540951 553.83252 -0.075357355 -0.88037646 -0.46825057 0
-0.91074353 -3.4267473 553.85126 -0.098816209 -0.89237744 -0.44033843 0
1.8598874 -3.752625 554.38824 -0.065836869 -0.89541131 -0.44034544 0
4.1777873 -4.0758252 554.1311 -0.13497791 -0.89210689 -0.43119171 0
7.754158 -4.0233426 553.33264 -0.13023427 -0.89100873 -0.43490514 0
10.543746 -4.8240881 553.27405 -0.1355148 -0.8724699 -0.46950188 0
13.847633 -4.206017 553.18134 -0.11390571 -0.89207476 -0.43729648 0
17.120199 -4.8869219 553.01617 -0.14246283 -0.88001072 -0.45308432 0
19.335901 -4.9695201 553.82202 -0.14259692 -0.90021551 -0.41143411 0
22.449051 -4.3050499 553.30566 -0.14139363 -0.90188509 -0.40818036 0
25.841501 -3.9811201 552.20367 -0.15343533 -0.89819276 -0.41195548 0
27.807449 -4.8538251 552.54053 -0.17959498 -0.88087136 -0.43796268 0
31.133301 -5.4906673 553.00903 -0.15861109 -0.89234757 -0.42256159 0
35.251598 -5.0417099 552.51599 -0.13343003 -0.91489518 -0.38100305 0
82.312798 -4.28441 552.47101 0.51723224 0.31650415 -0.79517037 0
84.946838 -4.1705432 553.51599 0.50824702 0.32874092 -0.79599905 0
97.376801 -4.3990664 552.90729 0.39104041 0.38174275 -0.83747238 0
100.1785 -4.79743 553.42499 0.37719789 0.39048547 -0.83978736 0
103.0909 -5.060606 553.90912 0.3512927 0.42580411 -0.83383709 0
-147.95599 -0.44621399 554.992 -0.56722194 -0.52605194 -0.63366294 0
-145.412 -0.99031663 554.55536 -0.42024511 -0.66056359 -0.62213314 0
-143.004 -0.19449367 553.4577 -0.347074 -0.74348372 -0.57163948 0
-138.92775 -0.85439575 553.13922 -0.17165624 -0.82337934 -0.5409072 0
-136.00575 -0.36013767 553.33844 -0.021363454 -0.85957825 -0.51055735 0
-134.1185 -0.76162088 554.56958 0.050372951 -0.87790155 -0.47618434 0
-130.5374 -0.56030297 553.9198 0.082596399 -0.89318413 -0.44204074 0
-127.6925 -0.4190065 553.95996 0.018946808 -0.87557417 -0.48271203 0
-125.00298 -0.56358904 554.4101 0.0060399049 -0.86674833 -0.49870914 0
-122.4075 -1.1942255 553.59851 0.016280254 -0.85935837 -0.51111454 0
-118.83 -0.76084876 554.09473 0.0081292884 -0.86239332 -0.50617349 0
-116.209 -0.22870961 553.35254 0.0090330709 -0.86756605 -0.49723998 0
-112.1495 -0.74084002 554.49646 0.023279088 -0.85787928 -0.51332366 0
-108.7855 -0.67557329 554.1225 -0.0012772714 -0.87452179 -0.48498455 0
-105.3355 -0.61428648 554.43445 0.0023323223 -0.87520802 -0.48374113 0
-103.1765 -0.46482301 554.86511 0.0049528941 -0.87620759 -0.48190844 0
-100.10004 -0.52918148 554.49152 0.003801143 -0.8712098 -0.49089614 0
-97.84507 -0.99388433 554.83118 0.0066970023 -0.86866838 -0.49534881 0
-94.426949 -0.40042049 553.82947 0.0099923601 -0.86824697 -0.49603167 0
-92.044701 -0.14385 553.76599 -0.053190626 -0.88798642 -0.45678321 0
-88.552902 -0.240174 552.87299 -0.036718216 -0.88006032 -0.47344017 0
-85.032249 -0.62137383 554.29993 -0.017211186 -0.88232708 -0.47032192 0
-82.299538 -0.35730663 553.83466 -0.020095386 -0.88578874 -0.46365348 0
-80.161057 -0.31753951 554.59399 -0.026013119 -0.8677336 -0.49634829 0
-76.864456 -0.37756202 554.276 0.0085545341 -0.87027317 -0.49249515 0
-72.693748 -0.60743296 554.48901 -0.021357754 -0.86716747 -0.49755847 0
-67.55378 -0.89073133 554.36334 -0.0033818241 -0.88806158 -0.45971215 0
-64.475952 -0.53021902 554.00806 0.00068182644 -0.88557255 -0.46450058 0
-60.531471 -0.30276209 554.02222 -0.024862206 -0.88280398 -0.46908322 0
-57.663799 -0.38239682 554.54364 -0.030807151 -0.88359231 -0.46724251 0
-55.201649 -0.51162577 554.32489 -0.033905625 -0.87209845 -0.48815429 0
-51.747299 -1.15892 554.76801 -0.12717701 -0.86332411 -0.48836207 0
-49.822426 -0.39132237 553.93225 -0.034821767 -0.88711911 -0.46022511 0
-46.03183 -0.57264602 553.66425 -0.03481007 -0.88795424 -0.4586125 0
-42.878666 -0.93159002 553.74634 -0.17985111 -0.88543099 -0.42856225 0
-41.206802 -1.45735 554.19049 0.025952714 -0.88239497 -0.46979299 0
-38.120975 -1.05019 554.25397 -0.011572473 -0.89905971 -0.437673 0
-35.283169 -0.80775565 554.16937 0.0014258766 -0.8937493 -0.44856444 0
-31.944702 -0.87771893 554.41968 0.001541385 -0.89464623 -0.44677261 0
-29.533075 -0.96048301 553.72125 -0.0077441605 -0.90617514 -0.42283171 0
-25.728365 -1.1931996 553.78998 -0.0077051008 -0.90291297 -0.42975426 0
-22.491001 -1.3628011 553.48151 -0.039178368 -0.83782363 -0.54453337 0
-19.631317 -1.5563173 553.31714 0.017734876 -0.83057171 -0.55662918 0
-16.831549 -0.83850908 552.7608 -0.14332171 -0.85744894 -0.49420652 0
-14.020121 -1.6972942 553.8288 -0.077950768 -0.84868753 -0.52311862 0
-10.769824 -1.8887986 553.052 -0.16663092 -0.79909086 -0.57765728 0
-7.7934799 -1.2352906 553.17267 -0.064544849 -0.89985442 -0.43138838 0
-4.5115614 -1.8959494 553.49841 -0.09651766 -0.89817822 -0.42890596 0
-1.8088732 -1.9728101 554.31165 -0.099399373 -0.90435869 -0.41503623 0
1.4719701 -2.394485 553.41479 -0.11294648 -0.90362591 -0.41316256 0
3.5883951 -1.7562555 553.08887 -0.14119767 -0.89481819 -0.42351341 0
7.3531432 -1.7941872 552.8183 -0.083678432 -0.89983809 -0.42812315 0
10.090354 -2.71749 553.02399 -0.048543613 -0.90792072 -0.41632143 0
12.2594 -1.91347 553.42999 -0.11920904 -0.89511132 -0.42961016 0
15.0889 -2.4400499 554.15698 -0.14141001 -0.88934809 -0.43481407 0
18.180401 -2.7047501 554.14801 -0.15724805 -0.88789123 -0.43234509 0
80.121101 -0.047617801 552.901 0.53143817 0.46340114 -0.70910722 0
81.676399 -1.985301 553.29901 0.51477689 0.39383218 -0.76151222 0
84.103203 -0.0180215 554.89398 0.5111689 0.42964491 -0.74438679 0
94.386902 -1.0268755 553.32202 0.39331266 0.41474733 -0.8205424 0
96.875 -1.125 552.5 0.39260745 0.50311685 -0.7698915 0
-147.84949 1.65789 553.55701 -0.69747061 -0.32774648 -0.63727307 0
-146.3105 2.1560476 553.05444 -0.65031421 -0.45784983 -0.60618889 0
-143.10933 0.47129866 553.354 -0.30743605 -0.74233365 -0.59533507 0
-139.4715 1.8723005 552.80603 -0.1108221 -0.85646409 -0.50417036 0
-136.18866 1.824155 552.94617 -0.089963734 -0.86513364 -0.49340683 0
-133.57201 0.067615598 553.50201 0.048045911 -0.88386124 -0.46527511 0
-130.43779 1.2071453 553.52576 0.043173403 -0.89050257 -0.45292524 0
-127.55025 0.97773951 552.62073 0.092326246 -0.897425 -0.431398 0
-124.5315 1.6995622 553.1297 0.082008779 -0.90396225 -0.41967461 0
-121.7225 1.7325855 552.72748 0.053703524 -0.89412528 -0.44458506 0
-118.63351 1.1346656 553.69336 -0.020183956 -0.8813324 -0.47206539 0
-115.6615 1.2713035 553.14728 0.016864752 -0.87587893 -0.48223606 0
-112.43636 0.98604131 553.29187 -0.0098572187 -0.86942267 -0.49397066 0
-110.06125 0.86813045 553.29828 -0.012652443 -0.86623031 -0.49948472 0
-106.30049 1.3044127 553.37122 -0.023748856 -0.86775887 -0.49641773 0
-103.3895 0.85280675 553.37567 -0.018105663 -0.87280083 -0.48774064 0
-100.78475 0.94331199 553.15826 -0.027735827 -0.87627274 -0.48101649 0
-97.078331 0.38243625 554.5517 -0.024613287 -0.87019819 -0.49208665 0
-94.625282 1.1138666 552.72461 -0.02640282 -0.88323891 -0.46817932 0
-92.303734 0.55559736 553.63605 -0.033919424 -0.88237792 -0.46931717 0
-89.027412 0.48541299 553.33368 -0.0079706162 -0.87779975 -0.47896144 0
-85.902977 0.53573424 553.02399 -0.030845888 -0.86752331 -0.49643913 0
-82.675629 0.82561272 552.62927 -0.017465904 -0.86580443 -0.50007761 0
-79.547905 0.61721283 553.07605 -0.010483821 -0.8661049 -0.49975234 0
-76.525223 0.56065357 552.69019 0.0062561482 -0.87871343 -0.47730863 0
-73.633102 0.58911771 552.79773 0.0075341379 -0.876055 -0.48215231 0
-70.168228 0.62351614 553.3208 0.023822155 -0.88042539 -0.47358593 0
-66.944054 1.0156014 552.83051 0.02117775 -0.87865233 -0.47699213 0
-64.299782 0.65697616 553.04083 0.012606412 -0.87697232 -0.48037544 0
-61.672165 1.0253297 553.1347 0.021260135 -0.8759008 -0.48202258 0
-58.865299 0.39610234 552.99933 0.00070809474 -0.87665015 -0.4811278 0
-55.421898 1.3169957 553.17749 -0.0103131 -0.88262123 -0.46997163 0
-52.816219 0.72852379 552.53235 -0.012824832 -0.88318986 -0.46884036 0
-49.691475 0.39267278 553.57495 -0.021545023 -0.87663132 -0.48068005 0
-46.470798 0.9873144 552.77362 -0.032697678 -0.87860525 -0.47642809 0
-44.625801 0.71035498 552.95898 -0.0107164 -0.881549 -0.47197101 0
-40.67609 0.12929499 553.21735 0.0077474187 -0.87939441 -0.4760308 0
-37.776165 0.54650289 552.43701 0.0046356181 -0.88529539 -0.46500605 0
-34.468498 0.47758201 552.90601 -0.023201002 -0.89430004 -0.44686604 0
-32.154701 0.33881351 553.80652 0.00047882283 -0.87905669 -0.47671708 0
-28.66115 1.1520065 553.03223 -0.035870492 -0.88681012 -0.46073973 0
-25.3846 1.0116965 552.23804 -0.068607621 -0.88663006 -0.45736212 0
-22.935925 0.45517901 553.18573 -0.03700253 -0.89651352 -0.44146845 0
-20.042149 0.2891435 552.93799 -0.082781576 -0.8899076 -0.44856623 0
-16.253599 0.97428399 552.289 -0.019891702 -0.90497804 -0.42499304 0
-13.6938 0.25286749 553.04248 -0.061015576 -0.89366066 -0.44457594 0
-10.501 0.109271 553.758 -0.049089983 -0.9058587 -0.42072585 0
-3.72734 0.59970802 552.43701 -0.084957324 -0.90024132 -0.42702213 0
-0.379926 0.149858 552.27002 -0.094502404 -0.89411205 -0.43775904 0
78.749603 1.72752 553.71301 0.5445962 0.45049715 -0.70743722 0
81.055901 0.031582199 552.56201 0.49602008 0.39458305 -0.77347809 0
88.256798 2.9410601 552.203 0.38732007 0.37089202 -0.84405112 0
91.328003 1.6173067 552.91705 0.38488382 0.4612959 -0.79941881 0
94 1.5 552.83331 0.38263685 0.56451678 -0.73137534 0
97.041656 1.041667 553.875 0.3939513 0.55914599 -0.72949171 0
-147.856 4.0667 554.22198 -0.80099291 -0.16739199 -0.57479596 0
-145.9615 4.8437052 552.45099 -0.6425674 -0.45106158 -0.61939538 0
-141.709 3.49315 553.90601 -0.039862417 -0.87791234 -0.4771592 0
76.699104 4.4349866 553.57269 0.54167062 0.45893556 -0.70425218 0
78.785004 4.27352 554.55798 0.49451309 0.48332408 -0.72239512 0
88.935196 3.855135 552.82947 0.38092592 0.48670158 -0.78614056 0
90.83783 4.5123854 554.26166 0.39151865 0.48244101 -0.78355837 0
94 3 554 0.38259521 0.59463203 -0.70713061 0
-147.112 8.5088396 553.57098 -0.85142601 0.068699799 -0.51995599 0
-146.0435 7.2596498 554.05347 -0.872778 0.014206078 -0.48791069 0
73.85495 7.74825 553.44476 0.55353606 0.50021946 -0.66586661 0
76.263199 7.29919 553.96198 0.49555293 0.53494793 -0.68429393 0
78.3517 6.46874 554.68799 0.4941991 0.54327309 -0.67869115 0
85.025002 8.0749998 553.52502 0.37479451 0.66095001 -0.65013403 0
87.697296 7.0301685 554.07654 0.39745429 0.48388717 -0.77966881 0
-144.98999 11.053866 553.47675 -0.90858966 0.20052233 -0.36640924 0
71.207207 10.608911 552.60968 0.54140985 0.53892744 -0.64531583 0
73.203598 10.9816 554.276 0.5132032 0.60872924 -0.60503823 0
78.875 10.875 552.125 0.39610794 0.69975036 -0.59451497 0
81.65654 10.957785 553.18115 0.39769936 0.5114134 -0.76176876 0
85.3881 9.3021297 553.59302 0.38339093 0.26396698 -0.88506091 0
-145.839 12.5835 553.23401 -0.88642585 0.25316596 -0.38749993 0
-143.86501 12.4976 552.75201 -0.90241003 0.25214803 -0.34939602 0
68.315048 14.261 553.62299 0.54331046 0.62836003 -0.55675614 0
70.3022 13.13445 554.39197 0.53198069 0.64349759 -0.55037022 0
80.293655 13.09635 553.11951 0.39195839 0.51333159 -0.76345229 0
85.369301 12.3063 553.505 0.37719399 0.23307601 -0.89632601 0
-144.438 15.6355 554.72601 -0.8995946 0.27998587 -0.33516786 0
-143.592 15.677 553.638 -0.89321643 0.32826614 -0.30725515 0
64.441452 16.564699 552.87952 0.52797794 0.68940073 -0.49594963 0
67.666656 17.66667 554.66669 0.40367141 0.82484221 -0.39583421 0
69.5 16.16666 553.33337 0.4048329 0.80487669 -0.43391681 0
-142.81233 18.991966 553.20941 -0.88605356 0.36480966 -0.28604731 0
59.3246 19.725151 552.229 0.51646829 0.72716039 -0.45221493 0
61.998669 18.560667 552.92462 0.5157302 0.72606647 -0.45480749 0
64 18.5 552.25 0.40136644 0.81930614 -0.40944162 0
-141.715 22.068451 553.34802 -0.87360597 0.40762907 -0.26580286 0
-140.244 23.667999 553.74402 -0.8650912 0.45115313 -0.21926706 0
52.200851 23.658764 553.48389 0.47635162 0.79538029 -0.37477902 0
55.522034 21.936365 552.58966 0.47678497 0.78254062 -0.40038261 0
58.247864 21.080366 553.32367 0.47285238 0.79295927 -0.38422137 0
-139.73349 25.451675 553.82275 -0.85224193 0.48067945 -0.20647289 0
46.25 26 552 0.42186987 0.8299647 -0.36494452 0
49.476074 25.819675 553.66901 0.56894374 0.70944411 -0.41592324 0
53.858501 24.8069 552.638 0.25190482 0.73502845 -0.62950552 0
-138.321 27.3479 552.80402 -0.81425399 0.570391 -0.10791 0
-137.323 29.218599 553.526 -0.81983924 0.55587715 -0.13734704 0
39.75 29.25 552.25 0.45622891 0.75951737 -0.46366861 0
43.759003 28.7265 552.17499 0.42315754 0.77402866 -0.4709748 0
46.48455 29.3568 553.30896 0.55417454 0.64802212 -0.52245373 0
-135.99098 31.566267 554.06769 -0.79873425 0.59107083 -0.11251164 0
-133.959 32.495399 553.99402 -0.695104 0.718606 0.0208776 0
36.5 31 552.5 0.49483931 0.68764943 -0.53129321 0
40.4436 31.932199 552.776 0.42115107 0.72551608 -0.54429609 0
43.694702 31.133774 553.29297 0.63166922 0.55120391 -0.54513139 0
45.3372 31.3155 554.06 0.71290416 0.40888608 -0.56971914 0
51.4394 32.625748 552.46899 0.57197142 0.4447411 -0.68924171 0
-135.69701 34.0653 553.04797 -0.85854 0.46250099 -0.22136401 0
-132.293 33.812801 552.10999 -0.70381212 0.71017313 0.017396403 0
-131.0775 35.001701 553.52399 -0.71220767 0.70194864 0.005329723 0
38.031399 33.332001 552.78302 0.44024587 0.69112283 -0.57317787 0
40.7663 35.853699 553.758 0.72187299 0.27911299 -0.63324201 0
43.73875 33.9207 554.33099 0.7170434 0.34210539 -0.60729951 0
49.71645 35.459602 552.49194 0.58878118 0.42937303 -0.68481785 0
-127.84 37.932098 553.79547 -0.69427967 0.71931505 0.023697298 0
31.510466 37.716835 552.99231 0.54494596 0.47062972 -0.69393194 0
40.320202 38.042702 552.91302 0.71807778 0.20764592 -0.66426474 0
43.018799 37.058701 553.12402 0.72103184 0.26094893 -0.64188683 0
47.806499 37.819801 553.37646 0.60028565 0.42362508 -0.67837965 0
51.97945 36.464302 554.69897 0.60649252 0.42891225 -0.66947824 0
-126.131 40.305351 553.32397 -0.69220966 0.7211141 0.028988393 0
-123.272 41.7174 554.73199 -0.66258901 0.745372 0.0734597 0
28.634449 40.567699 552.90149 0.5731954 0.36298904 -0.73463327 0
31.132549 40.26252 554.33801 0.55952358 0.39126629 -0.73064631 0
40.444302 40.9459 553.14398 0.72729683 0.13877797 -0.67214584 0
43.278702 40.6731 552.72101 0.73587179 0.17758195 -0.65341979 0
45.83345 41.5578 553.698 0.61165386 0.41509971 -0.67347735 0
-124.166 42.6656 553.091 -0.73252624 0.68066418 -0.010077703 0
-120.946 43.594799 553.03601 -0.66422099 0.743918 0.073460497 0
26.7213 42.573502 553.45502 0.58132571 0.35203081 -0.73357666 0
28.229801 43.4715 553.6283 0.58006185 0.29074433 -0.7609179 0
30.6 43.799999 553.84998 0.60316473 0.24728253 -0.7583164 0
40.8694 43.927799 553.34302 0.72598195 0.12268598 -0.67668194 0
42.716499 44.334549 553.15503 0.69401413 0.27900809 -0.66370088 0
45.7593 44.337399 554.78198 0.63303608 0.40070003 -0.66234803 0
-120.968 45.250999 554.73901 -0.75036597 0.66079003 -0.017535901 0
-118.7095 47.188202 553.02502 -0.71435833 0.69953716 0.018438837 0
26.0418 46.646198 552.47998 0.60279989 0.23028193 -0.76393884 0
27.833 46.42635 553.15198 0.59376603 0.25081274 -0.76454872 0
31 46.909088 554.81818 0.61093783 0.25294274 -0.75018334 0
40.931252 46.721352 553.33496 0.74173945 0.15541725 -0.65243244 0
43.164032 46.112534 553.83539 0.64640051 0.36943337 -0.66759682 0
-115.21 48.893799 553.63599 -0.7696178 0.63801283 -0.025060594 0
26.939501 48.903 553.41699 0.60936964 0.22380787 -0.76064354 0
27.964279 49.839291 553.51782 0.59638506 0.26353034 -0.75820625 0
38.627899 49.889099 552.27197 0.74593925 0.16591005 -0.64501816 0
41.080841 49.840584 553.50641 0.71313381 0.26226822 -0.6501196 0
42.418701 48.647202 553.51099 0.67334038 0.33295318 -0.66011733 0
-125.886 52.207802 552.86102 -0.84161258 0.40044382 -0.36239883 0
25.558201 52.273949 553.44397 0.61423451 0.23645578 -0.75286424 0
38.435852 53.539749 553.17346 0.73136967 0.21722542 -0.64646071 0
40.558701 52.365547 553.42798 0.73910064 0.21019726 -0.63995898 0
25.2244 55.332298 554.56897 0.61681432 0.19870172 -0.76161528 0
36.785702 56.588799 553.336 0.76098883 0.16739696 -0.62679684 0
39.504967 55.052032 554.20667 0.72932667 0.14588715 -0.66843063 0
-121.858 59.9921 553.28497 -0.80026984 0.3144559 -0.51057386 0
-115.655 59.287399 554.79602 -0.65536481 -0.15608597 -0.73900884 0
-110.41 58.8815 553.48401 -0.83399123 -0.02978611 -0.55097318 0
22.479195 57.734989 553.29907 0.60459006 0.16461939 -0.77934033 0
37.226936 58.540077 553.22339 0.71394968 0.062719531 -0.69738239 0
39.642601 57.4515 554.64099 0.752635 0.020939801 -0.65810502 0
-118.547 61.266449 553.75598 -0.616925 -0.26673743 -0.74044228 0
-115.917 61.4468 553.31598 -0.65333003 -0.179979 -0.73536903 0
-112.895 60.755249 554.35498 -0.64879769 -0.32586768 -0.68765676 0
-109.5045 60.9296 552.24249 -0.77320915 -0.033752095 -0.63325226 0
-106.231 60.679901 552.185 -0.71104926 -0.31265309 -0.62980717 0
19.5096 62.300098 552.16302 0.59045392 -0.0064139292 -0.80704588 0
21.8757 61.0481 553.84802 0.57718432 0.018109709 -0.81641304 0
35.356697 62.85915 552.6275 0.63999188 -0.11571071 -0.75961918 0
37.306133 61.780102 554.52032 0.66296768 -0.1100348 -0.74051744 0
-121.72549 64.638046 553.271 -0.73856115 0.20723666 -0.6415453 0
-117.485 63.975899 553.01849 -0.64160341 -0.17999117 -0.74561936 0
19.15657 65.102852 553.01135 0.51474208 -0.19708835 -0.83438402 0
22 65 554.83331 0.43736616 -0.29786333 -0.84852129 0
37.423325 64.539825 553.41351 0.51250565 -0.3315787 -0.79208171 0
39.486603 64.9524 554.42651 0.42566544 -0.4630098 -0.77745152 0
53.473598 65.964302 554.99799 -0.066251911 -0.84190518 -0.53554314 0
64.473701 65.481331 553.53802 -0.0098360125 -0.89174044 -0.45244029 0
67.648102 65.305099 553.92902 0.076217696 -0.89017385 -0.44920093 0
69.468651 65.359055 554.64954 0.1471983 -0.87932187 -0.45290804 0
-121 68 553 -0.67523187 0.06079914 -0.7350955 0
-118.234 67.636154 553.94 -0.71459037 -0.037049718 -0.69856137 0
-116.0845 68.0448 552.82251 -0.63536686 -0.14436421 -0.758596 0
20.257399 67.454094 553.21045 0.4125925 -0.34627196 -0.84253371 0
21.754551 68.081818 553.68182 0.33050811 -0.46049541 -0.82383758 0
25 68.166656 554.83331 0.28317672 -0.49861404 -0.81926495 0
28 68 554.75 0.21856861 -0.60948515 -0.76207328 0
30.986465 68.417038 554.37775 0.11349969 -0.73734218 -0.66591614 0
34.468876 68.058441 554.01935 0.19146594 -0.70605624 -0.68178099 0
37.889641 67.42308 553.42712 0.31079003 -0.61616546 -0.72370547 0
40.337185 67.530487 553.45648 0.24819735 -0.6647284 -0.70465189 0
43.32465 67.119141 553.73627 0.20471956 -0.72285283 -0.65998012 0
46.601524 67.623123 554.31226 0.12054855 -0.8039856 -0.58230168 0
50.043816 67.429642 553.75598 -0.012983468 -0.81746262 -0.57583529 0
52.535126 68.569946 553.51849 -0.049699984 -0.83589119 -0.54664052 0
55.165749 66.861626 552.99347 -0.11619889 -0.85237801 -0.50985253 0
57.805099 67.601898 553.92249 -0.086354852 -0.86367756 -0.49659222 0
61.323402 67.400345 553.77173 -0.057517651 -0.87578958 -0.47925392 0
64.395302 67.673294 554.14349 0.010704926 -0.87227488 -0.48889866 0
67.598846 68.138199 554.19348 0.13366117 -0.86564648 -0.48248401 0
69.786934 67.152596 552.46271 0.14458795 -0.87768233 -0.45691139 0
73.547905 67.075996 552.61737 0.30352241 -0.83096045 -0.46623904 0
76.628204 67.451599 553.87903 0.39402014 -0.78680867 -0.47505817 0
78.4198 68.329201 554.61102 0.46888304 -0.74261004 -0.47820404 0
-119.125 71.125 553.5 -0.55742544 -0.16279012 -0.81411076 0
-115.95434 70.958305 553.74237 -0.61479384 -0.15626307 -0.77305251 0
25.14205 69.929855 552.4425 0.2070118 -0.63198328 -0.74682212 0
28.7171 69.261002 553.242 0.12131794 -0.73039764 -0.6721617 0
42.361 69.985703 552.578 0.24509802 -0.70967531 -0.66052091 0
45.585766 70.181129 552.65033 0.15349433 -0.80117697 -0.57840723 0
49.120022 70.16655 553.24402 0.2133581 -0.81622362 -0.53689605 0
51.857517 70.45105 553.99084 0.13373613 -0.83441907 -0.53465825 0
55.334251 70.498856 553.86963 0.15709393 -0.82258397 -0.54651362 0
58.370533 69.854866 552.78699 -0.068118371 -0.86798161 -0.4919022 0
66.918198 69.320801 552.742 0.12892406 -0.86203641 -0.49017525 0
70.0597 69.8004 552.94598 0.22335793 -0.84947872 -0.47801381 0
73.065094 70.3881 552.8985 0.28185242 -0.83651996 -0.46988675 0
76.285599 71.399002 554.24701 0.41075721 -0.77416539 -0.48160827 0
79.797981 70.213249 553.78369 0.50626028 -0.72006929 -0.47455317 0
81.639297 71.159149 553.56702 0.55075026 -0.68377131 -0.47867608 0
-140.255 74.610703 554.349 -0.036425602 -0.85021502 -0.52517402 0
-137.30299 74.884003 553.159 -0.0228748 -0.84578902 -0.53302699 0
-130.66 74.844597 554.35303 -0.046324115 -0.81936032 -0.57140416 0
-124.61 74.4869 554.27802 -0.11237397 -0.8147198 -0.5688619 0
-118.66787 73.629066 553.23022 -0.58320487 -0.27773377 -0.76337159 0
-115.98899 73.750366 553.64996 -0.58158946 -0.23884994 -0.77762741 0
52.598366 72.129951 552.74664 0.34122771 -0.77226734 -0.53587943 0
55.753071 73.203445 553.05261 0.39032057 -0.74723005 -0.53786349 0
58.9221 74.481415 554.06616 0.35650793 -0.76757848 -0.53265876 0
79.948196 74.630402 552.37097 0.51114213 -0.70028412 -0.4983331 0
83.472244 72.299805 554.64697 0.68001819 -0.54339767 -0.49223396 0
84.166199 74.404602 553.23901 0.69993997 -0.53001696 -0.47871295 0
-190.058 77.441704 554.54999 -0.154102 -0.86449999 -0.47842699 0
-187.35001 77.779404 554.07703 -0.19117297 -0.8180179 -0.54249394 0
-184.8125 77 553.375 0.045703385 -0.71048504 -0.70222664 0
-182.039 77.297447 554.53198 -0.074262135 -0.82125688 -0.56570512 0
-175.8 77.599998 552.59998 -0.12813002 -0.7871514 -0.60330373 0
-173 76.928574 553.35718 -0.065127291 -0.85799158 -0.50951838 0
-169.8278 76.702866 553.46539 -0.13414279 -0.87482321 -0.46549973 0
-166.2075 76.515427 553.48328 -0.04938633 -0.86482626 -0.49963629 0
-163.31099 77.384239 553.81769 0.010390684 -0.8501938 -0.52636725 0
-160.32468 77.389359 553.75342 0.058615066 -0.84698427 -0.52837664 0
-157.22383 76.709892 553.8479 0.013295225 -0.84752518 -0.53058869 0
-154.86296 76.858925 553.87671 -0.011094474 -0.84897792 -0.52831179 0
-152.00024 77.094803 553.67236 -0.023422034 -0.86361712 -0.50360388 0
-149.19881 76.614853 553.94788 -0.010506531 -0.85799181 -0.51355594 0
-146.33897 76.50901 554.6897 0.0030324757 -0.8551532 -0.51836646 0
-143.013 75.241096 553.26801 -0.051827107 -0.85167211 -0.52150607 0
-139.3705 76.100098 553.84601 -0.0076312213 -0.84057236 -0.54164547 0
-137 77.5 554.5 -0.0064012529 -0.82285911 -0.56820935 0
-132.856 77.147003 553.099 -0.03282373 -0.83916831 -0.54288042 0
-130.07651 77.291245 554.90051 -0.10977162 -0.78321254 -0.61198711 0
-126.928 76.787445 553.65051 -0.11484901 -0.78655112 -0.60675114 0
-124.30505 76.147964 553.33032 -0.21156934 -0.71005261 -0.6716128 0
-121.52363 76.639778 553.93463 -0.35440832 -0.55487353 -0.75266868 0
-119.02699 76.077347 553.37604 -0.4539763 -0.46514159 -0.75996631 0
-116.199 76.340599 552.42401 -0.51489806 -0.38738006 -0.76473314 0
57.832802 75.467903 553.28101 0.31902516 -0.79922134 -0.50938022 0
60.547119 76.780869 553.37988 0.35705113 -0.75348336 -0.55206639 0
82.465599 76.751099 553.60101 0.55361617 -0.64424217 -0.52769417 0
84.6931 76.557404 553.15503 0.81525731 -0.34681565 -0.46376118 0
87.293999 77.894096 554.948 0.85570019 -0.19786303 -0.4781501 0
-195.80949 79.632095 553.646 -0.12567276 -0.7957499 -0.59244281 0
-192.9185 78.270798 553.62799 -0.40920547 -0.7012471 -0.58378375 0
-191.414 79.741653 552.49255 -0.56969571 -0.47752497 -0.66889209 0
-187.38699 78.755951 554.43848 -0.14302646 -0.81463832 -0.56205678 0
-184.39966 80.025169 553.52032 -0.36561459 -0.7302888 -0.57706523 0
-181.86826 79.635277 553.57202 -0.19195764 -0.76038706 -0.62045449 0
-178.07701 79.273499 553.62897 -0.11460298 -0.79662007 -0.59351718 0
-175.895 79.708038 553.9483 -0.17753261 -0.82771516 -0.53232497 0
-172.342 78.930466 553.7807 -0.16188587 -0.85350949 -0.49529228 0
-170.661 79.307899 554.29498 -0.016498193 -0.91227859 -0.4092378 0
-166.429 78.2211 554.50403 -0.041826617 -0.8863914 -0.46104321 0
-163.54251 79.008255 552.2085 -0.019612532 -0.89978486 -0.43589297 0
-159.022 79.737106 553.22205 0.042928927 -0.88365567 -0.46616489 0
-156.81599 78.840302 552.25897 -0.09457954 -0.86868435 -0.4862532 0
-155.0585 79.112 552.89349 0.019553583 -0.88765162 -0.46010035 0
-151.24451 79.138351 553.29797 0.01590172 -0.88614714 -0.46313104 0
-149.24396 78.411545 553.41077 0.029850924 -0.84556055 -0.53304428 0
-145.22427 78.371498 553.24231 0.043079641 -0.85380119 -0.51881367 0
-142.45674 78.940201 552.86707 0.028760504 -0.84527457 -0.53355771 0
-139.69424 78.514069 553.20416 0.022026112 -0.84609115 -0.53258288 0
-137.2265 78.89325 552.51245 0.009473633 -0.84761709 -0.53052378 0
-133.625 79.02887 553.25397 -0.038403783 -0.81228238 -0.58199883 0
-130.74901 78.424995 552.90668 -0.063797079 -0.80878884 -0.58462852 0
-127.92482 78.908325 553.09534 -0.12083653 -0.76162821 -0.63664824 0
-124.28275 78.327827 553.17871 -0.21969414 -0.68901843 -0.69064325 0
-121.436 78.022697 554.52002 -0.34282097 -0.57290792 -0.74447995 0
85.920265 79.248566 553.83966 0.83677638 -0.26619431 -0.47848281 0
87.792099 80.282196 553.58801 0.91220254 -0.068549685 -0.4039647 0
-189.89999 83.8367 553.96503 -0.89052105 0.32005304 -0.32332402 0
-187.83551 82.6008 553.29248 -0.87260097 -0.074164569 -0.48277026 0
-178.155 81.184898 554.633 -0.36322892 -0.80436385 -0.4701739 0
86.315132 82.101669 553.96802 0.93809003 0.049547218 -0.34282959 0
87.319702 81.579002 553.09601 0.73552084 -0.25009793 -0.62965083 0
-187.741 85.514557 553.06848 -0.85384673 0.075804867 -0.51497513 0
-185.875 86.472702 552.41602 -0.73103219 0.3589271 -0.58031315 0
85.828636 85.494804 554.008 0.94027263 0.22187182 -0.25818646 0
88.189102 85.423897 552.44702 0.77303809 -0.025346803 -0.63385308 0
-186.007 88.081902 554.35699 -0.65833008 0.52692509 -0.53754205 0
-184.98349 88.420647 553.7865 -0.80076343 0.3405363 -0.49276048 0
-181.996 88.654099 552.073 -0.61633295 0.50419897 -0.60491097 0
83.938004 89.198402 554.263 0.92142761 0.34972581 -0.16930193 0
85.107635 88.4338 553.96936 0.89568877 0.27894709 -0.34630927 0
88.120003 87.7817 554.10498 0.74719441 0.097920649 -0.65735233 0
-181.61732 91.580101 553.78101 -0.72132623 0.37588254 -0.58172238 0
-179.60001 91.136917 553.41632 -0.60454082 0.27154231 -0.7488625 0
82.686523 91.904747 553.19373 0.90228534 0.29733247 -0.3122091 0
-182 94.333344 552.33331 -0.59206808 0.39243519 -0.7038821 0
-178.2905 93.9851 552.56604 -0.79387778 0.17322627 -0.58288139 0
80.833649 94.753799 552.38251 0.93399209 0.25891629 -0.24621356 0
82.300697 94.536499 553.60052 0.85944605 0.1305958 -0.49426439 0
-177.74651 96.952499 553.513 -0.890127 0.21605876 -0.40123868 0
79.696632 97.178993 553.49268 0.92461598 0.063794382 -0.37552041 0
-179.136 100.187 553.57098 -0.94482851 -0.020805011 -0.32690418 0
-176.455 99.146896 554.90002 -0.78375906 0.49846703 -0.37047604 0
77.495201 101.622 552.336 0.85157555 -0.15892193 -0.49956277 0
80.211197 99.790604 554.16302 0.84307605 -0.23836702 -0.48208302 0
84.129997 100.465 553.435 0.48529616 -0.50458318 -0.71406126 0
87.120697 100.696 553.14301 0.30705586 -0.61012471 -0.73038661 0
90.478203 100.699 552.47699 0.141717 -0.69901198 -0.70092702 0
94.573235 100.651 553.70032 0.11870506 -0.77589893 -0.61958861 0
96.290604 101.799 552.828 -0.063226603 -0.75137103 -0.65684402 0
77.190598 104.215 552.15051 0.75712878 -0.32264847 -0.56802636 0
78.672302 103.6505 553.32397 0.76558518 -0.31627616 -0.56022203 0
82.196266 104.48199 554.50763 0.30312017 -0.709333 -0.63636851 0
86.565498 103.9672 553.36157 0.071533874 -0.79271948 -0.60537487 0
88.446854 103.98849 552.69946 0.051568832 -0.83590156 -0.54645157 0
91.203072 103.83725 553.13898 -0.085755028 -0.84889126 -0.52156472 0
93.923904 102.6945 552.77051 0.024275227 -0.87891489 -0.47636041 0
97.256767 102.83567 553.30066 0.34654823 -0.88304132 -0.31645277 0
100.23635 103.167 553.54724 0.54047215 -0.82803112 -0.14917889 0
84.463799 105.8105 552.5755 0.0645696 -0.80638319 -0.5878579 0
101.799 107.888 552.33698 0.76855183 -0.6345728 0.081519976 0
103.18 106.1755 553.12451 0.74767882 -0.66166943 0.056301408 0
104.2775 109.526 553.11151 0.8365379 -0.50099713 0.2218246 0
104.0135 113.10201 553.33899 0.86274958 -0.42210373 0.27837318 0
105.07 112.26 553.245 0.82689112 -0.47117105 0.30700004 0
103.021 115.221 553.72198 0.8688587 -0.44499084 0.21695092 0
106.084 116.888 552.50702 0.72906595 -0.53470492 0.42726293 0
103.893 118.08 554.27197 0.91492867 -0.34428987 0.21064192 0
106.06266 118.68732 553.22034 0.77984732 -0.40126374 0.48044303 0
107.585 121.615 552.935 0.61679703 -0.48122704 0.62288207 0
-8 -97 557.44452 -0.2061552 -0.65473372 -0.72720271 0
-5.5 -97 557.40002 -0.1238519 -0.68438357 -0.71852618 0
-18.413052 -93.324554 555.69556 0.041159198 -0.8602435 -0.50821948 0
-16.2932 -94.614601 556.86835 0.058705151 -0.8784793 -0.47416016 0
-13.688499 -94.450073 556.38434 -0.55377305 -0.66864097 -0.49624053 0
-10.627342 -93.953384 557.24988 -0.058807231 -0.82382572 -0.56378442 0
-8.0429344 -94.189896 556.58661 0.010068165 -0.82258439 -0.56855381 0
-4.5866003 -93.776474 557.02313 -0.09785486 -0.79956704 -0.59255123 0
-1.6934128 -94.174751 555.9054 -0.11546198 -0.75593197 -0.6443876 0
1.1339043 -93.637573 556.36163 0.092913821 -0.72390229 -0.68361717 0
-17.14286 -90.714287 557.85712 -0.36310449 -0.62336338 -0.69251227 0
-13.220532 -91.379684 556.48022 -0.57167965 -0.55778491 -0.60171282 0
-10.404359 -91.835785 555.48682 -0.18202856 -0.83410543 -0.5207051 0
-7.2960873 -92.261383 555.92346 -0.11117345 -0.84316528 -0.52603483 0
-4.6543398 -92.644363 556.15582 -0.022651944 -0.84505695 -0.5341962 0
-1.3558781 -92.195564 556.65509 0.24058156 -0.84899896 -0.4704479 0
0.56498975 -90.760498 555.09949 0.33054191 -0.75795209 -0.56236166 0
3.7525568 -91.505676 556.02954 0.33580849 -0.77239686 -0.53910637 0
6.5576668 -90.78833 556.35803 0.43586564 -0.76257432 -0.47801837 0
-19.1015 -87.740204 556.97803 -0.32079986 -0.73652071 -0.59550375 0
-16.0516 -88.213051 557.11914 -0.44003427 -0.69217581 -0.57206863 0
-13.35082 -88.461143 556.63562 -0.42415544 -0.6811136 -0.59680527 0
-10.714251 -88.583748 556.47595 -0.23323499 -0.66473842 -0.70973533 0
-7.1359749 -89.313301 555.55701 -0.15561417 -0.69074714 -0.70615339 0
-4.9467201 -89.8909 555.93402 -0.13087302 -0.68690616 -0.71486521 0
2.2352266 -89.418633 555.94135 0.48003328 -0.79262573 -0.37591553 0
4.2231398 -87.625999 557.37 0.63069201 -0.76078498 -0.153081 0
7.7414184 -88.632523 557.11731 0.61915249 -0.69951314 -0.35683554 0
9.6573849 -88.070602 555.78198 0.62365329 -0.70711195 -0.3332406 0
-35.524498 -84.570152 556.27502 -0.19967847 -0.79984647 -0.56601608 0
-32.361401 -85.312698 555.92297 -0.080631547 -0.78208363 -0.61793506 0
-29.162567 -84.747429 555.86334 -0.070126966 -0.77821678 -0.62406802 0
-26.047632 -85.020432 556.73364 -0.067444228 -0.76582271 -0.63950527 0
-23.011265 -86.151184 556.92029 -0.19929363 -0.76714331 -0.60973203 0
-19.646801 -85.586876 556.59784 -0.27803332 -0.66570592 -0.69248325 0
-16.91 -85.731049 556.14746 -0.46398365 -0.61152524 -0.64090252 0
-14.126551 -85.815094 555.35901 -0.25754461 -0.67814487 -0.68832421 0
4.76893 -86.959602 557.83502 0.69211709 -0.71621114 -0.089529715 0
6.9231129 -85.490509 556.08423 0.70277411 -0.65874147 -0.26864162 0
11.6421 -85.304352 555.83148 0.72853518 -0.61713904 -0.29728106 0
12.6186 -86.303703 557.33301 0.74516082 -0.46608788 -0.47696689 0
-40.0205 -82.035706 556.89648 -0.14582774 -0.7009989 -0.69809365 0
-37.394619 -82.505783 556.51642 -0.24722406 -0.73661315 -0.62950873 0
-34.051701 -81.890411 556.45215 -0.18493508 -0.76570815 -0.61602765 0
-31.655334 -82.694267 557.12201 -0.092323013 -0.70556688 -0.70260364 0
-28.6768 -81.779205 556.67798 -0.21557117 -0.70641172 -0.67417473 0
-25.75828 -82.495163 556.71521 -0.18425541 -0.69637537 -0.69362181 0
-22.382238 -82.507462 556.76044 -0.23544532 -0.68188506 -0.69253039 0
-19.762775 -82.226929 556.08801 -0.36711329 -0.68509865 -0.62918019 0
-17.809 -83.598503 555.633 -0.46763483 -0.71979278 -0.51304585 0
8.6339798 -82.392303 557.828 0.80121136 -0.59800029 -0.02135491 0
9.75 -82.75 556.08331 0.73112875 -0.31769902 -0.60375339 0
13.690149 -82.848053 557.24548 0.82079959 -0.53331023 -0.20461716 0
-40.055965 -80.457169 556.67065 -0.52686518 -0.70929456 -0.46831009 0
-38.239201 -80.439331 555.28131 -0.42993563 -0.75112987 -0.50095832 0
-34.102852 -79.885849 556.84949 -0.34745404 -0.73260182 -0.58529502 0
-31.485865 -80.526062 555.77802 -0.16511035 -0.79594225 -0.5824213 0
-28.885601 -79.564003 555.92004 -0.16710429 -0.78382319 -0.59807807 0
-24.958069 -80.482834 556 -0.20630983 -0.73916167 -0.64115232 0
-22.5807 -80.404602 556.44348 -0.24976146 -0.781277 -0.57203627 0
11.161301 -78.885345 556.47803 0.8853783 -0.45765814 -0.081574082 0
14.25315 -80.4533 556.42047 0.82521826 -0.28341982 -0.48855701 0
15.4048 -80.570198 556.51898 0.79116583 -0.59723389 0.13178897 0
-44.071098 -75.7285 556.03003 -0.85698289 -0.50018793 -0.12406599 0
-40.709797 -76.665031 556.65869 -0.70726281 -0.53059304 -0.4671728 0
-38.425968 -76.915039 556.70337 -0.62221783 -0.69150561 -0.36696735 0
-35.4324 -77.6651 555.92798 -0.42356908 -0.76375818 -0.48709613 0
13.008326 -75.86248 556.09674 0.92803925 -0.25659552 -0.27000353 0
15.3915 -77.682701 557.67798 0.87736505 -0.21159402 -0.43064904 0
-42.903999 -73.740402 556.2135 -0.82130647 -0.36463264 -0.43874681 0
-41.029251 -73.328903 556.414 -0.77422029 -0.61011767 -0.16834298 0
13.762267 -73.32827 556.81366 0.96964908 -0.16205709 -0.1830796 0
15.8852 -74.5877 557.71301 0.89944077 -0.14316697 -0.4129279 0
-46.497452 -69.781998 557.01001 -0.9582215 -0.21574041 -0.18779685 0
-43.843624 -70.21257 556.59955 -0.90768021 -0.24536547 -0.34045911 0
-41.928501 -71.9842 555.99902 -0.84100986 -0.30873996 -0.44427693 0
10.8 -69.800003 555.20001 0.85590822 0.093654089 -0.50857657 0
13.317924 -70.430801 556.18127 0.96461684 -0.13661245 -0.22550249 0
16.3438 -71.695503 557.58801 0.92243338 -0.050376922 -0.38285616 0
-44.469635 -68.02887 556.54132 -0.95214015 -0.25881043 -0.16262312 0
14.349633 -67.980995 557.04999 0.98801231 -0.054347154 -0.14449221 0
16.788099 -68.732399 556.11798 0.90569818 0.00029820306 -0.42392308 0
-50.200001 -65.099998 556.09998 -0.71049649 0.37838379 -0.5933131 0
-47.4576 -64.618896 556.40802 -0.98658979 -0.12363997 0.10655398 0
-43.747799 -64.429298 556.99365 -0.91385657 0.098440669 -0.39392346 0
-41.418598 -65.9207 555.35199 -0.8349154 0.020234609 -0.55000621 0
13.267501 -64.871834 556.677 0.94817907 0.039895404 -0.315222 0
15.803634 -65.390503 556.54205 0.98277301 0.023404511 -0.18332899 0
-49 -62 556 -0.7181294 0.43170941 -0.54581791 0
-47.135078 -61.448929 556.59723 -0.9965685 0.078715816 -0.025595505 0
-41.7743 -62.052299 555.67902 -0.86374217 0.21618305 -0.45520809 0
14.488299 -61.428505 556.26477 0.9773615 0.083364859 -0.19446069 0
15.37745 -62.416 556.76752 0.965693 0.09540575 -0.24152572 0
-46.45985 -58.70575 556.41223 -0.90453446 0.28754109 -0.31486115 0
-43.886574 -59.032726 556.80927 -0.75537276 0.40642411 -0.51403445 0
-41.2589 -59.472 556.87201 -0.85668588 0.29880598 -0.42048094 0
13.843034 -58.9767 556.16669 0.95092362 0.14269306 -0.2745598 0
-46.071766 -55.462696 557.27435 -0.97150272 0.12790121 0.19955899 0
-42.159 -56.794201 556.40802 -0.62816292 0.52925092 -0.57035494 0
-40.888901 -55.400898 557.104 -0.78466511 0.42250556 -0.45364052 0
11.8963 -54.872398 555.46198 0.91815108 0.20928602 -0.33644903 0
13.959875 -55.868 556.41028 0.96984273 0.17513928 -0.16950288 0
-43.914848 -52.029602 556.42273 -0.89081722 0.38786688 -0.2366516 0
-39.681999 -53.350052 557.45447 -0.73014873 0.49108618 -0.47509703 0
-37.532475 -51.80825 555.67847 -0.76224601 0.4546954 -0.4606877 0
11.8747 -53.867001 557.10699 0.92317998 0.22378699 -0.31250301 0
12.961567 -53.506531 556.28467 0.95030642 0.22507128 -0.21508271 0
-42.826401 -48.361301 556.23499 -0.93331987 0.34564298 -0.097186089 0
-41.666672 -48.333328 557.33331 -0.73863697 0.54471481 -0.39711609 0
-37.230598 -48.852997 557.48303 -0.77256089 0.49571818 -0.39675331 0
-35.599701 -48.906872 555.9173 -0.72409147 0.51783037 -0.45556918 0
9.6499901 -48.634899 555.01099 0.83445549 0.37626925 -0.40262324 0
12.165699 -49.188934 556.22632 0.93250042 0.27378651 -0.23555017 0
15.1555 -49.530899 557.97803 0.67562205 0.43525904 -0.59505004 0
-45.287498 -47.189999 557.72998 -0.94796562 0.12881096 0.2911509 0
-40 -47 556 -0.70895708 0.55550593 -0.43450332 0
-34.836052 -46.598801 556.07599 -0.72327948 0.54637295 -0.42230725 0
-32.525398 -46.6217 555.30603 -0.63965404 0.57264209 -0.51276106 0
10.781023 -46.361019 556.7002 0.90730155 0.34535015 -0.23986904 0
12.3615 -46.344898 557.25 0.62775105 0.48782903 -0.60659003 0
-40.9137 -43.3503 556.22699 -0.89328587 0.42192027 -0.15499555 0
-35.666672 -42.333328 557.33331 -0.59393382 0.67983621 -0.4301922 0
-31.960999 -43.175354 556.61621 -0.64189988 0.61444247 -0.45872104 0
5.6080599 -42.4361 555.479 0.56460369 0.59340471 -0.57366669 0
7.4998398 -42.803299 557.46198 0.64119619 0.57995611 -0.5025121 0
10.221346 -43.252956 556.50421 0.858715 0.406046 -0.3126263 0
-34.299999 -40.599998 556.90002 -0.55539739 0.70777202 -0.43656921 0
-31.332766 -41.196999 556.53766 -0.60180604 0.6660642 -0.44066763 0
-27.986401 -40.647346 556.02502 -0.54682267 0.65960622 -0.51565945 0
-26.816401 -39.6898 555.51501 -0.51589686 0.70755082 -0.48293087 0
5.3988051 -40.659752 556.76898 0.60892361 0.61885691 -0.49621382 0
8.4798899 -41.265598 557.15503 0.58271295 0.53890795 -0.60829592 0
-32.5 -39 557.5 -0.52122122 0.73011363 -0.44188529 0
-28.156099 -37.79715 555.70251 -0.47854292 0.73356569 -0.48257434 0
-25.64917 -37.650642 556.78528 -0.46489853 0.73491246 -0.49373388 0
-22.842051 -36.7351 555.78552 -0.38955072 0.75247669 -0.53106403 0
-20 -36.5 555 -0.082304388 0.81625402 -0.57180017 0
-8.125 -37.125 555 0.24451029 0.78126508 -0.57431668 0
-5.25 -37 556.58337 0.35412413 0.76039594 -0.54442096 0
-1.52473 -36.489498 555.461 0.42658395 0.70181596 -0.57050896 0
2.4812751 -38.087402 556.62903 0.51846248 0.67624235 -0.52334785 0
4.5259399 -37.596199 556.09302 0.48059005 0.63115442 -0.60883272 0
7.94701 -37.661274 557.00452 0.81566131 0.49728885 -0.29563558 0
9.3828602 -38.967499 557.38501 0.9096899 0.38441595 -0.15712598 0
-26 -36 557 -0.25032371 0.81422788 -0.52380443 0
-22.319534 -35.030563 556.80005 -0.42608333 0.75730944 -0.49490952 0
-20.269632 -34.5797 557.6452 -0.24952458 0.81811708 -0.51809448 0
-16.404076 -34.316299 556.1665 -0.14068058 0.82357562 -0.54948348 0
-13.46115 -34.8195 555.79199 0.0080077024 0.82937962 -0.55862796 0
-9.8974304 -34.723801 555.68103 0.066335097 0.82041401 -0.567909 0
-6.7367263 -35.214134 556.59998 0.21223673 0.80390853 -0.5555957 0
-3.3455 -34.610802 556.71704 0.31069103 0.77223092 -0.55419356 0
-1.4318647 -34.410564 556.68567 0.40623593 0.73991984 -0.53618193 0
1.53044 -35.852901 556.23199 0.40159905 0.68649811 -0.60616714 0
6.885705 -35.579247 555.13953 0.82856745 0.50879288 -0.23367888 0
-25.739799 -32.801998 557.16998 -0.058933731 0.78848243 -0.61222738 0
-22.6597 -32.983002 555.95398 -0.051909607 0.79313314 -0.60683215 0
-20.032499 -31.846899 557.24438 -0.18055159 0.80412573 -0.56637698 0
-16.6793 -30.7194 556.04102 -0.40237042 0.75309342 -0.52052701 0
-12.9867 -30.630899 557.35303 0.080113992 0.82625985 -0.55756295 0
-10.0089 -32.908501 555.50403 0.15009499 0.79124385 -0.59279394 0
-7.0785847 -32.19175 556.72827 0.200737 0.80279517 -0.56144863 0
4.93646 -31.660467 556.94269 0.78408593 0.58427668 -0.20935641 0
2.1793399 -28.7593 557.08197 0.75339103 0.62645102 -0.199903 0
3.8578601 -29.9466 557.37402 0.77411699 0.59973502 -0.20263501 0
-3.24647 -25.903 556.03699 -0.22457008 0.76290828 -0.60625023 0
-0.93818599 -24.4673 557.401 -0.21522903 0.75981814 -0.61347604 0
0.29791838 -26.120449 556.68323 0.54381275 0.76185328 -0.3519195 0
-2.6228499 -23.9144 555.93604 0.69289631 0.68723261 -0.21818802 0
103.125 -21.875 557.875 -0.1204732 -0.82805687 -0.54754728 0
108.75 -22.5 557.75 -0.03004826 -0.77678829 -0.62904459 0
115 -22.42857 557.42859 0.032250945 -0.69444114 -0.71882647 0
118.766 -22.544266 557.92053 -0.0022715225 -0.57500565 -0.81814629 0
121.65601 -22.425034 555.74866 0.046474818 -0.4682501 -0.88237292 0
-6.573525 -19.9683 556.37799 0.70721483 0.66728818 -0.23361002 0
-5.1191702 -20.4946 556.25897 0.6918633 0.69011402 -0.21229181 0
58.742802 -18.052401 556.87299 -0.24543509 -0.63995421 -0.72816223 0
62.7374 -18.309999 557.349 -0.22900005 -0.54347813 -0.80758309 0
67.410698 -18.764799 557.79999 -0.14790609 -0.49209729 -0.85788351 0
71.482498 -19.9475 557.65302 -0.12501296 -0.47045687 -0.87352282 0
76.628403 -19.489901 556.20697 -0.12253903 -0.46770313 -0.87535024 0
81.75 -18.5 557.75 -0.089588679 -0.84876877 -0.52111953 0
84.114853 -18.17205 557.172 -0.11418009 -0.82069826 -0.5598368 0
87.652962 -18.289833 557.0213 -0.041535169 -0.78607035 -0.61673993 0
91.479599 -18.5553 556.98645 0.0058098854 -0.76043719 -0.64938551 0
94.368774 -18.80592 556.50433 0.012477721 -0.74634176 -0.66544598 0
97.653305 -19.01162 556.77411 0.079830512 -0.65753621 -0.74918169 0
101.30499 -19.292 557.46674 0.039790012 -0.72007143 -0.6927582 0
103.539 -18.7873 556.25952 0.099087469 -0.62960386 -0.77057159 0
107.14466 -19.705332 556.27435 0.075596705 -0.62994492 -0.77295184 0
109.4565 -19.68285 555.13147 0.082601942 -0.53903782 -0.83822137 0
114.9495 -20.407 556.27466 0.029060991 -0.48827249 -0.87220722 0
118.091 -20.1901 555.99048 0.056251034 -0.37586543 -0.92496538 0
121.3855 -18.59115 555.05652 0.21031328 -0.18239659 -0.96046859 0
