ply
format ascii 1.0
comment VCGLIB generated
element vertex 723
property float x
property float y
property float z
property float nx
property float ny
property float nz
element face 0
property list uchar int vertex_indices
end_header
-0.0601458 -0.02011676 0.5903442 -0.6800866 0.1420071 -0.719247 
-0.05976299 -0.01841693 0.5903442 -0.6779594 0.1607827 -0.7173004 
-0.05933755 -0.0167171 0.5903442 -0.6688274 0.1698843 -0.7237466 
-0.05908472 -0.01571684 0.5903442 -0.6626351 0.1652912 -0.7304748 
-0.05891144 -0.01501727 0.5903442 -0.6481438 0.174999 -0.7411377 
-0.05840405 -0.01331743 0.5903442 -0.629553 0.2149004 -0.7466463 
-0.05777977 -0.0116176 0.5903442 -0.6217251 0.2230843 -0.7507938 
-0.05738489 -0.01047122 0.5903442 -0.6258109 0.2068017 -0.7520596 
-0.05720584 -0.009917771 0.5903442 -0.6172891 0.2047839 -0.7596169 
-0.05662791 -0.008217941 0.5903442 -0.6157901 0.2103155 -0.759322 
-0.05605254 -0.006518112 0.5903442 -0.6177378 0.2014536 -0.7601424 
-0.01202914 -0.03201558 0.5903442 0.9443671 -0.2310332 -0.2340822 
-0.01162662 -0.03031575 0.5903442 0.9364671 -0.1974882 -0.2898755 
-0.01148944 -0.02957661 0.5903442 0.9507194 -0.1295173 -0.2817057 
-0.0113978 -0.02861592 0.5903442 0.9658087 -0.05419932 -0.2535271 
-0.01136865 -0.02691609 0.5903442 0.955705 0.004900131 -0.2942856 
-0.01145139 -0.02521626 0.5903442 0.93694 0.06133365 -0.3440664 
-0.01148944 -0.02475418 0.5903442 0.923201 0.06574279 -0.3786526 
-0.01157175 -0.02351643 0.5903442 0.9099014 0.05439641 -0.4112425 
-0.01166193 -0.02181659 0.5903442 0.9017158 0.04723358 -0.4297413 
-0.01174384 -0.02011676 0.5903442 0.8890594 0.0345551 -0.4564859 
-0.01179935 -0.01841693 0.5903442 0.885536 0.01993734 -0.4641428 
-0.01183337 -0.0167171 0.5903442 0.870357 0.01158009 -0.4922849 
-0.01183292 -0.01501727 0.5903442 0.8636063 -0.0005020413 -0.5041664 
-0.01182678 -0.01331743 0.5903442 0.8506189 -0.001963479 -0.5257791 
-0.01181772 -0.0116176 0.5903442 0.8226141 0.01805703 -0.5683132 
-0.01187003 -0.009917771 0.5903442 0.7917032 0.06485792 -0.6074533 
-0.0120582 -0.008217941 0.5903442 0.7558353 0.1294976 -0.6418282 
-0.05568506 -0.005347 0.5903442 -0.6165605 0.1932693 -0.763217 
-0.05551509 -0.004818283 0.5903442 -0.6045735 0.2090037 -0.7686406 
-0.05487892 -0.003118439 0.5903442 -0.5844083 0.2395525 -0.7752944 
-0.05416451 -0.00141861 0.5903442 -0.5741131 0.2351307 -0.7842879 
-0.05398523 -0.0009603882 0.5903442 -0.5830715 0.221161 -0.7817387 
-0.05351003 0.0002812195 0.5903442 -0.573303 0.2277257 -0.7870608 
-0.05281721 0.001981049 0.5903442 -0.5676288 0.2255404 -0.7917885 
-0.0522854 0.003409683 0.5903442 -0.572558 0.2018994 -0.7946156 
-0.05218979 0.003680878 0.5903442 -0.5564451 0.1887646 -0.809158 
-0.05162856 0.005380722 0.5903442 -0.540747 0.1841666 -0.8207774 
-0.05104761 0.007080551 0.5903442 -0.5168961 0.1865235 -0.8354804 
-0.05058557 0.008365326 0.5903442 -0.5229689 0.1809726 -0.832918 
-0.0504429 0.008780381 0.5903442 -0.5142204 0.1953753 -0.8351083 
-0.04975345 0.01048021 0.5903442 -0.5149077 0.2492847 -0.8201996 
-0.04888573 0.01215276 0.5903442 -0.5335521 0.2757084 -0.7995667 
-0.04887041 0.01218004 0.5903442 -0.5209089 0.3112782 -0.7948332 
-0.0471859 0.01387987 0.5899315 -0.5001419 0.3399144 -0.7964398 
-0.06588405 -0.1221067 0.5892295 -0.6072552 -0.7248101 0.3254096 
-0.02338824 -0.0592129 0.5897454 0.6664839 -0.5244433 -0.5298664 
-0.06758387 -0.1204068 0.5897563 -0.6021702 -0.7198869 0.3451867 
-0.04548607 0.01387987 0.5888563 -0.4589472 0.3452779 -0.8186273 
-0.02168842 -0.05751306 0.5902255 0.6864554 -0.5514802 -0.473971 
-0.04548607 0.01557971 0.5896488 -0.4432754 0.3629618 -0.8196132 
-0.04378624 0.01557971 0.5887972 -0.3635965 0.3733165 -0.8534825 
-0.04378624 0.01727954 0.5895885 -0.3483436 0.3809164 -0.8564809 
-0.01828876 -0.05241357 0.5890143 0.763597 -0.5603024 -0.3209064 
-0.07438321 -0.1102079 0.5896367 -0.8794147 -0.1917439 -0.435734 
-0.04378624 0.01897937 0.5903189 -0.2837199 0.3565416 -0.8901579 
-0.01658893 -0.05071374 0.590219 0.8136982 -0.4908682 -0.3113579 
-0.07438321 -0.108508 0.5888156 -0.8678559 -0.2081092 -0.4511282 
-0.04208641 0.01727954 0.5889648 -0.2728285 0.3925822 -0.8783187 
-0.0148891 -0.04561424 0.5902307 0.9297886 -0.1177809 -0.3487416 
-0.04208641 0.01897937 0.589783 -0.2723994 0.3805803 -0.8837179 
-0.07438321 -0.1017087 0.5888091 -0.7540165 0.1638932 -0.6360803 
-0.04038657 0.01897937 0.58928 -0.2114912 0.3871193 -0.8974465 
-0.0148891 -0.04391441 0.5897299 0.9192871 -0.1097738 -0.3779695 
-0.07438321 -0.1000089 0.5893016 -0.7445349 0.2032539 -0.6358896 
-0.04038657 0.0206792 0.5900252 -0.2056454 0.36953 -0.9061775 
-0.0148891 -0.04221458 0.5892462 0.9210148 -0.1397052 -0.3636128 
-0.07438321 -0.09830903 0.5898866 -0.7356532 0.2088966 -0.644342 
-0.03868674 0.01897937 0.588949 -0.1487542 0.373637 -0.9155695 
-0.03698691 0.01897937 0.5887271 -0.1253898 0.3647927 -0.9226069 
-0.01318927 -0.03541525 0.589375 0.9217778 -0.2429913 -0.3021272 
-0.07268338 -0.09490936 0.5891597 -0.7091438 0.2375046 -0.6638574 
-0.03868674 0.0206792 0.5896788 -0.14842 0.3887766 -0.9092987 
-0.06078456 -0.1255063 0.5901568 -0.4791217 -0.8158194 0.3238536 
-0.03698691 0.0206792 0.5894473 -0.1287492 0.3988062 -0.9079522 
-0.07268338 -0.09320953 0.5897903 -0.7140778 0.2328621 -0.660203 
-0.06248439 -0.03371542 0.5895512 -0.6432778 0.1619146 -0.7483162 
-0.05738489 -0.1272062 0.5892763 -0.1529778 -0.9384688 0.3096356 
-0.06248439 -0.03201558 0.589942 -0.6411792 0.1582713 -0.7508923 
-0.01318927 -0.006518112 0.5895901 0.6937014 0.2194168 -0.6860282 
-0.07098355 -0.08980986 0.5890238 -0.7144594 0.1904595 -0.6732555 
-0.06248439 -0.03031575 0.5902699 -0.640523 0.1418599 -0.7547225 
-0.01318927 -0.004818283 0.5902213 0.6901089 0.2493031 -0.6794097 
-0.07098355 -0.08811004 0.5894881 -0.7147226 0.1800251 -0.6758421 
-0.05568506 -0.1272062 0.5894821 0.04543074 -0.9383207 0.3427684 
-0.0148891 -0.003118439 0.5891488 0.7098128 0.2712186 -0.6500818 
-0.06078456 -0.03031575 0.5888121 -0.6234557 0.1545542 -0.7664307 
-0.05398523 -0.1272062 0.5888818 0.1444776 -0.9277959 0.343978 
-0.06078456 -0.02861592 0.5891899 -0.6218242 0.181116 -0.7619263 
-0.0148891 -0.00141861 0.5899524 0.7229467 0.304003 -0.6204275 
-0.07098355 -0.0864102 0.5899266 -0.7211292 0.1665243 -0.6724895 
-0.06078456 -0.02691609 0.5896276 -0.6235943 0.1859815 -0.759303 
-0.07098355 -0.08471037 0.5903195 -0.7225867 0.1476252 -0.6753334 
-0.04888573 -0.1255063 0.5894708 0.3305835 -0.8319805 0.4455591 
-0.01658893 0.001981049 0.589495 0.7719356 0.3030461 -0.5588189 
-0.06078456 -0.02521626 0.5900283 -0.6364256 0.1531105 -0.7559891 
-0.0471859 -0.1238065 0.5903278 0.5551132 -0.6115173 0.5638226 
-0.01828876 0.005380722 0.588958 0.768712 0.3068649 -0.5611736 
-0.06928372 -0.08301054 0.5888781 -0.7136828 0.1372266 -0.6868957 
-0.06078456 -0.02351643 0.5903414 -0.6512 0.1289122 -0.7478771 
-0.01828876 0.007080551 0.5898721 0.7597325 0.2910556 -0.5814578 
-0.04548607 -0.1221067 0.5900043 0.6634392 -0.4428202 0.6031241 
-0.06928372 -0.0813107 0.5892019 -0.7059262 0.1004002 -0.7011334 
-0.05908472 -0.02351643 0.588823 -0.6488616 0.1084322 -0.7531408 
-0.04378624 -0.1204068 0.5890578 0.7227104 -0.3214504 0.6118491 
-0.07098355 -0.07451139 0.5900515 -0.6468956 -0.2740507 -0.7116336 
-0.05908472 -0.02181659 0.5890494 -0.6667185 0.1111064 -0.7369815 
-0.03528708 0.0206792 0.5891741 -0.1450888 0.4094284 -0.9007317 
-0.04378624 -0.118707 0.5899547 0.7227888 -0.3058126 0.6197218 
-0.05908472 -0.02011676 0.5893338 -0.6729183 0.1392193 -0.7264977 
-0.06928372 -0.07961088 0.5893818 -0.693434 0.02646147 -0.7200341 
-0.03358725 0.0206792 0.5888959 -0.1058283 0.4297532 -0.8967232 
-0.06928372 -0.07791105 0.5893311 -0.6831789 -0.07874755 -0.7259927 
-0.03188742 0.0206792 0.5887674 -0.004038627 0.4560952 -0.8899218 
-0.04208641 -0.1170072 0.5889059 0.6910893 -0.306009 0.6547932 
-0.05908472 -0.01841693 0.5897094 -0.6696736 0.1652255 -0.7240426 
-0.03018758 0.0206792 0.5888809 0.1376386 0.4596785 -0.8773547 
-0.06928372 -0.07621121 0.5890104 -0.6667851 -0.1710539 -0.7253539 
-0.04208641 -0.1153073 0.5897792 0.7014096 -0.3303031 0.6316046 
-0.05908472 -0.0167171 0.590115 -0.662243 0.1715625 -0.7293837 
-0.02338824 0.01557971 0.5892449 0.5865337 0.4493119 -0.6738672 
-0.07098355 -0.07281154 0.589303 -0.6395431 -0.3075022 -0.7045758 
-0.05738489 -0.01501727 0.5890056 -0.6281658 0.2024707 -0.7512745 
-0.02508807 0.01727954 0.5890431 0.506842 0.4564197 -0.7312949 
-0.04038657 -0.1119077 0.5892859 0.8011575 -0.2348614 0.5504423 
-0.05738489 -0.01331743 0.5895069 -0.6130382 0.2270039 -0.7567387 
-0.07268338 -0.07111172 0.5901765 -0.6730494 -0.2499419 -0.6960844 
-0.02678792 0.01897937 0.5890231 0.4231972 0.4585635 -0.7814242 
-0.04038657 -0.1102079 0.5899976 0.8208874 -0.218726 0.5275441 
-0.02848775 0.0206792 0.5892928 0.281625 0.4727746 -0.8349679 
-0.07268338 -0.06941189 0.5896144 -0.7077751 -0.1379497 -0.6928379 
-0.05738489 -0.0116176 0.5900287 -0.6113606 0.2201589 -0.7601106 
-0.02678792 0.0206792 0.590085 0.4034776 0.4635068 -0.7889025 
-0.07268338 -0.06771205 0.5894977 -0.7356802 0.06813093 -0.6738938 
-0.05568506 -0.0116176 0.5886521 -0.5969694 0.2081625 -0.7747877 
-0.02508807 0.01897937 0.5901381 0.4963983 0.4579988 -0.7374455 
-0.03868674 -0.1017087 0.5899421 0.9417364 -0.2878649 0.1739721 
-0.05568506 -0.009917771 0.5891105 -0.6005405 0.2114701 -0.7711236 
-0.07268338 -0.06601222 0.5899883 -0.732254 0.2406676 -0.6370896 
-0.01998859 0.01048021 0.5895527 0.7207304 0.3403744 -0.6038982 
-0.05568506 -0.008217941 0.5895859 -0.6089357 0.2091622 -0.7651461 
-0.07098355 -0.06431239 0.5888288 -0.713093 0.3460968 -0.6096846 
-0.03698691 -0.08811004 0.590017 0.9532768 0.1000915 0.2850353 
-0.05568506 -0.006518112 0.5900488 -0.6157417 0.2000544 -0.7621288 
-0.02168842 0.01387987 0.5897373 0.6514155 0.4254296 -0.6282257 
-0.07098355 -0.06261256 0.5898918 -0.7140632 0.3597032 -0.6006057 
-0.01148944 -0.02861592 0.5900614 0.9324487 -0.05968807 -0.3563381 
-0.06928372 -0.06091273 0.5888884 -0.7051816 0.3115495 -0.6369112 
-0.03698691 -0.0864102 0.5889946 0.9909166 0.05739243 0.1216158 
-0.01148944 -0.02691609 0.5900084 0.9214961 0.03137449 -0.3871183 
-0.03698691 0.02237903 0.590223 -0.1125775 0.3960681 -0.9112937 
-0.06928372 -0.0592129 0.5896161 -0.6893932 0.2103906 -0.6931614 
-0.01148944 -0.02521626 0.5902562 0.9031411 0.06817897 -0.4238958 
-0.06928372 -0.05751306 0.5899612 -0.6720641 0.1309179 -0.728828 
-0.03528708 -0.0813107 0.5887189 0.821662 -0.5060574 -0.2622546 
-0.06928372 -0.05581323 0.5902247 -0.6681547 0.1242106 -0.7335809 
-0.06758387 -0.05581323 0.5886845 -0.6515995 0.1286272 -0.7475781 
-0.03188742 -0.07451139 0.5887435 0.8556061 -0.3702665 -0.3617195 
-0.01318927 -0.009917771 0.5887658 0.7510439 0.1188221 -0.6494724 
-0.06758387 -0.0541134 0.5890673 -0.6465875 0.1968342 -0.7370081 
-0.01318927 -0.008217941 0.5891014 0.7175694 0.1583526 -0.6782467 
-0.03018758 -0.07111172 0.5892619 0.8516515 -0.3211142 -0.4142167 
-0.06758387 -0.05241357 0.5895988 -0.6475416 0.2146052 -0.731187 
-0.06758387 -0.05071374 0.5900674 -0.6666615 0.182141 -0.7227635 
-0.02848775 -0.06771205 0.5900084 0.8042444 -0.3519823 -0.4788521 
-0.05398523 -0.004818283 0.5891172 -0.5911636 0.232885 -0.7721983 
-0.06588405 -0.0490139 0.5888174 -0.6815752 0.1606951 -0.7138854 
-0.05398523 -0.003118439 0.5896954 -0.5730249 0.2507142 -0.7802467 
-0.02848775 -0.06601222 0.5888515 0.7873122 -0.3278667 -0.5221523 
-0.06588405 -0.04731407 0.5892347 -0.6802381 0.1829815 -0.7097844 
-0.05398523 -0.00141861 0.5902185 -0.5729269 0.2289589 -0.7869768 
-0.02678792 -0.06431239 0.5900001 0.7073666 -0.4307239 -0.5604546 
-0.06588405 -0.04561424 0.5896991 -0.675293 0.194628 -0.7114065 
-0.0522854 -0.00141861 0.5889334 -0.5683864 0.2326252 -0.7891909 
-0.02678792 -0.06261256 0.5887554 0.6803401 -0.4045177 -0.6111488 
-0.06588405 -0.04391441 0.5901665 -0.6773835 0.1951217 -0.7092807 
-0.0522854 0.0002812195 0.5894473 -0.5704132 0.2372575 -0.7863445 
-0.02508807 -0.06091273 0.5892802 0.6475799 -0.4871589 -0.5859321 
-0.06418422 -0.04221458 0.5890222 -0.6676108 0.2143088 -0.712999 
-0.0522854 0.001981049 0.5899775 -0.5634221 0.2268576 -0.7944124 
-0.06418422 -0.04051474 0.5895739 -0.6571519 0.2232268 -0.7199453 
-0.05058557 0.001981049 0.5887117 -0.5637639 0.2247488 -0.7947693 
-0.06418422 -0.03881491 0.5900778 -0.6570646 0.1900665 -0.7294799 
-0.05058557 0.003680878 0.5892003 -0.5568327 0.2158876 -0.8020784 
-0.05058557 0.005380722 0.5896544 -0.5423903 0.2051066 -0.8147049 
-0.06248439 -0.03711508 0.5888868 -0.6624858 0.1461145 -0.7346857 
-0.05058557 0.007080551 0.5900643 -0.5244812 0.1942274 -0.8289723 
-0.03528708 0.02237903 0.589985 -0.1262967 0.4052391 -0.9054449 
-0.06248439 -0.03541525 0.5892043 -0.6511865 0.1451236 -0.744913 
-0.03358725 0.02237903 0.5897559 -0.08449747 0.4244357 -0.9015068 
-0.04888573 0.007080551 0.5889221 -0.5235552 0.2067946 -0.8265144 
-0.03188742 0.02237903 0.5896718 0.01935261 0.4467605 -0.8944442 
-0.03018758 0.02237903 0.5898365 0.1543954 0.4650798 -0.8717011 
-0.04888573 0.008780381 0.5893597 -0.5195819 0.210134 -0.8281777 
-0.02848775 0.02237903 0.5902842 0.2523226 0.4697514 -0.8459709 
-0.04888573 0.01048021 0.5898241 -0.5143723 0.2370396 -0.8241562 
-0.0471859 0.01048021 0.5887261 -0.5079381 0.21313 -0.8346103 
-0.0471859 0.01218004 0.589213 -0.5064405 0.2881047 -0.8127199 
-0.01100735 -0.006518112 0.5920441 0.7924373 0.1454084 -0.5923678 
-0.02298108 -0.06091273 0.5920441 0.7294077 -0.5126662 -0.4529212 
-0.01145856 -0.004818283 0.5920441 0.7558426 0.2227392 -0.6157022 
-0.07098355 -0.1165264 0.5920441 -0.6331943 -0.7185583 0.2876439 
-0.02176385 -0.0592129 0.5920441 0.7414098 -0.500541 -0.4469565 
-0.01148944 -0.004723053 0.5920441 0.7287216 0.2641926 -0.6317968 
-0.07217966 -0.1153073 0.5920441 -0.7276467 -0.6555761 0.201867 
-0.02168842 -0.05909439 0.5920441 0.7338622 -0.5098449 -0.4488925 
-0.0121395 -0.003118439 0.5920441 0.69853 0.3136774 -0.6431658 
-0.02056476 -0.05751306 0.5920441 0.7538863 -0.5258911 -0.3938198 
-0.06758387 -0.1192184 0.5920441 -0.5602781 -0.7389544 0.3742121 
-0.01998859 -0.05666943 0.5920441 0.7913515 -0.5140578 -0.3309191 
-0.01318927 -0.0009658203 0.5920441 0.6941007 0.3197449 -0.6449708 
-0.06827135 -0.118707 0.5920441 -0.5746914 -0.7304386 0.3690384 
-0.01376993 0.0002812195 0.5920441 0.6968122 0.3239253 -0.6399416 
-0.01942755 -0.05581323 0.5920441 0.8042522 -0.522001 -0.2840658 
-0.06588405 -0.1205457 0.5920441 -0.5738838 -0.7204338 0.3894002 
-0.01297833 -0.00141861 0.5920441 0.6916389 0.3301557 -0.642365 
-0.06606416 -0.1204068 0.5920441 -0.5705112 -0.7257804 0.3843955 
-0.01831961 -0.0541134 0.5920441 0.8141831 -0.5141108 -0.2698073 
-0.06418422 -0.1219378 0.5920441 -0.5740114 -0.7090791 0.4095336 
-0.0145658 0.001981049 0.5920441 0.702396 0.3093571 -0.6410445 
-0.01828876 -0.05406299 0.5920441 0.8108304 -0.5211163 -0.266443 
-0.0148891 0.002759338 0.5920441 0.7124249 0.2962343 -0.6361573 
-0.06928372 -0.117891 0.5920441 -0.5965084 -0.7259156 0.3423805 
-0.01721411 -0.05241357 0.5920441 0.8429329 -0.5181285 -0.1449379 
-0.07035149 -0.1170072 0.5920441 -0.5924423 -0.744435 0.3079427 
-0.01527048 0.003680878 0.5920441 0.7296134 0.2923188 -0.6182346 
-0.01658893 -0.05139921 0.5920441 0.8622403 -0.5010581 -0.07404438 
-0.0159422 0.005380722 0.5920441 0.7310709 0.2710105 -0.6261698 
-0.01653802 0.007080551 0.5920441 0.7323638 0.249597 -0.6335176 
-0.01621393 -0.05071374 0.5920441 0.8908179 -0.4533942 -0.02961646 
-0.07438321 -0.1123611 0.5920441 -0.8485168 -0.5290703 0.01018581 
-0.07466166 -0.1119077 0.5920441 -0.8880513 -0.455214 -0.06438269 
-0.01540097 -0.0490139 0.5920441 0.9395081 -0.341721 0.02348149 
-0.02338824 0.01974962 0.5920441 0.615725 0.4360487 -0.6563112 
-0.01493344 -0.04731407 0.5920441 0.972808 -0.2200301 0.07232902 
-0.07268338 -0.1146809 0.5920441 -0.7850375 -0.6020687 0.1457033 
-0.02403677 0.0206792 0.5920441 0.5926604 0.4338444 -0.6786255 
-0.07351875 -0.1136075 0.5920441 -0.7991602 -0.5931783 0.09737883 
-0.0148891 -0.0470685 0.5920441 0.9817176 -0.1794176 0.06355921 
-0.01658893 0.007234711 0.5920441 0.7317083 0.272121 -0.6249426 
-0.07548015 -0.1102079 0.5920441 -0.8951635 -0.3729551 -0.244104 
-0.01463104 -0.04561424 0.5920441 0.9887332 -0.1452452 0.0362015 
-0.01719528 0.008780381 0.5920441 0.7364267 0.3127036 -0.5999102 
-0.07593648 -0.108508 0.5920441 -0.8985434 -0.2179747 -0.3809291 
-0.0144202 -0.04391441 0.5920441 0.9921376 -0.1057745 0.06689248 
-0.01798407 0.01048021 0.5920441 0.7403851 0.3379209 -0.5810675 
-0.01423325 -0.04221458 0.5920441 0.9864098 -0.156737 0.04928831 
-0.07608304 -0.1078329 0.5920441 -0.9055755 -0.2079326 -0.3697257 
-0.01828876 0.01119301 0.5920441 0.7415785 0.3399993 -0.5783267 
-0.07631299 -0.1068082 0.5920441 -0.9014325 -0.182808 -0.392429 
-0.0139252 -0.04051474 0.5920441 0.9780244 -0.2079445 -0.01507811 
-0.01877087 0.01218004 0.5920441 0.7244207 0.3809197 -0.5745562 
-0.07662128 -0.1051084 0.5920441 -0.8989528 -0.1363281 -0.4162915 
-0.019737 0.01387987 0.5920441 0.7197112 0.3957278 -0.5704518 
-0.01353381 -0.03881491 0.5920441 0.9660847 -0.2519729 -0.05648135 
-0.07681386 -0.1034085 0.5920441 -0.8798098 -0.04728463 -0.4729683 
-0.01318927 -0.03762872 0.5920441 0.9580061 -0.282373 -0.04989837 
-0.07681981 -0.1017087 0.5920441 -0.8392202 0.03955193 -0.5423514 
-0.01304074 -0.03711508 0.5920441 0.9647375 -0.2600273 -0.04083121 
-0.01998859 0.0143495 0.5920441 0.7087221 0.3978719 -0.5825899 
-0.02068539 0.01557971 0.5920441 0.692251 0.4080001 -0.5952516 
-0.01260104 -0.03541525 0.5920441 0.9709917 -0.2377947 -0.02507494 
-0.07660406 -0.1000089 0.5920441 -0.790975 0.1227523 -0.5994083 
-0.02168842 0.01720526 0.5920441 0.6705502 0.4055818 -0.6211811 
-0.01219946 -0.03371542 0.5920441 0.9753022 -0.2205018 0.01283672 
-0.07628047 -0.09830903 0.5920441 -0.7605814 0.1498816 -0.6317052 
-0.02173129 0.01727954 0.5920441 0.6616572 0.4069484 -0.629764 
-0.07608304 -0.09738822 0.5920441 -0.7378123 0.1706117 -0.6530886 
-0.0640372 -0.02861592 0.5920441 -0.671365 0.1615542 -0.7233045 
-0.02284219 0.01897937 0.5920441 0.6375614 0.434441 -0.6362204 
-0.06418422 -0.02925053 0.5920441 -0.6848255 0.1503726 -0.7130232 
-0.07588382 -0.0966092 0.5920441 -0.7191123 0.2081776 -0.6629778 
-0.06359608 -0.02691609 0.5920441 -0.652504 0.1803086 -0.7360213 
-0.07533627 -0.09490936 0.5920441 -0.7107179 0.2320201 -0.6641135 
-0.04627379 0.0206792 0.5920441 -0.4241515 0.2751295 -0.8627858 
-0.06310341 -0.02521626 0.5920441 -0.6462007 0.1781361 -0.7420864 
-0.04548607 0.02179996 0.5920441 -0.3664657 0.2830549 -0.8863311 
-0.07477085 -0.09320953 0.5920441 -0.7127581 0.2254756 -0.6641813 
-0.06267184 -0.02351643 0.5920441 -0.6544133 0.1505538 -0.7409971 
-0.04500182 0.02237903 0.5920441 -0.3017858 0.2858141 -0.9095249 
-0.07438321 -0.09192038 0.5920441 -0.7128775 0.2047303 -0.6707392 
-0.06248439 -0.02262152 0.5920441 -0.6641456 0.1323482 -0.7357952 
-0.04378624 0.02345302 0.5920441 -0.2651028 0.3292281 -0.9062722 
-0.07427271 -0.0915097 0.5920441 -0.7153094 0.193405 -0.6715109 
-0.06233351 -0.02181659 0.5920441 -0.6691063 0.1368523 -0.7304576 
-0.04286754 0.02407886 0.5920441 -0.2216415 0.3585453 -0.9068187 
-0.06196219 -0.02011676 0.5920441 -0.6742781 0.1600808 -0.7209183 
-0.07380963 -0.08980986 0.5920441 -0.7187047 0.1974802 -0.6666822 
-0.04208641 0.02455342 0.5920441 -0.2057277 0.3540648 -0.9123126 
-0.0733275 -0.08811004 0.5920441 -0.730131 0.1939991 -0.6551893 
-0.06153293 -0.01841693 0.5920441 -0.6850166 0.1633882 -0.7099693 
-0.04038657 0.02545622 0.5920441 -0.1841289 0.3561472 -0.916109 
-0.06113818 -0.0167171 0.5920441 -0.6916869 0.1568793 -0.7049526 
-0.07291 -0.0864102 0.5920441 -0.7306912 0.1574589 -0.6643019 
-0.03971954 0.0257787 0.5920441 -0.159729 0.370099 -0.9151576 
-0.06078456 -0.01509743 0.5920441 -0.6833397 0.1470836 -0.7151317 
-0.07268338 -0.08521705 0.5920441 -0.7246255 0.1325068 -0.6762838 
-0.03868674 0.02620692 0.5920441 -0.1347029 0.3476438 -0.9279003 
-0.0607677 -0.01501727 0.5920441 -0.6745172 0.1556676 -0.7216608 
-0.0725974 -0.08471037 0.5920441 -0.7247357 0.1169364 -0.6790318 
-0.03698691 0.02681113 0.5920441 -0.1237483 0.343895 -0.9308182 
-0.06033574 -0.01331743 0.5920441 -0.6612854 0.1934286 -0.7247669 
-0.07233838 -0.08301054 0.5920441 -0.7132344 0.09694149 -0.6941894 
-0.05976302 -0.0116176 0.5920441 -0.6423319 0.2179543 -0.7347828 
-0.07214612 -0.0813107 0.5920441 -0.6973237 0.05435832 -0.7146921 
-0.05918443 -0.009917771 0.5920441 -0.6315164 0.2046616 -0.7478641 
-0.07207329 -0.07961088 0.5920441 -0.6863704 -0.007648347 -0.7272119 
-0.05908472 -0.009585663 0.5920441 -0.6368616 0.1880645 -0.7476891 
-0.05738489 -0.1257633 0.5920441 -0.1084249 -0.8392451 0.5328338 
-0.07219297 -0.07791105 0.5920441 -0.6776642 -0.09495313 -0.7292155 
-0.05868025 -0.008217941 0.5920441 -0.6264932 0.1921248 -0.7553769 
-0.05862576 -0.1255063 0.5920441 -0.2297662 -0.8150826 0.5318344 
-0.07254532 -0.07621121 0.5920441 -0.6731857 -0.1661413 -0.720568 
-0.05814165 -0.006518112 0.5920441 -0.6211298 0.2016591 -0.7573185 
-0.06078456 -0.1244003 0.5920441 -0.4456456 -0.7569581 0.4779274 
-0.07268338 -0.07573171 0.5920441 -0.6687036 -0.2176373 -0.7109638 
-0.06174538 -0.1238065 0.5920441 -0.4873651 -0.7409472 0.4620307 
-0.07313327 -0.07451139 0.5920441 -0.6604667 -0.2715411 -0.7000352 
-0.01180469 -0.03201558 0.5920441 0.969092 -0.2421276 0.04727638 
-0.06248439 -0.123282 0.5920441 -0.5290391 -0.7132356 0.4597963 
-0.06397644 -0.1221067 0.5920441 -0.5598559 -0.7132091 0.4217749 
-0.01148944 -0.03065161 0.5920441 0.9735419 -0.2278854 0.01686306 
-0.07438321 -0.07152611 0.5920441 -0.688574 -0.2459659 -0.6821779 
-0.05908472 -0.125328 0.5920441 -0.3508074 -0.7645647 0.5407172 
-0.01140927 -0.03031575 0.5920441 0.9756212 -0.2187808 0.01726518 
-0.07452133 -0.07111172 0.5920441 -0.7046706 -0.2037617 -0.6796473 
-0.05568506 -0.1258116 0.5920441 0.03866552 -0.8423923 0.5374758 
-0.07389015 -0.07281154 0.5920441 -0.6669119 -0.2749142 -0.6925682 
-0.01105191 -0.02861592 0.5920441 0.9904963 -0.1352132 -0.02518789 
-0.05398523 -0.12562 0.5920441 0.135424 -0.8461634 0.5154299 
-0.01092023 -0.02691609 0.5920441 0.9929219 -0.03452569 -0.1136402 
-0.07494123 -0.06941189 0.5920441 -0.7385405 -0.07959215 -0.6694947 
-0.0534386 -0.1255063 0.5920441 0.2169978 -0.8153181 0.5368131 
-0.07491321 -0.06771205 0.5920441 -0.755861 0.1125155 -0.6449918 
-0.01093304 -0.02521626 0.5920441 0.9858057 0.0148388 -0.1672332 
-0.0522854 -0.1251496 0.5920441 0.2905129 -0.7821457 0.5512261 
-0.01099155 -0.02351643 0.5920441 0.9703887 0.01292667 -0.2412024 
-0.0744274 -0.06601222 0.5920441 -0.7497846 0.2534013 -0.6112371 
-0.05058557 -0.1244277 0.5920441 0.3298664 -0.7378433 0.5888763 
-0.011013 -0.02181659 0.5920441 0.951259 -0.008511875 -0.3082756 
-0.07438321 -0.06589701 0.5920441 -0.7318206 0.3212043 -0.6010543 
-0.01098007 -0.02011676 0.5920441 0.9335188 -0.01149703 -0.3583443 
-0.04938306 -0.1238065 0.5920441 0.4002208 -0.6428608 0.6531106 
-0.07361292 -0.06431239 0.5920441 -0.7297136 0.3602671 -0.5811417 
-0.01097366 -0.01841693 0.5920441 0.9161868 -0.01876328 -0.4003119 
-0.04888573 -0.1234538 0.5920441 0.4890999 -0.5646726 0.6647753 
-0.07274139 -0.06261256 0.5920441 -0.7353809 0.3446187 -0.5834833 
-0.01092044 -0.0167171 0.5920441 0.9033496 -0.02200331 -0.4283402 
-0.04758836 -0.1221067 0.5920441 0.5598615 -0.478161 0.6766956 
-0.07268338 -0.06247808 0.5920441 -0.738227 0.2977982 -0.6052579 
-0.010897 -0.01501727 0.5920441 0.8939869 -0.0183076 -0.4477191 
-0.07210101 -0.06091273 0.5920441 -0.7352121 0.2384515 -0.6345109 
-0.0471859 -0.1215592 0.5920441 0.608351 -0.4112172 0.6788296 
-0.03528708 0.02735985 0.5920441 -0.08825923 0.3499971 -0.9325837 
-0.04646832 -0.1204068 0.5920441 0.6550264 -0.364411 0.6619253 
-0.01086789 -0.01331743 0.5920441 0.8834089 -0.03867412 -0.4670043 
-0.07167213 -0.0592129 0.5920441 -0.7234527 0.1361988 -0.6768058 
-0.03463794 0.02747853 0.5920441 -0.04947246 0.3770497 -0.9248708 
-0.04560544 -0.118707 0.5920441 0.6941963 -0.3252823 0.6420926 
-0.07144815 -0.05751306 0.5920441 -0.7172382 0.1035782 -0.689087 
-0.01076511 -0.0116176 0.5920441 0.8703541 -0.02925368 -0.4915567 
-0.03188742 0.02735815 0.5920441 0.1501282 0.4119744 -0.8987428 
-0.04548607 -0.118422 0.5920441 0.7104645 -0.3035597 0.6348951 
-0.01072162 -0.009917771 0.5920441 0.8555506 0.002532375 -0.5177131 
-0.0711799 -0.05581323 0.5920441 -0.7058404 0.1324604 -0.6958761 
-0.03240297 0.02747853 0.5920441 0.06322233 0.4173657 -0.9065367 
-0.04488503 -0.1170072 0.5920441 0.7193499 -0.3315794 0.610402 
-0.07098355 -0.05491625 0.5920441 -0.6981472 0.1607267 -0.6976801 
-0.03018758 0.02658368 0.5920441 0.2584497 0.4470619 -0.8563524 
-0.01077774 -0.008217941 0.5920441 0.8307968 0.06163966 -0.5531521 
-0.04403329 -0.1153073 0.5920441 0.7104899 -0.3450049 0.6133317 
-0.02678792 0.02396407 0.5920441 0.4772942 0.451795 -0.7537053 
-0.07078619 -0.0541134 0.5920441 -0.6867279 0.1852936 -0.7029018 
-0.02690048 0.02407886 0.5920441 0.4261344 0.4508391 -0.7843173 
-0.05760477 -0.004818283 0.5920441 -0.6220213 0.1909956 -0.7593486 
-0.04378624 -0.1147896 0.5920441 0.7070557 -0.3418096 0.6190625 
-0.0702865 -0.05241357 0.5920441 -0.6818303 0.2142994 -0.6994162 
-0.02508807 0.02204982 0.5920441 0.5604299 0.4388376 -0.7023816 
-0.05738489 -0.004077316 0.5920441 -0.6231595 0.1965805 -0.7569863 
-0.06972052 -0.05071374 0.5920441 -0.683933 0.2195171 -0.6957355 
-0.04321017 -0.1136075 0.5920441 0.7163407 -0.3325981 0.6133795 
-0.02535352 0.02237903 0.5920441 0.5214112 0.4482578 -0.7260821 
-0.05705902 -0.003118439 0.5920441 -0.6061281 0.2207273 -0.7641257 
-0.06928372 -0.04927194 0.5920441 -0.6897392 0.1981547 -0.6964155 
-0.04245352 -0.1119077 0.5920441 0.7288359 -0.2854868 0.6223307 
-0.02848775 0.02545963 0.5920441 0.3830142 0.4614021 -0.8002551 
-0.05640506 -0.00141861 0.5920441 -0.6017773 0.2392384 -0.7619903 
-0.06921298 -0.0490139 0.5920441 -0.6906868 0.1916513 -0.6972958 
-0.04208641 -0.1108147 0.5920441 0.75233 -0.2473808 0.6105754 
-0.02893716 0.0257787 0.5920441 0.3039497 0.4757642 -0.8253865 
-0.06873564 -0.04731407 0.5920441 -0.6987817 0.2012041 -0.6864553 
-0.05573912 0.0002812195 0.5920441 -0.604099 0.2331972 -0.762026 
-0.04189162 -0.1102079 0.5920441 0.7652336 -0.2519251 0.5924114 
-0.03358725 0.02757056 0.5920441 -0.001915844 0.3876319 -0.9218122 
-0.04129485 -0.108508 0.5920441 0.7904857 -0.2556504 0.5565745 
-0.05568506 0.000423233 0.5920441 -0.6067787 0.2226154 -0.7630609 
-0.06822112 -0.04561424 0.5920441 -0.7082769 0.2047743 -0.6755821 
-0.05511099 0.001981049 0.5920441 -0.5918375 0.2163832 -0.7764707 
-0.04074677 -0.1068082 0.5920441 0.8286074 -0.2440301 0.5038443 
-0.0677454 -0.04391441 0.5920441 -0.7135115 0.1884295 -0.6748302 
-0.05450229 0.003680878 0.5920441 -0.5841359 0.1851577 -0.7902544 
-0.04038657 -0.1052891 0.5920441 0.8675731 -0.2042194 0.4534437 
-0.06758387 -0.04326024 0.5920441 -0.7084304 0.17663 -0.6833215 
-0.05405707 0.005380722 0.5920441 -0.5840608 0.1368327 -0.8000937 
-0.04034538 -0.1051084 0.5920441 0.8832959 -0.2272681 0.4100459 
-0.06732414 -0.04221458 0.5920441 -0.6971784 0.1837298 -0.6929543 
-0.05398523 0.005733475 0.5920441 -0.5852655 0.1268825 -0.8008528 
-0.03985774 -0.1034085 0.5920441 0.8857039 -0.2675501 0.3794017 
-0.06685901 -0.04051474 0.5920441 -0.6870565 0.1954829 -0.6998142 
-0.05367761 0.007080551 0.5920441 -0.5577263 0.1581346 -0.814822 
-0.03927794 -0.1017087 0.5920441 0.8879783 -0.3112578 0.3385456 
-0.06634467 -0.03881491 0.5920441 -0.6841311 0.1915455 -0.7037577 
-0.03868674 -0.1000771 0.5920441 0.9034209 -0.3249914 0.2796626 
-0.05310779 0.008780381 0.5920441 -0.550476 0.2244769 -0.8041059 
-0.06590688 -0.03711508 0.5920441 -0.6927342 0.164782 -0.7021154 
-0.03866219 -0.1000089 0.5920441 0.9047673 -0.3229114 0.277713 
-0.0523244 0.01048021 0.5920441 -0.5504486 0.2662863 -0.7912636 
-0.03806071 -0.09830903 0.5920441 0.8857807 -0.3046373 0.3501267 
-0.0522854 0.01055643 0.5920441 -0.5491802 0.2893211 -0.7840245 
-0.03753725 -0.0966092 0.5920441 0.8953011 -0.1920604 0.4019313 
-0.06588405 -0.03701027 0.5920441 -0.6885761 0.1491971 -0.70965 
-0.05137422 0.01218004 0.5920441 -0.5321096 0.3219184 -0.7830887 
-0.06554419 -0.03541525 0.5920441 -0.6861656 0.1476225 -0.7123091 
-0.03732799 -0.09490936 0.5920441 0.9103144 -0.05089196 0.410777 
-0.05058557 0.01340945 0.5920441 -0.5399376 0.3379626 -0.7708753 
-0.06517497 -0.03371542 0.5920441 -0.6921981 0.1541106 -0.7050615 
-0.03737395 -0.09320953 0.5920441 0.9201736 0.04926283 0.3883989 
-0.03750797 -0.0915097 0.5920441 0.9277444 0.06271295 0.3679095 
-0.06478485 -0.03201558 0.5920441 -0.6957391 0.1575684 -0.700799 
-0.0502829 0.01387987 0.5920441 -0.5327933 0.3527094 -0.7692382 
-0.06440752 -0.03031575 0.5920441 -0.698671 0.1500788 -0.6995249 
-0.03763176 -0.08980986 0.5920441 0.9410437 0.0334252 0.3366295 
-0.04917877 0.01557971 0.5920441 -0.5421645 0.3442449 -0.76652 
-0.03764398 -0.08811004 0.5920441 0.9588166 -0.08321669 0.2715617 
-0.04888573 0.01606161 0.5920441 -0.5432442 0.3212242 -0.7756937 
-0.04815823 0.01727954 0.5920441 -0.5251809 0.302922 -0.7952504 
-0.03735123 -0.0864102 0.5920441 0.9582268 -0.2414607 0.1532911 
-0.04721088 0.01897937 0.5920441 -0.5156026 0.2771778 -0.8107567 
-0.03698691 -0.08547764 0.5920441 0.9103097 -0.4101466 0.0558216 
-0.0471859 0.0190298 0.5920441 -0.5040931 0.2501447 -0.8266305 
-0.03655588 -0.08471037 0.5920441 0.8414313 -0.539709 -0.02659851 
-0.0353009 -0.08301054 0.5920441 0.8160836 -0.5511039 -0.1740466 
-0.03528708 -0.08298817 0.5920441 0.8418739 -0.5076731 -0.1830748 
-0.03428053 -0.0813107 0.5920441 0.8419369 -0.5143299 -0.1631167 
-0.03358725 -0.08016201 0.5920441 0.8580497 -0.4931646 -0.1433159 
-0.03329805 -0.07961088 0.5920441 0.8787941 -0.4563311 -0.1395811 
-0.03240126 -0.07791105 0.5920441 0.8784941 -0.4446815 -0.1746611 
-0.03188742 -0.0768124 0.5920441 0.8788273 -0.4351779 -0.1956594 
-0.03158214 -0.07621121 0.5920441 0.8613194 -0.4643806 -0.2061057 
-0.03061179 -0.07451139 0.5920441 0.8596099 -0.4544558 -0.2335393 
-0.03018758 -0.07367195 0.5920441 0.8674746 -0.4318254 -0.2470118 
-0.02978767 -0.07281154 0.5920441 0.8731492 -0.4067063 -0.2687016 
-0.02893997 -0.07111172 0.5920441 0.8560895 -0.4063463 -0.3193642 
-0.02848775 -0.0700694 0.5920441 0.8559111 -0.377588 -0.353332 
-0.02821159 -0.06941189 0.5920441 0.8412968 -0.3968649 -0.3670392 
-0.02731888 -0.06771205 0.5920441 0.7986813 -0.425 -0.4260082 
-0.02678792 -0.06675016 0.5920441 0.7637078 -0.4506507 -0.4622383 
-0.02633267 -0.06601222 0.5920441 0.7513406 -0.4660547 -0.467205 
-0.02527646 -0.06431239 0.5920441 0.7462379 -0.4327668 -0.505808 
-0.02508807 -0.0639696 0.5920441 0.7419077 -0.4552826 -0.4922304 
-0.02417242 -0.06261256 0.5920441 0.7263994 -0.4993061 -0.4722683 
-0.02338824 -0.06148682 0.5920441 0.7323882 -0.5140761 -0.4464675 
-0.06418422 -0.1221067 0.5917529 -0.5718209 -0.7055053 0.4186683 
-0.06418422 -0.03711508 0.5904407 -0.6667311 0.1354348 -0.7328895 
-0.06418422 -0.03541525 0.5907498 -0.6785738 0.1387926 -0.7213005 
-0.07098355 -0.1170072 0.5907499 -0.6785871 -0.686179 0.2620645 
-0.06418422 -0.03371542 0.5910852 -0.6810625 0.1502012 -0.7166544 
-0.06928372 -0.118707 0.5904053 -0.6106483 -0.7122042 0.3462279 
-0.02338824 -0.06091273 0.5914036 0.7146375 -0.5033686 -0.4857091 
-0.07438321 -0.1119077 0.590488 -0.927827 -0.2920541 -0.2320376 
-0.01998859 -0.05581323 0.590831 0.7422844 -0.5492614 -0.3838306 
-0.07608304 -0.1068082 0.5915253 -0.8983274 -0.1788461 -0.4012753 
-0.07608304 -0.1051084 0.5908923 -0.893729 -0.1042558 -0.4363245 
-0.07608304 -0.1034085 0.5907161 -0.8638173 0.01607505 -0.5035485 
-0.01318927 -0.03711508 0.5911881 0.9449201 -0.2671685 -0.1890687 
-0.07608304 -0.1017087 0.5909066 -0.8208261 0.1030507 -0.5618053 
-0.07608304 -0.1000089 0.5913502 -0.7791823 0.1585104 -0.6064236 
-0.06418422 -0.03201558 0.5914624 -0.676486 0.1578284 -0.7193447 
-0.07608304 -0.09830903 0.5918103 -0.7491959 0.1625126 -0.6421022 
-0.06418422 -0.03031575 0.5918253 -0.6798368 0.1503054 -0.7177954 
-0.07438321 -0.0966092 0.5904187 -0.7258716 0.2206336 -0.6514838 
-0.06248439 -0.02861592 0.5906221 -0.6481419 0.1737089 -0.7414427 
-0.07438321 -0.09490936 0.5910125 -0.7175611 0.2349712 -0.6556635 
-0.06248439 -0.02691609 0.5910637 -0.6443586 0.1914309 -0.7403757 
-0.07438321 -0.09320953 0.5916208 -0.7148827 0.2274622 -0.6612138 
-0.06248439 -0.02521626 0.5915063 -0.6478186 0.1766967 -0.7410192 
-0.07268338 -0.0915097 0.590351 -0.7260752 0.1973136 -0.6586974 
-0.05908472 -0.1255063 0.5917821 -0.3502349 -0.8000308 0.4871203 
-0.06248439 -0.02351643 0.5918778 -0.6587866 0.1477612 -0.7376766 
-0.07268338 -0.08980986 0.5908382 -0.7208956 0.1896987 -0.6665763 
-0.06248439 -0.1238065 0.5911894 -0.5222026 -0.7406201 0.4228314 
-0.06078456 -0.02181659 0.5906233 -0.6679456 0.1314119 -0.732516 
-0.07268338 -0.08811004 0.5913121 -0.7273992 0.1879332 -0.6599785 
-0.06078456 -0.02011676 0.5909458 -0.6767383 0.1485923 -0.7210726 
-0.0522854 -0.1255063 0.5914688 0.2686822 -0.827924 0.4922923 
-0.07268338 -0.0864102 0.5917889 -0.7334639 0.1625797 -0.659999 
-0.05058557 -0.1255063 0.5905421 0.2680067 -0.8156331 0.5127524 
-0.06078456 -0.01841693 0.5913211 -0.6839727 0.1573821 -0.7123288 
-0.07098355 -0.08301054 0.590647 -0.7147732 0.1160841 -0.6896548 
-0.06078456 -0.0167171 0.5916998 -0.6813528 0.1582713 -0.7146388 
-0.07098355 -0.0813107 0.5908938 -0.7058434 0.07091013 -0.7048098 
-0.05908472 -0.01501727 0.5904962 -0.6577485 0.1697582 -0.7338592 
-0.04888573 -0.1238065 0.591717 0.4676765 -0.6304089 0.6195672 
-0.07098355 -0.07961088 0.5909988 -0.6944575 0.004047575 -0.7195222 
-0.05908472 -0.01331743 0.5909196 -0.6420336 0.2075732 -0.7380422 
-0.0471859 -0.1221067 0.5917047 0.5945024 -0.4667799 0.6547393 
-0.07098355 -0.07791105 0.590915 -0.6801345 -0.0895905 -0.7275923 
-0.05908472 -0.0116176 0.5914572 -0.63459 0.2256879 -0.7391621 
-0.07098355 -0.07621121 0.5905777 -0.6687413 -0.1736023 -0.7229434 
-0.04548607 -0.1204068 0.5910137 0.6916538 -0.3493105 0.6321369 
-0.05908472 -0.009917771 0.5919617 -0.6316137 0.2029216 -0.7482559 
-0.07268338 -0.07451139 0.5916275 -0.6540869 -0.274324 -0.704923 
-0.04548607 -0.118707 0.5919108 0.7066618 -0.3189883 0.6315659 
-0.05738489 -0.009917771 0.5904899 -0.629218 0.2020977 -0.750494 
-0.04378624 -0.1170072 0.590744 0.7205267 -0.3270772 0.6114424 
-0.05738489 -0.008217941 0.5909597 -0.6232857 0.2065975 -0.7542098 
-0.04378624 -0.1153073 0.5917464 0.7152166 -0.3528269 0.6033062 
-0.07438321 -0.07111172 0.5919014 -0.7040703 -0.2118452 -0.6777954 
-0.05738489 -0.006518112 0.5914391 -0.6158711 0.2034554 -0.7611233 
-0.07268338 -0.07281154 0.590883 -0.6588828 -0.2938991 -0.6924571 
-0.04208641 -0.1136075 0.5906776 0.7407528 -0.3198074 0.5907695 
-0.07438321 -0.06941189 0.5914218 -0.7401835 -0.0958183 -0.6655429 
-0.01148944 -0.03031575 0.5909161 0.9672171 -0.2028891 -0.1527327 
-0.04208641 -0.1119077 0.5915991 0.7528337 -0.2819142 0.5947822 
-0.07438321 -0.06771205 0.5914098 -0.7567819 0.1038915 -0.6453586 
-0.04038657 -0.108508 0.590659 0.8403611 -0.1963566 0.5052102 
-0.01148944 -0.02351643 0.5905533 0.9384011 0.05006998 -0.3419013 
-0.07438321 -0.06601222 0.5919884 -0.7454742 0.2557248 -0.6155266 
-0.01148944 -0.02181659 0.5907483 0.9294826 0.03331573 -0.3673585 
-0.04038657 -0.1068082 0.5913593 0.8700967 -0.2023627 0.449423 
-0.07268338 -0.06431239 0.5908571 -0.7324041 0.353855 -0.5816965 
-0.01148944 -0.02011676 0.5908669 0.9111096 0.02123709 -0.4116169 
-0.07268338 -0.06261256 0.5919683 -0.7329291 0.3548682 -0.5804166 
-0.01148944 -0.01841693 0.5909794 0.9013333 0.007846004 -0.4330552 
-0.07098355 -0.06091273 0.5907732 -0.7231021 0.2618702 -0.639177 
-0.03698691 -0.0966092 0.5907335 0.9118199 -0.2121309 0.3515465 
-0.01148944 -0.0167171 0.590968 0.8829963 -0.002551861 -0.469373 
-0.03698691 -0.09490936 0.5912733 0.9183816 -0.04606154 0.3930057 
-0.01148944 -0.01501727 0.5909597 0.87587 -0.008037995 -0.4824801 
-0.07098355 -0.0592129 0.5913127 -0.7150595 0.1529024 -0.6821369 
-0.03698691 -0.09320953 0.5911539 0.9115195 0.04675845 0.40859 
-0.01148944 -0.01331743 0.5909243 0.8675473 -0.01811782 -0.4970246 
-0.07098355 -0.05751306 0.5915635 -0.7024098 0.1133713 -0.7026858 
-0.03698691 -0.0915097 0.5908463 0.9010226 0.07197477 0.4277592 
-0.07098355 -0.05581323 0.5918508 -0.6921012 0.132987 -0.7094437 
-0.01148944 -0.0116176 0.5908608 0.8496788 -0.003303705 -0.5272904 
-0.03698691 -0.08980986 0.590542 0.9071357 0.09138382 0.4107966 
-0.01148944 -0.009917771 0.5908832 0.8257973 0.03790957 -0.5626915 
-0.06928372 -0.0541134 0.5905925 -0.6705875 0.1881218 -0.717581 
-0.01148944 -0.008217941 0.5910569 0.790913 0.1002929 -0.6036538 
-0.06928372 -0.05241357 0.591086 -0.6606719 0.2181918 -0.7182651 
-0.01148944 -0.006518112 0.5914318 0.7530581 0.176848 -0.6337415 
-0.06928372 -0.05071374 0.591623 -0.6709155 0.2119382 -0.7106016 
-0.03358725 -0.07961088 0.5906646 0.8560449 -0.4735464 -0.2072217 
-0.05738489 -0.004818283 0.5918699 -0.6164618 0.1867363 -0.7649211 
-0.06758387 -0.0490139 0.5904649 -0.6818405 0.1715341 -0.7111044 
-0.06758387 -0.04731407 0.590885 -0.6956528 0.1857422 -0.6939503 
-0.05568506 -0.004818283 0.5904759 -0.6087844 0.2019306 -0.7672063 
-0.03188742 -0.07621121 0.5908964 0.8649051 -0.4329116 -0.2540213 
-0.05568506 -0.003118439 0.5909554 -0.5960806 0.2292668 -0.7694964 
-0.06758387 -0.04561424 0.5913804 -0.7025221 0.1996085 -0.6830953 
-0.03018758 -0.07281154 0.5907989 0.8711454 -0.3849155 -0.3048701 
-0.05568506 -0.00141861 0.591499 -0.587899 0.2370239 -0.7734302 
-0.06758387 -0.04391441 0.5918765 -0.703108 0.1877266 -0.6858555 
-0.05568506 0.0002812195 0.5920031 -0.5925355 0.2262743 -0.7731116 
-0.02848775 -0.06941189 0.5914205 0.8408093 -0.3739494 -0.3914097 
-0.06588405 -0.04221458 0.5906278 -0.6793169 0.1963897 -0.7070782 
-0.05398523 0.0002812195 0.590687 -0.5803367 0.2265874 -0.7822196 
-0.06588405 -0.04051474 0.5911193 -0.6687182 0.2036057 -0.7150949 
-0.02678792 -0.06601222 0.5913589 0.7396433 -0.4471464 -0.5029789 
-0.05398523 0.001981049 0.5912015 -0.57933 0.2253964 -0.7833092 
-0.06588405 -0.03881491 0.591606 -0.6682058 0.1905476 -0.719161 
-0.02508807 -0.06261256 0.5907511 0.7118317 -0.4766811 -0.5158204 
-0.05398523 0.003680878 0.5916762 -0.5755849 0.1868948 -0.7960982 
-0.06588405 -0.03711508 0.5920218 -0.6791587 0.1634852 -0.7155529 
-0.0522854 0.003680878 0.5904078 -0.5668499 0.1798999 -0.8039386 
-0.05398523 0.005380722 0.5919942 -0.5724019 0.1328914 -0.8091328 
-0.0522854 0.005380722 0.5907699 -0.5575201 0.1647842 -0.8136445 
-0.0522854 0.007080551 0.591111 -0.5379723 0.1755087 -0.8244892 
-0.0522854 0.008780381 0.5915143 -0.5299107 0.2139522 -0.8206211 
-0.05058557 0.008780381 0.590429 -0.5147853 0.1924053 -0.8354498 
-0.0522854 0.01048021 0.5920184 -0.5379514 0.2548521 -0.8035289 
-0.05058557 0.01048021 0.590865 -0.5220749 0.2628406 -0.8113894 
-0.05058557 0.01218004 0.591524 -0.5284356 0.3152827 -0.7882593 
-0.04888573 0.01218004 0.5903538 -0.5234942 0.3060191 -0.7951768 
-0.04888573 0.01387987 0.5910624 -0.5329031 0.3402434 -0.7747572 
-0.01148944 -0.004818283 0.5920072 0.7272944 0.2316652 -0.646045 
-0.04888573 0.01557971 0.5918466 -0.5330617 0.3360049 -0.776496 
-0.01318927 -0.003118439 0.5909363 0.6902565 0.3084379 -0.654532 
-0.0471859 0.01557971 0.5906458 -0.5133848 0.3369251 -0.7892512 
-0.01318927 -0.00141861 0.5918172 0.691595 0.3291422 -0.6429322 
-0.0471859 0.01727954 0.5914063 -0.5073957 0.3225796 -0.7990569 
-0.0148891 0.0002812195 0.5907873 0.7215866 0.3147609 -0.6166346 
-0.04548607 0.01727954 0.5903694 -0.4586074 0.3188727 -0.8294573 
-0.01658893 0.003680878 0.5904024 0.7648914 0.2939652 -0.5731715 
-0.0471859 0.01897937 0.5920292 -0.4891985 0.2742306 -0.8279387 
-0.01658893 0.005380722 0.5912384 0.7544279 0.2823609 -0.5925462 
-0.04548607 0.01897937 0.5910382 -0.4222517 0.3199432 -0.848139 
-0.01658893 0.007080551 0.5919816 0.7495189 0.2562534 -0.6103734 
-0.04548607 0.0206792 0.591691 -0.3794215 0.3051101 -0.8734685 
-0.0148891 0.001981049 0.5916757 0.7245031 0.3081392 -0.6165593 
-0.04378624 0.0206792 0.5909764 -0.3124655 0.3432075 -0.8857618 
-0.04208641 0.0206792 0.5904552 -0.2559561 0.3482969 -0.9017625 
-0.02338824 0.01727954 0.5903948 0.6136069 0.421073 -0.6679702 
-0.02338824 0.01897937 0.5915208 0.6001195 0.4427465 -0.6662073 
-0.02508807 0.0206792 0.5911793 0.5371278 0.4446152 -0.7168061 
-0.01828876 0.008780381 0.5906891 0.7439823 0.3142885 -0.589672 
-0.01828876 0.01048021 0.5916472 0.7405145 0.3315066 -0.5845867 
-0.01998859 0.01218004 0.5905399 0.7197104 0.3833024 -0.5788751 
-0.01998859 0.01387987 0.5917209 0.7110513 0.4022307 -0.5767291 
-0.02168842 0.01557971 0.5909238 0.6629739 0.429471 -0.6132048 
-0.04378624 0.02237903 0.591657 -0.2845011 0.3351009 -0.8982018 
-0.04208641 0.02237903 0.5911543 -0.2430792 0.3703165 -0.8965368 
-0.04038657 0.02237903 0.5906996 -0.1994299 0.3932194 -0.8975556 
-0.04208641 0.02407886 0.5918666 -0.2046084 0.360732 -0.9099493 
-0.04038657 0.02407886 0.5914885 -0.1885487 0.3843896 -0.9037113 
-0.03868674 0.02237903 0.5904022 -0.1257077 0.3980656 -0.9087031 
-0.03868674 0.02407886 0.591173 -0.1402914 0.3952813 -0.9077836 
-0.03698691 0.02407886 0.5909374 -0.1236026 0.3929539 -0.9112132 
-0.03868674 0.0257787 0.5918944 -0.12644 0.3577197 -0.9252294 
-0.03698691 0.0257787 0.5916763 -0.1239943 0.3631772 -0.9234326 
-0.03528708 0.02407886 0.590702 -0.1132494 0.3923914 -0.9127999 
-0.03358725 0.02407886 0.5905087 -0.06248284 0.4078901 -0.9108906 
-0.03188742 0.02407886 0.5904539 0.04690837 0.4260192 -0.9034973 
-0.03018758 0.02407886 0.5906864 0.2073718 0.4516798 -0.8677456 
-0.03528708 0.0257787 0.5914409 -0.1033724 0.3753768 -0.9210898 
-0.03358725 0.0257787 0.5912822 -0.03440607 0.3983111 -0.9166049 
-0.03358725 0.02747853 0.5920072 -0.00183012 0.3824486 -0.9239749 
-0.03188742 0.0257787 0.5912993 0.08761404 0.4336251 -0.8968238 
-0.03018758 0.0257787 0.591639 0.2259569 0.4565772 -0.860512 
-0.02678792 0.02237903 0.5910706 0.4432007 0.4615755 -0.7684537 
-0.02848775 0.02407886 0.5912541 0.3336154 0.4672195 -0.8187837 
-0.009834167 -0.006518112 0.5937439 0.8513979 0.09755411 -0.5153686 
-0.07098355 -0.115796 0.5937439 -0.6058717 -0.7433871 0.2833642 
-0.0219743 -0.06091273 0.5937439 0.7509615 -0.5352353 -0.3867556 
-0.01010934 -0.004818283 0.5937439 0.8036191 0.207526 -0.5577896 
-0.07159784 -0.1153073 0.5937439 -0.6447815 -0.7163914 0.2665336 
-0.02168842 -0.0605071 0.5937439 0.7675202 -0.5170282 -0.3789387 
-0.01067374 -0.003118439 0.5937439 0.7488244 0.2704207 -0.6050907 
-0.02085953 -0.0592129 0.5937439 0.8185415 -0.5019622 -0.2793275 
-0.06418422 -0.12094 0.5937439 -0.5277581 -0.7432002 0.4112479 
-0.01140109 -0.00141861 0.5937439 0.7165201 0.3013454 -0.6291183 
-0.0649142 -0.1204068 0.5937439 -0.5523089 -0.7400879 0.3836988 
-0.01998859 -0.05773947 0.5937439 0.858918 -0.4837731 -0.1679982 
-0.01148944 -0.001208313 0.5937439 0.7033263 0.2979534 -0.6454113 
-0.06588405 -0.1196948 0.5937439 -0.5569261 -0.7511107 0.3544939 
-0.01985419 -0.05751306 0.5937439 0.8722076 -0.472923 -0.1248907 
-0.01214484 0.0002812195 0.5937439 0.6817291 0.3089661 -0.6631632 
-0.06718654 -0.118707 0.5937439 -0.5653952 -0.7509625 0.3411506 
-0.01891943 -0.05581323 0.5937439 0.8829799 -0.4672481 -0.04500846 
-0.01828876 -0.05454147 0.5937439 0.8832312 -0.4688915 0.006590757 
-0.06928372 -0.1171167 0.5937439 -0.5812024 -0.7520133 0.3109334 
-0.01318927 0.002571045 0.5937439 0.6800194 0.2697068 -0.6817857 
-0.01806552 -0.0541134 0.5937439 0.8828245 -0.4674309 0.04614255 
-0.0136293 0.003680878 0.5937439 0.6713271 0.2758505 -0.6879146 
-0.06942368 -0.1170072 0.5937439 -0.5880966 -0.7495676 0.3037939 
-0.01721719 -0.05241357 0.5937439 0.8802425 -0.3911722 0.2686215 
-0.01294827 0.001981049 0.5937439 0.6721313 0.2959757 -0.6787031 
-0.06758387 -0.11841 0.5937439 -0.564252 -0.7542098 0.335838 
-0.01658893 -0.05108975 0.5937439 0.8651464 -0.4320114 0.2547309 
-0.01433215 0.005380722 0.5937439 0.6668243 0.2649354 -0.6965303 
-0.01638895 -0.05071374 0.5937439 0.869764 -0.4106123 0.2736936 
-0.0148891 0.006841568 0.5937439 0.691092 0.2635073 -0.6730199 
-0.07778287 -0.1025296 0.5937439 -0.8749921 -0.08697674 -0.4762602 
-0.01567511 -0.0490139 0.5937439 0.883176 -0.2450588 0.399933 
-0.01497977 0.007080551 0.5937439 0.6989788 0.2886502 -0.6543009 
-0.01536639 -0.04731407 0.5937439 0.8508534 -0.1468006 0.5044779 
-0.07785635 -0.1017087 0.5937439 -0.8738749 -0.03722716 -0.4847234 
-0.01518042 -0.04561424 0.5937439 0.7412361 -0.08900277 0.6653176 
-0.01658893 0.01052551 0.5937439 0.7152049 0.3485473 -0.6058026 
-0.07438321 -0.1120665 0.5937439 -0.794769 -0.5987226 0.09936506 
-0.01496521 -0.04391441 0.5937439 0.703127 -0.1036178 0.703474 
-0.01744705 0.01218004 0.5937439 0.7231199 0.3789358 -0.5774992 
-0.07450663 -0.1119077 0.5937439 -0.8113627 -0.580074 0.07214348 
-0.01828876 0.01374628 0.5937439 0.7237751 0.3865582 -0.5715964 
-0.0148891 -0.04346188 0.5937439 0.8321054 -0.132786 0.5384872 
-0.07268338 -0.1142092 0.5937439 -0.7109969 -0.6708755 0.2107356 
-0.01835712 0.01387987 0.5937439 0.7278545 0.3903281 -0.5638013 
-0.01466315 -0.04221458 0.5937439 0.8817387 -0.1974061 0.428448 
-0.07323242 -0.1136075 0.5937439 -0.756894 -0.6329002 0.1629382 
-0.0157439 0.008780381 0.5937439 0.7026494 0.3292072 -0.6307983 
-0.0142117 -0.04051474 0.5937439 0.8825791 -0.2454716 0.4009962 
-0.07573824 -0.1102079 0.5937439 -0.8563614 -0.5139252 -0.05025957 
-0.01656906 0.01048021 0.5937439 0.717796 0.3321247 -0.6119332 
-0.07608304 -0.1094598 0.5937439 -0.9188163 -0.3801197 -0.1062338 
-0.01367697 -0.03881491 0.5937439 0.8882476 -0.2505552 0.3850172 
-0.07647423 -0.108508 0.5937439 -0.9207809 -0.3450764 -0.181892 
-0.01998859 0.01681998 0.5937439 0.7079877 0.3906559 -0.5883379 
-0.01318927 -0.0371626 0.5937439 0.8931222 -0.2805856 0.3515741 
-0.02023193 0.01727954 0.5937439 0.7036183 0.3989908 -0.5879861 
-0.07703975 -0.1068082 0.5937439 -0.9089912 -0.2753606 -0.3129082 
-0.01317725 -0.03711508 0.5937439 0.9447463 -0.2274981 0.2360064 
-0.01931436 0.01557971 0.5937439 0.7188796 0.3925424 -0.5736921 
-0.07742696 -0.1051084 0.5937439 -0.9003449 -0.1682282 -0.4013456 
-0.01278757 -0.03541525 0.5937439 0.9283934 -0.1986054 0.3140725 
-0.02126199 0.01897937 0.5937439 0.6899933 0.4091091 -0.5971088 
-0.07768808 -0.1034085 0.5937439 -0.8945605 -0.1168648 -0.4313979 
-0.01245993 -0.03371542 0.5937439 0.9225227 -0.1582049 0.3520271 
-0.02168842 0.01970944 0.5937439 0.6741779 0.4155529 -0.6105734 
-0.07785541 -0.1000089 0.5937439 -0.8417943 0.02903538 -0.539017 
-0.02229779 0.0206792 0.5937439 0.6561403 0.4336837 -0.6175746 
-0.06379292 -0.02011676 0.5937439 -0.6701434 0.1815701 -0.7196807 
-0.07778287 -0.09917051 0.5937439 -0.8028308 0.07453947 -0.5915291 
-0.06418422 -0.02172064 0.5937439 -0.6707265 0.1549907 -0.7253301 
-0.04918959 0.0206792 0.5937439 -0.5287966 0.184623 -0.8284254 
-0.07769641 -0.09830903 0.5937439 -0.7802062 0.1040466 -0.6168084 
-0.06329106 -0.01841693 0.5937439 -0.6773823 0.1866311 -0.7115631 
-0.04888573 0.02159554 0.5937439 -0.5140361 0.1845504 -0.8376801 
-0.07742384 -0.0966092 0.5937439 -0.7519057 0.1729455 -0.6361821 
-0.06285001 -0.0167171 0.5937439 -0.6897781 0.1610163 -0.7058894 
-0.04857285 0.02237903 0.5937439 -0.4612848 0.2049534 -0.8632557 
-0.07693053 -0.09490936 0.5937439 -0.722632 0.2200865 -0.6552595 
-0.04770551 0.02407886 0.5937439 -0.4223939 0.2578196 -0.8689721 
-0.06248744 -0.01501727 0.5937439 -0.6971403 0.1464387 -0.7018197 
-0.07637392 -0.09320953 0.5937439 -0.7150375 0.2174674 -0.6644015 
-0.06248439 -0.01500259 0.5937439 -0.6898361 0.1470307 -0.708878 
-0.0471859 0.02487314 0.5937439 -0.3870235 0.2776423 -0.8792767 
-0.07608304 -0.09220494 0.5937439 -0.7105291 0.2035513 -0.6735839 
-0.0621304 -0.01331743 0.5937439 -0.6771541 0.1581459 -0.718646 
-0.04640329 0.0257787 0.5937439 -0.3202113 0.3220757 -0.8909163 
-0.07589009 -0.0915097 0.5937439 -0.7126325 0.2004906 -0.6722786 
-0.04548607 0.02662593 0.5937439 -0.2823533 0.3321381 -0.8999783 
-0.06169522 -0.0116176 0.5937439 -0.6511121 0.1775371 -0.7379251 
