ply
format ascii 1.0
comment VCGLIB generated
element vertex 1015
property float x
property float y
property float z
property float nx
property float ny
property float nz
element face 0
property list uchar int vertex_indices
end_header
113 159 1006.25 0.3748637 -0.2065621 -0.9037751 
121.5 162.5 1007.5 -0.03368689 -0.3385989 -0.9403276 
119 165 1006 0.1011807 -0.5729638 -0.813311 
127.5 165 1004.5 -0.03318257 -0.6806098 -0.7318944 
26.5 149.5 898 -0.8201826 0.2628362 -0.5081514 
29.33333 150.6667 895 -0.7122728 0.3004469 -0.6343494 
32.5 149.5 891.75 -0.5885698 0.333627 -0.7363957 
35.33333 149.3333 889.6667 -0.4994527 0.3552972 -0.7901335 
108 166 994 0.5123893 -0.7937936 -0.3276415 
26 153 901.5 -0.8770708 0.2300575 -0.4216875 
110 167 990 0.2410724 -0.8936404 -0.378538 
28 155.5 900.5 -0.7943789 0.2843128 -0.5367758 
32 154 894 -0.6124983 0.3159163 -0.7245984 
38.33333 153.3333 889.6667 -0.4362135 0.3609252 -0.8242881 
149 169 986.5 -0.02524639 -0.8550586 -0.5179166 
152 171 985 -0.03447789 -0.8642703 -0.5018448 
41.33333 156.3333 889.6667 -0.3580621 0.3478323 -0.8664896 
148 172 984 -0.02723995 -0.8547453 -0.5183325 
25 162 911 -0.9518224 0.1189971 -0.2826196 
30 159.5 898.5 -0.7522541 0.2706881 -0.600701 
111 173 982 0.1426209 -0.8056787 -0.5749272 
112.5 173.5 980 0.09680041 -0.7826998 -0.6148258 
44.33333 159.3333 889.6667 -0.3087763 0.3374976 -0.8892427 
115 175 976 0.004571029 -0.7517273 -0.6594582 
25 166 912 -0.952172 0.07454363 -0.2963306 
28.33333 165 904 -0.8264644 0.1908814 -0.5296423 
46.5 162.5 890 -0.2403184 0.3005563 -0.9229913 
122 177.5 974.5 0.06216475 -0.7430801 -0.6663088 
49.5 165 890 -0.1589785 0.3042107 -0.9392453 
125.3333 180.3333 973.3333 0.0713224 -0.7183447 -0.6920217 
52.5 167 890 -0.07698938 0.2988994 -0.9511739 
124.5 183 970.5 0.08543915 -0.8230315 -0.561533 
128 183 973.5 0.06485498 -0.7500911 -0.6581467 
121.6667 184 968 0.02715691 -0.8953138 -0.4446073 
113.5 185 968 -0.07459255 -0.91914 -0.3868043 
116 185 963 -0.05126773 -0.9722551 -0.2282363 
189 184 960 -0.02649125 -0.9737571 -0.226043 
55.5 174 892.5 0.007595788 0.3135172 -0.9495522 
195 185 957 -0.0194469 -0.9859055 -0.1661689 
196 185 956 -0.01589675 -0.9834897 -0.1802648 
178.5 185 949 -0.02502192 -0.9568129 -0.2896257 
200 186 952 -0.04752218 -0.9779069 -0.2035673 
53 176 893 -0.06758235 0.3248917 -0.9433335 
182.5 187 947 0.03876387 -0.9037559 -0.4262894 
55.5 178 894 0.02195034 0.3297792 -0.9438029 
184 187 944 0.01745768 -0.8480436 -0.5296388 
35 183 903.6 -0.5649627 0.2309726 -0.7921293 
47 180.5 895.75 -0.2474785 0.299548 -0.9214257 
187.6667 189.3333 943.3333 -0.04341024 -0.8119928 -0.5820509 
184 190 941 -0.0218021 -0.7324969 -0.6804212 
50 183.5 896 -0.1310789 0.3098546 -0.9417051 
182.2 191.8 940.2 -0.03074101 -0.6517009 -0.7578529 
179.5 195 939.25 -0.05477063 -0.5287988 -0.8469782 
39 189 901.5 -0.4797348 0.1942196 -0.8556479 
176.5 195 938 -0.07583426 -0.5252264 -0.8475769 
128.5 198.5 940.75 -0.1822879 -0.2951381 -0.9379044 
41.5 192 901 -0.3781824 0.2292683 -0.8968914 
44.5 191.5 899 -0.2890078 0.2608244 -0.9211109 
125 200 939 -0.1098511 -0.4894403 -0.8650901 
44.5 194.5 900.5 -0.2787277 0.2454514 -0.9284743 
134 202 938 -0.1974793 -0.5276039 -0.8262179 
134 204 929 -0.08634836 -0.9654567 -0.2458403 
148.5 203 926 -0.005103508 -0.9828619 -0.1842728 
152.5 204 921 -0.04716926 -0.9822014 -0.1818121 
142 205 918 -0.04081998 -0.9659399 -0.2555266 
145.5 204.5 916 -0.001271226 -0.9516248 -0.3072599 
62.33333 204.3333 903 0.2170585 0.4253961 -0.878592 
59 207 903.5 0.1324251 0.464614 -0.8755555 
74 209.75 910.5 0.4084471 -0.1807243 -0.8947122 
71 212 909 0.1916264 -0.0827185 -0.977976 
80 214 908 -0.0184683 -0.5550311 -0.8316246 
71 216.5 906.75 0.006726207 -0.2297572 -0.9732248 
74 219 906.5 -0.06898846 -0.4437304 -0.893501 
91.66666 221.3333 904 -0.07915107 -0.6221609 -0.7788781 
95 222.3333 901.3333 -0.09538124 -0.7261136 -0.680927 
23 115 1110 -0.2541907 -0.9056156 -0.3394812 
23 90 1181 -0.04641747 0.9881035 -0.1466188 
35 89 1170 -0.04882116 -0.9973518 0.05390586 
53 90 1163 -0.3475614 -0.8396928 -0.4172736 
71 88 1153 -0.2762654 -0.8372374 -0.4719228 
75 88 1152 -0.1727235 -0.8534408 -0.4917372 
2 94 1204 0.01089621 -0.999226 0.03779848 
68 90 1154 -0.3275346 -0.8160675 -0.476188 
13 96 1202 -0.02357976 0.99633 -0.08228439 
38 93 1169 -0.0490787 -0.9974842 0.05115301 
64.5 92 1153.5 -0.373221 -0.7890036 -0.4880363 
68 92 1151.5 -0.3322564 -0.8091249 -0.484688 
77 93 1142.5 -0.05392208 -0.8640433 -0.5005214 
31.5 114.5 1118 -0.3584692 -0.9212878 -0.1507608 
-6 123 1111 0.3540502 -0.5717096 -0.7401328 
-4 121 1112 0.24478 -0.5991066 -0.7623346 
-6 120 1109 0.3584608 -0.6220232 -0.6961272 
-13 115 1109 0.247261 -0.9442531 -0.2173664 
15 92 1205 -0.02357976 0.99633 -0.08228442 
-8 93 1191 0.007028509 -0.9975315 0.06986731 
-13 95 1187.5 0.01108 -0.9973487 0.0719225 
-2 96 1200 0.01069159 -0.9990264 0.04280063 
2 96 1203 0.02385316 -0.999468 0.0222431 
-24 109 1140 -0.06359255 -0.9873167 -0.1454706 
-61 114 1156.25 -0.04269784 -0.9798559 -0.1950881 
-31 112 1147 -0.001530691 0.9623421 -0.271837 
-57 115 1159 -0.06816664 -0.9802008 -0.1859022 
-23 114 1147 0.03215598 0.9626794 -0.2687274 
-22 126 1109 -0.5152247 -0.5041124 -0.6931192 
-24 126 1112 -0.4539646 -0.4483715 -0.7699865 
-7 124 1108 0.4388984 -0.6715084 -0.5970299 
-4 119 1108 0.3458086 -0.614454 -0.7091281 
-11 116 1111 0.3134387 -0.9269407 -0.2062451 
10 92 1206 0.0279684 -0.9973667 0.06691437 
8 94 1203 0.01828177 -0.9968922 0.0766282 
-10 95 1188 0.01108 -0.9973487 0.07192251 
0 96 1202 0.01459929 -0.9993954 0.03155623 
-21.5 109 1140 -0.05003718 -0.9982791 -0.03057987 
-57.66667 113.6667 1156.333 -0.05914247 -0.9802259 -0.1888372 
-28 112 1147 0.01433527 0.9687243 -0.2477253 
-25 114 1147.5 0.02689596 0.9653158 -0.2596963 
-21 114 1146 0.04356799 0.9578838 -0.283832 
-13 91 1189 0.007028512 -0.9975316 0.0698673 
-13 93 1187 0.01108 -0.9973487 0.0719225 
-2 94 1200 0.007822398 -0.9989696 0.04470474 
-8 95 1191 0.007028511 -0.9975315 0.06986731 
5 96 1202 0.01926608 -0.9988924 0.04292766 
-17 109 1140 -0.03907094 -0.998727 -0.03190601 
-51 114 1157.5 -0.06877526 -0.9817531 -0.1772877 
-34 112 1148 -0.01069567 0.9561134 -0.2928016 
-17 115 1146 0.06091939 0.9494992 -0.3077988 
-7 127 1115 0.06561019 -0.7620507 -0.6441847 
-11 126 1111 0.4347185 -0.5600437 -0.7052453 
-13 126 1109 0.5170349 -0.3992913 -0.757127 
-16 91 1191 0.007028513 -0.9975315 0.0698673 
-18 93 1189 0.007028511 -0.9975316 0.0698673 
-16 93 1188 0.007028519 -0.9975316 0.06986727 
-13 110 1142 0.07386586 0.9364498 -0.3429368 
0 112 1153 0.0373117 0.9829776 -0.1798967 
2 112 1152 0.02791676 0.9915589 -0.1266164 
-11 114 1149 0.07914926 0.9319538 -0.3538326 
-35 123 1112 -0.2229497 -0.6276835 -0.7458599 
-33 120 1109 -0.2925664 -0.661119 -0.6908882 
-36 120 1113 -0.2801677 -0.5361588 -0.7962661 
-18 91 1195 -0.001665835 -0.9978153 0.06604555 
-10.5 112 1148 0.07635055 0.9355215 -0.3449205 
-7 112 1150.5 0.05921972 0.9558995 -0.2876618 
92.5 87 1153 0.03036468 -0.7215589 -0.6916869 
26 90 1175 -0.01613986 0.988167 -0.1525307 
29 90 1172.5 -0.03247577 0.9872906 -0.1555718 
32 89 1170 -0.0004200317 0.9878962 -0.155116 
88 88 1152 0.07677328 -0.7740603 -0.6284397 
25 93 1178 -0.04478274 0.9871123 -0.1536353 
98 90 1151.5 0.08542666 -0.5808209 -0.8095366 
32 93 1171 -0.02242473 0.9864935 -0.1622585 
95 93 1151.5 0.087408 -0.6026443 -0.7932085 
36 96 1185 -0.0443136 0.9848545 -0.1676242 
83 94 1140 0.07005379 -0.8441724 -0.5314749 
95 95 1147 0.1240959 -0.696946 -0.7063048 
42 106 1122 -0.5793983 -0.7599189 -0.2946541 
14 111 1148.5 -0.03199894 0.9900908 -0.1367343 
22 109 1135 -0.4553854 -0.7600334 -0.4636523 
26.5 109 1133 -0.4764008 -0.7227798 -0.5006313 
26.5 111 1135 -0.465722 -0.7395472 -0.4859763 
38 110.5 1124.5 -0.561582 -0.7551117 -0.3382781 
86 86 1153 0.0125558 -0.832689 -0.5535985 
83 88 1151.5 0.008002431 -0.8342939 -0.5512619 
28 92 1174 -0.04747429 0.9850068 -0.1658547 
104 90 1152 0.0539702 -0.6375375 -0.7685267 
101 92 1152 0.06732058 -0.6129297 -0.7872644 
101.5 95 1147.5 0.02977694 -0.7325723 -0.6800376 
29 107 1136 -0.4764015 -0.7227788 -0.5006322 
32 107 1133 -0.4905942 -0.7100969 -0.5050542 
35 107.5 1130 -0.5150075 -0.7466739 -0.4210052 
47 105 1110 -0.5563417 -0.8213024 -0.1262792 
11 110 1150 -0.003442133 -0.9968373 0.07939544 
38 108 1126 -0.5535177 -0.753527 -0.3547046 
40 108 1123 -0.5579246 -0.7694876 -0.31082 
17 112 1144 -0.1151615 -0.9849043 -0.1292337 
22 111 1138 -0.4681637 -0.7531845 -0.4620996 
29 111 1132.5 -0.4782498 -0.7261524 -0.4939433 
35.66667 111.3333 1127.667 -0.5141667 -0.7652856 -0.3872605 
20 113 1139 -0.3789414 -0.8362943 -0.3962516 
38 114 1110 -0.4647565 -0.8708211 -0.1602246 
83 86 1154 -0.0003088707 -0.8515949 -0.5242003 
86 88 1152 0.05162874 -0.7864861 -0.6154463 
101 90 1152 0.07534246 -0.5940993 -0.8008555 
104 93 1151.5 0.01053309 -0.6745278 -0.7381743 
34 96 1186 -0.02675104 0.9896924 -0.1406887 
101 94 1153 0.05459926 -0.6191514 -0.7833713 
85 95 1142 0.0987016 -0.8203906 -0.5632205 
104 95 1147 0.01025797 -0.8157042 -0.5783783 
29 109 1132 -0.4782498 -0.7261524 -0.4939433 
36 108 1128 -0.5141667 -0.7652856 -0.3872605 
41 108 1120.5 -0.4944676 -0.8403106 -0.2222164 
13 112 1152 0.0002442313 -0.996 0.08935363 
32 110 1132.5 -0.4905947 -0.7100956 -0.5050555 
35 110 1130 -0.5150071 -0.7466747 -0.4210044 
19 91 1193 -0.03793724 0.9901241 -0.1349633 
79.5 86 1153 -0.0596718 -0.8640823 -0.4998009 
44.5 90 1168.75 -0.05181161 -0.9976701 0.04438489 
47 90 1167 -0.213659 -0.9193289 -0.3304307 
77.5 88 1150.5 -0.08205222 -0.8584355 -0.5063161 
5 94 1204.5 0.01926608 -0.9988924 0.04292767 
13 94 1201 -0.02357976 0.99633 -0.08228441 
49 93 1166 -0.232199 -0.9014136 -0.3654273 
55.5 92 1160.5 -0.412723 -0.7891273 -0.4549041 
62 92 1155 -0.3720726 -0.7807485 -0.5019898 
69 93 1149 -0.2771495 -0.8148773 -0.5090806 
74 93 1143 -0.1443967 -0.8622396 -0.4854818 
81 94 1136 0.04155151 -0.8649096 -0.5002049 
32 112 1130 -0.4841085 -0.7476154 -0.454654 
77 86 1154 -0.1136899 -0.8699043 -0.4799387 
50 87 1168.5 -0.2375266 -0.9073756 -0.3467716 
47 88 1172 -0.1371223 -0.9886447 -0.06147613 
41 90 1170 -0.05108972 -0.9957289 0.07690166 
50 90 1165.5 -0.2523585 -0.8929262 -0.3728244 
56 90 1160.5 -0.391679 -0.7890118 -0.4733372 
80 88 1150 -0.03126108 -0.8491252 -0.5272657 
10.5 94 1202.5 0.02368037 -0.9970708 0.07272666 
15 94 1200 -0.02469864 0.9959359 -0.08661346 
17 93 1196 -0.0278787 0.9946468 -0.09950215 
47 93 1167 -0.1942122 -0.935409 -0.2954516 
51 93 1164 -0.2826558 -0.8749118 -0.3932368 
57 95 1165 -0.3894743 -0.8021124 -0.4526869 
104 100 1114.5 0.4386502 -0.7340972 -0.5183507 
32 108 1130.5 -0.4835154 -0.7408552 -0.4662044 
26 115 1108.5 -0.3302585 -0.8112602 -0.4824794 
17 92 1199 -0.02787867 0.9946467 -0.09950207 
-1 92 1204.5 0.007822403 -0.9989696 0.04470474 
74 87 1154 -0.1940795 -0.8682445 -0.4566013 
46 88 1174 -0.1014268 -0.9947973 -0.009538515 
38 90 1169.5 -0.04907887 -0.9974842 0.05115267 
55 90 1162 -0.3894745 -0.8021122 -0.4526873 
23 93 1181 -0.04641744 0.9881034 -0.1466187 
35 91 1171.5 -0.00358638 0.9902195 -0.1394722 
66 90 1155 -0.3264818 -0.8075548 -0.4911872 
10.5 96 1201 0.02368038 -0.9970708 0.07272661 
15 96 1199 -0.02469864 0.9959359 -0.08661347 
17 95 1197 -0.02787871 0.9946468 -0.09950215 
19 95 1192 -0.02563857 0.9931126 -0.1143247 
35 93 1169.5 -0.04882122 -0.9973519 0.05390579 
67 94 1153 -0.3364854 -0.8035048 -0.491078 
80 93 1143 -0.007709568 -0.8546681 -0.5191176 
209.5 84 1151 -0.2203718 -0.6613937 -0.7169343 
224 90 1148 -0.01463075 -0.7328683 -0.6802132 
211 94 1134 -0.02636619 -0.9752313 -0.2196106 
238 93 1130 -0.02255398 -0.9705402 -0.2398813 
242 93 1126 0.0284937 -0.9621574 -0.2710007 
236 96 1117.5 0.1370202 -0.8445931 -0.517579 
230 97 1113 0.008499516 -0.6676822 -0.7443979 
227 99 1111 -0.01215357 -0.5628612 -0.8264621 
17 126 1109 -0.2844818 -0.7214459 -0.6313367 
101 87 1153.5 0.06941058 -0.6229665 -0.7791629 
103 84 1155 0.07082205 -0.6288062 -0.77433 
83 90 1150 0.05373909 -0.8203945 -0.5692671 
-24 96 1204 0.005111991 -0.99826 0.05874537 
88 93 1149 0.1432906 -0.7489845 -0.646908 
20 108 1142 -0.357484 -0.8656941 -0.3503983 
18 109 1140 -0.2946195 -0.906629 -0.3020322 
45 106 1110 -0.5442755 -0.8295594 -0.124882 
18 111 1141 -0.2513716 -0.930172 -0.2675676 
20 111 1138 -0.3789425 -0.8362932 -0.3962528 
17 113 1144 -0.1151618 -0.9849043 -0.1292341 
22 113 1138 -0.4681634 -0.7531848 -0.4620992 
40 111 1119 -0.4545549 -0.8766175 -0.1578659 
29 114 1134 -0.4640891 -0.7360295 -0.4928305 
35 114 1127 -0.5141666 -0.7652856 -0.3872605 
-20 92 1205 0.005111984 -0.9982599 0.0587454 
104 87 1153.5 0.09134734 -0.6034672 -0.7921383 
101 84 1155 0.06209961 -0.6375892 -0.7678695 
86 90 1150 0.08743915 -0.7712116 -0.6305451 
-26 96 1207 0.005111982 -0.9982599 0.0587454 
16 109 1141 -0.1206207 -0.983684 -0.1334781 
43 107 1115 -0.5221639 -0.841866 -0.1364057 
11 113 1154 0.003257574 -0.9955209 0.09448595 
42 109 1118 -0.4885326 -0.8576923 -0.1603119 
40.5 111 1115 -0.4726003 -0.8708127 -0.1354044 
95 87 1153 0.03160191 -0.6783313 -0.7340763 
98 84 1154.5 0.03804962 -0.6560224 -0.7537817 
99 88 1152 0.0704385 -0.6194144 -0.7818978 
89 90 1151.5 0.1119197 -0.7276568 -0.6767493 
86 91 1148 0.1086572 -0.8034086 -0.58543 
92 93 1151.25 0.09738937 -0.6751077 -0.7312625 
45 105 1115 -0.5303248 -0.8374585 -0.131981 
20 109 1135 -0.4441018 -0.784596 -0.4326462 
43 108 1112 -0.5384288 -0.8341956 -0.1192149 
43 110 1109 -0.5530608 -0.8249757 -0.1163568 
26.5 114 1135 -0.4586418 -0.7452783 -0.4839504 
97.66666 86.66666 1153.333 0.0489686 -0.6311446 -0.7741179 
94.5 84 1154 0.01549749 -0.6991237 -0.7148328 
-24 94 1204 0.005111991 -0.99826 0.05874538 
92.5 90 1152 0.0740381 -0.662043 -0.7458 
83 91 1148 0.07160109 -0.8307905 -0.5519606 
89.33334 92.66666 1150.667 0.1388648 -0.7268733 -0.672586 
83 93 1146 0.06364327 -0.8380256 -0.5419064 
86 93 1147 0.1101134 -0.8036557 -0.5848184 
92 95 1145 0.1510688 -0.7651901 -0.6258293 
43 105 1119 -0.4796031 -0.857667 -0.1854412 
24 113 1136 -0.4553854 -0.7600333 -0.4636523 
36 113 1125 -0.5384045 -0.767812 -0.347254 
38 113 1122 -0.5126995 -0.8198597 -0.2548908 
89.33334 86.66666 1153.333 0.04231185 -0.782188 -0.6216041 
92 84 1155 0.009555451 -0.7637451 -0.6454472 
27 93 1175 -0.01613998 0.9881669 -0.1525309 
29.33333 92.66666 1172 -0.03247572 0.9872906 -0.1555718 
32 91 1172 -0.004471293 0.9897099 -0.1430186 
95 90 1152 0.06238383 -0.6391972 -0.7665085 
98 93 1151.25 0.06931914 -0.6207644 -0.7809267 
98 95 1148 0.07578097 -0.6827195 -0.7267402 
26.5 107 1135 -0.4721502 -0.7313543 -0.4921332 
36 106 1129 -0.5157517 -0.754786 -0.4053376 
38 106 1128 -0.5216887 -0.7660113 -0.3755896 
40 106 1125 -0.5634432 -0.7570091 -0.3308609 
15 110 1144 -0.03117143 -0.9993395 -0.01867938 
24 109 1134 -0.4584033 -0.7441946 -0.4858404 
24 111 1136 -0.4553852 -0.7600337 -0.463652 
26.5 112 1134 -0.4586413 -0.745279 -0.4839499 
35 114 1115 -0.4173226 -0.9017003 -0.1130423 
209 86 1151 -0.2044679 -0.6251614 -0.7532371 
212 84 1150 -0.1201912 -0.6229162 -0.7730004 
206.5 82 1153.5 -0.2356999 -0.7041696 -0.6697693 
221 90 1148 -0.03018374 -0.7182013 -0.6951805 
206 92.5 1141.5 -0.1200843 -0.9013074 -0.4162029 
209 94 1133 -0.04307774 -0.9798315 -0.1951273 
239.5 93 1126.5 0.02187006 -0.9682245 -0.2491246 
238 95 1123 0.04966536 -0.9404476 -0.3362912 
248 95 1126 0.1223781 -0.9337109 -0.3364632 
232.5 96 1118 0.05862615 -0.883961 -0.4638707 
228 97 1112 -0.03426546 -0.6641271 -0.746834 
236 97 1114 0.1857335 -0.6641263 -0.7241818 
230 99 1111 0.04611102 -0.5591264 -0.8277991 
223.6667 86.66666 1150 0.0295867 -0.6771671 -0.7352343 
221 84 1151 0.057643 -0.6629632 -0.7464296 
218 82 1151 0.03093247 -0.643518 -0.7648058 
217 79 1155 0.007206293 -0.8425965 -0.5384973 
255 76 1168 -0.302628 -0.915349 -0.2656173 
215 87 1149 -0.02631111 -0.5960805 -0.8024935 
203 89 1150 -0.1711421 -0.6677555 -0.7244398 
212 89 1147 -0.1077837 -0.7204068 -0.6851254 
208 91 1145 -0.1508259 -0.8299744 -0.5370232 
215 93 1143 -0.0434404 -0.8560802 -0.5150142 
218 94 1138 -0.05957019 -0.949339 -0.3085561 
221.5 94 1135.5 -0.07230074 -0.9702594 -0.2310179 
229 95 1125 -0.05866573 -0.9778153 -0.2010861 
232.5 95 1127.5 -0.02866014 -0.9801326 -0.1962619 
246 98 1117 0.1640632 -0.7681889 -0.618845 
238.5 99 1113 0.1871726 -0.582513 -0.7909772 
248 99 1114 0.1755016 -0.6703835 -0.7209613 
252 102 1114 0.1370233 -0.7162749 -0.6842331 
254 104 1114 0.09360132 -0.7261498 -0.6811354 
251 108 1108 0.03097515 -0.8540181 -0.5193204 
255 108 1111 -0.003549511 -0.8208719 -0.5711014 
212 86.5 1148.5 -0.09348946 -0.6502038 -0.7539859 
202.5 87 1152 -0.1387169 -0.6709492 -0.7284125 
207 84 1152 -0.2184386 -0.6578305 -0.7207937 
203 84 1153.5 -0.1495254 -0.7083457 -0.6898469 
209.5 82 1151 -0.2066982 -0.6578942 -0.7241899 
253 75 1166 -0.2858245 -0.9246866 -0.2515138 
215 89 1148 -0.0128043 -0.6852216 -0.7282221 
209 91 1143 -0.1350518 -0.8500388 -0.5091119 
209 92 1139.5 -0.1114622 -0.9251719 -0.362813 
213 93 1143 -0.04250512 -0.863863 -0.5019304 
244 93 1126 0.04889223 -0.9611823 -0.2715477 
249 93 1131 0.07370811 -0.9440706 -0.3213997 
239 94 1121 0.06758154 -0.9298039 -0.3617975 
243 94 1123 0.06533404 -0.9302971 -0.3609415 
246 95 1125 0.06940838 -0.930389 -0.3599429 
227 96 1118.5 -0.03842417 -0.9146875 -0.4023312 
248 96 1121.5 0.1761042 -0.856243 -0.4856286 
233 97 1113 0.1146902 -0.6316622 -0.7667132 
236 99 1112 0.1681295 -0.5323018 -0.8296911 
209.3333 87 1148.667 -0.1855989 -0.671331 -0.7175429 
206 87 1151.25 -0.2230191 -0.6658778 -0.7119476 
204 86 1153 -0.1615111 -0.6607337 -0.7330383 
206 84 1154 -0.2396678 -0.6998704 -0.6728601 
211.6667 80.66666 1150.667 -0.1626782 -0.6455705 -0.7461733 
209 80 1153 -0.1972386 -0.7363995 -0.6471573 
212 79 1154.5 -0.1433065 -0.7963681 -0.5875893 
251 75 1166 -0.2511586 -0.9418952 -0.2230533 
218.25 90 1148 -0.007620282 -0.6729406 -0.7396573 
215 91 1146 -0.03873175 -0.7234706 -0.6892679 
218 93 1144 -0.05248079 -0.8377447 -0.5435344 
203 94 1136 -0.07445848 -0.9728328 -0.2192085 
206.5 94 1133.5 -0.05242899 -0.9792407 -0.1958033 
246 93 1129 0.05094664 -0.9585878 -0.2802034 
241 94 1122 0.0434744 -0.9381428 -0.3435083 
230 96 1117 0.03854452 -0.8652065 -0.4999321 
245 96 1120 0.1313945 -0.8469465 -0.5151867 
227 97 1114 -0.06685367 -0.7472585 -0.661162 
233 99 1111 0.1024852 -0.53246 -0.840228 
71 85 1162 -0.2332145 -0.922951 -0.3062227 
66 84 1169 -0.2556092 -0.9184155 -0.301955 
94 81 1183 -0.02045341 -0.9093094 -0.4156177 
82.5 82 1196.5 -0.292864 0.6700405 -0.6821118 
101 79 1186 0.1061169 -0.7602679 -0.6408838 
88 80 1201 -0.4251751 0.1921326 -0.8844836 
77 66 1199.5 -0.2116069 -0.5614954 -0.7999659 
72 70 1197 -0.2973285 -0.3531418 -0.8870664 
77 72 1193 -0.339251 -0.08834232 -0.9365386 
80 74 1192 -0.2684426 0.2349839 -0.9341955 
70 76 1201 -0.2559022 -0.02447163 -0.9663929 
74 76 1198 -0.3073274 0.158215 -0.9383592 
78 76 1196 -0.2641518 0.3620979 -0.893929 
60 90 1158 -0.3633813 -0.8000001 -0.4774451 
58 92 1159 -0.3701703 -0.7837731 -0.4986718 
73 86 1156 -0.2099999 -0.8719783 -0.4422146 
75 85 1160 -0.1821793 -0.9156632 -0.3582899 
79 83 1165 -0.08980835 -0.9722313 -0.2161035 
104 81 1181 0.03751391 -0.9299864 -0.3656746 
95 79 1187.5 -0.01219532 -0.8035867 -0.5950628 
82 80 1201 -0.2363268 0.5622396 -0.7924874 
98 77 1190.5 -0.03334483 -0.7069879 -0.7064392 
86 78 1201 -0.2763369 0.1903574 -0.9420202 
83 78 1199.5 -0.247629 0.4353581 -0.8655307 
80 66 1197 -0.1881186 -0.6061364 -0.7727937 
74 66 1201 -0.2310697 -0.4739708 -0.8496814 
74 68 1199 -0.293476 -0.3534467 -0.888227 
77.33334 69.33334 1196.333 -0.2777424 -0.3104031 -0.9091254 
74 72 1195 -0.3149162 -0.1538557 -0.9365662 
71 74 1195.5 -0.3341652 -0.004384338 -0.9425043 
74.5 74 1193.5 -0.3110166 0.1517799 -0.9382066 
64 90 1156 -0.3520407 -0.8136317 -0.4626779 
101 101 1110 0.4871268 -0.7596083 -0.4309325 
104.3333 101.6667 1112.333 0.4310848 -0.7494001 -0.5025589 
104 105 1110 0.4319411 -0.7782305 -0.4558335 
71 86 1156 -0.2576172 -0.8636879 -0.4332168 
61 86 1171 -0.2872944 -0.9185031 -0.2716875 
59 86 1169 -0.291354 -0.9167598 -0.2732477 
77 83 1166.5 -0.1181951 -0.9751363 -0.1874544 
69 84 1174 -0.2155803 -0.9575599 -0.1913224 
100 81 1180 0.07183582 -0.9221328 -0.3801454 
86 82 1202 -0.3311677 0.5045447 -0.7973472 
98 79 1186 0.03742707 -0.8205991 -0.5702775 
91 80 1196 -0.4297678 0.2280784 -0.8736589 
95 77 1190 -0.08701084 -0.6991019 -0.7097082 
91 78 1194 -0.4428784 -0.04120239 -0.8956344 
89 78 1196 -0.448498 0.09325229 -0.8889058 
87 78 1198 -0.3895362 0.3017661 -0.8701717 
71 66 1201 -0.2242114 -0.3409242 -0.9129621 
70.66666 68.66666 1199 -0.283505 -0.3268082 -0.901566 
80 69.33334 1195.667 -0.2926323 -0.425258 -0.856459 
71 72 1196.5 -0.314031 -0.2066356 -0.9266533 
76 76 1198 -0.2777915 0.3114909 -0.9087384 
59 94 1162 -0.3802747 -0.8057608 -0.4540273 
65 94 1157 -0.3551828 -0.7971783 -0.4882131 
103 103 1110 0.4661297 -0.7611281 -0.4510069 
68.5 87 1157.5 -0.2904678 -0.8540021 -0.4316352 
64 87 1159 -0.3423134 -0.8231875 -0.4529723 
72 84 1174 -0.1838841 -0.9590623 -0.2153747 
92 81 1187 -0.150679 -0.8173692 -0.5560606 
93 78 1190.5 -0.2280852 -0.5365461 -0.8124626 
68 67 1203 -0.218951 -0.2818163 -0.9341521 
64.66666 68.66666 1201.667 -0.2279959 -0.2357056 -0.9447015 
68 70 1200 -0.2493788 -0.2726488 -0.9292324 
68 72 1197 -0.3043953 -0.1354977 -0.9428595 
58 74 1201 -0.2452726 -0.1434106 -0.9587882 
62 74 1199 -0.27855 -0.05570769 -0.9588048 
65.33334 87.66666 1156.333 -0.3219568 -0.8202389 -0.4728128 
59 87 1162.5 -0.303286 -0.8697624 -0.3892698 
65 66.5 1202.5 -0.2271494 -0.2995837 -0.9266351 
68 68 1202 -0.2232284 -0.3235117 -0.9195158 
66 70 1200 -0.238723 -0.2100496 -0.9480984 
59 72 1201.5 -0.2254069 -0.1586732 -0.9612567 
62 72 1200 -0.2343734 -0.1689256 -0.9573575 
60 74 1200 -0.2452726 -0.1434105 -0.9587883 
68 74 1197 -0.3154274 -0.1373148 -0.9389623 
62 76 1203 -0.2593327 0.00357842 -0.9657814 
14 117 1108 -0.2535936 -0.6969597 -0.6707738 
56 67 1203 -0.2303442 -0.2795635 -0.9320868 
21 93.5 1186 0.01848679 0.9945979 -0.1021438 
74 91 1148 -0.1734449 -0.8520582 -0.4938762 
48 96 1175 -0.105643 -0.9937493 -0.0360812 
32 114 1129.5 -0.4841084 -0.7476155 -0.4546539 
27 115 1124 -0.2786314 -0.937284 -0.2094356 
2.5 121 1112 -0.06078538 -0.7509036 -0.6576084 
-1 119 1108 0.1207541 -0.7383122 -0.6635612 
53 67 1204 -0.2303443 -0.2795634 -0.9320868 
56 69.5 1204 -0.2254069 -0.1586735 -0.9612567 
49 74 1205 -0.2254069 -0.1586735 -0.9612567 
-6 93 1195 0.01069159 -0.9990265 0.04280063 
-22 112 1144 -0.05106612 -0.9981431 0.03320521 
-37 114 1151 -0.04095017 0.9303361 -0.3644145 
-28 114 1149 0.01433525 0.9687243 -0.2477254 
-31 135 1108 -0.2057312 -0.8827641 -0.422377 
5 121 1113 -0.1196101 -0.7013384 -0.7027219 
8 119 1110 -0.1546019 -0.7228512 -0.6734868 
-4 92 1201 0.0106916 -0.9990265 0.04280062 
-6 92 1199 -0.001665826 -0.9978153 0.06604551 
-10 91 1194 0.008478482 -0.9982505 0.05851487 
51 67 1205 -0.2303443 -0.2795634 -0.9320869 
-19 112 1145 0.04783867 0.9549377 -0.2929257 
242.5 84 1144.5 -0.3145195 -0.6895368 -0.652393 
240 84.5 1148.5 -0.3661271 -0.6939846 -0.6199487 
240 82 1151 -0.3571734 -0.7877126 -0.5019324 
245 81 1145.5 -0.1660857 -0.7092737 -0.6850886 
241 80 1153 -0.3311072 -0.8437764 -0.4223854 
244.5 78 1149 -0.23274 -0.8239418 -0.5166739 
255 63 1184 -0.2222761 -0.7560925 -0.6155627 
234 89 1147 -0.1794605 -0.7985265 -0.5745862 
236 91 1144 -0.1874507 -0.8653371 -0.464816 
240 91 1143 -0.1759347 -0.8357383 -0.5201812 
242.5 90 1139.5 -0.1257177 -0.8489148 -0.5133603 
245 92 1133.5 0.0005772263 -0.9501981 -0.311646 
248 92 1135 0.05731164 -0.9318 -0.3584189 
206 95.5 1122 -0.02007809 -0.884454 -0.4661954 
212.5 96 1126.5 -0.05420975 -0.9576514 -0.2827809 
221.5 96 1117.5 -0.1900453 -0.8708334 -0.4533564 
225 97 1114 -0.1177698 -0.7423363 -0.6595963 
218 99 1113 -0.2546578 -0.7130806 -0.6531963 
116 87 1153.5 -0.1406349 -0.6496843 -0.7470826 
200 81 1159.5 -0.06649426 -0.8631415 -0.5005648 
197 81 1157 0.02374384 -0.8475868 -0.5301254 
196 79 1161 -0.007357445 -0.9155974 -0.4020291 
191 79 1166 -0.05438231 -0.9691505 -0.2403953 
182 75 1183 -0.08914533 -0.7199836 -0.6882418 
182.3333 66.66666 1187.667 -0.1647789 -0.6279659 -0.7605963 
179 66 1190 -0.119175 -0.6894529 -0.7144593 
200 64 1190.5 -0.05407695 -0.7730479 -0.6320385 
179 64 1192.5 -0.0801454 -0.760206 -0.6447198 
179 69 1188 -0.141321 -0.6063637 -0.7825289 
122 90 1150.5 -0.1206203 -0.5874952 -0.8001875 
119 92.5 1150 -0.1071852 -0.6442959 -0.757228 
125 91 1149 -0.1085369 -0.6069414 -0.7873004 
119 95 1149 -0.08947176 -0.6969916 -0.7114756 
122 97 1146 -0.07532815 -0.830681 -0.5516292 
111 98 1136 0.07695911 -0.969176 -0.2340412 
117 98 1142 0.01426379 -0.9271078 -0.3745235 
146 99 1125 0.008237688 -0.9259562 -0.3775412 
149 99 1128 -0.03280404 -0.9430272 -0.3310947 
140.5 100 1118.5 0.04326571 -0.7721431 -0.633974 
143 100 1120 0.03133338 -0.8240112 -0.5657065 
170 102 1115.5 0.1621489 -0.6895605 -0.7058429 
176 107 1115 0.1490006 -0.6814916 -0.7164972 
169 108 1110 0.05736983 -0.8516917 -0.5208936 
178.5 86 1153 0.01812648 -0.7128102 -0.7011228 
182 84 1154.5 -0.0686861 -0.7215916 -0.6889033 
185 82 1154 -0.08138301 -0.7564692 -0.6489461 
124 83 1158 -0.1089801 -0.8776129 -0.4668179 
125 82 1167 -0.124417 -0.9766308 -0.1752506 
107.5 82 1173 -0.01509984 -0.9877622 -0.1552351 
148 76 1173 -0.0495187 -0.9584433 -0.2809528 
146 76 1174.5 -0.1039308 -0.9523425 -0.2867792 
143 76 1177 -0.202506 -0.9004447 -0.3849556 
122 66 1195 -0.2327012 -0.6452762 -0.7276461 
113 64 1197 -0.03225179 -0.6429198 -0.7652543 
110 64 1198 -0.02852457 -0.6916209 -0.7216973 
119 68 1195 -0.1798651 -0.5529992 -0.8135358 
122 69 1193.5 -0.2799182 -0.4825795 -0.8299174 
110 72 1191 0.1135505 -0.3185742 -0.9410722 
106 75 1191 0.1788307 -0.4864318 -0.8552215 
182 88 1151.5 -0.06909493 -0.7067474 -0.7040839 
186 88 1149 -0.04995731 -0.6982492 -0.7141095 
197 89.5 1150.5 0.06959563 -0.6719207 -0.7373459 
194.5 91 1149 0.08877084 -0.7264277 -0.6814856 
193 93 1146 0.06383957 -0.7851356 -0.616025 
188 94 1140 0.01028812 -0.9446793 -0.3278342 
198 95 1144 -0.04805776 -0.9207301 -0.3872294 
166 97 1127 0.01616198 -0.9621139 -0.2721685 
173 98 1123 0.07628495 -0.9084223 -0.4110349 
155 100 1118.5 -0.1500702 -0.7857013 -0.600127 
159 100 1116 -0.1578103 -0.6744162 -0.7212896 
152 102 1118 -0.08126593 -0.7333237 -0.6750054 
150 103 1116 -0.01765975 -0.6619917 -0.7493032 
152 105 1116 -0.04893467 -0.6194633 -0.783499 
143.5 107 1114 0.04883689 -0.7230694 -0.689047 
148.5 110 1111 -0.01639119 -0.859842 -0.5102969 
86 85 1157 -0.0305955 -0.8564383 -0.5153419 
104 82 1171 0.0167233 -0.9883837 -0.1510569 
101 82 1169.5 0.01165471 -0.9860478 -0.1660541 
98 80 1179 0.01387981 -0.9194106 -0.3930541 
72 78 1203 -0.2540787 0.02581725 -0.966839 
89 66 1197 -0.1273841 -0.6567992 -0.7432281 
101 64 1199 -0.03616943 -0.7054899 -0.7077965 
89 70 1194 -0.213851 -0.4417327 -0.8712863 
85 72 1192 -0.2492116 -0.02069313 -0.968228 
100 72 1191 0.04036361 -0.4860477 -0.8729996 
83 74 1193 -0.2743959 0.1816763 -0.944299 
104 74 1191 0.06672767 -0.4955177 -0.8660309 
85 76 1195 -0.2943154 0.3836867 -0.8753074 
95 83 1157 0.01527139 -0.8462901 -0.5325033 
104 66 1196.5 -0.03827721 -0.6282233 -0.777091 
92 64 1199.5 -0.06772298 -0.7438846 -0.6648679 
101 68 1195 0.01290541 -0.6243213 -0.7810611 
104 70 1194 0.02748025 -0.4947608 -0.8685946 
92 72.5 1189.5 -0.1751249 -0.4791625 -0.8600782 
89 74 1190 -0.3048133 -0.3740222 -0.8758975 
98.5 83 1157.5 0.03195068 -0.8298726 -0.5570374 
101 66 1197 -0.02340536 -0.653542 -0.7565282 
89 64 1200 -0.1173531 -0.706495 -0.6979206 
104 68 1195.5 -0.01783973 -0.5935187 -0.8046225 
101 70 1193 0.041221 -0.5403898 -0.8404045 
89 72 1191 -0.2833673 -0.3250096 -0.9022593 
92 75 1190.5 -0.1661257 -0.5321305 -0.8302044 
104 84 1156.5 0.04147239 -0.7488338 -0.661459 
95 66 1196 -0.04310147 -0.7296548 -0.6824559 
86 64 1201 -0.1224681 -0.644498 -0.7547343 
95 69 1193 -0.03165612 -0.5489384 -0.8352631 
98 68 1195 0.03142528 -0.6452714 -0.7633067 
93 70 1191 -0.07185796 -0.4865544 -0.8706902 
104 72 1192 0.08075627 -0.5067906 -0.8582783 
87 74 1190 -0.317367 -0.2607934 -0.9117373 
102 76 1192 0.07214012 -0.4503883 -0.8899136 
105 83 1159 0.04029659 -0.8470895 -0.5299204 
101 83 1158 0.0367927 -0.8429193 -0.5367807 
92.5 82 1175 -0.007210983 -0.9684059 -0.2492752 
90 82 1177 0.008718144 -0.9518921 -0.3063094 
80 83 1184 0.001120514 -0.9434738 -0.3314455 
98 66 1196.5 0.002789649 -0.6565338 -0.7542915 
83 64 1201 -0.1501252 -0.6446807 -0.749566 
98 70 1193 0.004723935 -0.53553 -0.844503 
87 72 1191 -0.2548986 -0.2587223 -0.9317132 
102 72 1192 0.07919147 -0.5165643 -0.8525785 
104 76 1192 0.1208333 -0.4533849 -0.8830863 
62 87 1161 -0.2970629 -0.8718486 -0.3894017 
70 84 1173 -0.2265008 -0.9570768 -0.1808357 
104 77 1192 0.1184593 -0.5578871 -0.8214191 
59 66.5 1202.5 -0.2303442 -0.2795634 -0.9320868 
80 64 1202 -0.2000225 -0.5805663 -0.7892616 
62 69 1202 -0.2473668 -0.2095252 -0.9459962 
65 74 1198.5 -0.2763624 -0.137498 -0.9511667 
68 76 1201 -0.2894369 -0.07617984 -0.9541609 
60 88 1158 -0.3558805 -0.808952 -0.4679165 
68 85 1165 -0.2930906 -0.9101744 -0.2927124 
65 85 1163 -0.2686659 -0.9095729 -0.3170107 
74 84 1172 -0.1534879 -0.9731118 -0.1717409 
83 83 1181.5 -0.002568845 -0.9434316 -0.3315572 
62 66 1202 -0.2411462 -0.351344 -0.904658 
78 64 1202 -0.2006965 -0.6156629 -0.7620237 
59 69 1203 -0.2473668 -0.2095254 -0.9459962 
65 72 1198.5 -0.2624604 -0.1278828 -0.9564312 
65 76 1202 -0.244454 -0.1122946 -0.9631367 
62 88 1157 -0.3572662 -0.8095403 -0.4658384 
-67 121 1116 -0.04518106 -0.8486267 -0.5270594 
-64 120 1118 -0.03443971 -0.8327753 -0.5525389 
76 65 1204 -0.2047832 -0.445235 -0.8716821 
-51.5 135 1109 -0.09599672 -0.8586913 -0.5034223 
-73 122 1119 -0.04518103 -0.8486266 -0.5270594 
-69 120 1118 -0.04518106 -0.8486267 -0.5270594 
72 65 1205 -0.1768838 -0.3735555 -0.9105868 
-46 112 1151 -0.07526045 -0.9868401 -0.1431168 
238.3333 86.66666 1148 -0.3214558 -0.7388886 -0.5922077 
241 84.5 1147 -0.3759368 -0.6841578 -0.6249797 
239 82 1154 -0.3085115 -0.8392399 -0.4477689 
247.5 81 1146 -0.01034017 -0.6882518 -0.7253982 
242 78.5 1154.5 -0.2706844 -0.8983417 -0.3459947 
256 62 1189 -0.1515772 -0.7684355 -0.6217165 
241 87 1146 -0.2871397 -0.6972079 -0.65685 
232.5 90 1144.5 -0.1092903 -0.8665271 -0.4870178 
236 89 1147 -0.2193324 -0.7933136 -0.567932 
242 89 1142 -0.2007012 -0.788005 -0.5820371 
209 95 1126.5 -0.04871606 -0.9447774 -0.3240716 
203 96 1121 -0.04105798 -0.8341343 -0.5500312 
224 96 1118 -0.1477868 -0.8780283 -0.4552202 
221 97 1115 -0.2108475 -0.7786604 -0.5909579 
248 84 1144.5 -0.0191953 -0.64139 -0.7669749 
242 80.66666 1148 -0.3431915 -0.7502784 -0.5650681 
248.5 78 1151 -0.1019929 -0.8476462 -0.5206663 
251 63 1187 -0.154127 -0.7678624 -0.6217976 
254 62 1189 -0.1515772 -0.7684355 -0.6217164 
230 89 1145 -0.06096411 -0.8438071 -0.5331725 
244.5 89 1141 -0.1111832 -0.7879063 -0.6056748 
248 90 1139.5 0.001573733 -0.8313642 -0.5557258 
240 92 1134 -0.08627771 -0.9515841 -0.2950319 
217 98 1117 -0.2748765 -0.8155774 -0.5091919 
215.5 99 1114.5 -0.3027449 -0.7084957 -0.6374789 
224 99 1111.5 -0.1048298 -0.6320068 -0.76784 
245 83 1144.5 -0.1312535 -0.6745744 -0.7264448 
238 84 1151 -0.3202029 -0.7804787 -0.5369572 
243 82 1146 -0.2973234 -0.687853 -0.6621609 
254 77 1160 -0.03136301 -0.9523259 -0.303466 
253 63 1186 -0.1657391 -0.756762 -0.6323305 
251 62 1190 -0.08526244 -0.7995664 -0.5944947 
227 89 1145.5 -0.03171854 -0.8328752 -0.5525512 
247 89 1141 -0.006964956 -0.8059865 -0.5918929 
245 90 1139 -0.04773846 -0.855868 -0.5149864 
239 92 1137 -0.1048973 -0.9353095 -0.3379244 
242 92 1133 -0.02474357 -0.9561198 -0.2919295 
203 95 1126 -0.03734604 -0.9395402 -0.3403959 
209 96 1122 -0.05241748 -0.8894206 -0.4540744 
211 96 1123 -0.09168677 -0.9004017 -0.4252886 
212 98 1121 -0.1149497 -0.8215112 -0.5584854 
215 98 1119 -0.237589 -0.8395559 -0.4885667 
219 98 1116 -0.2634303 -0.791993 -0.5507737 
223 97 1113 -0.1309515 -0.7324615 -0.6680957 
221 99 1113 -0.2006005 -0.7177569 -0.6667718 
143 87 1150.25 0.04517712 -0.4610783 -0.8862087 
146 84 1150.5 0.1459195 -0.550326 -0.8221002 
152 82 1153.5 0.1768373 -0.7232728 -0.6675366 
149 82 1152 0.2004277 -0.6724212 -0.7125157 
154 81 1158 0.1359083 -0.8645077 -0.4838961 
161 79 1166 0.04550242 -0.9500167 -0.3088652 
176 78 1175 0.003287026 -0.9633949 -0.268066 
169 78 1169 0.03014321 -0.9657242 -0.2578142 
178 77 1184 -0.06347571 -0.7586336 -0.6484181 
177 75 1185 -0.02615944 -0.7017893 -0.7119041 
173 66 1189.5 0.06374083 -0.679772 -0.7306485 
173 64 1192 0.05247796 -0.7447119 -0.6653197 
171 60 1199 0.01854463 -0.787815 -0.6156327 
176 62 1196 -0.00345351 -0.7599424 -0.6499813 
176.5 68 1190 -0.0301392 -0.6191946 -0.784659 
173 69 1188 0.09970988 -0.6247031 -0.7744702 
173 73 1185 0.118828 -0.6643743 -0.7378935 
132 90.5 1149 -0.1134881 -0.5606722 -0.8202239 
134 93 1149 -0.1123802 -0.5898174 -0.7996788 
137 93 1150 -0.1293684 -0.5569673 -0.8203969 
136 95 1148 -0.1215434 -0.6790701 -0.7239414 
139 95 1145 -0.1262064 -0.7838308 -0.6080142 
143 95 1142 -0.0210037 -0.9131472 -0.4070885 
149 96 1137 -0.04526831 -0.9651433 -0.2577777 
149 98 1134 -0.04731734 -0.9782491 -0.201965 
113 100 1120 0.1468012 -0.8747592 -0.4617854 
115 100 1123 0.07151168 -0.9460274 -0.3160986 
185 102.5 1118.5 -0.06162014 -0.6967502 -0.7146623 
188 105 1117 -0.128928 -0.6988863 -0.7035165 
181.5 107 1115.5 0.02112013 -0.7056296 -0.7082661 
184 108 1113 -0.0568603 -0.7386597 -0.6716761 
185 110 1110 -0.05363894 -0.9415137 -0.3326785 
140 87 1150.5 -0.06032183 -0.4683583 -0.881477 
137 84 1150.5 -0.1134979 -0.5318158 -0.83922 
176 81 1158 0.01806791 -0.8789916 -0.4764948 
173 81 1160 0.03243117 -0.9178514 -0.3955969 
170 79 1165 0.0002849407 -0.9646289 -0.2636116 
163 78 1171 0.07452831 -0.9533477 -0.2925299 
197 77 1180 -0.162448 -0.8470027 -0.5061591 
158 75 1181 0.04243896 -0.8483568 -0.5277211 
158 66 1190 -0.04656674 -0.7782458 -0.6262308 
158 64 1192 -0.0716045 -0.8019358 -0.5931035 
161 60 1198 -0.04392481 -0.8306883 -0.5550025 
155 62 1196 -0.08685838 -0.8220415 -0.5627642 
158 69 1186 -0.02682829 -0.7391834 -0.6729697 
158.3333 71.66666 1183.667 -0.00133112 -0.7692578 -0.6389372 
155 73 1182 -0.004411333 -0.8303806 -0.5571793 
152 91 1148.5 0.08848628 -0.6774887 -0.7301912 
149 93 1147 0.0318682 -0.7032951 -0.7101834 
141 95 1142 -0.05361924 -0.920166 -0.3878396 
137.5 96 1138.5 -0.08011114 -0.9563755 -0.2809416 
131 97 1132.5 -0.1381205 -0.9777281 -0.1580211 
125 99 1131 -0.1225703 -0.9735628 -0.1927486 
194.5 101 1117 -0.141119 -0.6567859 -0.7407548 
190 105 1117 -0.130858 -0.6921234 -0.7098179 
194 105 1114.5 -0.1001109 -0.6876706 -0.7190876 
197 106 1113 -0.01930557 -0.6605724 -0.7505141 
193.5 108 1111.5 -0.1001552 -0.7576284 -0.644956 
176 86 1153 0.05082288 -0.7087707 -0.7036058 
173 86.66666 1151.333 0.0603838 -0.689199 -0.7220517 
174 84 1154 0.03652404 -0.7162673 -0.6968696 
170 82 1153 -0.01564335 -0.7228684 -0.6908087 
133 83 1156 -0.1698276 -0.8096808 -0.5617612 
137 81 1158 -0.1469247 -0.8979323 -0.4148864 
132 81 1164 -0.1601172 -0.9662766 -0.2016734 
117 81 1183 -0.1302995 -0.93179 -0.3388059 
108 77 1191 0.1922111 -0.534394 -0.8230905 
143 66 1191 -0.1085654 -0.7559637 -0.6455482 
140 66 1192 -0.1108589 -0.7441673 -0.6587301 
143 64 1194 -0.0731361 -0.8122279 -0.5787375 
152 60 1200 -0.08727241 -0.8287973 -0.5527012 
149 60 1201 -0.08269586 -0.8374475 -0.5402252 
145 62 1196 -0.07445352 -0.8270395 -0.5571916 
146 68 1189 -0.1285644 -0.734031 -0.6668357 
143 69 1187 -0.1626864 -0.7208439 -0.6737338 
143.3333 72.33334 1184.333 -0.186836 -0.7677234 -0.612938 
144 75 1182 -0.2140753 -0.8275625 -0.5189529 
157.75 90.5 1150.75 -0.02244999 -0.6865363 -0.7267489 
161 91 1149 -0.1313642 -0.7556255 -0.6416959 
162 93 1146 -0.07951751 -0.8058322 -0.5867806 
170 94 1142 -0.01151225 -0.9218283 -0.3874275 
170 96 1134 0.004917292 -0.9763523 -0.2161297 
185 95 1131 -0.02035605 -0.95827 -0.285139 
188 97 1126 -0.06783862 -0.9121165 -0.4042789 
182 98 1123 -0.008665731 -0.8395863 -0.5431572 
200 98 1118 -0.07746267 -0.6798351 -0.7292625 
197 99 1116 -0.1336737 -0.6541221 -0.7444835 
110 102 1114.5 0.3689482 -0.7621297 -0.5320109 
116.5 107 1115 0.1507738 -0.7813947 -0.6055489 
110 108 1110 0.3610316 -0.7845907 -0.5040572 
170.3333 87.33334 1150 -0.004082029 -0.6836089 -0.7298371 
168 84 1152 -0.05813259 -0.7168478 -0.694802 
172 82 1155 0.02191104 -0.790431 -0.612159 
140 79 1165 -0.1433508 -0.96983 -0.1971809 
118 78 1193 -0.1841955 -0.5089716 -0.8408448 
151.5 66 1190 -0.06348118 -0.7874027 -0.6131617 
152 64 1193 -0.07167582 -0.8193659 -0.5687726 
146 60 1201 -0.07228745 -0.8365595 -0.5430864 
143 60 1200 -0.05140482 -0.8386914 -0.5421755 
148.5 62 1197 -0.07253163 -0.8306419 -0.5520628 
150 68 1189 -0.07323659 -0.7635204 -0.6416176 
152 68.5 1187.5 -0.06316627 -0.7586613 -0.6484158 
142 71 1186 -0.1731788 -0.7290189 -0.662224 
152 71 1184 -0.06313095 -0.7819371 -0.6201523 
161.5 90 1151.5 -0.113985 -0.6808355 -0.7235126 
155.5 93 1149 -0.01082984 -0.7862217 -0.6178497 
174 94 1141 -0.01446075 -0.9363708 -0.3507143 
176 94 1138 -0.01114833 -0.955289 -0.2954636 
176 96 1135 -0.02052423 -0.9707048 -0.2393971 
182.3333 96.33334 1130 -0.02139457 -0.9526591 -0.3032871 
179 97 1128 -0.02304644 -0.9341468 -0.356144 
184 98 1123 -0.03148464 -0.8524865 -0.5218003 
188 99 1120.5 -0.1107604 -0.7857853 -0.6085011 
191 100 1118.5 -0.1517643 -0.7112513 -0.6863595 
119 102 1122 0.02472012 -0.9068857 -0.420651 
112 103 1115 0.2901562 -0.7821782 -0.5513679 
116 103 1118 0.1073878 -0.8236018 -0.5569093 
107.3333 105.3333 1112 0.4008149 -0.770687 -0.4953675 
116 105 1116 0.1723616 -0.7932335 -0.5840139 
116 108 1112.5 0.1813447 -0.8123969 -0.554189 
116 110 1108.5 0.1598001 -0.9036711 -0.3972938 
164 87 1152 -0.1214199 -0.6757897 -0.7270252 
161 87 1153 -0.09211376 -0.6712985 -0.735441 
163.5 84 1153.5 -0.07820725 -0.682164 -0.7270048 
155 82 1155 0.1306078 -0.7433943 -0.6559775 
152 81 1156 0.1380429 -0.81716 -0.5596372 
151 79 1161 0.1053703 -0.9212746 -0.3743663 
143 79 1162 -0.06797737 -0.9619699 -0.2645623 
130 80 1177 -0.1940054 -0.9404419 -0.2791612 
141 78 1171 -0.1738108 -0.9560384 -0.2361788 
119 79 1187 -0.2409963 -0.7991746 -0.5506729 
112 79 1193 0.04494146 -0.562032 -0.8258936 
122.5 77 1189.5 -0.3131735 -0.657099 -0.6856698 
116 78 1195 -0.1400556 -0.4971966 -0.8562594 
134 64 1194 -0.07768998 -0.7557958 -0.6501822 
140 60 1201 -0.04789467 -0.8479924 -0.5278399 
140 62 1198 -0.04373123 -0.8318821 -0.5532268 
131 69 1189.5 -0.1855639 -0.556384 -0.8099401 
137 72 1186.5 -0.2373617 -0.6617827 -0.7111282 
166 90 1150 -0.1033862 -0.7000093 -0.7066104 
176 91 1149 0.02905457 -0.7574723 -0.6522204 
175.5 93 1145.5 -0.01289213 -0.8429542 -0.537831 
159 94 1140 -0.0667095 -0.9563998 -0.2843404 
155 96.5 1132.5 -0.06576214 -0.9762101 -0.2066137 
193.5 98 1121.5 -0.1668704 -0.8008558 -0.5751384 
185 100 1119 -0.03671905 -0.7439702 -0.6672032 
123 102.5 1118.5 -0.09186537 -0.8001807 -0.5926817 
119.3333 104.6667 1118 0.05171184 -0.8070543 -0.5882085 
125 107 1115 -0.07529942 -0.7395666 -0.6688582 
122 108 1113 -0.00794706 -0.8320165 -0.5546939 
119 110 1111 0.06099614 -0.8607064 -0.5054345 
163 86 1153 -0.1049487 -0.6707866 -0.7341874 
161 84 1155 -0.09570454 -0.7184927 -0.6889187 
148 81 1156 0.1501171 -0.8380513 -0.5245331 
149 79 1161 0.06602451 -0.9322046 -0.3558586 
145 79 1162 -0.01702058 -0.9583426 -0.2851137 
137.5 80 1168.5 -0.1812468 -0.9669791 -0.1791675 
131 80 1175 -0.1959695 -0.9451439 -0.2613406 
116 79 1193 -0.1263867 -0.5001703 -0.856654 
114 80 1194 -0.05113353 -0.5244417 -0.8499095 
119 78 1190.5 -0.2122565 -0.6626822 -0.7181919 
113.5 78 1196 0.01394401 -0.3833888 -0.9234818 
131 66 1191 -0.1269373 -0.6529448 -0.7466927 
131 64 1193.5 -0.09269407 -0.7318595 -0.6751219 
137 60.5 1201.5 -0.05422654 -0.8431687 -0.5349075 
137 62 1198.5 -0.05719315 -0.8336856 -0.5492698 
134 69 1189.25 -0.1712359 -0.5874405 -0.7909437 
139.5 71 1186.5 -0.2282265 -0.706778 -0.6696101 
137 75 1187 -0.2497315 -0.6692891 -0.6997759 
162 88 1152 -0.1071492 -0.6705615 -0.7340751 
173 91 1148 0.02858421 -0.7483529 -0.6626846 
172 93 1144 -0.001515737 -0.8761711 -0.481998 
158 96 1133 -0.07745652 -0.9780545 -0.1934166 
201 95 1127 -0.04821819 -0.9470603 -0.3174143 
191 98 1122 -0.1618693 -0.8196158 -0.549571 
187 100 1119 -0.09063048 -0.7135683 -0.6946989 
116 102 1120 0.09672082 -0.8533924 -0.5122173 
122 104.6667 1118 -0.05928382 -0.8117158 -0.581036 
127.5 107 1115 -0.1023483 -0.6798333 -0.7261897 
121.5 110 1111 0.01192717 -0.8685339 -0.4954861 
155 86 1153 0.1234976 -0.598464 -0.7915738 
159 84 1155 0.003937024 -0.7137501 -0.7003894 
147 79 1160 0.04164186 -0.9342049 -0.3542981 
152 78 1167 0.03179682 -0.9629694 -0.2677293 
122 79 1184.5 -0.2780344 -0.7942955 -0.5401774 
140 77.5 1178 -0.2575353 -0.8759036 -0.4080055 
125 78 1187 -0.3016327 -0.7533833 -0.5843213 
106 77 1192 0.1794079 -0.5506848 -0.815205 
140 64 1194 -0.05673819 -0.810948 -0.5823607 
138 64 1195 -0.05636601 -0.8043141 -0.5915248 
134 61 1202 -0.08072489 -0.8328458 -0.5475869 
134 62 1198 -0.08413508 -0.8103663 -0.5798516 
137 69 1189.5 -0.1560737 -0.6528179 -0.7412624 
141 69 1188 -0.1719067 -0.6840771 -0.7088629 
131 72 1188 -0.2336177 -0.5348973 -0.8119776 
140 73 1184 -0.2554671 -0.7402546 -0.6219001 
131 75 1190 -0.2497715 -0.5199645 -0.8168544 
134 75 1188 -0.2472899 -0.63986 -0.7276173 
138 75 1185 -0.2441592 -0.72724 -0.6414891 
169.6667 89.66666 1148 0.002047521 -0.7250454 -0.6886981 
173 90 1150 0.03960986 -0.6962417 -0.7167137 
170 93 1145 -0.02692324 -0.8728855 -0.4871817 
157 95 1142 -0.06174291 -0.9414648 -0.3314089 
163 94 1140 -0.0750239 -0.9537289 -0.2911577 
172 95 1144 -0.01287332 -0.8899837 -0.4558108 
155 96 1139 -0.05418912 -0.9607381 -0.2721136 
191 97 1127.5 -0.126859 -0.9311762 -0.3417862 
199.5 97 1124.5 -0.07656956 -0.918505 -0.3879248 
178.5 100 1119 0.05487776 -0.7671427 -0.6391249 
127 102 1117 -0.1300699 -0.7632941 -0.6328222 
125 103 1116 -0.1086061 -0.7364981 -0.6676642 
127.5 105 1115 -0.1062626 -0.6954825 -0.7106423 
119 108 1115 0.08905316 -0.8006834 -0.592432 
128 108 1113 -0.06894789 -0.7911575 -0.6077138 
125 110 1111.5 -0.03933614 -0.8335696 -0.5510121 
200 87 1154 -0.02992479 -0.6583282 -0.752136 
196.6667 87.33334 1151.667 0.05637404 -0.6459293 -0.7613128 
197 84 1153.5 0.0477532 -0.675657 -0.7356679 
109.6667 84.33334 1158 -0.03245178 -0.7168075 -0.6965157 
107 83 1161 0.02696216 -0.9021299 -0.4306214 
122 80 1177 -0.1409296 -0.9492969 -0.2810235 
139 76 1177 -0.2579021 -0.8912308 -0.3730876 
131 77 1189 -0.2558816 -0.6346668 -0.7291932 
113 66 1195 -0.04558729 -0.5723846 -0.8187171 
122 64 1196 -0.1789543 -0.6745968 -0.7161666 
125 61 1203 -0.1142289 -0.7930281 -0.5983797 
125 62 1199 -0.1327833 -0.7657916 -0.6292312 
112.6667 69.33334 1193.667 0.03295367 -0.3791085 -0.9247653 
116 69 1195.5 -0.1410362 -0.4661615 -0.8733856 
124.5 71.5 1189.5 -0.2960945 -0.4349508 -0.8503799 
128 72 1187 -0.2620297 -0.5585772 -0.7869765 
108 76 1192 0.1720214 -0.4527873 -0.874867 
129 75 1189 -0.2862653 -0.5519075 -0.7832307 
182 90 1150 -0.02793829 -0.7246611 -0.688539 
185 90 1148.25 -0.06443086 -0.7571965 -0.6500017 
184.5 93 1144.5 -0.03342681 -0.8754902 -0.4820783 
191 94 1138.5 0.01884787 -0.9539919 -0.2992394 
161 95 1130 -0.07019592 -0.9720677 -0.2239578 
194 95 1132.5 -0.06338099 -0.9783384 -0.1970706 
164 97 1127 -0.01425149 -0.9620059 -0.2726566 
156 98 1122 -0.1286866 -0.8859921 -0.4454861 
176 100 1119 0.08326963 -0.7773066 -0.623587 
134 103 1115 0.01249881 -0.6832988 -0.7300318 
131 105 1114 -0.04456296 -0.6529194 -0.7561153 
131.3333 107.6667 1112.333 -0.03153312 -0.7496176 -0.6611196 
140 107 1114.5 0.03823574 -0.6856273 -0.726948 
130.5 110 1110 -0.02632951 -0.8128929 -0.5818178 
133 110 1111 -0.004567065 -0.8108629 -0.5852184 
194 87 1150.5 0.08986918 -0.6581669 -0.747489 
191 84 1151 0.01714761 -0.6854602 -0.7279081 
113 85 1158 -0.03103973 -0.697079 -0.7163222 
197 82 1154.5 0.05483757 -0.7630652 -0.6439911 
116 83 1159.5 -0.04174248 -0.8801461 -0.4728642 
118 82 1171 -0.07006755 -0.9870408 -0.1443641 
126 80 1179 -0.1542893 -0.9310478 -0.3306733 
132 79 1182 -0.2207978 -0.8391861 -0.497006 
133 77 1184 -0.2337368 -0.7931018 -0.5624559 
129 66 1190 -0.1613401 -0.5940801 -0.7880597 
109.5 66 1195 0.00943862 -0.556318 -0.8309159 
128 64 1194 -0.1424337 -0.7047318 -0.6950293 
125 64 1195 -0.186213 -0.6949368 -0.6945413 
122 61 1203 -0.1242018 -0.7640594 -0.6330776 
122 62 1200 -0.1255715 -0.7574646 -0.6406864 
110 69 1193 0.05964353 -0.3820989 -0.9221947 
125.5 69 1190.5 -0.2633649 -0.4845824 -0.8341576 
114 72 1192 0.0129461 -0.3380178 -0.9410507 
122.3333 72.66666 1190 -0.3111992 -0.3818873 -0.8702397 
116 75 1193 -0.1361274 -0.3863835 -0.9122375 
120 74.5 1191 -0.2454571 -0.4244159 -0.871563 
182 91 1148 -0.04385224 -0.7820318 -0.6216938 
182 93 1144 -0.02922385 -0.8692073 -0.4935834 
196 94 1142 -0.004040593 -0.9260915 -0.3772774 
200 94 1139.5 -0.05394701 -0.9594553 -0.2766504 
159 95 1131 -0.06809954 -0.9735839 -0.2179377 
198 95 1133 -0.07731012 -0.9816571 -0.1742771 
155 97 1128 -0.0881387 -0.9560657 -0.2795893 
164 98 1121 -0.02112539 -0.8848293 -0.4654362 
168 100 1117 0.117578 -0.7765707 -0.6189615 
140 102.5 1117 0.0685688 -0.6960301 -0.714731 
136.5 103 1116 0.05100106 -0.6688942 -0.7416059 
140 105 1115.5 0.0623682 -0.6359914 -0.7691717 
130 107 1114 -0.06572655 -0.6988131 -0.7122783 
140 108 1113 0.04883641 -0.7544598 -0.6545269 
137 110 1111 0.01873769 -0.8038231 -0.5945733 
191 87 1150.5 0.03343144 -0.6591576 -0.7512614 
194 84 1151 0.08886603 -0.6691915 -0.7377572 
115.5 85 1157.5 -0.08366781 -0.7004369 -0.7087932 
113 83 1160 -0.05601304 -0.9175838 -0.3935767 
120 82 1170 -0.08897072 -0.9822407 -0.1651892 
128 80 1179 -0.1603247 -0.9346371 -0.3174106 
124 80 1176 -0.1526082 -0.9503237 -0.2712852 
131 79 1185 -0.2203691 -0.8273389 -0.51667 
134 78 1181 -0.2537533 -0.8556688 -0.4510435 
107 66 1195 -0.007141557 -0.5726021 -0.8198023 
119 61 1203 -0.1115286 -0.7332602 -0.6707391 
119 62 1200 -0.1058335 -0.7202035 -0.685643 
107.25 69 1193.25 0.05932403 -0.4241599 -0.9036421 
128 69 1189.5 -0.2217752 -0.519264 -0.8253367 
116 72 1193 -0.1211426 -0.3425324 -0.9316631 
113 75 1193.25 0.01679575 -0.3618813 -0.9320729 
122 75 1191 -0.3110196 -0.3964086 -0.8637864 
179.5 91 1148.5 -0.02712229 -0.7740511 -0.6325419 
179 93 1146 -0.04124065 -0.8507616 -0.5239312 
197 96 1135 -0.07864366 -0.9794109 -0.1859288 
200 95 1133 -0.08061937 -0.9814224 -0.1740995 
158 97 1127 -0.1183251 -0.9490434 -0.2920888 
161 97 1124.5 -0.1023069 -0.9312122 -0.3498245 
161 98 1120.5 -0.1148523 -0.8722106 -0.4754551 
166 100 1116 0.04480259 -0.7334076 -0.6783113 
170 100 1118 0.1442838 -0.8035885 -0.577432 
137 102 1117.5 0.03883022 -0.6911818 -0.721637 
136.5 105 1115.5 0.03859517 -0.6412335 -0.7663746 
135 107 1114 0.02812467 -0.6294509 -0.7765312 
137 108 1113 0.03322174 -0.7494786 -0.6611946 
140 110 1112 0.04040968 -0.7788845 -0.6258643 
188 87 1150.5 -0.04156787 -0.6865094 -0.7259318 
185 84 1152 -0.08487073 -0.6982377 -0.7108172 
178 82 1155 0.02052139 -0.7996485 -0.6001176 
119 83.5 1157 -0.0969983 -0.8390942 -0.5352684 
110 82 1174 -0.01825778 -0.9835138 -0.1799088 
151 76 1175 -0.02942812 -0.9383769 -0.3443586 
125 66 1193.5 -0.2225745 -0.6159175 -0.7557157 
117 61 1203 -0.08685203 -0.7186509 -0.6899258 
113 62 1201 -0.05338348 -0.6800604 -0.73121 
116.3333 63.33333 1198.667 -0.08028445 -0.6559533 -0.7505196 
119 72 1192.5 -0.2721563 -0.3619115 -0.8916003 
200 91 1149 -0.04632473 -0.7305744 -0.6812599 
197 93 1147 0.01596271 -0.8157387 -0.5782002 
200 93 1146 -0.06975313 -0.8434106 -0.5327224 
182 94 1140 -0.04420393 -0.9416885 -0.3335698 
179 96 1133.5 -0.02616812 -0.9729531 -0.2295158 
182 96 1135 -0.02798336 -0.9713885 -0.2358418 
172 97 1128 0.0505128 -0.9452559 -0.3223967 
176.5 97 1129.5 -0.01163652 -0.9478434 -0.318524 
