ply
format ascii 1.0
comment VCGLIB generated
element vertex 781
property float x
property float y
property float z
property float nx
property float ny
property float nz
element face 0
property list uchar int vertex_indices
end_header
14.53018 63.04039 -9.566484 0.02924141 0.9878641 -0.007371729 
-23.78631 12.72441 21.35057 -0.7426896 0.009471231 0.6666376 
-1.102855 14.96508 -31.92456 -0.03443492 0.01155771 -0.9967935 
28.99741 -2.436685 -13.37509 0.9053977 -0.004642501 -0.4176159 
-5.145446 63.04038 -16.23919 0.01443588 0.9994321 0.02050769 
8.052387 4.084726 -28.87222 -0.2522265 0.0700029 0.911045 
-23.46884 48.09231 21.42252 -0.7121867 0.2485465 0.6499045 
-19.07389 66.88013 16.31392 0.5051478 0.7041658 -0.4523863 
-5.06779 63.4917 1.139108 0.3770409 0.8983811 0.1183616 
-26.20108 1.63906 -18.35832 -0.8180868 -0.0008479223 -0.5732094 
-5.114961 -46.90919 -26.29127 0.06106932 0.8670384 0.3007135 
-16.98508 -43.37879 4.03994 -0.3777946 0.9199932 0.08971556 
-27.07548 32.91373 12.99858 0.8695194 -0.1242402 -0.417628 
-29.50311 -30.80193 12.21084 -0.9211876 -0.03104968 0.3812639 
14.48232 -8.02112 -28.45254 0.4521873 -0.009841366 -0.8883852 
-29.04568 -15.8665 -7.602208 0.9042347 0.2054984 0.2366782 
-27.17161 -34.62801 -12.6642 0.835543 0.33293 0.3893054 
19.39272 17.86471 -22.85493 -0.6161091 -0.02216036 0.7277659 
-26.81427 12.21841 -17.34997 -0.8372327 0.009001103 -0.5417252 
16.61575 32.29581 -24.96119 -0.5330945 -0.1197925 0.801555 
-23.26867 42.85975 21.95197 -0.7265272 0.03752497 0.6854156 
26.69335 -2.184519 -13.64478 -0.8376932 0.1135138 0.4297572 
-22.9342 30.45105 19.33028 0.7348042 -0.107369 -0.6207966 
15.58559 -0.4043181 25.65985 -0.4902684 0.1008813 -0.8069403 
9.902455 -21.41234 -30.36236 0.3091884 -0.02230792 -0.9480163 
-28.68732 53.7319 -4.889493 -0.9018545 0.3998952 -0.1513618 
-3.567618 62.04038 1.172679 0.1191762 -0.72317 0.6768797 
-5.81879 63.04039 -20.77881 -0.04370802 0.9851394 -0.1552955 
24.67186 -1.171209 20.26209 0.7703393 -0.003463185 0.6326516 
-13.56205 62.04039 -1.105492 0.4980086 -0.7060552 0.4198956 
6.956235 -27.27543 -29.18654 -0.2149114 0.2817978 0.9023256 
22.48859 -50.6646 -2.012182 -0.9031689 -0.3800073 0.08168637 
1.057642 -39.79337 31.92765 0.03302325 -0.0394197 0.99689 
27.13245 31.83446 -12.74448 -0.8704922 -0.1167024 0.4094393 
26.79813 52.15612 7.935255 -0.784723 -0.4443934 -0.2374814 
13.09516 14.04634 26.98404 -0.416002 0.003329784 -0.856159 
25.45882 40.83164 15.85063 -0.8218211 -0.1775169 -0.511387 
31.53909 3.674839 4.99439 0.9847575 0.00104739 0.155942 
11.42836 -42.64882 29.72396 0.3494417 -0.2156163 0.9078717 
8.11465 33.56441 -28.85437 -0.2599466 -0.1290375 0.9271767 
-0.575528 -45.42001 -18.09279 0.01205064 -0.9048659 0.4187933 
0.09305245 55.58518 26.26759 -0.003010824 -0.6258899 -0.693294 
-13.16944 -23.9621 -29.13282 -0.4111948 -0.0246816 -0.9096257 
9.431374 -37.72558 -28.4768 -0.2893863 0.352474 0.8744342 
1.897383 -45.34545 30.38865 0.0460914 -0.6578508 0.7487346 
-25.4315 -50.65677 4.841404 -0.9266952 -0.3193963 0.1775219 
28.82107 21.1027 -8.29351 -0.9184812 -0.04452563 0.2648934 
15.77522 61.3729 20.16394 0.5979862 0.1756504 0.7755853 
10.83531 33.54717 -27.98567 -0.3471512 -0.1286585 0.8995014 
22.26904 17.05821 -20.06212 -0.7072361 -0.01652767 0.6387426 
20.17347 14.34551 24.83783 0.6298845 0.01098144 0.7755213 
-31.9254 37.12155 -0.9763269 -0.9968195 0.03218508 -0.03048433 
-0.06672215 51.90689 28.10858 0.00215889 -0.4316644 -0.8299946 
-2.266746 63.03815 -17.6958 0.05166403 0.9732316 0.1809237 
-28.35541 -44.94557 5.797956 0.6999053 0.5525191 -0.1390478 
13.20021 -47.37286 24.95476 0.3325476 -0.6995038 0.6307223 
-22.29465 52.54568 -16.55178 0.6440417 -0.4648149 0.4837384 
31.9254 -5.967756 -2.048936 0.9968196 -0.007929753 -0.06397489 
2.629375 -43.02801 10.70703 -0.05900097 -0.9684401 -0.240555 
-22.79922 -3.471572 19.50304 0.7152935 0.1214093 -0.6127688 
15.14162 -45.69411 11.03986 -0.3574744 -0.8940275 -0.2608066 
-21.84581 6.675373 -23.28083 -0.6821009 0.003838867 -0.7269067 
29.37723 32.74411 -6.00282 -0.9431044 -0.1235161 0.1935055 
24.20822 6.474155 -17.71083 -0.7640171 0.05506095 0.5600209 
-27.51138 43.62894 -16.20362 -0.8589989 0.03824305 -0.5059322 
18.62911 59.63337 13.214 -0.4867423 -0.7998164 -0.3386094 
7.938143 -24.61855 30.95785 0.2478559 -0.02529257 0.9666094 
-15.79309 -42.5171 -27.70287 -0.4849274 -0.1910843 -0.8505344 
-10.88805 -49.17434 -19.35018 0.4640223 -0.2851079 0.8229321 
4.171832 52.9667 -27.20495 -0.1270586 -0.4873517 0.7789158 
13.00418 -50.91624 -18.57615 -0.5003458 -0.4744526 0.7057356 
27.97378 13.13523 15.44324 0.8734367 0.009854672 0.4821904 
-24.18317 6.204412 17.73166 0.7632277 0.05610835 -0.5608356 
-17.59921 63.04039 10.18536 -0.0845399 0.9886113 0.05468115 
-27.82848 55.89045 3.283448 -0.9068381 0.4049115 0.09956151 
19.73846 -38.93074 -25.14489 0.6163019 -0.03861792 -0.785109 
4.671577 5.432615 -31.63665 0.1458626 0.002683498 -0.9878038 
7.495809 -46.52874 22.6274 0.07317813 0.9232119 0.2192002 
24.87844 62.6901 -5.556281 0.9180295 -0.09726947 -0.2057904 
-6.649785 -41.72044 29.22947 0.2030759 0.380521 -0.8948351 
-1.919203 -39.93749 4.081425 -0.0466481 0.9931734 0.09920295 
-24.5442 57.48685 11.76359 -0.8176092 0.414497 0.3944737 
-13.10581 59.61121 22.62188 -0.4559318 0.4184551 0.7823806 
-15.95959 0.5239296 27.68709 -0.4983125 -0.001886244 0.864485 
-21.73323 -46.49399 9.622237 -0.2180298 0.9215564 0.1075245 
-18.94019 -39.7831 -23.23466 0.5810576 0.3670622 0.7119111 
21.91015 63.04039 -1.317337 0.1778959 0.9838414 -0.0107816 
10.34345 -9.217577 28.13221 -0.324449 0.1606079 -0.8792381 
-23.55612 -23.15033 -21.63351 -0.7355023 -0.02392459 -0.675472 
18.83978 20.74969 25.77925 0.5882421 0.01694392 0.8049158 
-21.79002 2.596491 23.33294 -0.6803588 4.507974e-05 0.7285336 
-12.79961 -28.58479 -27.11111 0.3959346 0.2909654 0.8370961 
-14.97284 41.90194 -25.9878 0.4836125 -0.1847468 0.8392812 
-8.54908 -33.61279 -28.7298 0.2637179 0.3246942 0.8843899 
-22.17968 -23.45167 22.96902 -0.6925253 -0.02420503 0.717171 
-2.437963 21.30165 31.83324 -0.07612158 0.01745705 0.993942 
-8.439404 44.69556 -28.76125 0.2729845 -0.2041466 0.9303855 
1.712651 1.397179 -29.9733 -0.05351507 0.08778676 0.9436741 
23.63962 58.92924 -6.761926 -0.5458618 -0.8028153 0.1579142 
-21.5126 38.61671 -20.90223 0.6935277 -0.1623181 0.6735332 
-0.1743674 -47.08669 26.62294 0.005313177 0.8952893 -0.2727667 
26.89857 -10.72138 -17.21136 0.8398646 -0.01235527 -0.5373973 
-29.76683 14.60851 -3.793281 0.9449808 -0.001106083 0.1196225 
24.50891 14.50647 17.31473 -0.7786461 9.81316e-05 -0.5491415 
24.73696 24.3974 17.02284 -0.7905542 -0.06661583 -0.5435153 
16.99561 -7.358727 -27.08101 0.5306609 -0.009224778 -0.845561 
-15.93455 30.26931 -25.38685 0.5115757 -0.1061666 0.8136028 
30.31784 -42.48653 9.902916 0.931542 -0.1850344 0.3040284 
-29.99036 46.7738 -0.03452468 0.9712183 -0.2189045 0.001079326 
25.72595 31.661 -15.46071 -0.8254378 -0.1153443 0.4961834 
-24.12993 -14.92527 -17.82691 0.7523468 0.1996482 0.5541896 
20.47959 -18.02602 21.89088 -0.6377476 0.2196635 -0.6799781 
28.01657 -45.35166 5.308055 -0.620195 0.6175752 -0.1114392 
31.4209 -25.62008 5.854249 0.9810674 -0.02622504 0.1827897 
9.319885 -14.212 -28.50877 -0.289442 0.1936641 0.8890193 
28.42834 -25.99055 9.650121 -0.8796992 0.2731524 -0.2983117 
20.08767 1.266185 22.26935 -0.6330936 0.08953916 -0.7005402 
25.07728 62.60149 4.237084 0.9360949 -0.06223673 0.155276 
29.67989 12.93665 4.362506 -0.9413261 0.01003814 -0.1375438 
-25.29678 -13.83486 -16.09699 0.7889912 0.1923436 0.500945 
16.02935 -46.86119 -18.45337 0.08055021 0.9422408 -0.08869527 
-6.146665 24.88342 29.33641 0.1951302 -0.07037643 -0.9375078 
-31.9254 -15.36317 -0.6226058 -0.9968196 -0.01667657 -0.0194399 
7.892082 25.9536 -30.96742 0.2464178 0.02178762 -0.9669082 
8.03114 -44.19854 30.28103 0.2244716 -0.4846995 0.8432168 
-25.13213 44.55401 16.41647 0.8129457 -0.2025787 -0.5312394 
-3.051724 63.54039 -2.368583 0.0142939 0.9995927 0.01084388 
-3.526205 -41.84829 3.069681 0.08995228 -0.9917581 -0.07830651 
18.09256 61.56303 14.40359 0.0627674 0.9713227 0.03772162 
30.88634 30.4405 -8.096499 0.9643766 0.02596515 -0.2528002 
-19.90697 -41.84667 -22.42343 0.6097153 0.3811159 0.6861528 
28.97166 49.63961 3.477156 -0.9055531 -0.3117135 -0.1112325 
-31.9254 8.445319 1.315679 -0.9968196 0.005488377 0.04108005 
-18.27569 38.58646 26.17743 -0.5706293 0.03354897 0.8173482 
31.9254 -9.464694 -1.226397 0.9968196 -0.01118529 -0.03829239 
-18.65813 4.839673 23.49311 0.5881096 0.06540401 -0.741864 
-18.13946 -30.39633 -26.27359 -0.5663756 -0.03067199 -0.8203508 
-27.66569 18.12319 15.94988 -0.8638168 0.01449794 0.4980094 
7.320342 -31.75555 -29.08213 -0.2255128 0.3120732 0.8964996 
8.115091 13.23821 -28.85424 -0.2558786 0.008199278 0.9156908 
20.97469 -16.4474 -24.09441 0.6549013 -0.01768542 -0.7523092 
-19.76509 -46.46138 -4.249918 0.5659568 -0.8037951 0.1246558 
8.150145 63.03133 20.41083 0.0848548 0.9654594 0.2095983 
-9.205505 22.21072 28.54639 0.2921843 -0.05213279 -0.9110864 
21.13207 24.97767 23.94742 0.6598153 0.02087885 0.7477199 
29.92266 -4.361834 -1.973341 -0.9384993 0.1271112 0.06290566 
12.45488 13.63438 -27.26459 -0.3940685 0.005896892 0.8655704 
9.892325 46.70632 -28.34463 -0.3202437 -0.2175779 0.9181251 
5.840328 34.4616 -29.44706 -0.1874567 -0.1353059 0.9465494 
12.60898 59.63337 -17.55954 -0.3691385 -0.7637602 0.5217006 
-10.95299 34.7995 -29.989 -0.3419896 0.03002298 -0.9363587 
20.32969 63.04039 7.788631 0.1597665 0.9840225 0.06280325 
10.1599 63.04039 15.49075 -0.04739721 0.9960989 -0.07028494 
25.02497 -14.36656 -16.49995 -0.778939 0.1960435 0.5152507 
20.07724 -1.14468 22.27943 -0.6318196 0.105802 -0.6997609 
-18.43769 -50.21341 12.86347 0.7986771 -0.2267416 -0.5561047 
-31.11339 -19.18969 -7.286137 -0.9714659 -0.02023882 -0.2274981 
-28.13735 7.288672 10.37037 0.8889644 0.04857877 -0.3284903 
-25.86485 -49.57233 -5.167605 -0.8444619 -0.4988116 -0.1675465 
-14.34864 -44.32121 5.214053 0.3063006 -0.9447482 -0.1109757 
-6.123525 56.75717 26.8909 -0.1960439 0.4122936 0.8871553 
-29.81702 20.29461 3.057771 0.9498234 -0.03962469 -0.09829992 
6.819967 60.28365 -19.13101 -0.2324466 -0.7163839 0.6547447 
10.18644 63.04039 -7.874469 -0.09572754 0.991423 0.03558267 
-23.815 67.03138 -8.762214 0.1524188 0.9850355 0.05534993 
29.71304 -1.979068 4.047019 -0.9336064 0.1108042 -0.1257721 
11.59415 19.48606 -29.76114 0.3620087 0.01576678 -0.929244 
-12.79066 1.751344 27.14595 0.4020412 0.08628257 -0.8552233 
22.24293 27.45788 22.90996 0.6945001 0.02318671 0.7153267 
26.30177 33.35761 -14.44764 -0.8444691 -0.1268801 0.4649765 
-2.68237 9.549706 31.81652 -0.08375283 0.006516681 0.99342 
0.2893599 -0.04547501 -31.98021 0.009034811 -0.002416184 -0.9985308 
15.00242 -45.44327 -10.18634 -0.3480107 -0.9036938 0.236711 
-17.85795 -46.58311 -20.44442 0.2363429 0.8148004 0.2915456 
5.649616 61.73166 22.94316 -0.1366343 0.7567753 -0.5865253 
30.39129 -5.137753 9.863341 0.9489196 -0.007157195 0.3079669 
-19.69034 -31.97348 25.17886 -0.6147994 -0.03214095 0.7861695 
-18.54475 -13.91113 -25.98751 -0.5790301 -0.0153246 -0.8114183 
12.03452 -33.29032 -27.45175 -0.3704026 0.3226767 0.8453728 
27.68774 50.13503 -13.77812 0.8272101 0.3820221 -0.4097664 
19.12044 53.06374 -22.42764 0.5960382 0.3935103 -0.6989034 
31.9254 -11.81304 -1.882356 0.9968196 -0.01337153 -0.05877368 
-17.8412 -46.53386 20.54293 0.2495714 0.8069227 -0.2930613 
-29.60553 -17.4837 -11.97505 -0.9243854 -0.01865072 -0.3739016 
-22.73335 38.50832 19.58735 0.7323039 -0.1617019 -0.6318284 
29.60434 23.67561 -11.9778 0.9243481 0.01966731 -0.3739876 
17.831 -48.64178 -20.17887 0.5223625 -0.604517 -0.5954692 
-15.72365 59.63337 -14.20478 0.484068 -0.7520764 0.4378609 
4.337495 31.97357 31.70331 0.1354315 0.02739151 0.9898851 
29.44139 -13.92843 5.813624 -0.9180816 0.191649 -0.1806872 
-18.22851 -45.77293 5.083803 0.4330379 -0.8909586 -0.119674 
-24.83025 50.75106 17.9391 -0.7469168 0.3853678 0.5407477 
-30.55065 -22.83169 9.294586 -0.9538953 -0.0236294 0.2902085 
-26.74257 11.46684 13.62711 0.8473023 0.02048153 -0.4320846 
-3.406683 -39.91659 2.453587 -0.08280271 0.9936478 0.05963679 
-22.37223 -6.740826 -19.94752 0.7017737 0.1441295 0.6234242 
-16.65793 -17.42595 27.31936 -0.5201173 -0.0185969 0.8530035 
11.07019 -38.69678 29.94735 0.3456489 -0.03839898 0.9350582 
-14.11384 47.10195 26.4424 0.4571524 -0.2199104 -0.8568041 
8.21505 16.33485 -30.90031 0.2565019 0.01283303 -0.9648126 
2.581298 11.98921 -29.90509 -0.08115187 0.01619198 0.9478813 
-15.01139 9.585251 28.1784 -0.4687068 0.006549468 0.8798254 
-25.48599 55.31627 12.33653 -0.8211633 0.4044799 0.3982399 
-26.59894 42.19358 -17.70406 -0.8305093 0.03690661 -0.5527813 
20.90133 -48.3699 6.550626 -0.8503046 -0.4376232 -0.2654645 
-7.610376 -47.24955 -27.32759 -0.1891449 -0.7007357 -0.6862742 
-25.20753 -39.28992 16.28587 0.7732471 0.3629084 -0.4996762 
-15.14327 -50.24138 16.5514 0.6573582 -0.2316176 -0.7132601 
15.62562 -46.48206 -24.69101 0.3884374 -0.6889736 -0.6105679 
15.42902 -49.42804 -16.07105 -0.6650594 -0.2370066 0.6936725 
7.01755 -41.2823 9.060974 0.1607777 0.9635549 0.2075077 
9.076653 62.04039 -3.415065 -0.3199436 -0.7105975 0.5964532 
10.02409 -42.81099 -1.260932 -0.2282416 -0.9725822 0.02854071 
10.64774 -12.67882 -28.06918 -0.3321306 0.1834356 0.8759508 
-7.83359 57.6651 26.03193 -0.2588263 0.4126312 0.8730587 
-20.10436 -19.28026 -24.88661 -0.6277267 -0.02032373 -0.7770444 
-2.835632 42.36941 29.84821 0.09126461 -0.1889062 -0.9640238 
-8.707443 23.03557 -30.78707 -0.271876 0.01907125 -0.9612771 
-24.44293 27.84102 17.39918 0.782424 -0.08982673 -0.557281 
26.75975 35.23307 -13.50864 -0.8603377 -0.1396385 0.4349819 
-15.4119 -21.37888 -27.97087 -0.481212 -0.02227677 -0.8733457 
14.64809 -6.105806 -26.19072 -0.4587066 0.1393357 0.8208591 
22.45984 -27.98182 -19.85021 -0.6933865 0.2878365 0.6134282 
-7.6768 -42.36902 30.96074 -0.236087 -0.1617747 0.9538193 
29.73473 23.58744 3.840692 -0.9493604 -0.06198849 -0.1217508 
31.9254 -38.59042 -0.9221264 0.9968196 -0.03830043 -0.02879201 
16.21794 -46.96132 -13.15998 -0.536702 -0.7154055 0.4374005 
9.565681 -44.70512 13.27725 -0.2080213 -0.933326 -0.287823 
26.81907 -14.70668 13.49462 -0.8360121 0.1970399 -0.4203399 
14.52681 -35.35977 28.42949 0.4535763 -0.03529244 0.8876654 
7.500227 -45.18002 15.8037 -0.1714498 -0.9143662 -0.3582436 
22.63406 -51.48273 -4.758165 -0.5991613 -0.7404695 0.1255592 
-22.37354 -44.52153 21.58551 -0.6047051 -0.5333591 0.5805923 
16.532 15.23404 27.39048 0.5161854 0.01180845 0.855224 
-29.0274 -15.70742 -13.30604 -0.9063341 -0.01699697 -0.4154598 
-24.61781 50.18839 15.1835 0.7583917 -0.3399457 -0.470546 
29.62887 45.00061 4.847858 -0.9585719 -0.2065952 -0.1566028 
29.85394 -29.53353 2.706462 -0.9215479 0.2971576 -0.08280768 
-27.09719 -29.87496 -12.81677 0.8359522 0.3007832 0.3950052 
27.93386 -18.80422 -15.50889 0.8721901 -0.0198802 -0.4842402 
-26.75266 -33.04273 13.60964 0.8236524 0.3207752 -0.4198474 
19.27668 3.040188 -25.47086 0.6018834 0.0004561497 -0.7952867 
-15.46613 -22.90103 27.94277 -0.4829053 -0.02369401 0.8724684 
-25.38168 67.02579 0.5189287 0.0786455 0.9723386 -0.009136282 
21.88915 1.174186 -20.48403 -0.6881484 0.09078969 0.6456127 
4.713102 60.66584 -25.27287 0.1641428 0.2564703 -0.9498214 
-14.84214 -39.82909 -28.2661 -0.4634222 -0.03945323 -0.8825637 
24.65849 22.25181 17.12327 -0.7870831 -0.05214312 -0.5458714 
24.07323 -16.74722 17.87238 -0.7497422 0.2108954 -0.5557606 
16.51415 -14.90994 -25.02468 -0.5132876 0.1989241 0.7804213 
17.1023 38.42119 -24.65716 -0.5510271 -0.1611234 0.794707 
-0.01709537 -13.91411 -31.99883 -0.0005338126 -0.01532737 -0.9991123 
-28.72966 42.31638 13.9915 -0.8970378 0.03702123 0.4368622 
31.9254 -14.03513 0.4765735 0.9968195 -0.01544021 0.01488027 
19.44451 -23.35974 -22.81148 -0.6019385 0.2562486 0.7072244 
-18.10583 33.52775 -26.29733 -0.5653255 0.02883963 -0.8210921 
28.27877 46.80529 10.02033 -0.9160796 -0.218243 -0.3243404 
-18.25927 66.84637 18.22961 -0.5025072 0.6451735 0.4908789 
29.47135 43.15376 5.693464 -0.9524997 -0.1940565 -0.1834261 
2.78662 61.63047 -23.34671 -0.06046341 0.8736787 0.4296892 
31.81011 16.09926 -3.022567 0.9932197 0.01261386 -0.09437498 
21.32083 -43.3047 23.33986 0.6299385 -0.3299398 0.6853042 
-9.413411 -40.85144 3.223263 -0.2172176 0.9730076 0.07438669 
18.39168 -16.20941 26.09555 0.5742508 -0.01746422 0.8147919 
-22.70616 56.64822 -15.77011 -0.7497998 0.4066425 -0.518139 
14.91857 -46.0203 17.27478 0.2591519 0.8944738 0.3044614 
-25.14061 60.80396 5.420958 -0.9426817 0.2533933 0.2046755 
-17.22004 -10.20555 -26.92258 -0.5376683 -0.01187471 -0.8406146 
5.115483 1.693804 31.5444 0.1597228 -0.0007968745 0.9849237 
29.52279 18.43324 5.487176 -0.9396252 -0.02703228 -0.1740642 
5.777577 -12.01981 -29.45588 -0.179826 0.1786612 0.9196175 
-24.1368 67.00772 8.208274 -0.1232535 0.9332311 0.02322534 
-19.2486 59.63337 -13.91306 0.4514613 -0.8274451 0.3266034 
11.29148 -35.61639 -27.78257 -0.3472113 0.3383399 0.8542043 
-8.908871 -45.42088 -19.84102 -0.1887935 0.8875452 -0.4195059 
-23.21087 -51.93436 7.691506 -0.1557109 -0.9835163 0.05211635 
10.81751 58.12894 22.5272 -0.2576208 -0.7606906 -0.5394269 
-16.81098 -33.75595 -24.8392 0.5178583 0.3261607 0.7642556 
10.81143 62.54038 5.352025 -0.4121596 0.7641144 0.4473476 
4.268775 -9.36014 29.73557 -0.1332099 0.1616056 -0.9294723 
-11.5228 32.6296 -29.7865 -0.3597809 0.0280029 -0.9300357 
3.29491 -30.62016 31.77462 0.1028783 -0.03087954 0.9921118 
28.74827 -7.944367 -8.517546 -0.8990906 0.1519935 0.2681049 
-0.1298238 -32.75727 -31.99112 -0.004053625 -0.03286959 -0.9988716 
30.01927 16.36162 0.7931943 -0.9539692 -0.01320831 -0.02487603 
-12.99119 9.07939 -27.02581 0.4122687 0.03671763 0.8545601 
-7.370054 -13.35231 -29.06788 0.2313123 0.1878444 0.9063084 
18.38477 21.41882 23.69172 -0.587365 -0.04634853 -0.7546508 
12.20352 62.04039 15.17283 -0.4564128 -0.6999215 -0.5476368 
4.554087 58.97762 26.10295 0.1498332 0.4240766 0.8918377 
20.70912 -4.739939 21.66922 -0.6507205 0.1300518 -0.6785173 
-23.76314 17.42363 -18.3707 0.7558632 -0.01902653 0.5840155 
6.604921 30.61793 -29.28728 -0.2111321 -0.1092759 0.9393132 
16.9103 -15.21599 24.76299 -0.5278726 0.2008642 -0.7706689 
-29.90552 32.29549 -2.464111 0.9598524 -0.1208629 0.07879808 
4.474715 35.1623 31.67756 0.139716 0.03036005 0.9890811 
24.35396 55.01642 -10.56752 -0.6555459 -0.5958436 0.2823585 
9.374708 59.70345 -18.02744 -0.3163976 -0.7255907 0.608561 
11.03628 -23.33098 29.9594 0.3445903 -0.02409406 0.9354345 
26.25706 4.746561 -14.53931 -0.8280246 0.06668262 0.4590992 
31.9254 41.08102 2.010556 0.9968196 0.03587122 0.06277656 
28.92114 -5.20319 7.900255 -0.9071971 0.1326621 -0.2460644 
23.73569 45.60842 21.41279 0.7411094 0.0400838 0.6685801 
29.73913 51.632 -4.951318 0.9068315 0.3896872 -0.1488125 
5.991111 -1.783369 29.36947 -0.1897151 0.1104867 -0.9221922 
17.68402 -50.33724 19.06178 0.6240208 -0.3744312 0.6782374 
-19.87827 -10.97108 -22.44752 0.6217214 0.172545 0.7004231 
1.596314 -34.75314 31.89081 0.04984242 -0.03472745 0.9957395 
4.082684 41.70338 -31.72074 0.1274753 0.03644942 -0.9904293 
7.264413 59.63337 19.21609 -0.23883 -0.7322715 -0.6355233 
-5.298178 31.09706 31.50644 -0.1654271 0.02657542 0.9837383 
-20.98296 53.77177 -20.17335 -0.6587917 0.3959647 -0.6377541 
-12.97971 -21.97056 27.04542 0.4019631 0.2465186 -0.8391275 
-15.74128 66.85198 20.42008 -0.4331445 0.6546057 0.541971 
21.74464 -49.60045 -5.071747 -0.9463965 -0.2043189 0.2215452 
-11.54852 -29.21865 -29.77736 -0.360584 -0.02957525 -0.9297503 
-29.96772 28.5354 -0.6831389 0.9596006 -0.09547733 0.02102113 
22.34588 -18.78826 20.08328 -0.6945902 0.2247168 -0.6243533 
-19.43843 -31.30121 22.89631 0.599173 0.3092183 -0.7061543 
-14.03642 -48.48334 23.14859 -0.3930851 -0.642323 0.6511431 
-29.18043 -44.33039 -4.813127 0.8293438 0.4545628 0.1331299 
18.48727 62.31967 -15.19473 -0.7674546 0.08776762 0.6304457 
-17.20238 36.93799 24.55078 0.5533391 -0.1511778 -0.7908821 
29.45423 15.01125 -5.566122 -0.9349955 -0.003585208 0.1783494 
7.012406 -42.72766 -29.17043 -0.2147698 0.3861775 0.892784 
-23.77711 9.282152 -18.34999 0.7524385 0.03601436 0.5802771 
28.39463 23.76571 14.75119 0.8865768 0.01975119 0.4605822 
27.69773 -9.139376 11.45846 -0.8669508 0.1593538 -0.3567812 
-11.58865 -43.92979 -7.841313 0.2500415 -0.9519233 0.1700013 
-19.98101 -30.70671 -24.97368 -0.6238754 -0.03096158 -0.779763 
24.16082 -43.09236 17.76027 -0.7393057 0.3885736 -0.5435261 
15.08313 -47.4021 23.84821 0.3820995 -0.6997535 0.6023741 
27.29484 -28.14829 -16.55971 0.8522377 -0.02857903 -0.5170505 
24.54031 13.18829 -20.42378 0.766232 0.009902639 -0.6377001 
27.61763 51.44351 -6.208379 -0.8248293 -0.4067939 0.19025 
29.54264 -28.451 -5.064704 -0.9121809 0.2903883 0.1573655 
19.82136 -39.71215 -22.49527 -0.6077096 0.3667009 0.6895119 
-5.62331 -28.97056 29.44765 0.1727834 0.294271 -0.9090652 
13.44972 26.03739 26.79552 -0.4304688 -0.07765047 -0.8566371 
21.19872 -47.14333 13.20879 0.01786987 0.9587592 0.02048897 
24.14206 -15.71326 -17.80893 -0.7514374 0.2050558 0.5546544 
30.93225 39.19592 -7.932623 0.9658102 0.03411605 -0.2476835 
17.55173 62.04039 -1.139246 -0.6339819 -0.696573 0.2108937 
-19.98394 -51.0247 -10.75649 0.7474928 -0.5105113 0.4042394 
-25.47866 -16.51799 -19.2704 -0.7955303 -0.01775089 -0.6016877 
-15.5507 -14.655 -27.89895 -0.4855456 -0.0160171 -0.8711002 
-7.003583 -39.77181 31.15205 -0.2186758 -0.03939949 0.9726731 
-9.805675 41.40504 28.32795 0.3160617 -0.1817764 -0.9146881 
-9.125952 -41.72603 -28.56438 0.2797392 0.3794927 0.8747325 
-4.556447 36.52138 31.66057 -0.1422678 0.0316252 0.9885508 
25.95133 -48.03252 -9.207129 0.660323 -0.712087 -0.2369006 
-20.19872 42.45433 -24.81911 -0.6306728 0.03715041 -0.7749372 
-5.182191 -51.28242 24.95765 -0.1458776 -0.6450449 0.7220355 
7.650685 -2.020539 31.01758 0.2388804 -0.004254724 0.9684745 
27.86798 22.88095 -15.61722 0.8701332 0.01892731 -0.4876226 
-18.71687 -41.66821 25.866 -0.5844044 -0.04116612 0.8076247 
7.543119 39.57754 31.03994 0.2355219 0.03447103 0.9691725 
28.70746 -43.90343 8.75727 -0.8780288 0.3941109 -0.2676679 
-0.7270846 62.04039 -5.818858 0.0215071 -0.7102549 0.7018791 
27.20191 -32.6984 -12.60207 -0.8371394 0.3198755 0.388757 
-10.29975 62.54039 3.178321 0.4230208 0.768133 0.4247203 
24.23889 36.7679 17.66034 -0.7808235 -0.1500285 -0.5679914 
20.09275 -4.024353 24.89481 0.627364 -0.006120658 0.7773005 
31.9254 -20.45542 -1.04895 0.9968196 -0.02141731 -0.03275186 
18.67733 -45.65934 0.5360064 -0.4399977 -0.8954201 -0.01079877 
-22.78488 15.16024 -19.48922 0.7247878 -0.003867477 0.617642 
-0.4565449 55.12746 -28.42523 -0.01340495 0.3989899 -0.9158134 
-16.7462 -39.27864 -24.87968 0.5139417 0.3634433 0.7627863 
-17.7085 5.313995 -24.26817 0.5590805 0.06244059 0.7658527 
-30.499 27.65259 9.478947 -0.9522824 0.02336994 0.2959648 
22.54143 51.9083 19.84773 0.6907643 0.391355 0.6059217 
23.83047 12.24723 -18.27089 -0.7552743 0.01599158 0.5792715 
23.71508 -31.177 -18.44194 -0.7310833 0.3095563 0.5681301 
-3.826105 -22.55594 -29.73014 0.1196849 0.2498527 0.921767 
2.932961 -10.30089 -29.85566 -0.09106131 0.1668807 0.9331067 
-30.06289 -24.10822 10.92209 -0.9386659 -0.02481804 0.3410247 
5.865644 -25.41342 31.38852 0.1831454 -0.02603213 0.9800564 
19.30464 -46.91119 -15.16768 0.08207842 0.9449412 -0.06035932 
28.04647 -29.12096 15.32371 0.8757062 -0.02948448 0.4784582 
-6.706102 62.04039 -17.58375 0.2381342 -0.6908116 0.6780347 
17.16537 -51.93447 -17.34359 0.08630415 -0.9840305 -0.09200859 
-20.1276 60.03403 -3.011049 0.6846433 -0.7203449 0.1022851 
-8.010935 -5.299606 28.94015 0.2505077 0.1339911 -0.9072421 
-6.327172 11.0174 31.29261 -0.1975558 0.007882313 0.9770619 
9.870726 26.03765 30.37364 0.3081976 0.02186607 0.9483684 
-31.9254 -22.52809 -1.424486 -0.9968196 -0.02334689 -0.04447738 
7.850316 -11.07789 -28.93017 -0.2442181 0.1724171 0.9039446 
15.77792 -42.31242 -27.72979 0.4863365 -0.1505713 -0.8554517 
30.62581 -6.778895 -9.026345 0.9562418 -0.008684649 -0.2818331 
-20.37867 57.90224 14.62394 0.4928143 -0.7487701 -0.3519484 
27.89454 26.40302 15.57354 0.8709625 0.02220657 0.4862589 
-24.24021 34.96045 -17.66341 0.7796799 -0.1376203 0.5676762 
19.66064 -24.06143 22.68174 -0.6094154 0.2603887 -0.7022936 
7.669638 12.14397 -31.01365 0.2394723 0.008931385 -0.9683515 
-25.16425 -4.60676 -19.65685 -0.7857135 -0.006661859 -0.6137542 
1.958882 -51.75551 -23.32318 -0.03839197 -0.890202 0.4309743 
-2.594092 28.1221 -31.82256 -0.08099647 0.02380602 -0.9936085 
27.37969 -5.156558 -12.23756 -0.8576331 0.1335225 0.3847956 
-14.55431 18.00886 28.41524 -0.4544349 0.01439152 0.8872205 
29.38662 20.06885 -5.949544 -0.9358376 -0.0377581 0.1910668 
-29.68116 -27.83153 4.350339 0.9171906 0.2856687 -0.134458 
-28.90038 18.10109 -13.59847 -0.9023681 0.01447766 -0.4245905 
30.70116 9.506872 -8.757431 0.9585945 0.006476935 -0.2734367 
21.62318 59.63337 -7.249747 -0.5633355 -0.799239 0.1864177 
-28.78169 -44.38589 11.91073 -0.7874756 -0.5125551 0.3244436 
-13.3748 -42.49332 -28.95815 -0.411061 -0.1863771 -0.8894651 
25.23533 58.92999 -8.049232 0.8604918 0.4260365 -0.271625 
-31.54106 -41.97471 4.849737 -0.9801158 -0.08372848 0.1511037 
15.24335 -47.40563 14.77735 -0.5507038 -0.6267468 -0.5245464 
25.74733 -12.57533 -15.42901 -0.8028163 0.1839176 0.4817514 
10.2083 -46.28219 -20.98418 0.1375081 0.9093248 -0.2808537 
3.161901 4.08516 -31.78372 0.09872541 0.001429428 -0.9923959 
10.71759 -41.42728 5.28102 0.2450213 0.9603752 0.1206601 
-27.02623 -16.03007 -12.96226 0.8415956 0.207125 0.4025046 
26.33667 -35.53704 18.13536 0.8223202 -0.0354572 0.5662478 
-22.55292 36.90757 -19.74684 0.7265527 -0.1507892 0.6353069 
-5.410385 -42.59967 -31.40783 -0.1657418 -0.2070117 -0.9620163 
9.065397 -41.57031 8.496435 0.2069085 0.9572381 0.1938039 
-29.26308 -33.02626 6.528806 0.9011776 0.3207545 -0.2014712 
6.862772 -44.8589 -29.99571 0.1808367 -0.584579 -0.7795644 
-31.9254 3.748422 1.554491 -0.9968196 0.001115709 0.04853659 
-19.46232 -42.59464 -25.25169 -0.5963349 -0.2061413 -0.7736366 
15.72621 9.924812 25.58509 -0.4978871 0.03115403 -0.8099152 
31.65039 -18.9235 4.184594 0.9882329 -0.01999089 0.1306574 
13.18704 -6.769944 26.93519 -0.413836 0.1439585 -0.8431432 
29.96115 21.44968 1.686402 -0.9552649 -0.04766782 -0.05276511 
22.22595 -11.58712 -20.10998 -0.6930944 0.1770498 0.6285672 
-9.717445 62.68505 20.21211 -0.4193786 0.2432907 0.8723164 
31.92232 39.30488 -2.206213 0.9967232 0.03421766 -0.06888562 
-28.21057 27.07602 10.18913 0.902601 -0.08502597 -0.3262668 
8.588669 36.81825 28.7709 -0.2763367 -0.150814 -0.9261651 
-17.95013 -13.53659 -24.06542 0.560307 0.1897211 0.7500276 
-20.85056 3.696651 -21.63166 0.6575284 0.07357775 0.6818562 
-20.63657 -46.99458 13.54528 -0.0606222 0.9502626 0.04584474 
29.93349 2.001333 -1.663022 -0.9426437 0.08403423 0.05377118 
-31.9254 -9.766867 1.391015 -0.9968196 -0.0114666 0.04343233 
-28.80665 -32.08455 8.359447 0.8877842 0.3143331 -0.2576789 
-28.77618 50.53345 0.8628092 0.8804384 -0.3591453 -0.02584289 
23.90747 63.21138 8.764462 0.8254384 -0.2999487 0.3000477 
-19.34087 -51.80724 15.50561 -0.2505681 -0.9094444 0.2019546 
-31.51048 5.843854 -5.202552 -0.9838642 0.003066624 -0.1624415 
29.44043 -2.646504 -5.644362 -0.9241605 0.1158801 0.1786865 
19.08271 63.04039 -8.261129 0.1335645 0.9848134 -0.04999112 
22.34428 -39.24253 20.08533 -0.6853876 0.3626598 -0.616233 
-28.85618 26.9392 8.160793 0.9229871 -0.0841709 -0.2621533 
12.96708 -38.82785 -27.03654 -0.3978108 0.360117 0.8295115 
29.2372 9.407454 -6.796946 -0.9249571 0.03444369 0.2156004 
-5.481988 -1.343637 29.47769 0.1708297 0.1071429 -0.9264955 
27.80132 50.1474 -8.050731 -0.8585378 -0.3382154 0.2490474 
-31.9254 33.83176 -1.635114 -0.9968196 0.02912239 -0.05105396 
20.40585 14.25453 -24.62567 0.63714 0.0108971 -0.7688972 
29.59931 -14.03699 11.98938 0.924191 -0.01544193 0.3743492 
22.41999 58.02541 -14.95205 0.7577346 0.4127299 -0.5010971 
-13.53009 16.98486 -28.94595 -0.4224553 0.01343834 -0.903791 
8.493932 -31.82754 28.80538 -0.2617068 0.3134666 -0.8875228 
-23.22349 30.05734 -21.99417 -0.7251166 0.02560668 -0.6867329 
-11.48425 -16.18559 27.71699 0.3562712 0.2074298 -0.8632893 
18.93757 36.05181 -25.71022 0.5912955 0.03118946 -0.8027604 
1.546867 45.14779 31.89419 0.04829843 0.03965646 0.9958451 
-29.70275 12.96807 11.75122 -0.927421 0.009698907 0.3669129 
-18.90127 -28.7246 -23.26732 0.5844831 0.2923564 0.7177585 
3.809716 -38.95446 -31.73941 0.1189524 -0.03863806 -0.9910123 
16.43049 64.85356 -20.05938 0.6295571 -0.05961341 -0.7686028 
-1.155622 -9.484817 -31.92095 -0.03608256 -0.01120414 -0.9966807 
15.81013 -49.34477 15.63376 -0.6798903 -0.2527934 -0.6704224 
-31.9254 -41.55009 -0.5205899 -0.9968196 -0.04105578 -0.0162546 
-23.97697 45.63229 17.99559 0.7761745 -0.2097984 -0.5825737 
23.7706 -34.76068 -21.36988 0.7421992 -0.03473313 -0.6672403 
-30.02007 -39.13309 0.8161152 0.9208323 0.3621965 -0.0247457 
-22.39816 22.10649 20.01637 0.7144554 -0.0510776 -0.638714 
-14.78835 -20.07538 28.29397 -0.4617426 -0.0210634 0.883434 
7.188915 10.60156 -29.11982 -0.226591 0.02595229 0.9224562 
22.45593 37.31258 22.71102 0.7011509 0.03236109 0.7091153 
-21.04692 56.84393 17.81593 -0.69438 0.4170785 0.5845999 
6.114419 -42.16903 13.07409 0.138664 0.9441068 0.2964088 
23.90611 64.04452 -8.821072 0.7193052 -0.6363208 -0.265088 
11.00351 -42.84411 11.90674 0.2466396 0.9305165 0.2670915 
24.55422 -10.71614 17.25674 -0.7674737 0.1702067 -0.538938 
-11.8642 -40.00942 29.66516 -0.3704407 -0.03962103 0.9262473 
9.214747 -41.10096 -5.743716 0.2116376 0.967532 -0.131934 
30.21447 -7.506334 10.49444 0.9433985 -0.009362182 0.3276718 
-27.1704 43.71342 12.76363 0.8784043 -0.1971227 -0.412853 
-12.58705 0.2189236 -27.20575 0.3974448 0.09650895 0.8553544 
-18.65493 4.634027 25.90973 -0.5824704 0.001939785 0.8089899 
17.64371 9.136639 -24.31885 -0.5583197 0.03662881 0.7693718 
-5.189389 -8.084629 31.52905 -0.1620305 -0.009900318 0.9844441 
17.5976 43.02715 -24.34767 -0.5687103 -0.192195 0.7869365 
-6.020122 -32.33656 -31.35642 -0.1879687 -0.03247731 -0.9790541 
-12.51871 -50.22874 -18.65111 0.5367597 -0.2346008 0.8084494 
-10.25462 -27.57955 -30.23721 -0.3201841 -0.0280493 -0.9441084 
11.07325 -10.46651 -27.87973 -0.3455881 0.1685227 0.8713906 
10.4014 -50.14192 -19.87571 -0.4473387 -0.2229208 0.8631247 
-14.43766 -20.68102 26.27022 0.4469091 0.2376912 -0.8161848 
28.22729 -32.32085 -10.12098 -0.8691579 0.3170958 0.3122655 
-29.35639 -32.81568 -6.120964 0.9039909 0.3199939 0.1881122 
-24.65908 -19.74691 -17.04241 0.7664752 0.2322725 0.5279799 
-16.12952 10.82628 -27.59903 -0.5036184 0.007705011 -0.8617357 
-9.154602 9.673469 28.56492 0.2885162 0.03266844 -0.904389 
-15.75615 63.62423 19.95942 -0.5109974 -0.4608703 0.6525475 
-19.81394 -49.18999 9.979916 0.8425797 -0.2821387 -0.4276718 
-27.6654 -22.65766 -15.95035 -0.8638078 -0.02346727 -0.4980243 
-30.11354 13.21962 -10.80549 -0.9402472 0.009933146 -0.3373841 
29.97956 47.85899 -10.79983 0.915943 0.2188385 -0.3297746 
29.19926 -7.608497 -12.91039 0.9117001 -0.009457312 -0.4031061 
31.43982 -39.51326 5.716597 0.9816582 -0.03915914 0.1784918 
-5.391813 -17.84054 -29.5101 0.1681727 0.2180272 0.9177762 
18.18448 59.63337 -9.387192 -0.6071861 -0.7294851 0.3126967 
29.80854 35.38831 3.13842 -0.9586811 -0.1418047 -0.1002324 
-31.38292 -0.3575087 -6.130558 -0.9798816 -0.002706693 -0.191417 
-26.50052 -23.00391 -17.86591 -0.8274363 -0.02378936 -0.5578347 
-29.62823 -14.5301 11.9228 -0.925094 -0.01590115 0.3722704 
-26.47936 -28.14932 17.90072 -0.8267754 -0.02857982 0.5589215 
2.804028 66.69437 24.84406 -0.09264961 0.4035152 -0.8692229 
-28.93826 48.14042 -12.96791 -0.8763409 0.2548814 -0.3937861 
-14.31091 -51.44311 18.06288 0.4029797 -0.7229095 -0.4902541 
17.58297 30.41063 24.27426 -0.5643358 -0.1070645 -0.7780409 
-14.14091 -24.41144 28.62944 -0.4415274 -0.02510004 0.8939086 
26.72679 -25.81567 -17.49384 0.834501 -0.02640734 -0.5462173 
27.27632 24.09238 16.59016 0.8516595 0.02005534 0.5180013 
19.98694 52.31892 19.43023 -0.5854222 -0.4528002 -0.5649221 
5.708815 -7.133139 -29.46554 -0.1781846 0.1456432 0.9227895 
27.10431 28.88952 -12.80219 -0.8679193 -0.09677406 0.4106585 
8.132589 -38.84023 -30.91744 0.2539271 -0.0385325 -0.9653477 
31.9254 14.40384 1.576407 0.9968196 0.0110356 0.04922091 
-1.302173 52.43297 29.71464 -0.03823398 0.3946061 0.9158378 
20.20594 -47.27573 15.09931 -0.01171472 0.966314 -0.01460823 
-10.63163 -0.106596 -28.07636 0.3348222 0.09855942 0.8830016 
-17.62547 45.78936 26.6364 -0.5503273 0.04025456 0.8316789 
27.66526 -46.68449 -8.698423 0.6869268 -0.6929221 -0.21538 
23.6072 20.66405 21.57073 0.7370973 0.01686271 0.6735115 
-30.15915 11.27181 10.69189 -0.9416712 0.008119801 0.3338369 
23.33064 64.19838 -5.664627 -0.835795 0.4032632 0.2083023 
31.9254 15.93051 0.1398957 0.9968195 0.01245686 0.004368033 
22.43479 -9.511767 -19.87803 -0.7003289 0.1630655 0.6223753 
-15.47819 45.32085 25.71696 0.5008409 -0.2077961 -0.8323954 
29.02549 -22.70626 13.31045 0.9062744 -0.0235127 0.4155973 
10.26694 61.41221 17.5749 -0.3604156 -0.6984758 -0.6165761 
1.655005 62.04039 0.2388238 -0.0488362 -0.7179901 0.6934555 
28.77824 23.8234 -13.87967 0.8985544 0.0198048 -0.4333705 
-29.49673 -46.08685 3.228371 -0.7247356 -0.6837221 0.0816627 
-27.12524 -23.44323 12.87543 0.8406727 0.2559886 -0.3990981 
-24.73866 64.74426 1.864136 0.7560817 0.5313372 -0.04873927 
-27.97508 51.75739 2.863257 0.8289165 -0.4235967 -0.08964118 
-0.3075064 -44.72529 -29.15312 0.009412458 0.5170947 0.7583099 
-3.269667 -41.62702 29.81786 0.09963057 0.3802108 -0.912704 
-8.234749 -42.50318 2.059676 0.1924413 -0.9786878 -0.04778488 
25.71902 -19.95881 -15.47098 -0.7980072 0.2338696 0.4808757 
6.452113 26.90969 29.27148 -0.207124 -0.08382437 -0.9361891 
25.54164 13.60801 15.70718 -0.8109488 0.006079711 -0.4976357 
-10.91822 21.5896 30.00136 -0.3409041 0.01772508 0.9367446 
-31.69095 -42.89257 -2.61142 -0.9553678 -0.2577935 -0.07833379 
29.27024 4.930454 -6.609553 -0.9233512 0.06471234 0.2092473 
-18.31249 -18.03294 26.15145 -0.5717783 -0.01916244 0.8165371 
-13.67702 62.04039 6.101415 0.6187611 -0.7204944 0.2229985 
-30.01742 -22.52046 -11.02679 -0.9372458 -0.02333987 -0.3442938 
29.36407 -13.73449 -12.53095 0.9168462 -0.01516043 -0.3912587 
-24.17874 14.66377 -17.75454 0.7680209 -0.0003969073 0.5629874 
2.134707 60.00365 20.20194 -0.07293717 -0.720827 -0.6866326 
6.241735 -47.23656 24.33917 -0.01408942 0.9636756 -0.00336089 
-25.0065 -14.59666 16.63407 0.7793896 0.1963686 -0.5185863 
17.66858 61.12102 18.5899 0.6675958 0.2000372 0.7105914 
-5.411167 -4.196949 -29.50738 0.1704076 0.1258671 0.9256814 
-26.86511 -32.24873 -13.29261 0.8275267 0.3168739 0.4089702 
-22.46095 61.57795 -5.809091 0.03553354 0.9497132 0.0216543 
-5.678055 61.16301 19.50895 0.1973713 -0.7024302 -0.6809534 
-12.93792 -51.93819 20.71135 -0.07405189 -0.9859676 0.1196195 
-31.11125 13.91989 -7.293788 -0.9713989 0.01058478 -0.2277369 
-1.039727 45.59386 31.92888 -0.03246387 0.04007188 0.9969283 
23.0028 -42.0739 19.24247 -0.704353 0.3817362 -0.5892205 
8.569334 -49.68795 -24.87057 0.2860411 -0.4850429 -0.821131 
21.7282 66.93674 12.82313 -0.4135997 0.8121576 -0.2500244 
11.65747 50.06015 28.67289 0.3461219 0.3811032 0.8558807 
-25.20308 10.55472 -19.60913 -0.7869259 0.007452778 -0.6122639 
11.13665 62.04039 -10.59159 -0.3933118 -0.6974298 0.5726715 
25.42492 33.12756 15.90935 -0.8168863 -0.1255543 -0.5107173 
-22.57372 -21.27616 -22.60102 -0.7048284 -0.02218093 -0.7056807 
-27.21634 -41.13101 -16.68879 -0.8497868 -0.04066524 -0.5210809 
-7.84266 43.84193 30.97769 -0.2448747 0.03844089 0.9672288 
-12.50705 52.53033 -24.79076 0.3664507 -0.4640702 0.7178302 
27.9108 -37.78679 15.5468 0.8714702 -0.03755205 0.485424 
29.95767 -34.15496 1.719558 -0.9219288 0.3284706 -0.05250221 
-16.6664 38.05043 -27.31339 -0.5203817 0.03304969 -0.8528168 
-24.23547 -15.9278 -20.79848 -0.7567137 -0.01720062 -0.6493996 
21.07654 -47.73021 4.448252 -0.7943178 -0.5625885 -0.1675947 
30.92622 7.487364 -7.954159 0.9656218 0.004596733 -0.2483559 
-20.18065 -44.71807 -3.090291 -0.4367808 0.8965381 -0.06703415 
-28.64496 42.80851 -14.18651 -0.8943931 0.03747943 -0.442951 
15.67052 48.20692 -27.56875 0.4744765 0.2632931 -0.8332986 
21.45301 8.750333 -20.96841 -0.6780093 0.03953926 0.6637638 
-27.0623 -41.33206 -12.88832 0.8284234 0.3783008 0.3946447 
27.84662 -4.470263 15.65235 0.8694661 -0.006535438 0.4887197 
-23.4012 15.9001 18.73253 0.7427008 -0.009251271 -0.5965435 
13.06673 -44.69373 15.6341 0.2827563 0.896899 0.3387789 
26.05348 52.96516 -13.89701 0.8110228 0.393312 -0.4318118 
-21.01454 58.05263 -16.92097 -0.7102916 0.4101514 -0.5711718 
20.3905 37.89622 21.97691 -0.6571283 -0.1575534 -0.7078632 
28.03592 -16.48536 15.34106 0.8753767 -0.01772115 0.4790001 
25.41438 -27.99081 15.9276 -0.785858 0.2866647 -0.4913317 
-31.9254 -32.38663 0.0090096 -0.9968196 -0.03252489 0.0002813321 
-2.143276 11.79589 31.8534 -0.06692049 0.008607848 0.9945714 
-10.05792 -28.99259 -28.29715 0.3108126 0.2935528 0.8737273 
-6.504921 5.004696 -31.25568 -0.2031058 0.002285667 -0.9759086 
-30.62439 50.64503 -1.184482 -0.9202871 0.3854482 -0.03675617 
15.1867 7.4759 -25.85417 -0.4789445 0.04769466 0.8177829 
-2.944962 64.40735 23.95612 0.07192912 0.75148 -0.6404693 
-27.09045 31.80883 -12.8306 0.8697191 -0.1165289 0.4109067 
-27.34797 17.42062 -12.30261 0.8702895 -0.01922862 0.3898301 
28.51107 -42.55466 14.32988 0.8746601 -0.1985191 0.4395238 
-27.98606 -29.94351 10.74481 0.8634952 0.2998826 -0.3321736 
-26.48584 58.34719 3.941941 -0.8987474 0.4130254 0.1293399 
2.909763 -23.65196 -31.80097 0.09085281 -0.02439227 -0.9929343 
-17.01774 -4.906937 27.06539 -0.5313517 -0.006942259 0.8450733 
5.815257 -14.17826 -29.45058 -0.1807879 0.1932461 0.9181836 
-7.672143 61.70462 -21.48396 -0.1756788 0.8048196 -0.4666201 
31.9254 -41.75136 2.174464 0.9968196 -0.04124315 0.06789429 
23.33958 -44.91703 -20.01949 0.6042992 -0.5938846 -0.5152742 
-10.53085 26.08337 -28.12123 0.3368132 -0.0782759 0.8992485 
-15.10763 62.04039 -12.43563 0.537141 -0.6900824 0.473282 
-8.683184 -2.306408 -30.79569 -0.2711186 -0.004521058 -0.9615463 
-6.658515 63.41761 -11.3053 -0.5703556 0.7469644 -0.26552 
18.46269 14.96618 26.04543 0.5764679 0.01155959 0.8132269 
9.984028 -24.97161 28.26303 -0.3095574 0.2670673 -0.8745669 
31.03526 49.60438 2.934271 0.9195271 0.3801276 0.08630623 
-13.20285 -42.49635 -7.913043 -0.2979211 0.9373038 -0.1786707 
-16.65155 35.87853 -24.93882 0.5363957 -0.1439937 0.8020724 
31.9254 28.6391 1.446644 0.9968195 0.02428818 0.04516928 
-28.46601 14.24712 14.59849 -0.8888057 0.01088963 0.4558143 
-29.40781 -34.82873 -5.829349 0.9043759 0.3335881 0.1790855 
-24.48449 -42.95221 17.34599 0.7492357 0.38762 -0.5309628 
-3.779425 7.570626 31.74148 -0.1180066 0.004674046 0.9910769 
-25.31152 50.90305 13.27533 0.7676409 -0.3779145 -0.4014547 
30.76275 20.42252 -8.537608 0.9605176 0.0166389 -0.2665731 
-11.91206 63.02448 0.8758169 0.2897483 0.9342451 0.07566289 
-14.69348 -45.7291 11.82631 0.3473429 -0.8926735 -0.2805208 
-27.93602 -19.77066 15.50533 -0.8722576 -0.02077992 0.4841292 
16.68252 -44.37873 -26.34366 0.4559711 -0.510152 -0.721935 
-14.63479 -4.876058 26.16541 0.4573725 0.1309486 -0.8213816 
10.55581 33.27254 -30.13016 0.3295885 0.02860141 -0.9407662 
11.68993 8.750448 -29.7271 0.3649993 0.005772374 -0.9281812 
-30.93898 -12.92005 -7.90862 -0.9660202 -0.01440215 -0.246934 
-26.44987 -0.780756 17.94921 -0.8258547 -0.003100905 0.5604357 
31.90596 -28.66632 -2.325212 0.9962125 -0.02906143 -0.07260121 
12.72208 63.04039 1.022356 -0.1037165 0.9915154 0.03104659 
16.43465 29.95437 27.44092 0.5131458 0.02551255 0.856799 
-18.72288 59.3843 15.52214 0.4231224 -0.8273445 -0.3510822 
31.9254 -39.72206 1.346023 0.9968196 -0.03935394 0.04202747 
27.31045 7.356024 -16.53404 0.852725 0.00447397 -0.5162491 
9.683513 63.04039 18.86122 0.05792369 0.9867938 0.1073013 
23.41798 -36.20295 18.71106 -0.7199898 0.3421292 -0.5749218 
5.80279 -45.26474 29.93994 0.1432071 -0.6457075 0.7447829 
22.22324 42.4629 -20.11298 -0.71785 -0.1882796 0.6499617 
17.39632 -9.108111 26.79815 0.5431723 -0.01085299 0.8367295 
-25.80124 50.19676 -13.04001 0.7950669 -0.3404878 0.4040554 
4.905837 -46.63943 19.90653 -0.1496617 -0.7729306 -0.6049386 
8.940348 -17.93397 28.6429 -0.2785263 0.2195387 -0.8903123 
18.09624 -46.42501 15.15648 0.1996953 0.9176173 0.1743625 
18.62412 -44.52824 -24.83393 0.5037796 -0.5333936 -0.668335 
-3.953315 63.54039 -13.84956 -0.0002439069 0.9980202 0.002695427 
-25.6264 60.69528 -2.045978 -0.9643255 0.2447947 -0.06819665 
-22.30978 41.73518 -20.01687 0.7206819 -0.1833963 0.6461817 
22.43347 21.52901 -22.732 0.7004495 0.01766887 -0.7097703 
7.487414 -21.06879 -31.05151 0.2337825 -0.02198827 -0.9695338 
-6.086716 17.06574 -31.34258 -0.190048 0.01351365 -0.978622 
29.88329 -27.05873 2.42719 -0.9239163 0.2804312 -0.07431878 
27.98875 18.22659 -15.41863 0.8739038 0.01459429 -0.4814221 
7.513632 2.096918 -29.02671 -0.2355026 0.08341134 0.9146203 
-15.65687 -42.66722 2.021504 -0.3521992 0.9339634 0.04573547 
30.86432 27.7395 8.175107 0.9636889 0.02345036 0.2552546 
-0.2978702 54.16778 28.91593 -0.008745945 0.4032404 0.9140254 
-2.886571 6.384025 29.84464 0.08982946 0.05486129 -0.9423904 
-1.653195 -26.00612 -29.9733 0.05129008 0.2730353 0.9273745 
31.9254 30.72678 -1.72584 0.9968196 0.02623172 -0.05388669 
11.42465 -46.30371 20.41364 0.1395248 0.910552 0.2731676 
-21.39071 55.79823 15.01853 0.560994 -0.637252 -0.391497 
-24.14738 55.20149 10.71067 0.6437981 -0.6055599 -0.2899742 
18.49003 4.383672 23.61524 -0.5839785 0.06855823 -0.7444975 
-19.47003 -0.8017416 -25.33437 -0.6079207 -0.003120232 -0.791025 
6.599861 -25.92502 -31.23595 0.2060702 -0.02650892 -0.9752926 
-25.69284 -21.604 -15.5098 0.7969458 0.2449441 0.4806874 
16.55874 -37.48695 -27.37663 0.5170203 -0.03727295 -0.8547913 
-20.03722 39.34379 22.31807 0.6457153 -0.1673347 -0.7201017 
23.62782 35.48712 21.54538 0.7377412 0.03066169 0.6727201 
16.05252 63.04039 12.39401 0.05861945 0.9896621 0.04419096 
5.188415 64.31554 23.52321 -0.1608934 0.6155277 -0.7343962 
-0.2052586 -42.53217 8.639578 0.004970658 -0.9781129 -0.2012527 
-13.56041 50.36853 -27.62875 -0.4058225 0.3835595 -0.827408 
15.07699 -24.9859 -25.92272 -0.4665635 0.2668245 0.8025781 
-27.26019 55.04791 8.124093 -0.8780512 0.3989328 0.2574882 
-3.091194 66.79084 -25.67153 -0.09056542 0.5516919 -0.7814637 
29.94396 27.17448 -1.363391 -0.9580172 -0.08628413 0.04458243 
-29.51586 32.85163 -5.21658 0.9477969 -0.1243661 0.1667469 
-28.30736 -42.70974 -14.68025 -0.8618348 -0.2260591 -0.4471607 
6.404981 -32.38171 29.2815 -0.1973482 0.3174094 -0.9017773 
5.713517 35.19349 29.42848 -0.1838809 -0.140027 -0.9462078 
-28.82565 46.49128 -8.27941 0.9335547 -0.2162737 0.2678535 
28.90747 -38.5401 -8.027576 -0.8865651 0.3589261 0.2469491 
-7.198112 -42.54832 -29.11718 0.220587 0.384977 0.8912263 
-13.78271 -44.97882 9.98739 0.307451 -0.9224206 -0.2222155 
14.43388 -45.32872 24.59235 -0.332541 0.6139906 -0.5409285 
3.75677 -40.8801 9.391532 0.0866136 0.972376 0.216525 
22.12182 45.89888 -20.22562 -0.7161971 -0.2115075 0.6549097 
-29.44219 24.69077 -5.634384 0.9406372 -0.06910718 0.1791561 
-20.26672 42.30492 -22.12157 0.6550387 -0.1872551 0.7143956 
-14.88903 -38.52225 -26.04016 0.4574493 0.3581824 0.7987312 
-10.7804 18.93326 30.05034 -0.3366009 0.01525213 0.9382739 
-17.60521 23.86254 -26.6507 -0.5496945 0.01984153 -0.8321255 
12.15377 -44.03171 -7.581141 -0.2616144 -0.9500567 0.1633946 
-29.97472 -6.112874 -0.4826806 0.9391246 0.138921 0.01422096 
-19.61445 61.71178 -11.57544 -0.4585733 0.7934467 -0.2402248 
3.860546 -39.96648 -3.094674 0.09383431 0.9925153 -0.07521899 
-13.19879 -46.66969 -15.71491 0.4042205 -0.7675891 0.4826223 
20.30645 57.86317 17.85472 0.6806626 0.4218627 0.596031 
-28.9192 -18.93308 7.908022 0.8987073 0.2255603 -0.2462909 
-12.95623 -0.9902782 27.05791 0.4064314 0.1047902 -0.8510317 
-29.66103 18.47395 -4.393292 0.9440235 -0.02720577 0.1381799 
9.559237 36.11651 -30.48434 0.298472 0.03124901 -0.9518249 
-5.978732 -40.76101 -7.332797 -0.1383733 0.9750005 -0.1697102 
-1.311817 -39.8828 -3.450915 -0.03188493 0.9944148 -0.0838778 
20.59542 -37.21989 -21.84576 -0.6322178 0.349965 0.6708356 
31.9254 -4.15239 -0.7361476 0.9968195 -0.006239694 -0.02298509 
11.27764 60.96841 -23.05845 0.4277141 0.2131658 -0.8736366 
21.72787 -2.567694 20.68543 -0.6828901 0.1153546 -0.6493008 
-10.21566 61.24699 17.60956 0.3567942 -0.7010975 -0.615864 
31.24959 2.687496 6.800045 0.9757184 0.0001279861 0.2123206 
-23.34491 39.38564 -18.86725 0.7532712 -0.1675413 0.6078618 
8.010597 -42.52482 -13.20455 0.1806816 0.9367636 -0.2978103 
-7.649666 -35.35814 31.0178 -0.2388486 -0.03529078 0.9684811 
15.3568 28.88628 -25.74787 -0.4910576 -0.09684037 0.8253784 
-30.34826 4.262207 10.01693 -0.947576 0.001594158 0.3127623 
6.478174 55.53645 -27.44008 0.2093954 0.4051181 -0.8877224 
24.9185 -47.98128 11.7682 0.6325874 -0.7124419 0.3003109 
19.19148 -25.54274 -23.0238 -0.593447 0.2709579 0.7126581 
29.98027 -5.653471 -0.323587 -0.9395624 0.1357492 0.01172725 
-11.38612 -46.96858 -17.51749 0.3773653 -0.7135086 0.5824564 
31.89707 -42.10278 0.101705 0.988425 -0.1090769 0.002661829 
-1.913276 -45.56306 -30.11988 -0.04666759 -0.6771699 -0.7325336 
-28.79357 -6.232871 13.84437 -0.8990333 -0.008176603 0.4322681 
28.87992 19.9926 8.065581 -0.9202117 -0.03742161 -0.2560808 
-22.51222 14.24483 22.65845 -0.7029083 0.01088786 0.7074739 
-25.82036 -32.33026 18.85039 -0.8061993 -0.03247219 0.5885736 
22.81812 -23.35586 22.37276 0.7124594 -0.02411667 0.6985538 
6.312952 -45.83466 -21.57762 0.1293361 0.8839099 -0.4433726 
2.197568 -36.91315 -31.84968 0.0686156 -0.03673804 -0.9944555 
22.32919 39.66758 20.10465 -0.7202002 -0.1695071 -0.6484435 
-22.19265 -23.33478 20.2366 0.6875863 0.2553782 -0.6275063 
26.94237 -43.49561 13.28105 -0.8242733 0.3912717 -0.4062628 
-21.62723 1.88912 -20.77492 0.6819212 0.08577835 0.6533064 
-19.83961 21.50224 -22.47995 0.633888 -0.04680977 0.7158089 
18.38251 -44.2953 6.879362 0.4037156 0.9021621 0.1506094 
2.756427 64.41226 25.77084 0.0996644 -0.3349212 0.9230009 
-10.64829 24.28137 30.09729 -0.332476 0.020231 0.9397399 
22.9998 38.71991 -19.25052 -0.7412515 -0.1629867 0.6205765 
27.56496 33.79935 -11.8577 -0.8856096 -0.1300622 0.3811076 
-6.326707 57.38026 24.51542 0.1574737 -0.720834 -0.6049108 
-31.9254 -1.014609 0.1701608 -0.9968196 -0.003318515 0.005313013 
19.21319 -28.27808 -23.00558 -0.5931506 0.2894288 0.7107576 
-13.06264 63.04039 -5.14348 0.04036973 0.9899039 0.01945527 
-26.22375 -28.68123 -18.32104 -0.8187947 -0.02907475 -0.5720453 
20.23574 26.9595 -22.14756 -0.6472499 -0.08357704 0.7088134 
-20.42797 45.18048 -21.98626 0.6612782 -0.2066665 0.711419 
30.33525 38.39118 -10.06335 0.9471699 0.03336721 -0.3142117 
9.038626 -40.74615 2.484806 0.2093019 0.9753279 0.05752812 
-23.32779 -33.9291 18.8265 0.7178532 0.3267996 -0.5798767 
-14.66269 36.7655 -28.35908 -0.4578192 0.03185336 -0.8854669 
22.44613 -50.01192 0.1898579 -0.9764144 -0.2086946 -0.01129467 
18.57027 -17.51455 23.55694 -0.5779389 0.2162713 -0.7326683 
-24.54944 66.96716 6.00491 0.363688 0.8701599 -0.1001088 
-7.701147 -47.3031 27.26099 -0.1915777 -0.7003454 0.6865481 
-24.68478 -28.16758 20.24621 -0.7707428 -0.02859624 0.6321556 
31.9254 24.02341 -0.1359756 0.9968196 0.0199911 -0.00424562 
29.32832 31.72758 -12.61325 0.9157299 0.02716343 -0.3938285 
7.844573 3.50467 -30.97729 0.2449343 0.0008885977 -0.9672165 
24.53844 -51.68919 4.815907 0.4593036 -0.8406537 0.08436272 
8.379292 62.54706 -9.312692 -0.1984563 0.9651462 0.06384642 
4.990929 -35.38136 -29.56644 -0.1530871 0.3364613 0.9093144 
-11.89816 57.87958 -24.30866 -0.3974019 0.4223677 -0.8137712 
-7.808764 -27.92378 28.98312 0.2401423 0.2869867 -0.8955251 
8.751841 -5.617489 -30.77129 0.2732623 -0.007603584 -0.9607844 
-22.07369 -5.232767 23.06801 -0.6892159 -0.007243568 0.7202617 
-20.91024 48.14904 -23.85456 -0.632671 0.2557906 -0.7232735 
23.4377 61.61044 -0.1868073 -0.2839672 0.9026849 -0.001268268 
