ply
format ascii 1.0
comment PCL generated
element vertex 1341
property float x
property float y
property float z
property uchar red
property uchar green
property uchar blue
element camera 0
property float view_px
property float view_py
property float view_pz
property float x_axisx
property float x_axisy
property float x_axisz
property float y_axisx
property float y_axisy
property float y_axisz
property float z_axisx
property float z_axisy
property float z_axisz
property float focal
property float scalex
property float scaley
property float centerx
property float centery
property int viewportx
property int viewporty
property float k1
property float k2
end_header
6.9710498 -93.9272 695.52197 0 0 0
13.5619 -93.199699 695.758 0 0 0
15.912133 -93.505562 695.52637 0 0 0
20.4631 -93.647301 695.66602 0 0 0
21.81345 -93.90715 694.80249 0 0 0
24.5755 -93.775101 694.89148 0 0 0
26.444099 -93.118202 695.59497 0 0 0
29.223032 -93.98703 695.29803 0 0 0
32.549198 -93.946701 695.79797 0 0 0
35.910702 -94.035103 694.53302 0 0 0
37.276501 -93.288101 695.79102 0 0 0
42.215801 -93.507103 695.237 0 0 0
46.059898 -93.590401 695.89801 0 0 0
49.415901 -94.097603 694.68103 0 0 0
52.298901 -93.498703 695.58899 0 0 0
56.707802 -93.906898 695.75201 0 0 0
65.941902 -94.219803 695.43402 0 0 0
66.3815 -93.156601 695.61603 0 0 0
-17.2222 -91.515701 695.021 0 0 0
-14.3226 -92.2155 695.17401 0 0 0
-11.1312 -92.843803 695.15302 0 0 0
-4.7537899 -92.500603 695.86902 0 0 0
-3.5569699 -92.444504 694.50702 0 0 0
-2.0606401 -92.273499 695.71899 0 0 0
0.39120901 -92.451698 695.638 0 0 0
3.7839601 -92.484001 695.935 0 0 0
5.5398598 -91.611801 694.922 0 0 0
7.9043002 -92.2239 694.505 0 0 0
9.3917942 -92.503647 695.39746 0 0 0
11.4709 -92.527802 695.10498 0 0 0
12.7041 -92.939697 695.474 0 0 0
15.7448 -91.7854 694.72998 0 0 0
17.955 -91.831497 695.06598 0 0 0
20.2332 -91.597801 694.99298 0 0 0
22.291201 -92.802399 695.427 0 0 0
22.805099 -92.430496 694.92999 0 0 0
25.0277 -92.4692 695.27002 0 0 0
27.243099 -91.921402 695.78998 0 0 0
36.233398 -92.861099 695.36499 0 0 0
38.428001 -92.681702 694.59302 0 0 0
40.616299 -92.272102 695.53802 0 0 0
43.384499 -92.786003 695.82599 0 0 0
43.852299 -92.320602 694.552 0 0 0
47.266499 -92.929398 695.91101 0 0 0
48.903702 -92.181999 694.69397 0 0 0
-8.1147299 -90.315697 695.93201 0 0 0
-6.4204202 -90.695297 694.85199 0 0 0
-4.1625099 -90.956802 694.84399 0 0 0
2.9133949 -90.686447 694.88147 0 0 0
28.5473 -90.976303 694.58398 0 0 0
31.427 -91.403999 695.30798 0 0 0
68.1511 -91.451202 694.742 0 0 0
-16.1749 -89.452003 694.638 0 0 0
-10.2379 -89.875999 694.77899 0 0 0
-3.0987101 -88.702797 694.69397 0 0 0
-2.9874001 -88.827499 695.823 0 0 0
0.99303001 -89.914398 694.89301 0 0 0
66.975227 -89.350563 695.24567 0 0 0
-16.719299 -87.143799 695.25098 0 0 0
-11.613 -87.965897 695.65503 0 0 0
-22.0301 -85.516098 695.24597 0 0 0
-19.433901 -86.1604 694.84698 0 0 0
-10.637 -85.727097 695.90247 0 0 0
-8.8069201 -86.366898 694.784 0 0 0
68.783997 -86.290604 694.68402 0 0 0
-16.6134 -84.091103 695.84601 0 0 0
69.639549 -84.60405 694.98602 0 0 0
-25.0114 -83.223999 694.75299 0 0 0
-22.632799 -83.639 695.63702 0 0 0
-19.365499 -83.830704 695.10797 0 0 0
69.7323 -82.749802 695.48297 0 0 0
-20.1061 -81.671303 695.90302 0 0 0
70.4608 -81.388298 695.69897 0 0 0
-27.1068 -80.626503 695.42102 0 0 0
-24.505899 -79.810204 694.57202 0 0 0
-21.2386 -79.7257 695.62097 0 0 0
-27.594299 -79.061401 695.62402 0 0 0
-22.523701 -78.775803 695.836 0 0 0
69.0149 -79.2211 694.98798 0 0 0
71.000351 -78.567596 695.26349 0 0 0
-25.171301 -77.971497 694.94501 0 0 0
-27.069201 -76.181999 694.94598 0 0 0
69.484596 -76.115997 694.61603 0 0 0
-32.333302 -73.298203 695.10699 0 0 0
-29.6353 -73.008003 695.34003 0 0 0
70.828201 -73.372101 695.02301 0 0 0
-32.357498 -71.121704 695.16351 0 0 0
71.9673 -71.457497 695.862 0 0 0
-32.454899 -69.717102 694.89301 0 0 0
73.340599 -69.721802 694.58099 0 0 0
-34.351501 -68.978798 695.68402 0 0 0
73.849953 -68.044151 694.966 0 0 0
-35.27335 -66.707504 695.396 0 0 0
74.173103 -67.449699 694.94897 0 0 0
-37.513901 -65.429901 695.02802 0 0 0
74.296448 -65.360901 695.55249 0 0 0
-40.729301 -63.175999 695.15198 0 0 0
-38.787247 -64.0783 694.92346 0 0 0
-42.949699 -61.932301 694.841 0 0 0
-40.154999 -61.624901 695.97699 0 0 0
82.757202 -61.561798 695.27698 0 0 0
75.412697 -61.047199 695.92401 0 0 0
77.251953 -60.766151 694.81848 0 0 0
-45.5215 -58.698799 694.70099 0 0 0
-44.676399 -59.009701 694.90302 0 0 0
-43.048302 -58.9548 694.89697 0 0 0
-41.229599 -59.7094 695.82397 0 0 0
78.256401 -59.088299 694.59399 0 0 0
77.865303 -57.769501 694.76202 0 0 0
78.133102 -57.076698 694.80103 0 0 0
-45.544899 -56.9496 694.94598 0 0 0
-48.415901 -55.444599 694.55798 0 0 0
-46.028297 -54.630951 695.28247 0 0 0
78.698524 -54.908863 695.71265 0 0 0
-48.439301 -51.458099 694.53302 0 0 0
80.821899 -52.151199 695.25299 0 0 0
81.175446 -51.467552 694.71948 0 0 0
85.236397 -51.6451 695.99298 0 0 0
-51.631001 -49.86335 695.31848 0 0 0
81.639999 -49.6549 695.54901 0 0 0
82.141846 -48.987999 695.58447 0 0 0
-53.3382 -47.139801 695.47498 0 0 0
-50.589699 -46.930599 695.23999 0 0 0
-56.165798 -45.408699 694.96802 0 0 0
-54.255501 -46.485001 695.51202 0 0 0
82.991798 -46.198898 695.25702 0 0 0
-53.736 -44.243401 694.88 0 0 0
82.8284 -44.499451 695.93604 0 0 0
-57.929501 -40.8391 695.60101 0 0 0
-56.156399 -41.928501 695.75201 0 0 0
-60.615101 -40.492199 695.14899 0 0 0
-59.058498 -39.867001 694.82202 0 0 0
84.979752 -39.6688 695.35748 0 0 0
-63.652802 -38.294647 695.85547 0 0 0
85.041901 -38.3685 695.12402 0 0 0
86.737198 -38.725498 695.16101 0 0 0
87.680397 -37.332901 694.534 0 0 0
-73.028244 -34.857452 695.39246 0 0 0
-67.617897 -35.880798 695.46503 0 0 0
-64.698303 -35.542702 694.52399 0 0 0
-79.869797 -33.6021 695.95898 0 0 0
-78.518669 -33.515568 695.41333 0 0 0
-76.285301 -34.375599 695.01501 0 0 0
86.692596 -34.362 695.94202 0 0 0
87.649498 -34.4221 694.60999 0 0 0
89.346367 -32.681568 695.677 0 0 0
-82.769897 -31.2269 695.56897 0 0 0
-81.684448 -30.747101 695.7005 0 0 0
91.711548 -30.362598 694.59399 0 0 0
-85.2034 -28.764 694.81299 0 0 0
-83.935501 -29.2749 695.13702 0 0 0
92.249802 -29.349701 694.79602 0 0 0
-86.420998 -28.465799 695.508 0 0 0
93.282997 -27.580601 695.51398 0 0 0
-90.245003 -26.2321 695.25 0 0 0
93.738998 -26.797701 695.90198 0 0 0
94.6203 -25.5693 695.30298 0 0 0
95.775902 -24.795 694.992 0 0 0
96.120903 -24.0028 695.49103 0 0 0
-93.615303 -23.6597 695.36298 0 0 0
96.503304 -23.329399 694.87097 0 0 0
-93.151802 -22.4184 695.39099 0 0 0
-89.8396 -22.392 694.59601 0 0 0
98.243103 -21.5746 694.57397 0 0 0
-96.3946 -20.3986 695.07898 0 0 0
98.599602 -20.913601 694.56201 0 0 0
99.578201 -18.789902 695.66553 0 0 0
-99.207703 -17.433701 694.73999 0 0 0
-92.686996 -17.667801 695.48901 0 0 0
98.832199 -17.766199 694.51501 0 0 0
-137.47701 -15.6265 695.73602 0 0 0
-120.115 -15.2082 694.93103 0 0 0
-102.317 -16.070499 694.54602 0 0 0
-99.960899 -16.3085 695.38599 0 0 0
-98.098503 -15.9988 694.80701 0 0 0
-96.810402 -15.5978 695.12097 0 0 0
-95.216103 -15.9518 694.521 0 0 0
102.741 -15.93165 694.82501 0 0 0
-143.21201 -14.2008 695.58899 0 0 0
-140.8345 -14.617399 695.78003 0 0 0
-126.052 -14.6702 694.61902 0 0 0
-123.655 -14.6961 694.84698 0 0 0
-117.272 -14.6364 695.89697 0 0 0
-112.984 -14.6911 695.96002 0 0 0
-101.391 -13.7109 694.93201 0 0 0
103.8485 -14.50875 695.66949 0 0 0
-144.563 -12.6725 695.888 0 0 0
-141.593 -12.5124 695.961 0 0 0
-137.411 -13.2231 694.94299 0 0 0
-135.383 -12.1561 694.94098 0 0 0
-134.60899 -12.9757 695.16901 0 0 0
-145.37399 -11.6483 695.34698 0 0 0
-140.20599 -11.6391 694.78302 0 0 0
-133.375 -11.0094 694.85303 0 0 0
-131.69099 -11.2134 694.745 0 0 0
-111.224 -10.7319 694.63098 0 0 0
-106.201 -11.8613 694.62598 0 0 0
-100.787 -11.4832 694.94897 0 0 0
107.119 -11.44725 695.43103 0 0 0
-140.367 -9.56359 695.73798 0 0 0
-128.366 -9.7393999 694.52002 0 0 0
-125.881 -10.2882 694.552 0 0 0
-123.544 -10.2842 694.56201 0 0 0
-121.818 -9.8791399 695.96802 0 0 0
-116.258 -9.8207703 695.13898 0 0 0
-114.26 -9.7423296 695.64001 0 0 0
103.293 -10.2648 695.55701 0 0 0
106.892 -9.8509903 694.86298 0 0 0
119.247 -10.0011 695.12 0 0 0
-129.95 -8.41644 695.42499 0 0 0
-106.755 -7.80721 695.51801 0 0 0
104.457 -8.5982199 694.80798 0 0 0
107.77 -8.7860699 695.76801 0 0 0
120.828 -8.2319002 695.63501 0 0 0
-108.985 -6.28441 694.65997 0 0 0
-138.72 -5.2327099 695.91901 0 0 0
-111.713 -5.4952102 694.578 0 0 0
110.19534 -5.3475242 694.83698 0 0 0
111.891 -5.142375 695.07947 0 0 0
113.092 -5.3202152 695.30151 0 0 0
114.105 -4.8866301 695.86401 0 0 0
115.622 -5.3691101 695.927 0 0 0
117.687 -4.9844799 695.97601 0 0 0
127.04767 -5.0275168 695.40106 0 0 0
128.642 -4.729455 695.224 0 0 0
129.83299 -4.8021302 694.59302 0 0 0
133.395 -5.0992298 695.18903 0 0 0
137.23599 -4.8706598 694.91699 0 0 0
122.998 -4.3160901 694.81799 0 0 0
124.9545 -4.4277301 694.93152 0 0 0
132.69 -3.8174 695.08698 0 0 0
135.55949 -4.0169902 695.01801 0 0 0
138.741 -4.2632303 695.05151 0 0 0
140.4895 -4.295135 695.13403 0 0 0
142.12199 -4.2411399 695.18298 0 0 0
142.90733 -3.8835399 695.2923 0 0 0
144.65033 -3.8690765 695.71704 0 0 0
147.46001 -3.2590401 695.85602 0 0 0
-136.908 -1.7936 695.758 0 0 0
-136.687 -0.71712202 695.06702 0 0 0
148.5105 -0.91279852 695.33551 0 0 0
146.959 0.13677099 695.03101 0 0 0
147.95 1.3791699 694.67401 0 0 0
-133.895 4.42799 694.99103 0 0 0
145.742 5.5556002 695.17798 0 0 0
-133.04201 7.3527098 694.52399 0 0 0
145.49899 6.0138698 694.85602 0 0 0
145.521 6.0742202 695.37097 0 0 0
144.14568 8.7459898 695.021 0 0 0
-131.55 9.2084503 695.37799 0 0 0
143.345 10.0508 695.45398 0 0 0
-129.8085 11.43715 695.59198 0 0 0
142.911 10.6044 695.37299 0 0 0
141.80299 12.846733 695.04706 0 0 0
-129.158 13.6202 695.12598 0 0 0
140.43851 14.6654 695.05298 0 0 0
140.632 15.7833 695.98199 0 0 0
138.82733 17.594332 695.13068 0 0 0
-127.016 18.4069 695.09003 0 0 0
-124.019 20.936701 695.43298 0 0 0
136.282 20.6994 694.88098 0 0 0
136.26601 21.335501 695.65399 0 0 0
133.339 24.4575 695.44897 0 0 0
131.459 26.2358 694.58099 0 0 0
-121.059 28.192101 695.44098 0 0 0
131.07899 27.2236 695.617 0 0 0
-119.69 29.4578 695.25098 0 0 0
129.661 29.0271 695.79303 0 0 0
-118.9 31.3473 695.03699 0 0 0
-119.663 32.1931 694.74298 0 0 0
127.06 32.63765 695.133 0 0 0
-118.218 33.698399 694.94598 0 0 0
-117.204 35.9533 694.85999 0 0 0
125.216 35.659 695.53198 0 0 0
-119.339 36.910999 694.53198 0 0 0
-116.562 38.032501 694.77899 0 0 0
121.526 37.598202 695.099 0 0 0
126.703 38.9384 695.82703 0 0 0
119.229 40.411301 695.04999 0 0 0
-116.397 41.041901 695.013 0 0 0
121.432 41.300098 694.92603 0 0 0
118.135 42.4856 695.948 0 0 0
120.634 45.91 695.08197 0 0 0
-116.278 48.651001 695.56598 0 0 0
-114.974 48.2295 694.66101 0 0 0
119.607 48.9249 695.53699 0 0 0
119.06 50.798801 695.58002 0 0 0
119.215 51.179798 695.54797 0 0 0
121.9955 51.761551 694.67603 0 0 0
-115.492 53.835899 695.57703 0 0 0
123.961 53.307999 694.875 0 0 0
43.956001 -103.837 696.172 0 0 0
37.769001 -102.455 697.20001 0 0 0
38.661098 -101.015 696.77301 0 0 0
39.4188 -100.935 696.47601 0 0 0
32.510502 -99.109703 696.57098 0 0 0
34.073502 -99.930199 696.93701 0 0 0
35.192501 -99.262802 696.38702 0 0 0
37.098202 -100.194 696.40698 0 0 0
45.4832 -99.9925 697.03497 0 0 0
54.857201 -99.037399 697.19501 0 0 0
30.947599 -98.2892 696.20502 0 0 0
47.112534 -98.308136 696.45868 0 0 0
48.841999 -98.054657 696.93402 0 0 0
50.189949 -97.550499 697.43152 0 0 0
51.905602 -98.633202 696.84302 0 0 0
55.656502 -97.865097 696.28802 0 0 0
60.747101 -97.5812 696.35901 0 0 0
61.5252 -97.566101 696.63599 0 0 0
18.590401 -96.155899 696.58301 0 0 0
21.7918 -96.6633 697.15802 0 0 0
24.2721 -96.651604 697.315 0 0 0
26.4506 -96.203796 696.85901 0 0 0
29.025101 -97.3871 696.41901 0 0 0
30.7738 -96.232201 696.11902 0 0 0
33.637947 -96.5709 696.67346 0 0 0
36.927399 -97.064499 696.40302 0 0 0
39.879101 -97.468803 696.755 0 0 0
41.646198 -96.675499 696.297 0 0 0
42.606934 -96.834435 696.5307 0 0 0
44.382198 -96.634903 696.90198 0 0 0
46.321701 -96.805298 697.02502 0 0 0
46.5606 -96.6436 696.88098 0 0 0
48.5672 -96.184196 697.23798 0 0 0
57.6105 -97.021202 696.00403 0 0 0
58.543499 -97.157097 696.11401 0 0 0
62.456699 -97.091599 697.30499 0 0 0
63.794651 -96.680298 696.33099 0 0 0
-8.5907497 -94.689003 697.29797 0 0 0
-5.75313 -95.123199 697.43597 0 0 0
3.3821001 -94.598099 696.914 0 0 0
6.5789199 -95.269402 697.26703 0 0 0
9.89573 -94.7976 696.72998 0 0 0
16.055 -95.9235 696.60101 0 0 0
17.595699 -94.598999 696.703 0 0 0
20.0625 -94.624001 696.64001 0 0 0
22.324749 -94.827347 696.41901 0 0 0
23.31015 -94.969147 696.81653 0 0 0
24.472 -95.376404 696.86798 0 0 0
25.931267 -95.327171 696.75873 0 0 0
29.9601 -95.250504 696.76001 0 0 0
30.340631 -95.366432 696.71405 0 0 0
36.86615 -95.279053 697.07446 0 0 0
39.283298 -94.717598 696.633 0 0 0
43.847801 -95.274902 697.48499 0 0 0
54.3438 -94.685898 697.27002 0 0 0
64.744698 -95.4991 697.18597 0 0 0
-11.4904 -93.581703 696.60602 0 0 0
-2.0767734 -93.603966 696.59668 0 0 0
0.67555797 -94.460899 696.56299 0 0 0
10.9168 -93.372498 696.51099 0 0 0
12.99 -93.811096 696.53003 0 0 0
17.926001 -94.070396 696.20203 0 0 0
19.125401 -94.395897 696.42902 0 0 0
23.975 -93.228203 696.34198 0 0 0
25.4622 -93.404503 696.427 0 0 0
29.1625 -93.066704 697.09302 0 0 0
30.902201 -93.051498 697.013 0 0 0
33.746101 -93.765404 697.11902 0 0 0
35.303001 -93.812546 696.79346 0 0 0
40.099499 -94.056602 696.32599 0 0 0
45.980099 -93.294701 696.487 0 0 0
49.208401 -94.453796 697.40698 0 0 0
61.749199 -94.168198 696.08197 0 0 0
63.77755 -93.679001 696.73047 0 0 0
65.076103 -93.174103 696.98602 0 0 0
-13.6783 -92.690903 696.79999 0 0 0
-7.2458801 -92.562302 696.49799 0 0 0
4.9928198 -91.731796 697.06097 0 0 0
6.5571599 -92.180901 696.263 0 0 0
15.4732 -92.904999 696.36499 0 0 0
27.903799 -92.558296 696.20801 0 0 0
31.550501 -92.680603 696.44598 0 0 0
63.523602 -92.832497 696.37799 0 0 0
65.676605 -92.474106 696.69 0 0 0
66.924301 -92.035202 696.06799 0 0 0
-11.404 -91.371101 696.15002 0 0 0
65.293503 -90.045601 696.71399 0 0 0
66.094398 -90.7845 696.82202 0 0 0
-19.2918 -88.609299 696.00299 0 0 0
-16.879801 -89.0466 697.35498 0 0 0
-12.5156 -89.153603 696.76501 0 0 0
0.092952549 -89.957748 697.00647 0 0 0
-14.6915 -88.052002 696.12201 0 0 0
-6.46562 -87.074997 697.19702 0 0 0
65.590797 -87.830002 696.76599 0 0 0
67.813698 -87.285896 696.64001 0 0 0
-19.7145 -86.563499 696.41803 0 0 0
-15.3839 -85.550301 696.96198 0 0 0
-13.0601 -86.845398 697.37799 0 0 0
-8.4655104 -86.166298 696.11298 0 0 0
68.021698 -86.392899 696.96002 0 0 0
-16.978701 -84.724297 696.164 0 0 0
68.690552 -84.561203 697.203 0 0 0
-18.072599 -82.697502 697.427 0 0 0
67.216698 -83.970299 696.08899 0 0 0
-24.9384 -81.143898 696.52899 0 0 0
-22.0214 -82.180099 697.29797 0 0 0
68.8479 -81.987 696.76453 0 0 0
69.306702 -79.912003 697.42603 0 0 0
-20.5417 -79.487 696.875 0 0 0
-27.054701 -77.331001 697.34601 0 0 0
71.356499 -76.7444 696.00201 0 0 0
-25.988001 -75.481903 696.39697 0 0 0
-23.7897 -76.397102 697.44598 0 0 0
70.181297 -75.038101 697.38599 0 0 0
71.331703 -76.366898 696.14301 0 0 0
-29.915701 -73.964699 696.22699 0 0 0
-27.452549 -74.289001 696.7345 0 0 0
70.378502 -74.387604 697.42603 0 0 0
-28.6362 -72.149902 696.72498 0 0 0
-26.524099 -72.750107 697.48047 0 0 0
70.1315 -72.6576 697.422 0 0 0
71.949402 -70.869797 696.09302 0 0 0
-31.991199 -69.431602 696.67798 0 0 0
-29.0938 -69.772499 697.33502 0 0 0
71.436798 -69.810402 696.849 0 0 0
72.131401 -69.333702 696.724 0 0 0
-33.5322 -67.638397 696.052 0 0 0
-30.99345 -68.879501 696.33252 0 0 0
72.446701 -68.383797 696.98297 0 0 0
-35.0741 -66.638298 696.16699 0 0 0
-32.5896 -67.249603 697.05054 0 0 0
72.848701 -66.7267 697.25146 0 0 0
-36.438698 -65.079453 697.276 0 0 0
73.233002 -64.511002 697.04303 0 0 0
-38.279301 -63.067799 697.05499 0 0 0
73.363998 -63.724998 697.10498 0 0 0
75.015701 -64.105202 696.12 0 0 0
-41.152699 -62.869499 696.80701 0 0 0
-41.686699 -60.334099 696.633 0 0 0
75.75145 -60.9758 696.20947 0 0 0
82.505096 -60.449902 696.11401 0 0 0
-43.7281 -59.925499 696.29102 0 0 0
76.341904 -58.8382 696.75299 0 0 0
80.982597 -58.7169 696.93799 0 0 0
-42.564899 -57.304398 697.08002 0 0 0
76.560799 -58.2356 696.927 0 0 0
80.8311 -57.428398 696.375 0 0 0
-46.781898 -56.636101 696.146 0 0 0
78.039703 -56.765701 696.23602 0 0 0
-47.646 -54.708099 697.36298 0 0 0
-45.092098 -54.370201 696.78699 0 0 0
-43.486401 -55.298801 697.08502 0 0 0
-48.943802 -53.448002 696.03302 0 0 0
-47.634998 -52.521801 696.40698 0 0 0
79.284401 -53.028099 696.11798 0 0 0
-48.408001 -52.1521 697.25702 0 0 0
79.416 -52.242401 696.17999 0 0 0
79.656898 -51.587799 697.14398 0 0 0
-48.004601 -49.963501 696.711 0 0 0
-50.656799 -49.341599 696.99402 0 0 0
80.258102 -48.691498 697.3255 0 0 0
-51.263802 -47.745701 696.62799 0 0 0
-48.763 -47.758099 696.01599 0 0 0
80.752502 -47.858398 697.27399 0 0 0
-53.479401 -45.807598 696.841 0 0 0
-54.5256 -44.984501 696.14203 0 0 0
-52.773399 -44.427799 697.24701 0 0 0
82.798798 -44.094601 696.45001 0 0 0
-57.078701 -43.278999 696.15802 0 0 0
-56.550598 -42.5826 697.14502 0 0 0
-53.929298 -43.356499 696.66498 0 0 0
83.212845 -42.464302 696.1485 0 0 0
84.080002 -42.013802 696.61902 0 0 0
82.128899 -40.9655 697.44299 0 0 0
-61.579201 -39.000599 697.23297 0 0 0
-60.1591 -40.312099 696.02698 0 0 0
83.405502 -39.201302 696.06201 0 0 0
-65.274696 -37.7658 697.159 0 0 0
-61.785702 -37.960899 696.29901 0 0 0
-58.815102 -38.720402 696.93597 0 0 0
84.172501 -37.6721 696.203 0 0 0
-71.0914 -36.314602 697.237 0 0 0
-69.810104 -36.317451 696.659 0 0 0
-67.55835 -36.409 696.2525 0 0 0
-64.362999 -37.0965 696.31799 0 0 0
84.289703 -36.987598 696.59399 0 0 0
-74.48555 -35.165051 696.90002 0 0 0
-71.882301 -35.678398 696.26703 0 0 0
-70.248398 -35.627499 696.22101 0 0 0
87.054497 -35.043499 696.72699 0 0 0
-77.706703 -33.264099 697.46301 0 0 0
-75.710098 -34.254501 696.09698 0 0 0
86.946701 -34.034199 696.16602 0 0 0
-80.138397 -31.7071 696.297 0 0 0
-78.706001 -32.870098 696.79901 0 0 0
88.1082 -32.37825 697.09351 0 0 0
90.053398 -31.2484 696.04102 0 0 0
-83.414398 -28.782301 696.93298 0 0 0
90.8564 -29.243 697.07599 0 0 0
-84.567497 -28.045099 697.46399 0 0 0
91.032402 -28.185699 696.76001 0 0 0
91.776299 -27.2026 697.17603 0 0 0
93.210503 -27.2915 696.62299 0 0 0
-88.579597 -25.8864 696.039 0 0 0
-87.329498 -26.456934 696.64893 0 0 0
-85.690697 -26.7017 697.46698 0 0 0
92.3032 -26.497499 697.49103 0 0 0
-91.520203 -24.575001 696.91803 0 0 0
-91.212601 -24.289101 696.26703 0 0 0
94.754456 -25.08655 696.9325 0 0 0
-88.149002 -23.4107 696.29401 0 0 0
-94.014397 -21.244699 696.98102 0 0 0
-89.336098 -21.012899 697.06897 0 0 0
95.377098 -21.884501 697.448 0 0 0
96.930252 -22.0147 696.492 0 0 0
-94.800598 -20.2267 696.61798 0 0 0
-97.949898 -18.185499 696.35699 0 0 0
-90.444298 -19.3892 696.72198 0 0 0
96.854401 -19.132601 696.745 0 0 0
-96.369003 -17.683701 697.18201 0 0 0
101.723 -17.320601 696.87097 0 0 0
102.25 -16.9163 697.19598 0 0 0
-139.403 -15.1106 696.07501 0 0 0
-134.446 -15.813 696.112 0 0 0
-130.966 -15.7302 696.54303 0 0 0
-128.25999 -15.4598 697.13702 0 0 0
-121.767 -15.3222 696.10797 0 0 0
-115.068 -15.1807 696.70599 0 0 0
-100.109 -15.3544 696.71301 0 0 0
-96.080299 -16.471001 696.33899 0 0 0
-139.908 -13.7099 697.22601 0 0 0
-136.692 -13.7505 696.82703 0 0 0
-134.44701 -13.7222 697.21002 0 0 0
-110.332 -14.7651 696.85999 0 0 0
-106.878 -14.8776 696.44 0 0 0
-98.024002 -13.6298 696.58301 0 0 0
-95.691399 -14.9633 696.79797 0 0 0
100.086 -13.7822 697.09698 0 0 0
105.4845 -14.045099 696.26953 0 0 0
-136.78 -12.7726 696.02197 0 0 0
-132.547 -12.9508 697.46198 0 0 0
-102.844 -12.1099 697.021 0 0 0
-100.142 -12.1692 696.133 0 0 0
106.897 -12.7717 697.26746 0 0 0
-141.069 -10.7573 696.20599 0 0 0
-130.713 -11.0511 696.66498 0 0 0
-129.742 -11.462 696.84802 0 0 0
101.535 -11.1785 696.46503 0 0 0
118.161 -11.6453 696.97803 0 0 0
-127.321 -10.1853 696.31097 0 0 0
-124.929 -9.1507797 696.987 0 0 0
-106.892 -9.8723297 696.14801 0 0 0
-103.656 -10.0578 696.776 0 0 0
107.944 -10.4182 696.17401 0 0 0
-139.87199 -8.8649101 696.914 0 0 0
-119.424 -8.8587799 696.29102 0 0 0
-116.811 -8.1003704 696.979 0 0 0
-112.626 -8.5546398 696.42499 0 0 0
-108.705 -7.7453403 696.88251 0 0 0
-105.521 -8.87358 697.41101 0 0 0
108.38 -8.0378799 696.40503 0 0 0
-138.36 -6.74017 697.18903 0 0 0
-116.541 -7.4324598 697.04602 0 0 0
-110.113 -7.2628298 697.32703 0 0 0
108.719 -6.7468801 696.50452 0 0 0
109.959 -6.3829451 696.62201 0 0 0
122.28667 -6.2718368 696.80634 0 0 0
125.77 -6.2885499 696.534 0 0 0
-117.181 -5.5188098 696.08197 0 0 0
113.653 -5.7207999 696.56598 0 0 0
116.287 -5.3220901 696.086 0 0 0
118.068 -5.471055 696.38452 0 0 0
119.752 -5.4369402 696.44653 0 0 0
120.514 -5.5731401 696.841 0 0 0
122.872 -5.2512298 696.93597 0 0 0
124.076 -5.8706698 697.43799 0 0 0
125.806 -4.9450998 697.33899 0 0 0
131.06233 -4.9927964 696.32861 0 0 0
132.11501 -4.8523202 696.33801 0 0 0
134.032 -5.07689 696.02502 0 0 0
135.56767 -4.9903736 696.67969 0 0 0
137.52051 -4.9946051 696.83551 0 0 0
138.616 -5.1109133 697.185 0 0 0
140.92 -4.97084 697.19598 0 0 0
141.48399 -5.3496099 697.49902 0 0 0
-138.117 -3.86518 696.367 0 0 0
130.011 -3.9332299 696.11499 0 0 0
131.978 -4.2027402 696.34998 0 0 0
135.01601 -4.1622901 696.49103 0 0 0
141.05299 -4.2646799 697.05499 0 0 0
146.4985 -3.7744401 696.36047 0 0 0
-120.374 -2.39482 696.62097 0 0 0
145.37199 -2.8415301 696.396 0 0 0
148.16849 -2.0336251 696.79346 0 0 0
-134.74051 1.163439 696.38953 0 0 0
147.53101 1.49278 696.27698 0 0 0
-134.41 2.7070999 696.11902 0 0 0
147.474 2.560245 696.72852 0 0 0
-133.149 3.6628201 696.20801 0 0 0
147.09801 3.25385 696.862 0 0 0
-131.899 5.2073798 697.091 0 0 0
146.4655 5.0218501 697.0025 0 0 0
-132.174 6.9867201 696.19897 0 0 0
144.83501 7.4976001 697.02502 0 0 0
-130.87399 8.70574 696.24799 0 0 0
144.291 8.7938404 696.41699 0 0 0
144.172 9.3642302 697.21301 0 0 0
142.79167 11.429833 696.74664 0 0 0
-126.901 14.1805 697.10699 0 0 0
-126.678 16.808399 697.10999 0 0 0
-125.094 18.3022 696.24103 0 0 0
137.98 19.2265 696.58301 0 0 0
138.37399 18.0779 696.20398 0 0 0
-124.773 19.558201 696.86298 0 0 0
135.58951 21.8414 697.099 0 0 0
-121.902 23.153601 697.12201 0 0 0
134.05701 23.290701 697.17102 0 0 0
-123.192 24.2064 696.02698 0 0 0
132.14101 26.6 696.37903 0 0 0
-119.93 27.9055 697.29401 0 0 0
130.729 28.2421 696.68799 0 0 0
-120.457 29.2717 696.586 0 0 0
-120.071 30.5138 697.19501 0 0 0
-119.249 30.256599 697.20203 0 0 0
129.21201 30.3041 697.49402 0 0 0
-118.429 32.843201 697.36798 0 0 0
126.538 32.3144 696.46002 0 0 0
126.71 33.205002 696.23798 0 0 0
-119.88 34.868698 696.539 0 0 0
-117.274 34.980202 696.66803 0 0 0
124.054 35.016201 696.50299 0 0 0
124.297 37.553699 696.95502 0 0 0
-118.901 39.615299 696.40399 0 0 0
-116.665 39.439701 696.93402 0 0 0
123.347 39.445702 697.04401 0 0 0
122.158 42.151901 697.15601 0 0 0
-117.631 44.322102 696.22101 0 0 0
-116.161 44.663101 696.92102 0 0 0
120.675 44.3078 696.25201 0 0 0
-115.506 46.784801 696.20203 0 0 0
119.238 46.903198 696.58502 0 0 0
120.957 48.595001 697.33002 0 0 0
-115.7175 50.0704 696.78601 0 0 0
119.596 49.613499 697.25201 0 0 0
-114.971 52.1301 696.24298 0 0 0
120.011 51.571602 696.758 0 0 0
122.258 51.486 697.38098 0 0 0
124.359 53.025002 697.41998 0 0 0
-114.965 55.489101 696.797 0 0 0
-114.241 56.6674 696.16602 0 0 0
44.100601 -103.599 698.99298 0 0 0
35.355 -103.248 698.09003 0 0 0
45.639599 -101.73 698.82397 0 0 0
38.951 -99.596603 697.83398 0 0 0
40.950199 -99.894997 697.99402 0 0 0
43.260399 -99.149551 698.15503 0 0 0
48.561798 -99.571098 698.23499 0 0 0
51.513401 -99.975304 698.58801 0 0 0
54.465099 -100.38 698.94 0 0 0
57.808899 -99.441704 697.54797 0 0 0
12.172 -97.679001 698.73401 0 0 0
30.514099 -97.751701 698.25299 0 0 0
33.473701 -98.228798 698.45599 0 0 0
36.4254 -98.633102 698.80798 0 0 0
38.871101 -97.988747 698.75854 0 0 0
41.484364 -98.286232 698.56006 0 0 0
42.778301 -97.803001 697.62701 0 0 0
44.997299 -97.677101 697.60797 0 0 0
45.833149 -98.281601 697.81348 0 0 0
51.543301 -98.983498 698.27301 0 0 0
53.614349 -98.468498 698.17798 0 0 0
56.019798 -98.280998 698.44501 0 0 0
57.547798 -98.408501 698.48547 0 0 0
0.30714199 -96.0214 697.85901 0 0 0
3.20137 -96.722099 698.35199 0 0 0
6.2473102 -97.291496 698.78998 0 0 0
9.1723404 -97.327797 698.72302 0 0 0
12.9742 -96.145302 698.03101 0 0 0
15.434 -96.482201 698.32397 0 0 0
17.8937 -96.819099 698.61798 0 0 0
18.5061 -96.426102 698.95398 0 0 0
20.353399 -97.155998 698.91199 0 0 0
27.632799 -96.757202 697.98901 0 0 0
29.5411 -96.288002 698.5 0 0 0
31.8762 -96.268135 698.19403 0 0 0
33.563652 -96.352898 698.28699 0 0 0
35.907135 -96.955788 698.42206 0 0 0
38.716202 -97.164856 698.7265 0 0 0
44.4216 -96.366699 698.70099 0 0 0
61.010502 -97.193604 698.84998 0 0 0
63.177502 -96.199203 698.05402 0 0 0
-2.78531 -95.436501 697.828 0 0 0
1.4131 -94.6465 698.35699 0 0 0
6.8277702 -95.540703 698.51599 0 0 0
8.5466995 -95.538902 697.50201 0 0 0
13.9788 -95.739304 698.25 0 0 0
15.459249 -94.718498 698.79901 0 0 0
17.5618 -95.0168 697.92603 0 0 0
18.426201 -95.288597 698.81598 0 0 0
21.7775 -95.219002 697.85797 0 0 0
24.253401 -94.575401 697.90302 0 0 0
26.382 -95.378601 698.11951 0 0 0
28.18895 -94.870499 698.0025 0 0 0
28.806433 -95.796425 697.93402 0 0 0
32.485767 -95.362671 698.47772 0 0 0
35.379799 -95.732201 698.96002 0 0 0
36.700851 -95.009705 698.37 0 0 0
38.670601 -94.523003 698.30798 0 0 0
39.3284 -95.000198 698.21899 0 0 0
41.9375 -95.074898 698.83002 0 0 0
42.370499 -95.654099 698.99298 0 0 0
43.742001 -94.629601 697.58698 0 0 0
46.126701 -95.615601 697.54303 0 0 0
47.104801 -95.369598 698.98602 0 0 0
57.935398 -95.491402 697.88599 0 0 0
62.632702 -94.938904 698.19202 0 0 0
64.023598 -94.510597 698.84198 0 0 0
-0.45666152 -93.961395 698.51904 0 0 0
2.3049901 -93.647903 698.56201 0 0 0
4.2305698 -93.811302 698.77002 0 0 0
11.8571 -93.554001 698.091 0 0 0
12.1055 -93.647797 698.685 0 0 0
17.049101 -93.3638 697.84198 0 0 0
21.792101 -94.154198 697.78302 0 0 0
27.8076 -93.212097 697.58502 0 0 0
29.7887 -94.180298 698.11102 0 0 0
-11.293 -92.540604 698.55902 0 0 0
-5.6182199 -92.942398 698.12402 0 0 0
-4.0066347 -92.431702 698.36597 0 0 0
5.6047301 -91.898499 697.69202 0 0 0
6.1739802 -92.0821 698.27802 0 0 0
8.8862247 -92.943451 698.19202 0 0 0
63.982399 -92.6754 697.50299 0 0 0
-8.2135696 -91.092598 698.099 0 0 0
2.3545001 -90.5298 698.323 0 0 0
3.3757401 -90.975899 698.888 0 0 0
65.459198 -90.8265 697.68799 0 0 0
-14.1002 -89.8032 697.97101 0 0 0
-8.8564301 -88.855301 698.89099 0 0 0
65.535698 -89.6064 698.25702 0 0 0
-17.738501 -87.0485 697.55298 0 0 0
-10.9582 -87.850403 698.13397 0 0 0
-5.4445801 -87.521599 697.76099 0 0 0
-4.4657202 -87.983704 698.28003 0 0 0
-10.4302 -85.900101 698.08197 0 0 0
-21.400499 -84.0755 697.58398 0 0 0
-19.2691 -84.5485 698.34399 0 0 0
-13.9223 -84.936203 698.12299 0 0 0
67.295654 -84.761749 698.59399 0 0 0
-19.8234 -82.733101 698.685 0 0 0
-17.035299 -81.819199 698.57501 0 0 0
-14.5132 -82.293602 698.65002 0 0 0
66.262901 -81.635902 698.24298 0 0 0
-23.953699 -79.911102 698.20801 0 0 0
-21.8699 -80.327003 698.52002 0 0 0
-24.918501 -78.022202 698.23999 0 0 0
-19.420099 -78.307701 698.18903 0 0 0
-17.9582 -78.877403 697.96997 0 0 0
66.560204 -79.420303 698.29498 0 0 0
69.436699 -79.028603 697.57898 0 0 0
67.841301 -77.339401 698.46399 0 0 0
70.02095 -77.203453 697.99548 0 0 0
-25.3269 -75.210403 698.07599 0 0 0
-22.06035 -75.40535 698.659 0 0 0
-24.695 -74.348602 698.716 0 0 0
68.310997 -74.234398 698.09198 0 0 0
-26.7377 -72.554497 698.75201 0 0 0
70.353752 -72.665955 697.9115 0 0 0
-29.8109 -70.576797 697.61102 0 0 0
-27.544201 -71.163696 698.58899 0 0 0
69.717102 -70.827301 698.737 0 0 0
71.385696 -67.913696 698.22101 0 0 0
-32.647701 -66.142097 698.13397 0 0 0
-31.1763 -67.474998 698.68903 0 0 0
-35.122898 -65.021797 698.172 0 0 0
-34.003899 -65.743896 698.18103 0 0 0
71.759094 -65.1483 698.76245 0 0 0
-38.222 -63.4021 698.47198 0 0 0
-36.9758 -64.159302 697.65503 0 0 0
72.796501 -63.997299 697.80499 0 0 0
-39.8078 -62.919701 697.724 0 0 0
73.847244 -62.096397 698.10754 0 0 0
-42.3535 -61.334301 697.65002 0 0 0
-40.663399 -60.7813 698.026 0 0 0
-39.5839 -60.108101 698.60901 0 0 0
73.937202 -61.261299 697.80499 0 0 0
-42.912701 -58.757 697.78003 0 0 0
-40.4716 -58.569698 698.23199 0 0 0
74.531303 -59.839001 697.94897 0 0 0
75.088303 -59.494202 697.96301 0 0 0
76.639999 -57.7547 698.31299 0 0 0
-45.2817 -55.524101 697.64099 0 0 0
-42.779152 -56.3344 698.85596 0 0 0
75.708755 -56.104103 698.56 0 0 0
77.497299 -56.080147 697.69446 0 0 0
-43.553398 -54.718399 698.02802 0 0 0
-45.858299 -53.150002 698.53198 0 0 0
77.461594 -53.31765 697.98199 0 0 0
-46.062698 -52.377499 697.99103 0 0 0
78.268295 -51.413651 697.82397 0 0 0
-48.740299 -50.1334 698.27399 0 0 0
-46.383301 -50.943802 697.96899 0 0 0
79.297348 -48.805599 698.70947 0 0 0
-51.760502 -46.7019 698.5 0 0 0
-50.317799 -47.7169 698.84399 0 0 0
-48.907799 -46.631199 698.52197 0 0 0
80.586098 -47.0135 698.86499 0 0 0
-50.6745 -45.324001 697.79303 0 0 0
81.152145 -45.8937 697.57202 0 0 0
-56.028702 -44.188202 697.61499 0 0 0
-54.8638 -44.0233 698.23199 0 0 0
-53.136501 -44.185299 697.53198 0 0 0
80.180298 -44.080299 698.91351 0 0 0
81.571404 -44.194199 698.10303 0 0 0
-54.1231 -42.506752 698.573 0 0 0
-59.429699 -40.5327 697.76501 0 0 0
-57.824303 -41.112152 698.26251 0 0 0
-56.279701 -40.932201 698.70203 0 0 0
83.001198 -41.0056 698.29797 0 0 0
-61.732498 -39.1017 698.974 0 0 0
-59.087299 -39.103001 698.77802 0 0 0
82.041496 -40.3032 697.65503 0 0 0
-67.817902 -37.768799 698.26398 0 0 0
-63.749298 -38.9632 698.12201 0 0 0
-61.80965 -38.553497 698.33496 0 0 0
82.255302 -38.685501 698.04498 0 0 0
82.697998 -37.623299 698.229 0 0 0
84.208801 -38.001598 698.01501 0 0 0
-73.823097 -37.091301 698.31799 0 0 0
-71.9543 -36.854198 698.81403 0 0 0
-66.668404 -37.050201 697.992 0 0 0
-64.210503 -37.123901 698.005 0 0 0
83.510002 -36.160301 698.92297 0 0 0
-77.385101 -34.5928 697.74799 0 0 0
-73.9786 -35.612598 697.68597 0 0 0
84.786545 -35.1026 697.80048 0 0 0
85.735901 -35.954399 698.21301 0 0 0
-76.6679 -34.056801 697.73401 0 0 0
-75.467201 -33.717999 698.54303 0 0 0
86.041603 -33.0644 698.69202 0 0 0
-81.0214 -32.452301 697.74902 0 0 0
88.021103 -32.0905 698.40399 0 0 0
-81.258301 -30.8155 698.34497 0 0 0
-80.280602 -30.3969 698.992 0 0 0
-79.297897 -31.3892 698.97699 0 0 0
89.151299 -30.2973 697.76501 0 0 0
-84.275597 -29.624001 697.62201 0 0 0
-82.133499 -29.534401 698.47498 0 0 0
89.581497 -29.7621 698.19202 0 0 0
-84.7033 -27.3993 697.66602 0 0 0
92.5793 -25.5135 698.84198 0 0 0
-89.054901 -25.004601 697.70898 0 0 0
93.414352 -24.616402 698.37646 0 0 0
-90.68325 -23.1101 698.4765 0 0 0
-88.232002 -22.6464 697.86603 0 0 0
-86.997803 -23.925301 698.83099 0 0 0
95.5 -23.696199 697.85699 0 0 0
95.952301 -21.3018 698.10699 0 0 0
-94.408203 -20.8375 698.91602 0 0 0
-92.7798 -20.541599 698.284 0 0 0
96.358597 -20.7033 698.12598 0 0 0
-96.801903 -18.4321 698.12598 0 0 0
-93.664803 -19.409 698.94299 0 0 0
-90.281403 -18.6586 698.32397 0 0 0
97.200943 -19.3458 698.69153 0 0 0
98.631393 -19.28175 697.9895 0 0 0
-137.50999 -17.589001 698.16803 0 0 0
-134.45799 -17.127701 698.39001 0 0 0
-99.500999 -16.5221 698.28699 0 0 0
-98.666 -17.2791 698.48297 0 0 0
-95.511703 -16.612101 698.72198 0 0 0
-92.785202 -17.339701 698.10699 0 0 0
97.533699 -17.210699 697.51599 0 0 0
-140.62199 -15.891999 698.26465 0 0 0
-137.914 -15.102 698.21503 0 0 0
-126.243 -15.8072 698.70203 0 0 0
-124.774 -15.7388 697.974 0 0 0
-121.827 -15.7805 698.23102 0 0 0
-118.075 -15.5973 698.57202 0 0 0
102.948 -16.314301 697.68298 0 0 0
104.857 -16.036699 698.23798 0 0 0
105.453 -15.6792 698.552 0 0 0
-143.996 -14.2765 697.81 0 0 0
-135.216 -14.254 698.29901 0 0 0
-112.574 -14.4046 698.26398 0 0 0
-107.774 -14.8103 698.37598 0 0 0
-103.852 -14.7991 697.97498 0 0 0
-131.819 -12.8059 697.961 0 0 0
-104.22 -12.2894 698.94397 0 0 0
-101.762 -12.8305 698.1875 0 0 0
-139.983 -11.61945 698.16998 0 0 0
-115.263 -11.2598 698.974 0 0 0
108.216 -10.8946 698.58002 0 0 0
-124.713 -9.3844404 698.05902 0 0 0
-115.41 -9.4134903 698.06897 0 0 0
-113.008 -10.0468 698.50299 0 0 0
-106.885 -10.4027 697.88599 0 0 0
103.685 -10.2767 698.64398 0 0 0
-128.96001 -7.61026 698.703 0 0 0
-121.955 -7.6063199 698.70697 0 0 0
107.11 -7.9396 697.745 0 0 0
109.7 -7.5847998 698.599 0 0 0
119.895 -8.0866098 697.552 0 0 0
-138.565 -6.17627 697.745 0 0 0
-114.25 -6.4639502 697.98602 0 0 0
-106.657 -6.97299 698.81598 0 0 0
110.69 -6.7674899 697.74298 0 0 0
111.78149 -6.8740101 698.38098 0 0 0
113.2265 -6.3298998 698.37048 0 0 0
115.076 -6.7887702 698.513 0 0 0
115.9615 -6.4311352 698.18652 0 0 0
117.923 -7.1772799 698.89398 0 0 0
119.267 -6.2295399 698.33398 0 0 0
121.976 -6.4168401 698.84698 0 0 0
123.361 -7.0269198 697.935 0 0 0
125.905 -6.21492 697.92499 0 0 0
126.7855 -6.5575552 698.17902 0 0 0
128.575 -6.2039199 698.85999 0 0 0
130.79401 -6.2285147 698.94653 0 0 0
137.34801 -6.4289799 698.77502 0 0 0
-119.244 -5.85289 698.08301 0 0 0
-115.914 -5.9829302 697.95898 0 0 0
-111.078 -4.7919402 698.99298 0 0 0
124.741 -5.8241801 697.59601 0 0 0
128.1955 -5.4139252 698.03998 0 0 0
131.649 -4.8818302 698.33301 0 0 0
134.1925 -5.4821749 698.70996 0 0 0
139.83099 -5.4464202 698.672 0 0 0
142.175 -5.16257 697.711 0 0 0
143.44901 -4.8668752 698.47351 0 0 0
-137.582 -4.0584202 697.52399 0 0 0
-136.12199 -3.0857799 698.46698 0 0 0
-120.275 -3.8043699 698.42401 0 0 0
143.26601 -3.7506599 697.63599 0 0 0
145.392 -4.3326402 698.14398 0 0 0
145.73349 -3.683085 698.13599 0 0 0
146.175 -2.54757 698.521 0 0 0
148.231 -1.62581 698.49902 0 0 0
-134.532 -1.34043 698.66803 0 0 0
148.33551 -0.79700249 698.49951 0 0 0
148.123 1.3672301 698.27399 0 0 0
-133.539 1.71587 698.99298 0 0 0
-132.86899 3.6900051 698.034 0 0 0
146.47533 5.62253 698.45404 0 0 0
-130.769 7.3810201 697.92603 0 0 0
-129.395 8.5851402 698.979 0 0 0
144.83551 8.1035252 698.27698 0 0 0
-128.662 11.3622 698.29846 0 0 0
-128.026 12.4099 697.88 0 0 0
142.53799 13.2982 698.664 0 0 0
141.595 14.18965 698.51648 0 0 0
-125.601 16.496799 698.91101 0 0 0
140.073 16.191999 697.73901 0 0 0
-125.222 16.921301 698.065 0 0 0
-123.099 19.0816 698.341 0 0 0
137.91049 18.83655 697.67896 0 0 0
139.442 18.2293 698.349 0 0 0
136.814 20.634701 698.34399 0 0 0
-122.72 22.5704 698.65503 0 0 0
-120.8835 25.900848 697.79602 0 0 0
131.88049 26.36285 698.50702 0 0 0
-120.83 27.7323 698.83398 0 0 0
130.937 27.400999 698.53699 0 0 0
129.226 30.319401 697.51202 0 0 0
-120.271 32.983601 698.85303 0 0 0
127.724 32.396702 698.33502 0 0 0
125.987 35.21875 698.354 0 0 0
124.538 36.816299 697.76801 0 0 0
-119.538 38.074299 698.79102 0 0 0
119.651 40.266399 698.159 0 0 0
123.613 39.072701 697.64502 0 0 0
126.375 40.007 697.76398 0 0 0
-119.07 41.353901 698.05603 0 0 0
122.27 40.892101 698.65002 0 0 0
-118.408 43.181099 698.63098 0 0 0
-116.842 43.318199 698.28198 0 0 0
121.61 43.1422 698.29602 0 0 0
117.495 44.168701 697.901 0 0 0
118.928 46.072399 698.19299 0 0 0
120.67 45.87825 698.08997 0 0 0
-117.375 47.375599 698.31598 0 0 0
120.4745 47.679901 698.38849 0 0 0
-116.44 48.851551 698.67798 0 0 0
118.785 51.6693 697.73999 0 0 0
-115.9815 52.996498 698.49353 0 0 0
48.167198 -100.537 700.43298 0 0 0
51.058899 -100.603 700.45898 0 0 0
23.934799 -99.386597 700.40802 0 0 0
39.4739 -99.669647 699.67902 0 0 0
45.4897 -99.740196 699.93701 0 0 0
48.973301 -99.601898 700.01398 0 0 0
50.058098 -99.419647 700.11096 0 0 0
51.2397 -99.772202 699.71002 0 0 0
52.584301 -99.743301 700.28003 0 0 0
57.770599 -100.241 699.789 0 0 0
59.567001 -99.430801 699.86102 0 0 0
15.1981 -98.4692 699.72302 0 0 0
18.197001 -98.615097 699.69299 0 0 0
21.0501 -98.773201 699.73499 0 0 0
24.780899 -97.762398 699.44 0 0 0
27.486601 -98.133003 699.763 0 0 0
30.1924 -98.503601 700.086 0 0 0
33.620998 -97.932503 699.85602 0 0 0
35.0667 -97.6203 700.48602 0 0 0
38.702 -98.541298 699.44702 0 0 0
41.900799 -98.005997 700.06299 0 0 0
42.637199 -98.812202 699.78003 0 0 0
44.549 -98.1716 699.22046 0 0 0
45.871048 -98.665604 699.57605 0 0 0
59.382099 -98.442497 699.078 0 0 0
60.542198 -98.558098 699.24799 0 0 0
61.631302 -98.134102 699.72302 0 0 0
-2.0764799 -96.875702 699.81799 0 0 0
-0.354671 -97.111504 700.02301 0 0 0
10.2751 -96.747299 700.466 0 0 0
11.4691 -96.1474 699.26703 0 0 0
15.1429 -97.239197 700.388 0 0 0
22.161331 -96.506226 699.591 0 0 0
24.79245 -96.715202 699.56549 0 0 0
26.130299 -96.600899 700.02002 0 0 0
28.2761 -96.970398 700.11102 0 0 0
29.0818 -96.94725 700.07153 0 0 0
30.62575 -96.66655 699.63 0 0 0
34.564098 -96.177803 700.06598 0 0 0
36.717049 -96.571548 699.62451 0 0 0
38.449402 -97.286201 700.36401 0 0 0
45.648201 -97.1147 700.26801 0 0 0
55.767502 -96.290199 699.43298 0 0 0
59.657799 -96.633797 700.26501 0 0 0
62.267502 -97.278503 700.315 0 0 0
10.9364 -94.8759 699.15503 0 0 0
13.8584 -94.628601 699.81 0 0 0
16.9664 -94.778198 699.979 0 0 0
18.743 -95.366997 699.14301 0 0 0
21.7013 -95.526703 699.68201 0 0 0
25.764999 -95.917099 699.68201 0 0 0
40.1329 -95.520103 700.073 0 0 0
51.1917 -95.724503 699.29401 0 0 0
61.553101 -95.187698 699.51202 0 0 0
-5.9016299 -93.969597 700.42902 0 0 0
-1.64728 -93.309502 700.04303 0 0 0
6.6203799 -93.909401 699.40601 0 0 0
8.5831604 -94.183502 699.84998 0 0 0
12.5379 -93.861702 699.80603 0 0 0
64.270798 -93.468498 699.422 0 0 0
-8.4987898 -92.906799 699.63599 0 0 0
-6.2101798 -92.168404 699.03497 0 0 0
-1.5810699 -92.403503 699.992 0 0 0
9.5585299 -92.8592 699.73999 0 0 0
64.473801 -92.186798 700.10797 0 0 0
-11.2741 -90.466103 699.07898 0 0 0
-9.4004898 -90.929703 699.88 0 0 0
-5.5138102 -90.6493 699.31598 0 0 0
4.3544002 -91.438499 699.40698 0 0 0
62.666401 -91.1343 700.44397 0 0 0
-6.7546 -89.860199 699.64801 0 0 0
-16.482401 -87.7034 699.05103 0 0 0
-14.0345 -87.931099 699.56897 0 0 0
-7.52316 -87.722 700.46899 0 0 0
-7.3113999 -88.014999 699.59802 0 0 0
-3.2739902 -88.330002 699.50952 0 0 0
66.5578 -87.943146 699.203 0 0 0
-13.8687 -86.053001 700.33502 0 0 0
64.464699 -86.385101 699.34399 0 0 0
66.485802 -86.219101 700.31702 0 0 0
-16.569099 -85.316002 699.47601 0 0 0
-11.9466 -84.9617 699.42999 0 0 0
-8.50599 -84.653702 700.47803 0 0 0
67.853203 -83.211098 699.03497 0 0 0
-15.1993 -82.481499 699.59998 0 0 0
68.083603 -81.380249 699.83649 0 0 0
-19.3447 -80.864304 699.65601 0 0 0
-12.4531 -80.487396 700.229 0 0 0
-21.884701 -78.636101 699.367 0 0 0
-19.940599 -78.687202 700.05103 0 0 0
-17.1362 -79.413101 699.53998 0 0 0
68.434502 -78.069099 699.40302 0 0 0
-24.0945 -75.646896 700.02301 0 0 0
-20.179001 -76.013702 699.44202 0 0 0
69.041351 -76.073196 699.74304 0 0 0
-24.978399 -73.833504 699.92999 0 0 0
68.905998 -74.6091 700.25299 0 0 0
-23.5285 -73.357002 700.09698 0 0 0
-27.082701 -70.808899 699.03601 0 0 0
-25.521 -70.937302 699.70398 0 0 0
69.375244 -70.937752 699.28796 0 0 0
-26.3069 -70.128998 700.42798 0 0 0
-31.5776 -67.745399 699.40503 0 0 0
-30.3822 -67.996399 699.38202 0 0 0
-29.7174 -68.399803 700.099 0 0 0
-27.9967 -68.103996 700.01001 0 0 0
69.84375 -68.508751 699.71002 0 0 0
71.060699 -68.083397 699.14301 0 0 0
-34.722 -66.033897 699.28497 0 0 0
-32.4869 -66.318199 699.08002 0 0 0
70.8536 -66.7052 700.36298 0 0 0
71.3106 -65.431099 700.09302 0 0 0
-38.497398 -63.621201 699.17297 0 0 0
-37.0023 -63.655102 700.33698 0 0 0
70.708099 -64.012749 700.21948 0 0 0
72.351601 -63.302898 699.06702 0 0 0
-38.003601 -61.6404 699.57599 0 0 0
-41.242001 -60.106201 699.23297 0 0 0
-39.796299 -61.431499 700.172 0 0 0
72.869499 -60.515549 699.34802 0 0 0
-40.743099 -58.194698 700.396 0 0 0
73.738403 -58.122849 699.70447 0 0 0
-40.021702 -56.5042 700.45203 0 0 0
76.0345 -55.777599 699.26801 0 0 0
79.792801 -56.270901 699.30499 0 0 0
-42.582703 -54.66045 699.86652 0 0 0
-41.020802 -54.2024 700.39301 0 0 0
76.218399 -54.404999 699.34399 0 0 0
-44.523998 -52.7257 699.23102 0 0 0
76.675598 -52.8894 699.51001 0 0 0
76.807198 -52.103699 699.57202 0 0 0
78.343399 -52.132099 699.00897 0 0 0
82.645699 -52.044701 699.328 0 0 0
-46.999699 -49.892399 699.53699 0 0 0
-46.224701 -49.554199 700.36298 0 0 0
77.436996 -50.234402 700.26501 0 0 0
78.616997 -49.698101 699.51001 0 0 0
-49.555901 -48.084999 700.32501 0 0 0
-47.747898 -48.464001 699.474 0 0 0
77.691803 -48.300949 700.30505 0 0 0
79.640602 -47.305599 699.33502 0 0 0
-51.909901 -45.291901 699.73102 0 0 0
-52.248699 -44.817501 700.48602 0 0 0
-56.2285 -42.242599 700.22498 0 0 0
-53.3414 -42.915901 700.19299 0 0 0
80.14785 -42.73085 699.737 0 0 0
-57.628899 -40.8568 699.26898 0 0 0
-55.531898 -41.3694 700.28601 0 0 0
80.344299 -41.456902 699.20398 0 0 0
-59.9459 -39.670799 700.466 0 0 0
81.922501 -39.997398 699.97699 0 0 0
-72.558998 -37.799198 700.47498 0 0 0
-70.0839 -37.629051 699.61597 0 0 0
-65.422768 -38.313503 699.98633 0 0 0
-63.334301 -38.1717 699.466 0 0 0
81.389503 -37.639801 699.59698 0 0 0
-75.584396 -36.159599 700.04303 0 0 0
-73.481598 -36.1021 700.03699 0 0 0
-71.027199 -36.810101 699.25897 0 0 0
-68.1101 -37.201351 699.72949 0 0 0
81.510002 -37.145901 699.80603 0 0 0
84.532303 -36.2724 699.41699 0 0 0
-73.772202 -35.973099 699.375 0 0 0
82.383003 -35.2743 700.47699 0 0 0
83.764 -35.832401 699.14697 0 0 0
-78.415901 -33.002998 699.70203 0 0 0
84.778946 -33.92205 699.64294 0 0 0
-79.063301 -31.933201 699.80298 0 0 0
84.9151 -32.573502 700.02899 0 0 0
86.6315 -32.362 699.00702 0 0 0
-82.414703 -30.7537 699.93903 0 0 0
87.968048 -30.292099 700.04352 0 0 0
-82.262497 -29.315201 699.20599 0 0 0
88.684303 -28.948799 700.495 0 0 0
-84.875153 -27.421051 699.67102 0 0 0
89.714401 -27.6525 699.953 0 0 0
90.320801 -27.817301 699.14099 0 0 0
-84.487198 -26.856899 699.29602 0 0 0
90.5746 -26.9629 699.65503 0 0 0
-88.601196 -24.8465 699.53601 0 0 0
-87.952698 -24.9354 700.03601 0 0 0
-85.082901 -25.1094 699.87903 0 0 0
91.551598 -25.478201 700.354 0 0 0
94.754097 -22.527901 699.28998 0 0 0
-92.310303 -21.5686 699.55847 0 0 0
-88.338699 -21.663799 699.88702 0 0 0
95.206802 -21.864201 699.66302 0 0 0
-97.073502 -19.551701 699.76099 0 0 0
-90.124397 -20.428101 700.18201 0 0 0
94.771599 -20.3587 700.01398 0 0 0
-141.03799 -18.6814 700.39203 0 0 0
-95.199699 -18.7481 699.79401 0 0 0
-93.128197 -19.297199 700.15399 0 0 0
101.0065 -18.4744 699.422 0 0 0
102.7235 -19.045101 700.2475 0 0 0
-141.564 -16.972401 699.88599 0 0 0
-138.924 -17.402901 700.39301 0 0 0
-131.505 -17.069201 699.40997 0 0 0
-100.641 -17.846201 699.91302 0 0 0
96.712097 -17.822399 699.44 0 0 0
-135.14 -15.1438 699.25598 0 0 0
-133.761 -15.6044 700.39398 0 0 0
-129.06799 -16.178101 700.12 0 0 0
-118.758 -15.5935 700.09198 0 0 0
-115.09 -15.618 699.76703 0 0 0
-112.29 -15.2045 700.45502 0 0 0
-110.568 -15.2904 699.82599 0 0 0
-101.699 -15.1863 699.53497 0 0 0
-98.811203 -15.2866 699.57397 0 0 0
98.5951 -15.5826 699.00702 0 0 0
-144.52499 -13.6784 700.08899 0 0 0
-139.85899 -13.8128 700.25201 0 0 0
-138.327 -14.9955 699.34802 0 0 0
-133.11 -14.7503 699.729 0 0 0
-130.972 -14.3148 699.646 0 0 0
-105.943 -14.543 699.271 0 0 0
-104.58051 -13.6521 700.37799 0 0 0
-103.043 -14.9947 699.93103 0 0 0
-101.542 -14.4876 700.37701 0 0 0
100.172 -14.2402 700.10699 0 0 0
106.925 -14.43375 699.55151 0 0 0
-128.558 -12.2152 699.42999 0 0 0
-113.468 -12.4187 699.63202 0 0 0
-110.413 -12.2893 699.72998 0 0 0
-107.708 -13.1971 699.86902 0 0 0
-103.291 -12.1256 699.67297 0 0 0
102.568 -12.8314 700.10602 0 0 0
-139.453 -10.7236 699.98901 0 0 0
-129.158 -11.2354 700.45502 0 0 0
-125.672 -10.5249 699.87 0 0 0
-110.663 -10.9767 699.07898 0 0 0
-105.568 -11.666 699.99902 0 0 0
-138.60899 -9.5586004 699.42401 0 0 0
-117.13 -9.4457197 699.66302 0 0 0
-104.204 -10.4689 699.013 0 0 0
105.5 -9.5179005 699.20599 0 0 0
108.471 -10.3416 699.104 0 0 0
118.242 -9.8203802 699.35797 0 0 0
-138.47 -8.6057701 699.76703 0 0 0
-118.506 -7.52033 699.211 0 0 0
-105.445 -8.2600002 700.21698 0 0 0
108.4775 -8.5325546 699.05847 0 0 0
110.266 -8.4277954 700.42603 0 0 0
120.343 -8.5032501 699.77698 0 0 0
122.517 -7.5038099 699.95697 0 0 0
-136.70799 -7.1080399 700.04102 0 0 0
117.121 -6.6042299 699.04602 0 0 0
119.5215 -6.9386597 699.36597 0 0 0
121.485 -7.4748902 699.48999 0 0 0
121.877 -7.2422099 699.69299 0 0 0
123.77 -6.6782651 700.40698 0 0 0
125.708 -7.4114499 700.19897 0 0 0
130.97 -6.3034101 700.43103 0 0 0
133.149 -6.4445901 699.32202 0 0 0
134.576 -6.1913652 699.9375 0 0 0
137.437 -6.2129202 699.67902 0 0 0
140.504 -6.0946498 699.39001 0 0 0
-136.548 -4.9587002 699.526 0 0 0
-119.196 -5.84235 699.00201 0 0 0
124.307 -5.9437799 699.01801 0 0 0
137.24301 -5.545475 699.07654 0 0 0
139.351 -4.7458601 699.37201 0 0 0
142.04601 -4.5947599 699.58502 0 0 0
143.026 -5.7684598 699.92102 0 0 0
-116.02 -4.1986299 699.30298 0 0 0
-109.466 -4.3949399 699.33801 0 0 0
143.88 -3.8919401 699.883 0 0 0
144.463 -3.9400499 699.84198 0 0 0
146.38651 -3.7605448 699.5705 0 0 0
-133.22 -0.27381301 699.42798 0 0 0
148.644 0.108414 699.52301 0 0 0
-132.703 2.33548 699.04303 0 0 0
-131.98399 2.1277201 700.24298 0 0 0
148.1615 1.833155 699.646 0 0 0
-131.002 4.2455602 700.02197 0 0 0
146.731 4.4145699 699.74298 0 0 0
-129.73801 6.6169901 700.22803 0 0 0
146.32001 6.6433802 699.13898 0 0 0
-129.222 8.3378801 699.09998 0 0 0
144.77299 9.0504303 699.55402 0 0 0
144.207 10.6888 699.34698 0 0 0
-126.202 12.6156 700.35699 0 0 0
142.36099 12.3455 699.69299 0 0 0
144 12.3011 700.42902 0 0 0
-127.078 13.923 699.349 0 0 0
-124.905 14.9599 699.20697 0 0 0
140.18399 15.79215 699.38855 0 0 0
141.868 15.1655 699.56598 0 0 0
139.76601 16.5902 699.73602 0 0 0
137.536 19.462601 700.26099 0 0 0
138.58 18.919201 700.15997 0 0 0
-123.622 19.7302 700.22998 0 0 0
136.64301 20.1693 699.30701 0 0 0
-122.565 21.626801 700.48102 0 0 0
-121.202 21.569901 699.901 0 0 0
134.28532 23.634501 699.32837 0 0 0
-121.338 24.575701 700.258 0 0 0
-119.935 24.3932 699.91101 0 0 0
131.53101 26.93 699.612 0 0 0
-120.713 29.076 699.948 0 0 0
-119.263 29.4331 699.35797 0 0 0
-118.917 31.517 699.276 0 0 0
127.356 32.337349 699.12805 0 0 0
-118.458 34.158401 699.526 0 0 0
124.374 34.3894 699.42401 0 0 0
127.267 33.1632 699.81897 0 0 0
125.523 35.977699 699.83002 0 0 0
-117.966 36.253101 699.091 0 0 0
121.836 37.795601 699.909 0 0 0
-117.762 39.7313 700.36798 0 0 0
-119.173 41.991402 700.31097 0 0 0
-117.377 41.348202 699.24298 0 0 0
118.182 42.886799 700.289 0 0 0
121.414 44.858601 700.21198 0 0 0
-116.716 46.394798 699.04401 0 0 0
-118.327 48.6623 700.12598 0 0 0
119.887 49.076 699.922 0 0 0
120.377 49.090199 699.56097 0 0 0
121.873 48.0802 700.49597 0 0 0
-117.352 50.708 700.31299 0 0 0
120.901 50.942902 699.06299 0 0 0
-116.241 52.257999 700.22601 0 0 0
118.874 51.817402 700.16101 0 0 0
33.3876 -105.369 701.81598 0 0 0
50.3176 -105.244 701.72198 0 0 0
34.872398 -104.002 701.164 0 0 0
44.2048 -104.765 701.51703 0 0 0
37.527599 -102.974 701.69702 0 0 0
29.8694 -100.623 701.57599 0 0 0
32.664101 -100.516 701.19501 0 0 0
36.0998 -100.915 701.75598 0 0 0
40.990799 -101.786 701.48798 0 0 0
44.478199 -101.09634 701.47003 0 0 0
54.260399 -101.11 701.034 0 0 0
56.1894 -100.883 700.94598 0 0 0
14.4156 -99.242104 701.56 0 0 0
17.7623 -99.777298 701.79901 0 0 0
26.851 -99.8181 701.026 0 0 0
34.127899 -99.042603 700.55603 0 0 0
35.358002 -99.190247 701.20898 0 0 0
38.37035 -99.290154 701.12952 0 0 0
39.047401 -99.7164 701.14301 0 0 0
41.708698 -99.842934 701.39337 0 0 0
46.314301 -100.36 701.92297 0 0 0
53.2239 -99.745499 700.53003 0 0 0
55.268799 -99.561096 701.06403 0 0 0
56.6539 -99.426804 701.44202 0 0 0
57.313702 -99.376701 701.59698 0 0 0
2.9166 -98.472603 700.85797 0 0 0
5.7946601 -97.953796 700.75702 0 0 0
8.9610796 -98.723297 701.02002 0 0 0
11.4758 -98.946999 700.98297 0 0 0
20.0809 -97.790001 701.138 0 0 0
25.631701 -98.319504 701.53601 0 0 0
27.639 -97.653198 700.81 0 0 0
30.9037 -97.667198 701.01599 0 0 0
32.405102 -97.953499 701.12134 0 0 0
34.429699 -97.652 701.97302 0 0 0
35.653851 -98.564896 701.09851 0 0 0
36.328499 -97.8097 701.36499 0 0 0
38.186798 -98.958 700.88702 0 0 0
40.787849 -98.139694 701.04401 0 0 0
46.8181 -97.912498 701.68103 0 0 0
56.4091 -98.413696 701.95001 0 0 0
