ply
format ascii 1.0
comment PCL generated
element vertex 817
property float x
property float y
property float z
property float nx
property float ny
property float nz
property float curvature
element camera 0
property float view_px
property float view_py
property float view_pz
property float x_axisx
property float x_axisy
property float x_axisz
property float y_axisx
property float y_axisy
property float y_axisz
property float z_axisx
property float z_axisy
property float z_axisz
property float focal
property float scalex
property float scaley
property float centerx
property float centery
property int viewportx
property int viewporty
property float k1
property float k2
end_header
64 197 775 0.047239639 0.36563078 -0.92956042 0.096057817
65 197 776 -0.17563467 0.30004287 -0.93761754 0.078965738
66 197 775 -0.093698032 0.30458108 -0.9478665 0.054210525
67 197 775 0.043557595 0.32322389 -0.94531959 0.040354896
69 197 776 0.24385662 0.5218733 -0.81742406 0.025346413
70 197 776 0.17286192 0.55081868 -0.81652772 0.019378791
71 197 776 -0.013883981 0.54020143 -0.84142125 0.0063288249
73 197 776 0.069319174 0.50720167 -0.85903513 0.019528572
74 197 776 0.055616342 0.51033902 -0.85817301 0.029098129
75 197 776 -0.04001892 0.43830782 -0.8979336 0.032736287
76 197 776 -0.023046147 0.48412234 -0.87469673 0.025135882
78 197 776 0.023046147 0.48412234 -0.87469673 0.025135882
79 197 776 0.04001892 0.43830782 -0.8979336 0.032736287
80 197 776 0.04001892 0.43830782 -0.8979336 0.032736287
81 197 776 -0.023046147 0.48412234 -0.87469673 0.025135882
83 197 776 -0 -0 -1 0
84 197 776 -0 -0 -1 0
85 197 776 -0 -0 -1 0
86 197 776 0 0 -1 0
88 197 776 0.058516264 0.21919949 -0.97392374 0.04792672
89 197 776 -0.43496227 0.39624864 -0.80857581 0.023255987
90 196 775 -0.14429887 0.3381542 -0.9299621 0.010375696
91 196 775 -0.23952633 0.42422509 -0.87330413 0.021136528
92 196 775 -0.092928812 0.42693469 -0.89949483 0.022784229
94 196 775 -0.013883981 0.54020143 -0.84142125 0.0063288249
95 196 775 0.035988528 0.57492036 -0.81741762 0.0076718489
96 196 775 0.10840748 0.51534253 -0.85009998 0.0249437
97 196 775 0.099466026 0.47426102 -0.87474734 0.022580467
99 196 775 0.11705208 0.40356374 -0.90743327 0.026346739
100 197 776 0.44577754 0.31215936 -0.83895105 0.018211296
101 197 776 0.15082294 0.30299413 -0.94098198 0.038405474
103 197 776 0.19721898 0.29484269 -0.93497193 0.028813446
104 197 776 0.20587726 0.28207964 -0.93704087 0.034750573
105 197 777 0.26315597 0.41585314 -0.87052578 0.024082545
106 197 777 0.22396106 0.4718712 -0.85274786 0.019316601
108 197 777 -0.012321234 0.57644033 -0.81704634 0.0068246
109 197 777 -0.035988528 0.57492036 -0.81741762 0.0076718489
110 197 777 0.083374083 0.54661524 -0.83322299 0.014141646
111 197 777 0.16528067 0.53305018 -0.8297829 0.012844801
113 197 778 0.2053993 0.56822526 -0.79682571 0.0069206539
114 197 778 0.095363863 0.55458426 -0.82664502 0.01069755
115 197 778 -7.4722351e-10 0.70710677 -0.70710677 0
117 197 778 -0.0063083079 0.57567102 -0.81765711 0.0060256291
118 197 778 0.035522684 0.57164204 -0.8197338 0.0062784385
119 197 778 -0.12378274 0.67602742 -0.72640538 0.016580718
120 197 778 -0.16839074 0.59328681 -0.78718185 0.015926644
121 197 777 -0.038719092 0.56857961 -0.82171655 0.02908255
123 197 778 0.12338145 0.46954373 -0.87424576 0.023560425
124 197 778 0.055616342 0.51033902 -0.85817301 0.029098129
125 197 778 0.023318557 0.58104408 -0.81353796 0.017155902
127 197 778 0.19263802 0.59255683 -0.78215528 0.019220872
128 197 778 0.21806315 0.51132894 -0.83125883 0.028171962
129 197 779 0.17542279 0.50218529 -0.8467803 0.020854037
131 197 779 0.069939889 0.39657763 -0.91533303 0.039361682
132 197 779 0.44245386 0.48490348 -0.75438935 0.043084048
133 197 780 0.35315824 0.15242133 -0.92306393 0.029826811
134 197 780 0.17320451 0.45115539 -0.87547642 0.070243344
136 197 780 -0.21253976 0.24028443 -0.9471485 0.024866717
137 197 779 -0.44131958 0.47939584 -0.75856215 0.020573828
138 197 778 -0.30293551 0.55421305 -0.77529222 0.018132282
139 197 778 -0.30426079 0.48399422 -0.82047242 0.020184429
140 197 778 -0.098019205 0.43302116 -0.89603847 0.019270986
142 197 778 -0.23033524 0.33216378 -0.91466552 0.029154195
143 197 777 -0.34766504 0.21686439 -0.91219449 0.027111709
144 197 777 -0.33754539 0.12297138 -0.93324226 0.031303726
145 197 777 0.23981264 0.019822391 -0.97061682 0.013980137
147 197 778 0.46505532 0.22610304 -0.85592109 0.024318188
-193 206 812 0.67578048 0.27288306 -0.68473035 0.0079024872
-192 207 813 0.37503704 0.64446616 -0.66634125 0.030692533
-191 207 814 0.56695384 0.5657714 -0.59872037 0.083610602
-190 207 815 0.79141319 0.25631014 -0.55495065 0.024250712
-189 208 817 0.58937323 0.59971911 -0.54127276 0.052623358
-189 208 819 0.38423562 0.53495127 -0.75245601 0.049491148
-187 208 819 -0.43397528 0.4767755 -0.76442832 0.11247273
-185 207 814 -0.11771033 0.67197448 -0.73115975 0.16221467
-175 202 793 -0.63389772 0.39637336 -0.66412479 0.008300568
-173 201 791 -0.46500358 0.51044607 -0.72333711 0.019836111
-172 201 790 -0.1789825 0.58072954 -0.79417789 0.010400484
-170 201 790 -0.18787476 0.5715071 -0.79880077 0.025933322
-169 201 790 -0.11927265 0.54754949 -0.82822919 0.037797507
-168 201 789 -0.26447722 0.52895445 -0.80638641 0.039811
-166 201 789 0.10090041 0.24727848 -0.96367651 0.029520079
-165 201 789 -0.088208884 0.30579546 -0.94800228 0.040005546
-164 201 789 0.035988528 0.57492036 -0.81741762 0.0076718489
-163 201 789 0.043190587 0.58198881 -0.81204897 0.0061826548
-161 200 788 -0.14969449 0.53323096 -0.83262014 0.02037525
-160 200 788 -0.1829288 0.54827958 -0.81604326 0.025222769
-159 201 789 -0.034296241 0.53771526 -0.84242868 0.012662866
-157 200 788 -0.046792079 0.624892 -0.77930772 0.0099785533
-156 200 788 -0.093091324 0.60174507 -0.79324448 0.017663434
-155 201 789 -0.27134982 0.49060896 -0.82805324 0.036407232
-154 201 788 -0.22181912 0.38237801 -0.89698565 0.033873096
-152 201 788 0.022157531 0.30595297 -0.95178878 0.0088238362
-151 201 788 0.032451835 0.37162867 -0.92781413 0.027183566
-150 201 788 -0.032451835 0.37162867 -0.92781413 0.027183566
-149 201 788 0.05534881 0.36554199 -0.92914778 0.018165242
-147 201 788 0.022157531 0.30595297 -0.95178878 0.0088238362
-146 201 788 0.14701948 0.4887509 -0.85994643 0.032613985
-145 201 788 0.12799026 0.48579013 -0.86465394 0.031853925
-144 201 788 -0.045967944 0.54305845 -0.83843571 0.042589288
-142 200 787 -0.20572174 0.40054736 -0.89288318 0.046041735
-141 200 787 -0.16543883 0.29832715 -0.94001639 0.043971326
-140 200 787 -0.20211415 0.2563096 -0.94522762 0.02366269
-138 200 786 -0.24385662 0.5218733 -0.81742406 0.025346413
-137 200 786 -0.14534318 0.51970488 -0.84189212 0.022251986
-136 200 786 -0.017575346 0.57465529 -0.81820685 0.0058432757
-134 200 786 0.0011685074 0.57726467 -0.81655622 0.006046888
-133 200 786 -0.095363863 0.55458426 -0.82664502 0.01069755
-132 200 786 -0.2053993 0.56822526 -0.79682571 0.0069206539
-130 200 785 0.17039351 0.54082626 -0.82369477 0.024941627
-129 200 786 0.20016187 0.50066847 -0.84217948 0.025821118
-128 200 786 0.24296242 0.51184273 -0.82400626 0.016509579
-127 200 786 -0.13045861 0.54303956 -0.82951099 0.019858915
-125 200 785 -0.10710053 0.57365286 -0.81206638 0.021834342
-124 200 786 -0.023254829 0.61460465 -0.78849244 0.020055979
-123 200 785 -0.14273788 0.51825875 -0.8432281 0.021828771
-122 200 785 -0.17804182 0.47401708 -0.86232758 0.013698444
-120 200 785 -0.1647819 0.50442111 -0.84758848 0.020985633
-119 200 784 -0.15537754 0.55468994 -0.81742084 0.029379908
-118 200 784 0.0059061837 0.44678581 -0.89462143 0.023056637
-116 200 784 0.0043753185 0.48566979 -0.87413138 0.023017474
-115 200 784 -0.058647692 0.37628612 -0.92464548 0.029511837
-114 200 784 -0 0.44721359 -0.89442718 0.030303031
-113 200 784 0.013293063 0.4789117 -0.87776238 0.023808204
-111 200 784 -0.18787476 0.5715071 -0.79880077 0.025933322
-110 200 784 -0.32204869 0.59266585 -0.73826271 0.030276326
-109 200 783 -0.31577715 0.51721579 -0.79547006 0.038672864
-107 199 782 -0.19458289 0.36704916 -0.90962213 0.042202264
-106 199 782 0.10555265 0.46661258 -0.87814087 0.018582597
-105 200 783 0.0077969562 0.57961935 -0.81485003 0.012974342
-104 200 783 -0.10412263 0.57485652 -0.81160241 0.0080518275
-102 199 782 -0.026556736 0.38508409 -0.9224993 0.02244883
-101 199 782 -0.042914361 0.30391684 -0.95173156 0.012141006
-100 199 782 -0.018182037 0.30901676 -0.95088273 0.012567742
-99 199 782 -0.11900161 0.44073609 -0.88971359 0.016709531
-97 199 782 0.012321234 0.57644033 -0.81704634 0.0068246
-96 199 782 0.087025382 0.3866632 -0.91810572 0.042977329
-95 199 782 -0 0.27568251 -0.9612487 0.04605937
-94 199 782 -0.006419186 0.27464348 -0.96152467 0.034781266
-92 199 782 0.029169308 0.39278144 -0.91916907 0.037777252
-91 199 782 0.06196161 0.3255038 -0.94350839 0.04171779
-90 199 782 0.033964291 0.27611586 -0.96052402 0.037005983
-88 199 782 -0.30216208 0.42075792 -0.85537177 0.02926922
-87 199 781 -0 0.85065073 -0.52573115 0.047745775
-86 199 781 -0 0.85065073 -0.52573115 0.047745775
-85 199 782 0.18112922 0.38359946 -0.90556258 0.020751832
-83 199 782 -0.28704017 0.31219959 -0.90561551 0.016348111
-82 199 781 -0.31166002 0.62629479 -0.71457881 0.044384003
-81 199 781 -0.31125817 0.61562753 -0.72396207 0.044303447
-80 199 781 0.0043753185 0.48566979 -0.87413138 0.023017474
-78 199 781 0.10778023 0.46736971 -0.87746727 0.022947993
-77 199 781 0.055616342 0.51033902 -0.85817301 0.029098129
-76 199 781 -0.032251421 0.34335047 -0.93865341 0.047093678
-75 199 781 -0.011770636 0.33865941 -0.94083542 0.030593988
-73 199 781 -0.22558574 0.36614102 -0.90280223 0.018257406
-72 199 780 -0.33561814 0.52028275 -0.78528106 0.026055556
-71 199 780 -0.20022687 0.59013301 -0.78208196 0.031725325
-69 199 780 -0.17516935 0.54480046 -0.82006586 0.015058127
-68 199 780 -0.23724195 0.52887946 -0.81486368 0.01454548
-67 199 779 -0.24999301 0.54321426 -0.80151224 0.013267702
-66 199 779 -0.088903353 0.57048649 -0.81648105 0.013140861
-64 199 779 -0.13360958 0.54494727 -0.82775658 0.034112908
-63 199 779 -0.26251799 0.58039039 -0.77086407 0.033546597
-62 199 778 -0.21218461 0.6700893 -0.71130729 0.033035479
-60 199 778 0.11609152 0.71380264 -0.69065797 0.025579147
-59 199 778 0.34260941 0.59786093 -0.72469383 0.030457882
-58 199 779 0.30834791 0.59425485 -0.74282086 0.037040532
-57 199 779 0.15455849 0.60742301 -0.77919769 0.028870342
-55 199 779 0.0098381303 0.54017311 -0.84149647 0.0054240189
-54 199 779 -0.011412675 0.57729769 -0.81645405 0.0059739333
-53 199 779 0.068775766 0.54246336 -0.83725941 0.0052362373
-52 199 779 0.012321234 0.57644033 -0.81704634 0.0068246
-50 199 779 -0.10079192 0.63674539 -0.76445806 0.029853307
-49 199 779 -0.15818898 0.79693389 -0.58298588 0.013031779
-48 199 778 -0.26621673 0.6749202 -0.68819422 0.018444236
-47 199 778 -0.34158674 0.59524435 -0.72732574 0.018048996
-45 198 777 -0.15861289 0.4543843 -0.87657112 0.015364012
-44 198 777 -0.10840748 0.51534253 -0.85009998 0.0249437
-43 198 777 -0.035988528 0.57492036 -0.81741762 0.0076718489
-42 198 777 0.10044986 0.52086383 -0.84770906 0.015813103
-40 198 777 0.061269663 0.39498863 -0.9166407 0.0097288638
-39 198 777 -0.079223394 0.44711819 -0.89095962 0.033871561
-38 199 778 0.24257199 0.4907636 -0.83684522 0.014987864
-37 199 778 0.13968684 0.5057773 -0.85127956 0.018457115
-35 199 778 0.018924173 0.50948316 -0.86027247 0.010298299
-34 199 778 -0.035988528 0.57492036 -0.81741762 0.0076718489
-33 199 778 0.016267389 0.56551546 -0.82457727 0.019866195
-32 199 778 -0.018924173 0.50948316 -0.86027247 0.010298299
-30 199 778 0.013883981 0.54020143 -0.84142125 0.0063288249
-29 199 778 -0.035988528 0.57492036 -0.81741762 0.0076718489
-28 199 778 0.035988528 0.57492036 -0.81741762 0.0076718489
-27 199 778 0.030374836 0.57907438 -0.81470865 0.0052729049
-25 199 778 0.073369265 0.43740907 -0.89626461 0.033693727
-24 199 778 -0.087025382 0.3866632 -0.91810572 0.042977329
-23 199 778 0.087025382 0.3866632 -0.91810572 0.042977329
-22 199 778 -0.20428665 0.31012034 -0.92848927 0.051720615
-20 198 777 -0.23834795 0.49361467 -0.83638197 0.047992721
-19 198 777 -0 0.38631776 -0.92236578 0.020451425
-18 198 777 0.022157531 0.30595297 -0.95178878 0.0088238362
-16 198 777 -0.01052967 0.38649577 -0.92223114 0.015141456
-15 198 777 0.13341841 0.41173214 -0.9014855 0.017915137
-14 199 778 0.31745443 0.46781319 -0.82484758 0.013595224
-13 199 778 -0.15428676 0.47897056 -0.86416596 0.014091339
-11 199 778 -0.019031275 0.4872942 -0.87303048 0.02332863
-10 199 778 -0.060003612 0.53194356 -0.84465122 0.041772068
-9 198 777 -0.10555265 0.46661258 -0.87814087 0.018582597
-8 198 777 -0.097407363 0.40090361 -0.910927 0.011208409
-6 198 777 -0.023529822 0.61248261 -0.79013377 0.033807103
-5 198 777 0.13223344 0.50462818 -0.85314989 0.022564661
-4 198 777 0.14701948 0.4887509 -0.85994643 0.032613985
-3 198 777 0.022157531 0.30595297 -0.95178878 0.0088238362
-1 198 777 -0 -0 -1 0
0 198 777 -0 -0 -1 0
1 198 777 -0 -0 -1 0
2 198 777 -0.05534881 0.36554199 -0.92914778 0.018165242
4 198 777 -0.24843852 0.30703768 -0.91869807 0.015032064
5 198 776 -0.29098874 0.43178692 -0.85374796 0.030587532
6 198 776 -0.32488498 0.48747221 -0.81044477 0.021302551
7 198 776 -0.079854868 0.53706235 -0.83975428 0.020427745
9 198 776 0.15998073 0.37812349 -0.91182721 0.019214854
10 198 776 0.17345025 0.53157991 -0.82905847 0.032621309
11 198 777 0.24004582 0.55319917 -0.79771471 0.015102419
12 198 777 0.1347468 0.53685123 -0.832847 0.014394239
14 198 777 0.098201625 0.45306215 -0.88605374 0.02232445
15 198 777 0.14799379 0.30809498 -0.93977404 0.036882568
16 198 777 0.032451835 0.37162867 -0.92781413 0.027183566
17 198 777 -0.05534881 0.36554199 -0.92914778 0.018165242
19 198 777 0.097407363 0.40090361 -0.910927 0.011208409
20 198 777 0.10555265 0.46661258 -0.87814087 0.018582597
21 199 778 0.17406687 0.48606846 -0.85641009 0.015654307
23 199 778 0.010316589 0.50812888 -0.86121923 0.0098000104
24 199 778 -0.035988528 0.57492036 -0.81741762 0.0076718489
25 199 778 0.035988528 0.57492036 -0.81741762 0.0076718489
26 199 778 -0.018924173 0.50948316 -0.86027247 0.010298299
28 199 778 -0.1127641 0.53270257 -0.83875632 0.021425938
29 198 777 -0.096141391 0.31857497 -0.94300944 0.017461659
30 198 777 -0.028674107 0.29895377 -0.95383674 0.011169512
31 198 777 0.022157531 0.30595297 -0.95178878 0.0088238362
33 198 777 -0.16730683 0.33840215 -0.92600882 0.039683819
34 198 777 -0.41515255 0.27458325 -0.86732483 0.030335052
35 198 776 -0.32673603 0.084080115 -0.94136822 0.030189792
36 198 776 -0.1253904 0.31145391 -0.94195211 0.027173383
37 198 776 0 0 -1 0
39 198 776 -0.014704096 0.30341676 -0.95274448 0.010541273
40 198 776 -0.028674107 0.29895377 -0.95383674 0.011169512
41 198 776 0.022157531 0.30595297 -0.95178878 0.0088238362
43 198 776 -0 -0 -1 0
44 198 776 -0.042914361 0.30391684 -0.95173156 0.012141006
45 198 776 -0.14799379 0.30809498 -0.93977404 0.036882568
46 198 776 -0.12699525 0.5799697 -0.80467832 0.028953476
48 198 776 -0.14276071 0.56394798 -0.8133769 0.013769215
49 198 776 -0.10184695 0.54979366 -0.82906824 0.034124121
50 198 775 -0.1302481 0.53391331 -0.83544719 0.049684815
51 198 776 -0.11268506 0.47318709 -0.87372541 0.051730175
52 198 775 0.071573198 0.58927989 -0.80475253 0.030206945
54 198 776 0.26242945 0.49385521 -0.82899815 0.019507259
55 198 776 0.26649636 0.47335178 -0.83959383 0.021721821
56 198 776 0.25131893 0.54058141 -0.80287641 0.016853204
58 198 777 -0.0627698 0.50777131 -0.85920209 0.043147497
59 198 776 -0.14799379 0.30809498 -0.93977404 0.036882568
60 198 776 -0.14799379 0.30809498 -0.93977404 0.036882568
61 198 776 -0.10892965 0.35196388 -0.92965358 0.031318709
63 198 776 0.11019123 0.31755459 -0.94181579 0.058328867
64 198 776 0.016807036 0.33134961 -0.9433583 0.05446139
65 198 776 -0.11242333 0.27288732 -0.95545465 0.090380676
66 198 776 -0.08594244 0.5125581 -0.85434079 0.021189852
68 198 776 0.26228005 0.49296337 -0.8295759 0.022317927
69 198 777 0.31036806 0.51488823 -0.79910052 0.019819334
70 198 777 0.15996182 0.57345468 -0.80346864 0.017817313
71 198 777 0.033898704 0.57436985 -0.81789374 0.0059867515
73 198 777 -0.017706651 0.5720467 -0.82002997 0.0064022089
74 198 777 0.016267389 0.56551546 -0.82457727 0.019866195
75 198 777 -0.016267389 0.56551546 -0.82457727 0.019866195
76 198 777 0.046339832 0.56200117 -0.82583743 0.013570979
78 198 777 -0.018924173 0.50948316 -0.86027247 0.010298299
79 198 777 0.016267389 0.56551546 -0.82457727 0.019866195
80 198 777 -0.016267389 0.56551546 -0.82457727 0.019866195
81 198 777 -0.16982304 0.48423555 -0.8582983 0.017905694
83 198 776 -0.198283 0.35912463 -0.91198319 0.035820149
84 198 776 -0.04001892 0.43830782 -0.8979336 0.032736287
85 198 776 -0.04001892 0.43830782 -0.8979336 0.032736287
86 198 776 0.030916037 0.3756136 -0.92626059 0.019845521
88 198 777 0.010379971 0.58056986 -0.81414419 0.032913998
89 198 777 -0.26943412 0.57520646 -0.77236187 0.009902494
90 198 776 -0.26454192 0.6496492 -0.7127226 0.011062112
91 198 776 -0.16383421 0.54388547 -0.82301086 0.013106598
93 198 776 -0.0072111674 0.54014999 -0.84153783 0.0045973128
94 198 776 0.050399009 0.52912229 -0.84704757 0.0063333935
95 198 776 0.068775766 0.54246336 -0.83725941 0.0052362373
96 198 776 -0.013883981 0.54020143 -0.84142125 0.0063288249
98 198 776 0.042170543 0.50298297 -0.86326694 0.0094850007
99 198 776 0.19563206 0.58902675 -0.78407627 0.021672355
100 198 776 0.24257199 0.4907636 -0.83684522 0.014987864
101 198 777 0.16445398 0.56782609 -0.80655336 0.017906865
103 198 777 0.079854868 0.53706235 -0.83975428 0.020427745
104 198 777 0.2475774 0.48845914 -0.83672762 0.017677827
105 198 777 0.26360002 0.42332035 -0.86678427 0.019319283
107 198 778 0.20211415 0.2563096 -0.94522762 0.02366269
108 198 778 0.088208884 0.30579546 -0.94800228 0.040005546
109 198 778 -0.015944488 0.38855532 -0.92128742 0.04501833
110 198 778 -0.012321234 0.57644033 -0.81704634 0.0068246
112 198 778 0.19113563 0.50236052 -0.8432681 0.0098910071
113 199 779 0.13734065 0.55867869 -0.81793374 0.015325643
114 199 779 -0.04853126 0.53563458 -0.84305418 0.004697151
116 199 779 0.033898704 0.57436985 -0.81789374 0.0059867515
117 199 779 -0.1149912 0.65958446 -0.74278218 0.022399666
118 199 779 -0.10840748 0.51534253 -0.85009998 0.0249437
119 199 779 -0.099466026 0.47426102 -0.87474734 0.022580467
121 199 779 -0.064165235 0.47353128 -0.87843663 0.014160956
122 198 778 0.0090843877 0.53679806 -0.8436619 0.034033086
123 198 778 0.13331637 0.40156972 -0.90607315 0.012800445
124 198 778 0.07892704 0.39181104 -0.91665405 0.016352378
126 199 779 0.22485462 0.44756529 -0.86552054 0.0085860882
127 198 779 0.24666394 0.54354447 -0.80231935 0.014955926
128 198 779 0.23261352 0.4689872 -0.85202229 0.019405847
129 198 779 0.099466026 0.47426102 -0.87474734 0.022580467
131 198 779 0.14663252 0.51461071 -0.84479272 0.059743442
132 198 779 0.40728983 0.35924828 -0.83967584 0.051734764
133 199 780 0.18594186 0.38764685 -0.90285969 0.055954833
134 199 780 -0.10168538 0.30921432 -0.94554037 0.026262566
136 199 780 -0.15047799 0.51537532 -0.84364963 0.092878416
137 199 780 -0.36990017 0.43370518 -0.82162869 0.025502644
138 198 779 -0.35248262 0.47610861 -0.80565286 0.013719325
139 198 779 -0.30442524 0.5323537 -0.78988922 0.017812744
140 198 778 -0.12185633 0.54464144 -0.82976913 0.02268978
142 198 778 -0.21797784 0.4209851 -0.88048697 0.028534345
143 198 778 -0.3716822 0.45476517 -0.80934602 0.021683272
144 198 777 -0.19544926 0.49698219 -0.8454634 0.033740375
145 198 777 -0.19544926 0.49698219 -0.8454634 0.033740375
147 198 779 0.50164402 0.45311499 -0.73691249 0.013091162
-193 208 815 0.41100648 0.71875346 -0.56077373 0.017997352
-191 208 815 0.35996315 0.70372748 -0.61253095 0.023925973
-191 209 817 0.55396521 0.63482898 -0.53862303 0.025117233
-190 209 818 0.6584096 0.50988877 -0.55363369 0.038225051
-189 210 820 0.43213242 0.49846432 -0.75152832 0.04691403
-187 210 820 -0.3084943 0.52912581 -0.79047906 0.15409073
-185 209 816 -0.69499922 0.37283635 -0.61479205 0.075506598
-175 203 794 -0.67010725 0.39159897 -0.63056052 0.0045024091
-173 203 792 -0.37788603 0.39775535 -0.8360579 0.011694187
-172 203 792 -0.16098048 0.5127241 -0.84332633 0.011948002
-171 202 791 -0.14076228 0.53911257 -0.83038765 0.016154949
-169 202 791 -0.12989222 0.57789952 -0.80570477 0.066574
-168 202 791 -0.17040311 0.51002342 -0.84311259 0.075175136
-167 202 791 -0.29101041 0.35554728 -0.88819993 0.039350331
-165 202 790 -0.18207107 0.63870448 -0.74760067 0.022685669
-164 202 790 0.035988528 0.57492036 -0.81741762 0.0076718489
-163 202 790 0.008724086 0.5746212 -0.81837296 0.0080070728
-162 202 790 -0.16528563 0.61820346 -0.76844341 0.0067613632
-160 202 789 -0.17193365 0.54313028 -0.82185662 0.016061857
-159 202 789 -0.1066875 0.49959499 -0.8596642 0.016286206
-158 202 789 -0.081239283 0.45513949 -0.88670641 0.015093679
-156 202 789 -0.14887081 0.43645346 -0.88732517 0.034124553
-155 202 789 -0.31530845 0.44157088 -0.83999741 0.036854006
-154 202 788 -0.25976059 0.34719428 -0.90109962 0.041872997
-152 202 788 0.0043753185 0.48566979 -0.87413138 0.023017474
-151 202 788 0.04001892 0.43830782 -0.8979336 0.032736287
-150 202 788 0.04001892 0.43830782 -0.8979336 0.032736287
-149 202 788 0.10778023 0.46736971 -0.87746727 0.022947993
-147 202 788 0.010178261 0.44574258 -0.89510339 0.020915367
-146 202 788 0.21619098 0.41258112 -0.88489449 0.031883918
-145 202 789 0.21806315 0.51132894 -0.83125883 0.028171962
-144 202 789 -0.047073971 0.54250914 -0.83872992 0.03518172
-142 202 788 -0.3336775 0.60998356 -0.71873462 0.020529257
-141 202 787 -0.29799423 0.43654716 -0.84889692 0.060034558
-140 202 787 -0.14983374 0.3396301 -0.92854792 0.034530148
-138 202 787 0.04252933 0.59409899 -0.80326682 0.01902147
-137 202 788 -0.088095717 0.49746895 -0.862997 0.038641609
-136 202 787 -0.21973224 0.50283355 -0.83598816 0.062424891
-135 202 787 -0.22943243 0.38098231 -0.89566362 0.031796876
-133 202 787 -0.027708203 0.37780949 -0.92546868 0.019847924
-132 202 787 -0.13341841 0.41173214 -0.9014855 0.017915137
-131 201 786 -0.10652031 0.43514568 -0.89403671 0.023064636
-129 201 786 0.18619637 0.51830709 -0.83467877 0.015551833
-128 202 787 0.021801813 0.47362891 -0.88045466 0.019276192
-127 202 787 -0.13341841 0.41173214 -0.9014855 0.017915137
-126 201 786 -0.10652031 0.43514568 -0.89403671 0.023064636
-124 201 786 -0.072760217 0.54488313 -0.8353492 0.034766007
-123 202 787 -0.12890147 0.55353749 -0.82278836 0.023305228
-122 202 786 -0.18500291 0.56755579 -0.80228084 0.01446257
-121 202 786 -0.13121693 0.56618452 -0.81376731 0.01389946
-119 202 786 -0.050340958 0.60750002 -0.79272288 0.021304147
-118 201 785 -0.18047252 0.52885842 -0.82929987 0.021968691
-117 201 785 -0.010846946 0.54324156 -0.83950639 0.0130276
-115 201 785 0.014562413 0.61799282 -0.78604895 0.015017875
-114 202 786 -0.13200524 0.46610138 -0.87482804 0.025935166
-113 201 785 -0.019746644 0.54706937 -0.83685428 0.017193967
-112 201 785 -0.0414888 0.55801427 -0.82879353 0.010545704
-110 201 785 -0.19602044 0.49431694 -0.84689242 0.029312318
-109 201 785 -0.43586537 0.49473602 -0.75183612 0.035192333
-108 201 784 -0.19229785 0.48752689 -0.85166848 0.04705454
-106 201 784 -0.042222127 0.53156787 -0.8459627 0.0051242667
-105 201 784 0.033745702 0.54838818 -0.83554274 0.0068010171
-104 201 784 -0.033745702 0.54838818 -0.83554274 0.0068010171
-103 201 784 -0.16765268 0.55419141 -0.81533086 0.0070765777
-101 201 783 -0.18644136 0.54376233 -0.81826776 0.0074456143
-100 201 783 -0.022579845 0.55566019 -0.83110285 0.0068810154
-99 201 783 0.012321234 0.57644033 -0.81704634 0.0068246
-97 201 783 -0.26228005 0.49296337 -0.8295759 0.022317927
-96 201 782 -0.2568261 0.28553003 -0.9233163 0.034955107
-95 201 782 -0.15018062 0.38104796 -0.91227639 0.048314862
-94 201 782 -0.033964291 0.27611586 -0.96052402 0.037005983
-92 201 782 0.033964291 0.27611586 -0.96052402 0.037005983
-91 201 782 -0.085117005 0.24457467 -0.96588731 0.036695018
-90 201 782 0.037490774 0.55485016 -0.83110517 0.07544034
-88 201 782 -0.026757389 0.34929115 -0.93663216 0.029295901
-87 201 782 -0.099437818 0.36637327 -0.92513931 0.032572597
-86 201 782 0.035988528 0.57492036 -0.81741762 0.0076718489
-85 201 782 0.029169308 0.39278144 -0.91916907 0.037777252
-83 201 782 -0.12941076 0.28108409 -0.95091772 0.033524476
-82 201 782 -0.2980915 0.33901012 -0.892308 0.025055096
-81 200 781 -0.13341841 0.41173214 -0.9014855 0.017915137
-80 200 781 -0.021434944 0.29629937 -0.95485461 0.0079019573
-78 200 781 -0.020048909 0.25035104 -0.96794754 0.01664008
-77 200 781 0.025820959 0.24736522 -0.96857822 0.036292918
-76 201 781 -0.053897131 0.38820243 -0.91999674 0.027113426
-75 201 781 -0.086255588 0.29950306 -0.9501884 0.028729206
-73 201 781 -0.04026271 0.3869065 -0.9212395 0.032036725
-72 201 781 -0.16006437 0.47457808 -0.86553741 0.03468227
-71 201 781 -0.10044986 0.52086383 -0.84770906 0.015813103
-69 201 781 -0.11704136 0.44817623 -0.88625014 0.011117567
-68 200 780 -0.26331598 0.47037995 -0.84226334 0.016517431
-67 200 780 -0.21928285 0.55442041 -0.80282819 0.026850542
-66 201 781 0.029788315 0.52083141 -0.85313964 0.013698958
-64 200 780 0.058591664 0.54111898 -0.83890241 0.0044202716
-63 200 780 0.0043400191 0.43787876 -0.89902359 0.040199276
-62 200 780 -0.26827052 0.50876057 -0.81804258 0.077833258
-61 200 780 0.0059919464 0.57946092 -0.814978 0.09082526
-59 200 780 -3.9223372e-10 0.44721359 -0.89442718 0.086021513
-58 200 780 0.088208884 0.30579546 -0.94800228 0.040005546
-57 200 780 -0 0.27568251 -0.9612487 0.04605937
-56 200 780 -0.053134169 0.44394231 -0.89447862 0.028824944
-54 201 781 -0.015734633 0.49630812 -0.86800379 0.011220455
-53 200 780 0.0025427395 0.6117515 -0.7910459 0.011648642
-52 200 780 -0.041572951 0.61372268 -0.7884264 0.01080898
-51 200 780 -0.024696955 0.57146209 -0.82025677 0.0054672346
-49 200 780 -0.19602044 0.49431694 -0.84689242 0.029312318
-48 200 780 -0.45526883 0.50321805 -0.73450798 0.036980528
-47 200 779 -0.37694359 0.59514135 -0.70973253 0.02096088
-45 200 778 -0.22928143 0.56156063 -0.79503435 0.011273937
-44 200 778 -0.07844159 0.45978385 -0.88455957 0.019682547
-43 200 778 0.01196415 0.51982802 -0.85418719 0.029757181
-42 200 778 0.046219531 0.46029511 -0.88656193 0.016910464
-40 200 778 0.058566943 0.53084928 -0.84544009 0.011507493
-39 200 778 0.073065326 0.54695445 -0.8339678 0.014819724
-38 200 778 0.21806315 0.51132894 -0.83125883 0.028171962
-37 200 779 0.22362787 0.46107107 -0.85872227 0.017329015
-35 200 779 -0.042234208 0.49114111 -0.8700555 0.021200683
-34 200 779 -0 0.5019269 -0.86491007 0.027580695
-33 200 779 -0.055616342 0.51033902 -0.85817301 0.029098129
-32 200 779 0.023046147 0.48412234 -0.87469673 0.025135882
-30 200 779 0.058445625 0.54642212 -0.83546817 0.010403289
-29 200 779 0.035988528 0.57492036 -0.81741762 0.0076718489
-28 200 779 -0.035988528 0.57492036 -0.81741762 0.0076718489
-27 200 779 -0.017575346 0.57465529 -0.81820685 0.0058432757
-25 200 779 0.017575346 0.57465529 -0.81820685 0.0058432757
-24 200 779 0.035988528 0.57492036 -0.81741762 0.0076718489
-23 200 779 -0.035988528 0.57492036 -0.81741762 0.0076718489
-22 200 779 -0.058445625 0.54642212 -0.83546817 0.010403289
-20 200 779 -0.18069379 0.65094721 -0.73730415 0.011746537
-19 200 778 -0.18775375 0.53277802 -0.82516432 0.014446609
-18 200 778 -0.10198398 0.58678204 -0.80329704 0.014934646
-16 200 778 0.16383421 0.54388547 -0.82301086 0.013106598
-15 200 778 0.22871856 0.54970831 -0.8034355 0.016483122
-14 200 779 0.19544926 0.49698219 -0.8454634 0.033740375
-13 200 779 -0.046608541 0.52283776 -0.85115707 0.046871632
-11 200 778 -0.026621642 0.58973986 -0.80715436 0.026290538
-10 200 779 0.037341509 0.53081048 -0.84666741 0.030730119
-9 200 779 -0.065890752 0.59660518 -0.79982543 0.041936126
-8 200 778 -0.19642267 0.55257112 -0.80998969 0.012489916
-6 200 778 0.017706651 0.5720467 -0.82002997 0.0064022089
-5 200 778 -0.035988528 0.57492036 -0.81741762 0.0076718489
-4 200 778 0.035988528 0.57492036 -0.81741762 0.0076718489
-3 200 778 0.017575346 0.57465529 -0.81820685 0.0058432757
-1 200 778 -0.098201625 0.45306215 -0.88605374 0.02232445
0 200 778 -0.14799379 0.30809498 -0.93977404 0.036882568
1 200 778 -0.042914361 0.30391684 -0.95173156 0.012141006
2 200 778 -0.12461533 0.29941452 -0.94595027 0.020629857
4 200 777 -0.17119171 0.4237023 -0.88947719 0.029540725
5 200 777 -0.13517079 0.41660163 -0.89898384 0.034164786
6 200 777 0.035988528 0.57492036 -0.81741762 0.0076718489
7 200 777 -0.017706651 0.5720467 -0.82002997 0.0064022089
9 200 777 0.1347468 0.53685123 -0.832847 0.014394239
10 200 777 0.26315597 0.41585314 -0.87052578 0.024082545
11 200 778 0.17345025 0.53157991 -0.82905847 0.032621309
12 200 778 0.097173505 0.31953678 -0.94257814 0.025771121
14 200 778 -0 -0 -1 0
15 200 778 0.042914361 0.30391684 -0.95173156 0.012141006
16 200 778 0.14799379 0.30809498 -0.93977404 0.036882568
17 200 778 0.098201625 0.45306215 -0.88605374 0.02232445
19 200 778 0.16383421 0.54388547 -0.82301086 0.013106598
20 200 778 0.22871856 0.54970831 -0.8034355 0.016483122
21 200 779 0.19862783 0.56079203 -0.80377817 0.016308341
23 200 779 -0.023046147 0.48412234 -0.87469673 0.025135882
24 200 779 -0.04001892 0.43830782 -0.8979336 0.032736287
25 200 779 -0.04001892 0.43830782 -0.8979336 0.032736287
26 200 779 0.023046147 0.48412234 -0.87469673 0.025135882
28 200 779 -0.102284 0.42475873 -0.89950985 0.029697958
29 200 779 -0.20480786 0.51667941 -0.83132201 0.027158396
30 200 778 -0.18500291 0.56755579 -0.80228084 0.01446257
31 200 778 -0.10198398 0.58678204 -0.80329704 0.014934646
33 200 778 -0.079854868 0.53706235 -0.83975428 0.020427745
34 200 778 -0.2475774 0.48845914 -0.83672762 0.017677827
35 200 778 -0.26139346 0.63735509 -0.72488064 0.019765433
36 200 777 -0.15969959 0.57731605 -0.80075109 0.01434245
38 200 777 -0.0027019691 0.57588458 -0.81752658 0.0058041257
39 200 777 -0.035988528 0.57492036 -0.81741762 0.0076718489
40 200 777 0.035988528 0.57492036 -0.81741762 0.0076718489
41 200 777 0.017575346 0.57465529 -0.81820685 0.0058432757
43 200 777 0.017706651 0.5720467 -0.82002997 0.0064022089
44 200 777 -0.035988528 0.57492036 -0.81741762 0.0076718489
45 200 777 0.035988528 0.57492036 -0.81741762 0.0076718489
46 200 777 0.017575346 0.57465529 -0.81820685 0.0058432757
48 200 777 -0.13945031 0.4802689 -0.86596501 0.01814794
49 200 777 -0.13362345 0.4968009 -0.85751593 0.030331051
50 199 776 -0.081362396 0.56391722 -0.82181352 0.029182997
51 200 777 0.061645664 0.43540567 -0.89812124 0.014578132
53 200 777 0.093035758 0.67852962 -0.72865772 0.0113392
54 199 776 0.089851223 0.54213488 -0.83547378 0.010776102
55 200 777 0.053177245 0.60540205 -0.79414147 0.010664329
56 200 777 0.10136043 0.57748324 -0.81008583 0.012178204
58 200 778 -0.041495513 0.38102663 -0.92363238 0.040382423
59 200 777 -0.32913411 0.28731611 -0.89951116 0.0313248
60 200 777 -0.3453939 0.39355826 -0.85194778 0.025043149
61 200 777 0.021557579 0.3982639 -0.91701752 0.012513627
63 200 777 -0.05534881 0.36554199 -0.92914778 0.018165242
64 200 777 0.032451835 0.37162867 -0.92781413 0.027183566
65 200 777 -0.032451835 0.37162867 -0.92781413 0.027183566
66 200 777 0.05534881 0.36554199 -0.92914778 0.018165242
68 200 777 0.29420394 0.23180175 -0.92720652 0.030480292
69 200 778 0.27796608 0.24038433 -0.93002701 0.05032694
70 200 778 0.15267169 0.32331711 -0.93389368 0.022595044
72 200 778 0 0 -1 0
73 200 778 0.043584045 0.30882603 -0.95011938 0.0095870122
74 200 778 0.11348886 0.41838759 -0.90115047 0.02938736
75 200 778 0.098201625 0.45306215 -0.88605374 0.02232445
77 200 778 -0 0.70710683 -0.70710683 0
78 200 778 -0.1149912 0.65958446 -0.74278218 0.022399666
79 200 778 -0.12642807 0.55181307 -0.82432902 0.031257655
80 200 778 -0.099466026 0.47426102 -0.87474734 0.022580467
82 200 778 -0.11705208 0.40356374 -0.90743327 0.026346739
83 199 777 -0.20918082 0.45002168 -0.86817271 0.046608176
84 199 777 -0.06196161 0.3255038 -0.94350839 0.04171779
85 199 777 -0.18241431 0.28203791 -0.9419021 0.030608559
87 200 778 0.098664045 0.27388307 -0.95668876 0.050827403
88 200 778 0 0 -1 0
89 200 778 -0.12182074 0.46140477 -0.87878633 0.018466692
90 199 777 -0.27858129 0.50045228 -0.81971949 0.013139577
91 199 777 -0.01854373 0.535465 -0.8443538 0.023882302
93 200 778 0.21345937 0.50631237 -0.83551359 0.015574708
94 200 778 0.14405657 0.73568869 -0.66182315 0.011077333
95 199 777 -3.9254422e-09 0.70710683 -0.70710683 0
96 199 777 -0.043016527 0.62016791 -0.78328878 0.0079906583
98 199 777 0.041982401 0.57454252 -0.81739724 0.010775362
99 200 778 0.21872716 0.5888555 -0.77807939 0.017726405
100 199 777 0.10765674 0.59373897 -0.79742336 0.018355481
102 200 778 0.21806315 0.51132894 -0.83125883 0.028171962
103 200 778 0.12642807 0.55181307 -0.82432902 0.031257655
104 200 778 0.1149912 0.65958446 -0.74278218 0.022399666
105 200 778 0.017575346 0.57465529 -0.81820685 0.0058432757
107 200 778 0.19721898 0.29484269 -0.93497193 0.028813446
108 200 778 0.25816962 0.36834425 -0.89312422 0.024930032
109 200 779 0.3527545 0.52568185 -0.77409482 0.027149383
110 200 779 0.31741408 0.54319692 -0.77729374 0.014847395
112 200 780 0.18643948 0.61063874 -0.76964968 0.01305938
113 200 780 0.12046003 0.5453499 -0.82950759 0.014680422
114 200 780 0.066104941 0.5439207 -0.83652884 0.011203106
116 200 780 -0.017706651 0.5720467 -0.82002997 0.0064022089
117 200 780 -0.19785351 0.64189792 -0.74082452 0.017230462
118 200 780 -0.19015938 0.55107725 -0.81249821 0.020343335
119 200 779 -0.19862783 0.56079203 -0.80377817 0.016308341
121 200 779 -0.049876884 0.51248097 -0.85724878 0.018591853
122 200 779 -0.085381858 0.57824057 -0.81138635 0.016284924
123 200 779 -0.066354692 0.61013758 -0.78951204 0.017057624
124 200 779 0.18322921 0.58206803 -0.79222715 0.005995586
126 200 780 0.16139875 0.46344677 -0.87130219 0.017456343
127 200 780 0.2675674 0.41934022 -0.86750293 0.023056235
128 200 780 0.28177294 0.47705063 -0.83248228 0.017531522
130 200 781 0.15276738 0.51169068 -0.84547895 0.0088796495
131 200 781 0.024334636 0.50920612 -0.86030054 0.012163376
132 200 781 0.024334636 0.50920612 -0.86030054 0.012163376
133 200 781 -0.025735756 0.5376206 -0.842794 0.0055704983
135 200 781 0.060015339 0.5499211 -0.83305752 0.036839198
136 200 782 -0.068045191 0.52954394 -0.84554899 0.045385495
137 200 781 -0.29290727 0.71838319 -0.63097626 0.033720296
138 200 780 -0.17905053 0.60334426 -0.77712065 0.013452562
139 200 780 -0.20735861 0.60478669 -0.7689184 0.018705169
141 200 780 -0.21195729 0.68303561 -0.69895375 0.016527163
142 200 779 -0.30442524 0.5323537 -0.78988922 0.017812744
143 200 779 -0.35248262 0.47610861 -0.80565286 0.013719325
144 199 778 -0.31745443 0.46781319 -0.82484758 0.013595224
145 199 778 -0.26950014 0.4504894 -0.85113388 0.018447932
-193 210 816 0.35387605 0.5706448 -0.74103731 0.031302508
-192 210 817 0.55560327 0.42755783 -0.71309143 0.018425969
-191 210 817 0.55560327 0.42755783 -0.71309143 0.018425969
-190 211 819 0.77903026 0.36766413 -0.507873 0.0042524878
-189 211 821 0.48608813 0.62308276 -0.61276931 0.02833127
-188 212 822 -0.067301728 0.6461665 -0.76022321 0.13313729
-186 211 818 -0.38787007 0.59295851 -0.70566064 0.10643432
-176 205 796 -0.62100106 0.50237107 -0.60164851 0.0031842508
-174 204 793 -0.51058769 0.47386208 -0.71746421 0.013632684
-172 204 792 -0.20632571 0.53925431 -0.81647688 0.012334563
-171 204 792 -0.073065326 0.54695445 -0.8339678 0.014819724
-170 204 792 -0.24756245 0.6585108 -0.71068734 0.012378649
-168 204 791 -0.27786624 0.25248194 -0.92684585 0.019055566
-167 204 791 -0.2531575 0.14894241 -0.95589089 0.028148826
-166 204 791 0.092187725 0.10609899 -0.99007297 0.034537259
-164 204 791 0.076119713 0.53005528 -0.84453958 0.01753019
-163 204 791 0.032949761 0.53086776 -0.84681392 0.0059528407
-162 204 791 -0.025917446 0.60682482 -0.79441291 0.0097109806
-160 203 790 -0.19732234 0.46376613 -0.86370409 0.015946038
-159 203 790 -0.11947109 0.46389586 -0.87779683 0.016485317
-158 204 790 -0.1720223 0.57385373 -0.80068731 0.0060222535
-157 204 790 -0.08631289 0.52558184 -0.84635329 0.0067800134
-155 204 790 -0.1685093 0.48910013 -0.85579538 0.01606136
-154 203 789 -0.31530845 0.44157088 -0.83999741 0.036854006
-153 203 789 -0.075558312 0.48640013 -0.87046301 0.018899921
-151 203 789 0.0052405735 0.56894273 -0.82236034 0.015952909
-150 203 789 0.016267389 0.56551546 -0.82457727 0.019866195
-149 203 789 0.015509331 0.51003844 -0.86001182 0.012379524
-148 203 789 0.014160796 0.51257861 -0.85852349 0.0093095247
-146 203 789 0.17317763 0.54078633 -0.8231402 0.026830979
-145 203 789 0.33576956 0.41907188 -0.84358615 0.011451383
-144 204 790 -0.043607648 0.49505395 -0.86776721 0.066958264
-142 203 789 -0.31161201 0.38183939 -0.87011302 0.015791491
-141 203 789 -0.28708729 0.49629748 -0.81931049 0.049713112
-140 203 788 -0.3395569 0.60988605 -0.71605879 0.036158074
-139 203 788 -0.043275297 0.56350183 -0.82498062 0.045160968
-137 203 788 -0.06591931 0.48415187 -0.87249732 0.034722444
-136 203 788 -0.39442214 0.39442214 -0.82997733 0.028433036
-135 203 787 -0.12762865 0.42380717 -0.89671528 0.023517307
-133 203 787 0.023046147 0.48412234 -0.87469673 0.025135882
-132 203 787 -0.055616342 0.51033902 -0.85817301 0.029098129
-131 203 787 -0.012703314 0.57907188 -0.81517744 0.022204876
-130 203 787 0.0028168366 0.48534992 -0.87431544 0.017016143
-128 203 787 0.023046147 0.48412234 -0.87469673 0.025135882
-127 203 787 -0.14632 0.44469148 -0.88365149 0.021161713
-126 203 787 -0.057760276 0.45614833 -0.88802725 0.011693422
-124 203 787 -0.038951207 0.46238676 -0.88582236 0.015632058
-123 203 787 -0.067736395 0.46898991 -0.8806023 0.018338744
-122 203 787 -0.13223344 0.50462818 -0.85314989 0.022564661
-121 203 787 -0.079854868 0.53706235 -0.83975428 0.020427745
-119 203 787 -0.097661562 0.53147054 -0.8414281 0.024514683
-118 203 786 0.049165443 0.57643139 -0.81566513 0.038056776
-117 203 787 0.095373705 0.4798592 -0.87214619 0.033883411
-116 203 787 -0.020941684 0.63748991 -0.77017403 0.028677609
-114 203 786 -0.2880902 0.32667038 -0.90016139 0.021083534
-113 203 786 -0.28070128 0.3830668 -0.8800379 0.025222311
-112 203 786 -0.052881252 0.27774715 -0.95919758 0.015418038
-110 203 786 -0.18302375 0.31683502 -0.93065453 0.020943416
-109 203 785 -0.42193261 0.27022383 -0.8654201 0.019356258
-108 203 785 -0.19292848 0.33191365 -0.92336988 0.030007772
-106 203 785 0.022157531 0.30595297 -0.95178878 0.0088238362
-105 203 785 0.042914361 0.30391684 -0.95173156 0.012141006
-104 203 785 -0.042914361 0.30391684 -0.95173156 0.012141006
-103 203 785 0.05618082 0.38889393 -0.91956794 0.017747479
-101 202 784 -0.18297279 0.36786911 -0.91169804 0.042710368
-100 202 784 0.13517079 0.41660163 -0.89898384 0.034164786
-99 202 784 -0.088208884 0.30579546 -0.94800228 0.040005546
-98 202 784 -0.20211415 0.2563096 -0.94522762 0.02366269
-96 202 783 -0.24385662 0.5218733 -0.81742406 0.025346413
-95 202 783 -0.17286192 0.55081868 -0.81652772 0.019378791
-94 202 783 -0.017575346 0.57465529 -0.81820685 0.0058432757
-92 202 783 0.13277368 0.59910208 -0.7895872 0.026081942
-91 202 783 0.12180887 0.6180923 -0.77661085 0.041506793
-90 202 784 0.0045239618 0.49691692 -0.86778635 0.044065058
-89 202 783 -0.13572262 0.58199918 -0.80178332 0.036007836
-87 202 783 0.015479546 0.57342988 -0.81910843 0.018016348
-86 202 783 0.085381858 0.57824057 -0.81138635 0.016284924
-85 202 783 0.067695305 0.53042978 -0.84502167 0.014504913
-84 202 783 -0.16823724 0.56190932 -0.80991 0.0074402755
-82 202 782 -0.20632571 0.53925431 -0.81647688 0.012334563
-81 202 782 -0.12650596 0.55868101 -0.81967789 0.017741134
-80 202 782 -0.058566943 0.53084928 -0.84544009 0.011507493
-78 202 782 -0.07221093 0.52196056 -0.84990746 0.0088542402
-77 202 782 -0.09639129 0.50643557 -0.85687321 0.010644264
-76 202 782 -0.098316036 0.56899494 -0.81644267 0.0074285464
-75 202 782 -0.017575346 0.57465529 -0.81820685 0.0058432757
-73 202 782 0.017575346 0.57465529 -0.81820685 0.0058432757
-72 202 782 -0.022579845 0.55566019 -0.83110285 0.0068810154
-71 202 782 -0.13908038 0.55291277 -0.82154983 0.010280754
-69 202 781 -0.17045872 0.536847 -0.8262803 0.010320866
-68 202 781 -0.083374083 0.54661524 -0.83322299 0.014141646
-67 202 781 0.085381858 0.57824057 -0.81138635 0.016284924
-66 202 781 0.015479546 0.57342988 -0.81910843 0.018016348
-64 202 781 -0.18787476 0.5715071 -0.79880077 0.025933322
-63 202 781 -0.24008583 0.59450704 -0.76741135 0.036847919
-62 202 780 -0.19698989 0.43409997 -0.87906331 0.062204607
-61 202 780 -0.22594145 0.54882962 -0.80482078 0.067260087
-59 202 780 0.07382717 0.57657766 -0.81370002 0.095042288
-58 202 780 0.10718223 0.42142546 -0.90050679 0.090012744
-57 202 780 0.32208845 0.42652607 -0.84518319 0.058943991
-56 202 781 0.25626385 0.61769825 -0.74349022 0.037524819
-54 202 781 -0.018323224 0.57014412 -0.82134038 0.015010267
-53 202 781 -0.085381858 0.57824057 -0.81138635 0.016284924
-52 202 781 0.035988528 0.57492036 -0.81741762 0.0076718489
-51 202 781 0.017575346 0.57465529 -0.81820685 0.0058432757
-49 202 781 -0.26050535 0.53101337 -0.80632615 0.031889591
-48 202 780 -0.43932146 0.43293864 -0.78712177 0.02872289
-47 202 780 -0.16886196 0.41859603 -0.89233571 0.031313416
-45 202 780 -0.30538487 0.55252957 -0.77553284 0.018754851
-44 201 779 -0.18691513 0.5181306 -0.83462769 0.060550585
-43 201 778 0.020060519 0.37346083 -0.92742896 0.044527218
-42 201 779 0.10075973 0.30550626 -0.94684386 0.042097766
-40 201 779 -0.013883981 0.54020143 -0.84142125 0.0063288249
-39 201 779 0.035988528 0.57492036 -0.81741762 0.0076718489
-38 201 779 0.10840748 0.51534253 -0.85009998 0.0249437
-37 201 779 0.047752578 0.45918086 -0.88705838 0.017180143
-35 201 779 0.061645664 0.43540567 -0.89812124 0.014578132
-34 202 780 -0.081362396 0.56391722 -0.82181352 0.029182997
-33 201 779 -0.014432259 0.36241043 -0.93190682 0.019151965
-32 201 779 -0 0.38268343 -0.9238795 0.015960258
-30 202 780 0.15861289 0.4543843 -0.87657112 0.015364012
-29 202 780 0.10840748 0.51534253 -0.85009998 0.0249437
-28 202 780 0.1149912 0.65958446 -0.74278218 0.022399666
-27 202 780 0.017575346 0.57465529 -0.81820685 0.0058432757
-25 202 780 -0.017575346 0.57465529 -0.81820685 0.0058432757
-24 202 780 -0.035988528 0.57492036 -0.81741762 0.0076718489
-23 202 780 0.035988528 0.57492036 -0.81741762 0.0076718489
-22 202 780 -0.14522581 0.52706844 -0.83732212 0.012782074
-20 201 779 -0.16173983 0.43984595 -0.88338888 0.013431114
-19 201 779 -0.21039814 0.51111031 -0.83336604 0.016210143
-18 201 779 -0.079854868 0.53706235 -0.83975428 0.020427745
-16 201 779 0.069695592 0.30859187 -0.94863766 0.045679778
-15 201 779 0.13223344 0.50462818 -0.85314989 0.022564661
-14 201 779 0.14152993 0.42213178 -0.89541835 0.026115099
-13 201 779 0.015883781 0.40098247 -0.91594797 0.012280991
-11 202 780 0.085644856 0.4499377 -0.88894379 0.027844423
-10 202 780 -0.14540029 0.45305684 -0.87954432 0.032530468
-9 201 779 -0.29955962 0.43485796 -0.84921294 0.012209705
-8 201 779 -0.16225651 0.47936893 -0.8624838 0.017004937
-6 201 779 -0.017706651 0.5720467 -0.82002997 0.0064022089
-5 201 779 0.035988528 0.57492036 -0.81741762 0.0076718489
-4 201 779 -0.035988528 0.57492036 -0.81741762 0.0076718489
-3 201 779 -0.04026271 0.3869065 -0.9212395 0.032036725
-1 201 779 -0.24843852 0.30703768 -0.91869807 0.015032064
0 201 778 -0.20548397 0.32688877 -0.92245334 0.023214672
1 201 778 -0.14799379 0.30809498 -0.93977404 0.036882568
2 201 778 -0.025756912 0.31163219 -0.94985366 0.0096901152
4 201 778 -0.10044986 0.52086383 -0.84770906 0.015813103
5 201 778 0.035988528 0.57492036 -0.81741762 0.0076718489
6 201 778 -0.035988528 0.57492036 -0.81741762 0.0076718489
7 201 778 0.013883981 0.54020143 -0.84142125 0.0063288249
9 201 778 0.079854868 0.53706235 -0.83975428 0.020427745
10 201 778 0.17345025 0.53157991 -0.82905847 0.032621309
11 201 778 0.14152993 0.42213178 -0.89541835 0.026115099
12 201 778 0.022157531 0.30595297 -0.95178878 0.0088238362
14 201 778 0.025756912 0.31163219 -0.94985366 0.0096901152
15 201 778 0.028674107 0.29895377 -0.95383674 0.011169512
16 201 778 0.20548397 0.32688877 -0.92245334 0.023214672
17 201 779 0.27669397 0.40539134 -0.87126255 0.012669577
19 201 779 0.079854868 0.53706235 -0.83975428 0.020427745
20 201 779 0.21039814 0.51111031 -0.83336604 0.016210143
21 201 779 0.098019205 0.43302116 -0.89603847 0.019270986
23 201 779 -0.022157531 0.30595297 -0.95178878 0.0088238362
24 201 779 -0 -0 -1 0
25 201 779 0.042914361 0.30391684 -0.95173156 0.012141006
26 201 779 -0.025756912 0.31163219 -0.94985366 0.0096901152
28 201 779 -0.022157531 0.30595297 -0.95178878 0.0088238362
29 201 779 -0.14152993 0.42213178 -0.89541835 0.026115099
30 201 779 -0.13223344 0.50462818 -0.85314989 0.022564661
31 201 779 -0.079854868 0.53706235 -0.83975428 0.020427745
33 201 779 -0.10198398 0.58678204 -0.80329704 0.014934646
34 201 779 -0.24004582 0.55319917 -0.79771471 0.015102419
35 201 778 -0.26139346 0.63735509 -0.72488064 0.019765433
36 201 778 -0.22026975 0.5035044 -0.83544266 0.027408857
38 201 778 -0.013883981 0.54020143 -0.84142125 0.0063288249
39 201 778 0.035988528 0.57492036 -0.81741762 0.0076718489
40 201 778 -0.035988528 0.57492036 -0.81741762 0.0076718489
41 201 778 0.013883981 0.54020143 -0.84142125 0.0063288249
43 201 778 -0.013883981 0.54020143 -0.84142125 0.0063288249
44 201 778 0.035988528 0.57492036 -0.81741762 0.0076718489
45 201 778 -0.035988528 0.57492036 -0.81741762 0.0076718489
46 201 778 -0.017575346 0.57465529 -0.81820685 0.0058432757
48 201 778 -0.17731462 0.54163754 -0.82169843 0.012646961
49 201 777 -0.23592387 0.55396646 -0.79841161 0.019866215
50 201 777 -0 0.5019269 -0.86491007 0.027580695
51 201 777 0.18225081 0.56961596 -0.80145013 0.011377924
53 201 778 0.16094877 0.52420783 -0.83624256 0.0080123842
54 201 778 0.022090856 0.53769171 -0.84285206 0.0068365303
55 201 778 -0.050399009 0.52912229 -0.84704757 0.0063333935
56 201 778 0.11023416 0.54574573 -0.83066839 0.01403977
58 201 778 -0.21033905 0.44068146 -0.8726725 0.028702235
59 201 778 -0.33268759 0.56226808 -0.75708222 0.024416443
60 201 777 -0.20480786 0.51667941 -0.83132201 0.027158396
61 201 777 -0.16099863 0.511985 -0.84377187 0.023471758
63 201 777 0.023046147 0.48412234 -0.87469673 0.025135882
64 201 777 -0.04001892 0.43830782 -0.8979336 0.032736287
65 201 777 -0.04001892 0.43830782 -0.8979336 0.032736287
66 201 777 -0.023046147 0.48412234 -0.87469673 0.025135882
68 201 777 0.26245171 0.23451708 -0.93601328 0.03219888
69 201 778 0.27796608 0.24038433 -0.93002701 0.05032694
70 201 778 0.21902154 0.3403075 -0.91445088 0.039326016
71 201 778 0 0 -1 0
73 201 778 0.038151141 0.30146974 -0.95271212 0.0087288721
74 201 778 0.12906633 0.34444904 -0.92989069 0.027843283
75 201 779 0.15969959 0.57731605 -0.80075109 0.01434245
77 201 779 -0.058566943 0.53084928 -0.84544009 0.011507493
78 201 779 -0.12650596 0.55868101 -0.81967789 0.017741134
79 201 779 -0.21806315 0.51132894 -0.83125883 0.028171962
80 201 778 -0.12762865 0.42380717 -0.89671528 0.023517307
82 201 778 -0.12410316 0.33352163 -0.93453825 0.028492451
83 201 778 -0.47959504 0.38936153 -0.78637534 0.020364603
84 201 777 -0.26431251 0.30615354 -0.91455394 0.034277875
85 201 777 -0.23180172 0.29420394 -0.92720652 0.030480262
87 201 778 0.13151178 0.26521593 -0.95517802 0.034943655
88 201 778 0.098664045 0.27388307 -0.95668876 0.050827403
89 201 778 -0.055616342 0.51033902 -0.85817301 0.029098129
90 201 778 -0.034592945 0.52851421 -0.84821939 0.014230752
92 201 778 0.19961137 0.54611683 -0.8135795 0.01619426
93 201 779 0.23592387 0.55396646 -0.79841161 0.019866215
94 201 779 0.24296242 0.51184273 -0.82400626 0.016509579
95 201 779 -0.11850514 0.52549618 -0.84250242 0.016369518
97 201 778 -0.014329062 0.57736313 -0.81636173 0.033057172
98 201 778 0.22871856 0.54970831 -0.8034355 0.016483122
99 201 779 0.24639788 0.56236744 -0.78932309 0.020905472
100 201 779 -0.029832577 0.54142302 -0.84022093 0.031952407
102 201 778 0.21806315 0.51132894 -0.83125883 0.028171962
