ply
format ascii 1.0
comment PCL generated
element vertex 754
property float x
property float y
property float z
property float nx
property float ny
property float nz
property float curvature
element camera 0
property float view_px
property float view_py
property float view_pz
property float x_axisx
property float x_axisy
property float x_axisz
property float y_axisx
property float y_axisy
property float y_axisz
property float z_axisx
property float z_axisy
property float z_axisz
property float focal
property float scalex
property float scaley
property float centerx
property float centery
property int viewportx
property int viewporty
property float k1
property float k2
end_header
-76 1 693 -0.50279415 -0.34859017 -0.79100132 0.037754621
-74 0 693 -0.65508008 0.072854936 -0.75203872 0.018511761
-96 4 694 -0.20029236 -0.69192344 -0.69363171 0
-94.5 4 694 -0.22348362 -0.75091428 -0.62143606 0.0063196812
-91.333336 3.6666667 693.33331 -0.12287204 -0.83872616 -0.53051001 0.0096256128
-89 3 694 -0.046617817 -0.90382725 -0.42535061 0.0024254553
-86.5 3 694 -0.021873394 -0.90491265 -0.42503479 0.0003775137
-84.5 3 694 1.7446856e-09 -0.89442718 -0.44721359 0
-81.5 3 694 -0.02502135 -0.87189305 -0.48905677 0.0042792456
-79 3.5 693.5 -0.21539006 -0.78569883 -0.5799005 0.044636071
-76.5 3 693.5 -0.4780896 -0.5326401 -0.69837302 0.03179251
-99 6 693.33331 -0.1657258 -0.7702623 -0.61581731 0.010205937
-96.5 6 693 -0.20083772 -0.74785239 -0.63275671 0.0078905364
13 -111 695 -0.021296127 0.26380908 -0.96433985 0.064109325
6.5 -108 695 0.35394496 0.38945776 -0.85032088 0.042427197
8.5 -108.5 695.5 0.19445676 0.51358616 -0.83571279 0.04356949
11.142858 -108.71429 696.57141 0.15146255 0.34462428 -0.92644107 0.060316939
13 -109 696.5 -0.041749842 0.11792032 -0.992145 0.091902561
-51.5 -106.5 696.5 -0.88457829 0.37378994 -0.27893099 0.030676933
3.6666667 -106.33334 695 0.44760716 0.1759942 -0.87674046 0.1076731
6.5 -106.5 695.75 0.12661214 0.14936781 -0.98064196 0.05405074
8.5 -106.5 696 0.084904291 -0.13852488 -0.98671275 0.030600065
10.75 -106.25 696 0.074461661 -0.31733942 -0.94538414 0.025728183
13 -106.5 696 -0.086618744 -0.46746415 -0.87975818 0.021049026
16 -106.5 695.5 -0.11049844 -0.51795274 -0.84824228 0.014256174
-71.5 -103 696.5 0.055631943 -0.86334825 -0.50153261 0.013462162
-69.5 -103 697 0.072827108 -0.85769999 -0.50896651 0.013612607
-64 -103 696.5 -0.06776125 -0.68191445 -0.72828645 0.010269626
-61.5 -103 697 0.085592069 -0.73903638 -0.6682061 0.0096002249
-59.5 -103 697 0.076033406 -0.76894248 -0.63478059 0.004792992
-56 -103 697 -0.13491049 -0.83347881 -0.53582859 0.0023675032
-53.5 -103 696.5 -0.22688578 -0.72898567 -0.64583492 0.017369293
-51.5 -103.5 696 -0.4375883 -0.66378504 -0.60655242 0.067696527
-49.75 -103.75 695.5 -0.89344394 0.24613693 -0.37573186 0.036015224
3 -105 695 0.38681638 0.20746705 -0.89851576 0.11692891
6.5 -105 695 0.13574305 -0.61313015 -0.77823204 0.059937123
8.5 -105 695 0.02678076 -0.74324244 -0.668486 0.0069516981
11 -105 695 -0.0088102743 -0.72632867 -0.68729115 0.0085497992
13 -105 695 -0.093949392 -0.71244371 -0.6954118 0.0017725442
-71 -101 695 0.24731272 -0.67901289 -0.6912148 0.0083970325
-69 -102 696 0.14876863 -0.68367022 -0.71446687 0.017266847
-66.5 -102 696 -0.11799689 -0.69105589 -0.71310484 0.019943353
-63.5 -101.5 695.5 -0.028158817 -0.6272589 -0.7783016 0.0047234539
-61.5 -101 695 -0.071291618 -0.69107693 -0.7192567 0.0074187135
-59 -102 696 -0.011669609 -0.76644796 -0.64220035 0.0079115536
-57 -102 696 -0.070861988 -0.76994973 -0.63415766 0.014219672
-54.5 -102 695 -0.18028991 -0.7328018 -0.65612274 0.004039173
-68.5 -100 695 0.17211993 -0.7173847 -0.67508072 0.028992085
-66.5 -100 695 0.044346515 -0.65628964 -0.7532047 0.018256253
-64 -100 695 -0.093575291 -0.58575666 -0.80506694 0.0025878481
25 -6.5 696.5 0.69205165 -0.61633456 -0.37576082 0.033615548
47 -6 697 0.030133629 -0.87213594 -0.48833486 0.013778086
-77 -4 696 -0.90359819 -0.0099156229 -0.42826638 0.0054481281
25.799999 -3.8 696 0.50363797 -0.60196388 -0.61966795 0.019105295
28.5 -3 696.5 0.054252286 -0.79346806 -0.60618895 0.016283143
31 -3 696 0.066577844 -0.78831416 -0.61166018 0.0074195261
33.5 -3 696.5 0.16284041 -0.78323328 -0.60002393 0.001909901
36 -3 697 0.072709754 -0.6767962 -0.73257101 0.012229988
38 -3 697 0.013050415 -0.64115059 -0.76730412 0.0062560509
41 -3 697 -0.18031728 -0.64053422 -0.74645942 0.018736854
43.5 -4 696.5 -0.28218195 -0.72284216 -0.6307714 0.0088413432
45.799999 -4.1999998 695.59998 -0.1801122 -0.73695356 -0.65150517 0.0089321984
48.5 -4 695.5 0.20501965 -0.70530367 -0.67861152 0.0092755696
-77 -1.5 696 -0.82101631 -0.14234999 -0.55287308 0.022165153
27 -2 695 0.06861376 -0.87123424 -0.48604834 0.012053898
34 -2 695 0.11272816 -0.86127466 -0.49547786 0.0005650713
36 -2 695.66669 0.11882747 -0.84167832 -0.5267424 0
38 -2 696 0.0074517005 -0.8802672 -0.47441989 0.0043590157
41 -2 696 -0.21211465 -0.76904589 -0.60297245 0.017004319
-96.5 2 697 -0.097734325 -0.84038115 -0.53311116 0.0019307731
-94 2 697 -0.07065212 -0.87187845 -0.48459914 0.0060718735
-91.5 2 696.5 -0.047305442 -0.89628273 -0.44095278 0
-89 2 696.5 -0.05500751 -0.90676641 -0.41802984 0.00048846443
-86.5 2 696 -0.030612582 -0.89463031 -0.44575727 0.00037715782
-84 2 696 -0.0049186265 -0.88807768 -0.45966712 0
-82 2 696 -0.10229559 -0.8622666 -0.49601614 0.004543256
-78.666664 1.3333334 696.16669 -0.4366715 -0.64715451 -0.6249072 0.019561898
-77 1 695 -0.58307463 -0.42429948 -0.6928159 0.032977156
-98.75 3.5 695.75 -0.20773526 -0.74742597 -0.63103127 0.0058891829
-96.666664 3.3333333 695.66669 -0.15600435 -0.74754781 -0.6456275 0.0075195245
-94 3 695 -0.11934931 -0.83607763 -0.53547168 0
-64 -108 699 -0.44207674 -0.26128447 -0.85807848 0.042143952
-61.5 -108.5 699 0.18943894 -0.35513178 -0.91542035 0.05303777
-54 -108.5 699 -0.49344298 -0.077809237 -0.86629081 0.0093318755
-64 -107 699 -0.40041971 -0.26981649 -0.87570721 0.035009943
-61.5 -107 699 0.15636471 -0.14974962 -0.97628129 0.058846422
-53 -107 699 -0.62604839 0.091642044 -0.77438045 0.045323808
-52 -106 698 -0.53911352 -0.31054351 -0.78289169 0.083377071
-72 -104 699 0.039962638 -0.82519209 -0.56343669 0.03212681
-68 -103 698 0.036320776 -0.90446842 -0.42499134 0.003177098
-66.5 -103 698 -0.10651635 -0.89399761 -0.43522689 0.0133995
-64.333336 -104.33334 698.66669 -0.25737169 -0.51303869 -0.8188718 0.048018366
-61.5 -104.5 698.5 0.10645537 -0.49598163 -0.86178285 0.031520858
-59 -103.66666 698.66669 0.19932948 -0.73303145 -0.65033281 0.020355163
-56.666668 -103.66666 698.66669 -0.12848651 -0.77903372 -0.61367553 0.022040505
-53.75 -104.5 698.5 -0.23142135 -0.57092738 -0.78770941 0.029775904
-51.5 -105 698.5 -0.51305187 -0.43798435 -0.73820561 0.068515524
25 -8 699 0.54352653 -0.74563366 -0.38549894 0.019904442
26.5 -6 699 0.51311529 -0.76975453 -0.37972435 0.026629074
28.5 -6 699 0.0199739 -0.87242502 -0.48833972 0.01014588
31.5 -6 699 0.08658725 -0.82716763 -0.55524445 0.010618114
43.5 -6 699 -0.19499733 -0.85495567 -0.48065245 0.0069286604
45.5 -6 698.5 -0.17478132 -0.84470177 -0.50589573 0.0079289721
49 -6 698 0.030409455 -0.87057906 -0.49108785 0.012753864
50 -6 699 0.077061027 -0.89293092 -0.44354931 0.009930592
27 -5 698 0.44479603 -0.69584227 -0.56387937 0.04045089
28.5 -5 698 0.04823336 -0.70751214 -0.70505327 0.0074014049
31.5 -5 698 0.12243719 -0.76091349 -0.63719678 0.0054053748
33.5 -5 698.5 0.15207401 -0.75425059 -0.63873273 0.0034178304
36 -5 698.66669 -0.021643799 -0.75505638 -0.65530252 0.0097968159
38 -5 698 -0.038879026 -0.71432292 -0.69873548 0.011576098
41 -5 698 -0.095082335 -0.71934587 -0.68811399 0.022657076
-79 -1.3333334 698.66669 -0.60438788 -0.55833328 -0.56831253 0.011228574
-99 1.5 698.5 -0.079248637 -0.85104734 -0.51907426 0.004185129
-97 1 699 -0.038826656 -0.89500922 -0.44435447 0.00043528195
-94 1 699 1.6554681e-09 -0.89442724 -0.44721362 0
-91.5 1 699 -0.042332921 -0.90611213 -0.42091432 0.0010478164
-89.5 1 698.5 -0.075238384 -0.89938557 -0.43063307 0
-86.5 1 698 -0.047378343 -0.88904029 -0.45537102 0.0001312504
-83.75 0.75 698.25 -0.061700802 -0.85598308 -0.513309 0.0006173859
-81.5 0.5 698.5 -0.24274382 -0.7838127 -0.57158828 0.0069174464
-80 0 698 -0.23905016 -0.78928804 -0.56557888 0.0070682308
-66.5 -108 701.5 -0.51342154 -0.26497233 -0.81620342 0.028360326
-64.666664 -108.66666 700.33331 -0.44207674 -0.26128447 -0.85807848 0.042143952
-59 -108.5 700.33331 0.15420236 0.19605722 -0.96839207 0.030536687
-56.5 -108.5 700.5 -0.25241041 0.19618197 -0.94752389 0.032647721
-55 -108 700 -0.30535433 -0.082900994 -0.94862336 0.028712125
-68.75 -106.5 701.25 -0.014888406 -0.42523846 -0.9049589 0.02039839
-66.5 -106.5 701 -0.40721723 -0.34802586 -0.84442413 0.015642872
-65 -106.5 700 -0.6500563 -0.24341483 -0.71984452 0.014569846
-59 -106.5 700.66669 0.34147054 -0.17184332 -0.92404962 0.028087238
-56.5 -106.5 700.75 -0.14346541 -0.23339452 -0.96174043 0.022785416
-55 -107 700 -0.49344298 -0.077809237 -0.86629081 0.0093318755
-71 -104 700 0.1024252 -0.81761181 -0.56658638 0.033844832
-68.5 -104 700 -0.04186181 -0.73015285 -0.68200034 0.039227102
-66.5 -104 700 -0.22513101 -0.58904701 -0.7761054 0.019428637
-58 -104 700 0.054739956 -0.72146928 -0.69027936 0.032232385
26.5 -7 700.5 0.48217762 -0.77864081 -0.40152597 0.022895094
28 -7 702 0.15061603 -0.88343424 -0.44368783 0.0055742492
31 -7 702 0.010783081 -0.92530853 -0.37906182 0.0013081528
33.5 -6.5 701 0.066175386 -0.89071369 -0.44972202 0.0058181086
35.799999 -6.4000001 700.79999 -0.01988494 -0.88172156 -0.47135091 0.0016522686
38.666668 -6.6666665 701.33331 -0.015632685 -0.88829792 -0.45900142 0.001473843
41 -6.5 701 -0.11544035 -0.87895858 -0.46271518 0.0022216034
43.5 -7 701 -0.076445714 -0.91144401 -0.40425971 0.0046699066
46 -7 700.5 -0.059308898 -0.93920368 -0.33819941 0.0028890455
48.5 -7 700.5 -0.0035995056 -0.91436654 -0.40487134 0.0030735971
-79.333336 -3.6666667 700.66669 -0.48137254 -0.64113849 -0.59768045 0.015357675
-88 -1 702 -0.12410054 -0.8607251 -0.49371195 0.0025961658
-86.5 -1 702 -0.11343544 -0.84386498 -0.52442759 0.003664813
-83.333336 -1.3333334 701.33331 -0.1841279 -0.80113858 -0.5694505 0.0043322821
-81.5 -1.5 701.25 -0.37613979 -0.73038501 -0.57013738 0.018355422
-80 -2 701 -0.4820399 -0.64061588 -0.59770292 0.015052067
-99.25 0.25 701 -0.079347268 -0.87546122 -0.47673017 0.00089364918
-96.5 0 701 -0.033417616 -0.87276143 -0.48700184 0.0014030609
-94 0 701 0.00026469879 -0.87561989 -0.48300081 0
-91.5 0 701 -0.052123744 -0.87596869 -0.47954345 0
-89 0 700.66669 -0.08863356 -0.88152176 -0.46374938 0
-87 0 700 -0.061985478 -0.86205804 -0.50300473 0.00051548821
-84.5 0 700 -0.10020982 -0.85629636 -0.50666994 0.0046288706
98.5 62 702 -0.029871333 -0.53233856 -0.84600437 0.039119583
116 61 702 -0.243077 -0.46063319 -0.85365725 0.022917071
118.5 61 702 -0.014357162 -0.46617499 -0.88457602 0.024112599
121.33334 60.666668 702 0.039267816 -0.49867964 -0.8658964 0.028147845
123.5 61 702 0.046309669 -0.43791467 -0.89782298 0.037854224
126 61 702 0.20379527 -0.43768516 -0.87572783 0.016840674
136 61.5 701.5 -0.20904052 -0.64082515 -0.73867804 0.013686283
138.5 61.5 701.5 0.18097237 -0.63685495 -0.74944299 0.033262432
140 61.5 701.5 0.36377966 -0.48484728 -0.79535371 0.03354416
83.333336 63.666668 702 -0.22882323 -0.17278999 -0.9580102 0.050876603
85.5 63.5 702 0.063995026 -0.42228785 -0.90419996 0.022419285
98.5 63.5 702 -0.037304655 -0.15001218 -0.98798007 0.03204222
100.75 63.75 702 0.1856944 -0.2370871 -0.95357603 0.0232588
104 64 702 -0.32538262 -0.15005815 -0.93359989 0.06989982
106 64 702 -0.039354272 -0.47097579 -0.88126785 0.015315108
108.66666 63.666668 702 -0.0035230829 -0.31549057 -0.94892216 0.0308691
110.5 63.5 702 -0.082998358 -0.34941229 -0.93328583 0.010902123
113.5 63.5 702 -0.13459942 -0.22782484 -0.96435404 0.029873494
116 63.5 701.83331 -0.042467829 -0.044141732 -0.99812227 0.0046615954
118.5 63.5 701.75 -0.030663162 -0.063236505 -0.99752742 0.0079603028
121.25 63.5 701.75 0.04645307 -0.038809929 -0.99816626 0
123.5 63.5 702 0.066761009 -0.017760357 -0.99761093 0.00033019989
126 63.5 702 0.001235279 -0.11112276 -0.99380594 0.012061529
128 63.5 702 0.027372297 -0.21632095 -0.9759385 0.034721583
131 63.5 701.83331 -0.0985265 -0.33942208 -0.93545985 0.014119145
133.5 63.5 701.5 -0.24643193 -0.3162809 -0.91609919 0.024940656
136 63.333332 700.33331 -0.20495829 -0.17015518 -0.96386689 0.017127043
138 63 700 0.14109021 -0.17824841 -0.97381777 0.047230445
140.66667 63.666668 701.66669 0.61012709 -0.19859326 -0.76701087 0.0091486406
145 64 702 0.89497685 -0.36315703 -0.25910094 0.16425636
83.5 65 702 -0.27463922 0.047909774 -0.96035302 0.04439624
85.5 65.5 702 0.10619584 0.14026192 -0.98440284 0.036097657
94 65.5 702 -0.10809819 -0.0062262695 -0.99412072 0.022145623
96.5 65.5 702 0.05219483 0.20910756 -0.97649872 0.049619962
98.5 65.5 702 0.11366086 0.46451116 -0.87824285 0.024266329
100.75 65.25 702 -0.018831251 0.29376054 -0.95569348 0.049461868
104 65 702 -0.10938563 0.21693528 -0.97003812 0.099953093
106.25 65.25 702 -0.036765944 0.20367783 -0.97834742 0.068030201
108.5 65.5 702 -0.024944436 0.11661774 -0.9928636 0.049508784
110.6 65.800003 702 -0.091542445 0.2714327 -0.95809412 0.012457366
113.5 66 702 -0.00097824517 0.2310847 -0.97293311 0.02173933
115.875 65.875 701.75 0.047593087 0.35578915 -0.9333536 0.025311295
118.5 65.5 701.75 0.0082706772 0.40817136 -0.91286784 0.028212631
120.75 65.5 701.5 0.057035983 0.25336489 -0.96568793 0.013987963
123.5 65.5 702 0.014064522 0.30053267 -0.95366788 0.019655833
126 65.5 702 -0.0026034431 0.26417238 -0.964472 0.01269355
128 65.5 702 0.038657825 0.25574657 -0.96597064 0.010762734
130.875 65.875 701.5 -0.2264384 0.26857132 -0.93626654 0.032154266
133.5 66 701.33331 -0.1065657 0.27860108 -0.95447636 0.028249154
136 66 700.66669 -0.2475155 0.2020006 -0.94759262 0.011212256
138 66 700.33331 0.046485912 0.33973232 -0.93937272 0.0098562045
140.875 66 701.375 0.56287706 0.1598992 -0.81092644 0.020586796
144 67 701 -0.51373434 -0.37028709 -0.77392793 0.17520143
145 65.5 701 -0.65413296 -0.61024261 -0.44689375 0.083293624
113 68 702 -0.014794705 0.45406386 -0.89084631 0.016320949
132 68 702 -0.19300617 0.44133595 -0.87633967 0.013294872
133.5 68 702 -0.064955421 0.50876284 -0.8584528 0.016397865
136 68 702 -0.068000712 0.55492157 -0.82911879 0
139 68.5 702 0.06295789 0.60422873 -0.79431981 0.010690343
140.5 68 702 0.26852179 0.45600742 -0.84850067 0.040972874
144 68 700 -0.29142886 0.044238638 -0.95556897 0.15221672
143 71 702 -0.4973512 0.32087949 -0.8060261 0.048427895
26.5 -8.5 703 0.4024587 -0.75624073 -0.51587492 0.016620297
29 -8 704 0.17196618 -0.83053458 -0.52975464 0.006575665
31 -8 704 0.049333166 -0.82878339 -0.55739069 0.0019009631
33.5 -8 704 0.039857857 -0.86483634 -0.50046927 0.0011681137
36 -8 704 0.011589299 -0.87960881 -0.47555652 0
38.5 -8 704 -0.01466328 -0.88693905 -0.46165368 0.0019109977
41 -8 704 -0.10004959 -0.87708497 -0.46979991 0.00058312173
43.333332 -8.333333 703.33331 -0.057070211 -0.88883185 -0.45466578 0.0034557034
46.5 -8 703.5 -0.0080485856 -0.90686589 -0.42134246 0.0018333655
48.5 -8.5 703.5 0.026413729 -0.91157675 -0.41028073 0.0031691752
50 -8 703 0.036608953 -0.90626776 -0.42111573 0.0026585069
-84 -3 704 -0.19929434 -0.77391285 -0.60111612 0.0021547198
-81.333336 -3.6666667 703.66669 -0.47367129 -0.59308118 -0.65106857 0.0093418378
-80 -5 703 -0.47361079 -0.59312135 -0.65107596 0.0093538063
-98.333336 -1.3333334 703.33331 -0.040524207 -0.86337686 -0.50292963 0.0014367559
-96.666664 -1.3333334 703.33331 -0.032801319 -0.87043697 -0.49118593 0.0023234785
-94 -1.5 703.5 -0.048187997 -0.84224737 -0.53693318 0.0037797107
-91.5 -1.5 703.5 -0.039037172 -0.82675809 -0.56120151 0.0029080159
-89.199997 -1.6 703.59998 -0.10148577 -0.83716118 -0.53745866 0.00095903146
-86.5 -2 703 -0.15507476 -0.82439983 -0.54434979 0.0018856355
-85 -2 703 -0.14492473 -0.78237027 -0.60571736 0.0057507437
116 59 704 -0.049884614 -0.81755406 -0.57368708 0.0039281198
119 59 704 0.01610012 -0.80737609 -0.58981752 0.0052315909
121 59 704 0.023915924 -0.82874024 -0.5591222 0.0037931404
123.5 59 704 0.055800326 -0.76494068 -0.64167917 0.010816366
126 59 704 0.13632147 -0.75736725 -0.63860112 0.0057556974
66.333336 61.666668 703.66669 0.27228719 -0.24101245 -0.93154317 0.015862891
79 62 704 -0.38020551 -0.52776659 -0.75954336 0.031562414
81 62 704 -0.17175139 -0.6093049 -0.77411175 0.015305027
83.666664 61.666668 703.66669 -0.15987729 -0.74198729 -0.65107149 0.013985327
86.25 61.5 703.5 0.10259263 -0.66471827 -0.74001652 0.0071752132
88.5 62 704 0.068048894 -0.66879547 -0.74032557 0.015186507
91.25 61.75 703.75 -0.099344432 -0.6007179 -0.79326463 0.010611258
93.5 61.5 703.5 -0.08487606 -0.56364298 -0.82164633 0.013053352
96 61.5 703.5 -0.14433216 -0.57283413 -0.8068639 0.019473437
98.5 61 704 -0.031771235 -0.54373699 -0.8386541 0.037396282
100.75 61.5 703.5 0.13357995 -0.56969076 -0.81093085 0.018246328
103.5 61.5 703.75 0.037600134 -0.67290527 -0.73877251 0.015121028
106 61.5 703.83331 -0.033051662 -0.67554528 -0.73657721 0.016626071
108.33334 61.666668 703.33331 -0.075534776 -0.58363342 -0.80849648 0.0037848477
111 61.400002 703.59998 -0.055739932 -0.60500288 -0.79426986 0
113.5 61.25 703.5 -0.25349647 -0.50176966 -0.82702285 0.012656513
116 60 703 -0.19334145 -0.74478787 -0.63867837 0.015457551
118 60 703 -2.7810367e-09 -0.70710677 -0.70710677 0
121 60 703 -0.00028176967 -0.72463906 -0.68912858 0.00067313819
123.5 60 703 0.069814608 -0.69118738 -0.71929544 0.0056747124
126 60.799999 703 0.16670622 -0.49974176 -0.84998071 0.023820151
129 61 703.5 0.17996569 -0.59459841 -0.78362304 0.013816483
131 60.666668 703.5 -0.0089223031 -0.64775163 -0.76179934 0.003705648
133.5 60.5 703.5 -0.13086817 -0.71114355 -0.6907593 0.016407577
136 60 703 -0.064908646 -0.82050252 -0.5679459 0.0036243489
138.5 60 703 0.044581417 -0.8211903 -0.56891036 0.0033216788
141 60.5 703.25 0.44631383 -0.53952485 -0.71394449 0.02495591
144 62 704 0.70963085 -0.46436995 -0.52989113 0.093400583
66.5 63.5 703.5 0.42103061 -0.10824326 -0.90056467 0.012279351
68 63 704 0.39778352 -0.13921519 -0.90685588 0.014418006
79 63.5 704 -0.43044001 -0.05502348 -0.90094048 0.01110606
81 63.5 703.16669 -0.30207992 -0.0881714 -0.94919628 0.011406475
84 63 703 -0.096782334 -0.42932379 -0.89795011 0.01798662
88.5 63.5 703 0.14545406 -0.17059809 -0.97454572 0.02846336
91 63.5 703 -0.041129291 -0.1531008 -0.98735428 0.0033936868
93 63.5 703 -0.11057472 -0.18902406 -0.97572696 0.0086764693
96 63.5 703 -0.18748949 -0.29699954 -0.93628997 0.012636736
101 63 703 0.22242101 -0.3254821 -0.91901594 0.012469588
103.5 63 703 0.018970363 -0.53731471 -0.8431685 0.0076763085
106 63 703 -0.00011845215 -0.48179916 -0.87628168 0.018748235
108 63 703 -0.10142425 -0.4335486 -0.89540422 0.019994318
142 63.5 703 0.49131477 -0.17121798 -0.85398716 0.0066759251
144 63.5 704 0.64272451 0.035975777 -0.76525217 0.16350994
66.75 66.25 703.75 0.50399268 0.00045416722 -0.86370778 0.0027995787
79 65.5 704 -0.48826164 0.073518761 -0.86959505 0.014958363
81.125 65.875 703.375 -0.3670961 0.22088999 -0.90357518 0
83.5 66.5 703 -0.16262741 0.36766464 -0.91562819 0.0087256311
86 67 703 0.06241611 0.42020348 -0.90528083 0.014404982
88.5 66 703.33331 0.16790818 0.26390237 -0.94982225 0.014763649
91 66 703.11108 -0.17193703 0.081963874 -0.98169219 0.0072605503
93 66 703 -0.13523665 0.10390196 -0.98535037 0.016086228
96 67 703 0.071722031 0.43228397 -0.89888072 0.0092939455
98.5 67 703.5 0.17535543 0.36618286 -0.91387117 0.0041044168
101 66.666664 703.66669 0.13226761 0.41186661 -0.90159369 0.0080240536
103.5 66.5 703.5 0.0339665 0.45549715 -0.88958901 0.01744041
105.8 66.599998 703.59998 -0.10851521 0.49628067 -0.86135358 0.010279138
108.5 67 703 -0.16907555 0.44921118 -0.87728143 0.0030842912
110 67 703 -0.2506755 0.4875477 -0.83633667 0.0065278495
117 67 703 0.063631162 0.46633035 -0.88231915 0.0062198713
118 67 703 0.024877761 0.45356774 -0.89087451 0.010356703
121 67 703 0.0066537214 0.45576549 -0.89007503 0.011062884
123.5 67 703 -0.0039876034 0.36498016 -0.93100673 0.0072803986
126 67 703 0.021978538 0.42351827 -0.90562093 0.0053806314
129 67 703 -0.082159705 0.42496529 -0.9014734 0.015819985
130 67 703 -0.25609723 0.40190932 -0.87913769 0.016197063
142 66 703 0.50748855 0.057918325 -0.8597098 0.034709372
143.5 66 703.25 -0.8284409 -0.46529949 -0.31174031 0.10794104
66.5 69 703.5 0.28739542 0.063773207 -0.95568657 0.020214772
68 69 704 0.31427643 0.015863024 -0.94919896 0.017215831
70 69 704 0.34281716 -0.043613296 -0.93838924 0.032149721
82 69 704 -0.29524022 0.46110114 -0.83679092 0.015777448
83.5 69 704 -0.13317406 0.51321292 -0.8478663 0.0079827001
86.5 69 704 -0.0033519042 0.39171049 -0.92008239 0.010048324
88.5 69 704 0.024116108 0.36609697 -0.93026417 0.010663984
91 68.666664 703.66669 -0.0871718 0.33617425 -0.9377569 0.01628959
93 68 703 -0.11861365 0.291071 -0.94932008 0.0073207784
96 68 703 0.096169367 0.34480003 -0.9337368 0.0078449277
98.5 68.5 703.5 0.14177768 0.31881002 -0.93715483 0.013506269
101 69 704 0.079372719 0.38976699 -0.91748667 0.021859266
103.5 69 704 0.039320819 0.40372416 -0.91403538 0.0083196117
106 68.333336 704 -0.073246956 0.47599679 -0.87639141 0.013392699
108.5 68 703.5 -0.16907555 0.44921118 -0.87728143 0.0030842912
111 68 703 -0.16992623 0.46027598 -0.87136167 0.01457065
114 68 703 0.030725887 0.47657579 -0.87859625 0.01356356
116 68 703 0.18342152 0.45005763 -0.87395924 0.012081658
118 68 703 -0.043869212 0.40209162 -0.91454786 0.0054191793
121 68.25 703 0.040620565 0.43147919 -0.90120792 0.008683566
123.5 68 703 0.0090679312 0.35879767 -0.93337131 0.0069284034
126 68 703 0.00075668853 0.36488852 -0.93105096 0.0053613693
129 68 703 -0.029399121 0.35255748 -0.93532825 0.0086867111
130.8 68.599998 703 -0.21500763 0.33942109 -0.91573197 0.015024667
133.5 69 703 -0.035456754 0.4828541 -0.87498271 0.0053194817
136 69 703 -0.04304434 0.59575522 -0.80201173 0.0041572824
138 69 703 -0.0032788762 0.49129629 -0.87098634 0.013171324
141 68.666664 703 0.20220421 0.36708283 -0.90794474 0.04074312
143 68.5 703 -0.58077687 -0.19881304 -0.78941208 0.12769158
66.599998 71 703.59998 0.38930044 0.3109948 -0.86702216 0.015496231
89 70 704 -0.10159082 0.53046942 -0.84159458 0.015747095
92 70.5 704 -0.033857878 0.51013315 -0.8594287 0.0034936876
94 70 704 0.0015193189 0.46900687 -0.88319319 0.0042296224
95.75 70.25 704 0.056913134 0.51036793 -0.85807079 0
98 70 704 0.093170427 0.41746885 -0.90390217 0.0063684876
111.5 70 704 -0.1568826 0.54087281 -0.82634401 0.021386553
113.5 70 704 -0.0084825708 0.60019308 -0.79981017 0.0045206267
116 70 704 0.003112796 0.48930904 -0.87210488 0.00055969186
119 70 704 -0.035667237 0.44492352 -0.894858 0.0048396196
121.33334 70.333336 704 0.0077564749 0.50759894 -0.86155856 0.0017789794
123.5 70 704 0.021577729 0.44093004 -0.89728206 0.0055040522
126 70 704 0.0019730546 0.4397428 -0.8981216 0.0038544966
128.5 70 704 -0.10539958 0.46059883 -0.88132834 0.0054607899
131.2 71.400002 704 -0.1360302 0.44252267 -0.88637996 0.0072311913
133.33333 71.333336 704 0.01275824 0.51855236 -0.85495073 0.0028866446
136.5 71 704 -0.015566809 0.49750406 -0.86732203 0.0081599224
138.5 71.5 703.75 -0.073857822 0.55464661 -0.82880169 0.0057063457
141.14285 71.285713 704 -0.24887997 0.35162413 -0.90245187 0.046343829
66 73.5 704 0.45656583 0.26313329 -0.84988737 0.0033287352
142 73 704 -0.13254279 0.63774389 -0.75875896 0.027662652
29 -9.5 705.5 0.18589343 -0.74020016 -0.64617908 0.0028848648
31 -9.5 706 0.083989196 -0.75837237 -0.64638776 0.0028705762
33.5 -9.5 706.25 0.089292869 -0.80283427 -0.58947766 0.0056436388
36 -9 706 0.023257609 -0.88888013 -0.45754904 0.0028704184
38.666668 -9.333333 706.33331 -0.010721431 -0.89436305 -0.44721344 0.00060574216
41 -9 705.66669 -0.080151588 -0.89617741 -0.43639627 0.0015208354
44 -10 707 -0.034943908 -0.76407117 -0.64418495 0.013452448
46 -9.3999996 705.79999 0.017848533 -0.92311931 -0.38409925 0.0045976657
48 -10 707 0.040907413 -0.84884357 -0.52705908 0.027464988
50.666668 -8.666667 705 0.035552774 -0.91864753 -0.39347532 0.0037943388
-83.5 -6 706.5 -0.34741661 -0.73340279 -0.58431327 0.012901892
-81.5 -6.5 706 -0.45267138 -0.6779536 -0.57919562 0.0087512089
-99 -3 706.33331 -0.042275388 -0.78531343 -0.61765331 0.005540201
-96 -3 706 -0.083313949 -0.78190625 -0.61780369 0.0050760685
-93.75 -3.5 706.25 -0.066600598 -0.76937735 -0.63531321 0.0026939195
-91.666664 -3.6666667 706 -0.0091282465 -0.78470123 -0.61980689 0.003737492
-89 -3.6666667 706.33331 -0.052993685 -0.7902481 -0.61049122 0.0038441652
-86.5 -4 706 -0.26637203 -0.75430399 -0.60005951 0.0070290226
-84.25 -4.5 705.5 -0.30246302 -0.70153457 -0.64526385 0.0047193342
-100 -2 705 0.011734051 -0.82223362 -0.56902927 0.0028749523
-96 -2 705 -0.061952405 -0.84182501 -0.53618336 0.0021537335
65 57 706 0.41965574 -0.68501657 -0.59551764 0.045404039
116 57 707 -0.071687095 -0.75213736 -0.65509564 0.0038264159
118.5 57 707 -0.001420915 -0.71578854 -0.69831568 0.0040677064
120.5 57 707 -0.0015860582 -0.70629513 -0.70791566 0
123.5 57 707 -1.6567642e-09 -0.70710677 -0.70710677 0
126 57 707 0.082790121 -0.76474905 -0.63898712 0.0051940316
140.5 57 707 0.056265574 -0.80467451 -0.59104413 0.010003456
65.5 58 705.5 0.42298895 -0.60375017 -0.67569673 0.049497247
68.5 58 706 0.24885914 -0.69264489 -0.67698765 0.049522474
71 59 707 0.12004333 -0.63099855 -0.76644009 0.039647277
73 59 707 0.16470668 -0.6716035 -0.7223714 0.01266014
87 59 707 -0.062313899 -0.87259334 -0.48445618 0.0077465586
88.5 59 707 0.033726219 -0.83086538 -0.55545056 0.0043543451
92 59 707 -0.18916419 -0.77974957 -0.59683132 0.014608115
93.5 59 706 -0.25604722 -0.73742932 -0.62501031 0.0097961184
96 58.833332 705.83331 -0.1538574 -0.65489483 -0.73989236 0.0062708636
98.333336 58.666668 705.33331 0.01311572 -0.70958567 -0.70449716 0.009097049
101.2 58.799999 706.20001 0.17390935 -0.82037306 -0.54474175 0.067555748
103 58.5 706 0.30879664 -0.70547074 -0.63793081 0.025965098
107 58.5 706 -0.25977609 -0.83949828 -0.47724107 0.025168253
108.66666 58.333332 706.33331 -0.25445884 -0.88018394 -0.40065804 0.019312315
111 58.5 706 -0.10961371 -0.7975657 -0.59318948 0.028395159
113.5 58.5 705.5 -0.16672952 -0.75874019 -0.6296941 0.013249525
116.5 58 706 -0.037570987 -0.79435849 -0.60628617 0.0054144827
118.5 58 706 -0.0047058119 -0.77575707 -0.63101411 0.0021867303
121 58 706 -0.0033742771 -0.79059029 -0.61233616 0.0049296613
123 58 706 0.015904358 -0.80795467 -0.58903003 0.0050955852
126 58 706 0.054458935 -0.80727351 -0.58765942 0.0020212494
128.5 58.5 705.75 0.14789516 -0.77242655 -0.61764413 0.0080397269
131 58.599998 705.79999 0.063058108 -0.76949078 -0.63553727 0.0095396163
133.5 58.5 706 0.11734863 -0.82540023 -0.55221713 0.016819213
136.25 58.75 705.5 -0.079305694 -0.87448263 -0.47852981 0.011435913
138.5 58.5 705.75 -0.12696348 -0.86390585 -0.48738784 0.0091036698
141 58.5 705.75 0.24322955 -0.69856101 -0.67294264 0.013748933
143.33333 58.333332 706.66669 0.27538738 -0.56415188 -0.7783922 0.030462913
145 58 707 0.27278739 -0.57758898 -0.76940107 0.025197806
66.666664 60.333332 705 0.22704993 -0.50520229 -0.83259773 0.039636061
69 61 705 0.31831893 -0.22809368 -0.92013383 0.029331733
71 61 705.22223 0.10671081 -0.28495684 -0.95258194 0.031073177
73.5 61 705.33331 -0.0031330474 -0.28445032 -0.95868564 0.016041907
76.166664 61 705.66669 -0.15111728 -0.51203734 -0.84556562 0.061774924
78.400002 60.799999 705.79999 -0.25165007 -0.57947671 -0.77516383 0.051829517
80.800003 60.599998 705.79999 -0.046764757 -0.81140381 -0.58261216 0.00091464422
83.333336 60.333332 706.33331 -0.081474803 -0.83126289 -0.54987621 0.00069109286
86 60 705.66669 -0.090696089 -0.84103757 -0.53331983 0.0049470877
88.5 60.5 705.5 0.057335902 -0.76560211 -0.64075422 0.00031136727
90.75 60.5 705.5 -0.12245174 -0.73079234 -0.67152667 0.002967824
104 60 706 0.0096236728 -0.73999482 -0.67254382 0.046124075
105.5 60 706 -0.028137315 -0.82018578 -0.57140493 0.057709005
143.66667 60.333332 706 0.42112547 -0.42282686 -0.80241561 0.026684061
145 61 706.66669 0.73962349 -0.2891745 -0.60772961 0.018691273
69 64 705 0.4225646 0.0054928721 -0.90631622 0
71 63.5 705.5 0.15878762 0.059595767 -0.98551244 0.012427274
73.5 63.5 705.5 0.0069441521 0.11774719 -0.99301928 0.0063622035
76.5 63.5 705.5 -0.29316765 0.082262129 -0.95251542 0.017768625
78 63.5 705 -0.59868538 -0.14459997 -0.78782403 0.024474341
145 63.5 705.5 0.97340709 -0.12139458 -0.1942728 0.062503956
69 65.5 705 0.41889483 0.07377132 -0.90503311 0
71 65.5 705.66669 0.16276278 -0.013789834 -0.98656887 0.0046344465
73.5 65.5 706 0.024841741 -0.023592658 -0.99941295 0
76.5 65.5 705.75 -0.29457819 0.20809685 -0.93269467 0.019648369
78 65.5 705 -0.5019179 0.20265609 -0.84083819 0.0089625195
145 65 705 0.64272451 0.035975777 -0.76525217 0.16350994
69 68 705 0.32835352 -0.050929822 -0.94318086 0.02326397
71.199997 68.400002 705.20001 0.24920082 -0.045601752 -0.96737766 0.038199645
73.5 68.5 705.5 0.28154108 -0.067219786 -0.95719182 0.016566489
76.5 68.5 706.5 0.086692445 0.16030788 -0.98325264 0.013765573
78.5 68.5 705.75 -0.18760113 0.29870957 -0.93572348 0.022791076
80.333336 68.666664 705.33331 -0.35498768 0.39817178 -0.84583873 0.0087990826
69 71 705 0.35063335 0.27587652 -0.89495718 0.038819805
71 71 705.33331 0.25399747 0.36690563 -0.89491087 0.017692937
73.5 71 705.83331 0.06954696 0.31479576 -0.94660807 0.0094535882
76.5 71 706 0.064820923 0.22216959 -0.97285086 0.015059238
78.5 71 706.66669 -0.069031455 0.21887805 -0.97330731 0.014275163
81 71 705.88892 -0.12636559 0.48532331 -0.86515492 0.014786901
83.666664 71 705.66669 -0.029235648 0.60198498 -0.79797202 0.0020378963
86 71 705.44446 -0.081775732 0.60311294 -0.7934528 0.0068337191
88.400002 71.199997 705.20001 -0.090051994 0.61820817 -0.78083885 0.0074501033
90.5 71 705.16669 -0.10089274 0.57644075 -0.81088632 0.0146292
93.666664 71.666664 705 -0.021403318 0.60899037 -0.79288882 0.00071044714
96.199997 71.599998 705.20001 0.030972667 0.59060687 -0.80636483 0.0044071954
98.5 71 705 0.1435938 0.54544187 -0.82575661 0.0080923485
101.28571 71.14286 705.71429 0.11758196 0.58200836 -0.80463707 0.0030620899
103.5 71 705.66669 -0.017152647 0.59120494 -0.80633897 0.0058199069
105.71429 70.85714 705.57141 -0.05800847 0.51688582 -0.8540867 0.0035520208
108.4 71.199997 705.79999 -0.13177657 0.4993743 -0.8563062 0.0044581024
110.85714 71.285713 705.14288 -0.086947858 0.5483281 -0.8317309 0.0079811299
113.5 71.5 705 -0.017497363 0.58590722 -0.81018919 0.0088334586
115.5 71.5 705 -0.01810739 0.57374489 -0.81883383 0
118.5 71.5 705 -0.050691836 0.50055432 -0.86421973 0.0034963056
120.8 71.599998 705 -0.059577934 0.46215335 -0.88479644 0.0061840801
123.5 71.5 705 0.030240614 0.42429906 -0.90501708 0.0038741319
126.5 71.5 705 -0.025934083 0.46092486 -0.88706011 0.003533886
128.5 71.5 705 -0.11587116 0.47144419 -0.87425071 0.010942983
130 72 705 -0.13343243 0.43638623 -0.8898105 0.0090778749
136 72 705 -0.032576278 0.52249372 -0.85202062 0.0094741192
67 73.5 705 0.45540878 0.30184847 -0.83755022 0.0039827544
69 73 706 0.3996495 0.30157748 -0.86563927 0.008959379
71 73 706.66669 0.16417679 0.34410173 -0.92446744 0.0076328088
73.5 73 707 0.10318249 0.34262756 -0.93378782 0.0027905814
76.5 73 707 0.089852765 0.40275678 -0.91088611 0
78.5 73 707 0.0063353633 0.4148033 -0.90988904 0
81 73 707 -0.096122645 0.47022066 -0.87729871 0.0092526535
83.5 73 707 -0.044190843 0.57158107 -0.81935477 0.002937872
86 73 707 -0.067543745 0.53550243 -0.84182835 0.00078540476
88.5 73 707 -0.058563132 0.5415644 -0.83861685 0.007407804
91 73 706.5 -0.13495423 0.58539945 -0.79943407 0.0047118333
93.5 73 706 -0.033802617 0.63803577 -0.76926452 0.0095856125
96 73 706.33331 0.046577167 0.59057689 -0.80563611 0
98 73 706 0.072979845 0.4963131 -0.86507064 0.016457839
101 73 707 0.16230379 0.44724905 -0.87955999 0.0057778931
103.5 73 707 -0.044144556 0.39160076 -0.91907567 0.0065584611
106.33334 73 706.66669 -0.099197671 0.26890805 -0.95804405 0.002507353
109 73 706 -0.092796423 0.34377149 -0.93445712 0.00065730017
111.2 73.400002 706.40002 -0.014599021 0.39021233 -0.92060912 0.003994762
113.5 73.5 706.5 0.0096991705 0.41587919 -0.90936816 0.0070288964
116.25 73.5 706.5 -0.057218343 0.38530749 -0.92101258 0.012496609
118.5 73.5 706.25 -0.13782999 0.31030589 -0.94059187 0
121 73.5 705.5 -0.079645477 0.37410191 -0.92396128 0
123 73.5 705.5 0.072731376 0.40072709 -0.91330612 0.0055951346
126 73.5 706 -0.013482316 0.36147749 -0.9322834 0.0044773133
128.5 73.5 705.5 -0.080165684 0.35125327 -0.93284225 0.0053207544
130.8 73.400002 705.40002 -0.087070696 0.44745371 -0.89005834 0.017135659
133.33333 73.666664 705.66669 0.063511901 0.46289873 -0.88413292 0.0015722042
136 73.5 705.5 -0.084819734 0.45530489 -0.88628608 0
138.5 73.5 705.5 -0.024287341 0.47191605 -0.88130891 0.014124716
140.75 73.5 705.5 0.01245667 0.53577513 -0.8442688 0.017700054
143 74 706 -0.0463043 0.44816852 -0.89274907 0.021715393
66 76.5 705.5 0.52030635 0.31635782 -0.7932207 0.0035173045
68.599998 76.199997 706.40002 0.37192515 0.34805498 -0.86054015 0.0080945836
70.800003 75.400002 707 0.26318184 0.30368045 -0.91570383 0.019545181
73 75 707 0.16369349 0.35915628 -0.91880965 0.0077206045
99 75 707 0.080227345 0.45039576 -0.88921714 0.0038443254
100 75 707 0.14040993 0.45413882 -0.87979716 0.006640431
104 75 707 -0.10975614 0.30971542 -0.94447333 0
106 75.5 707 -0.065262325 0.43122938 -0.89987892 0.0047959718
108.5 75.5 707 -0.0059201843 0.51046914 -0.85987574 0.0064089149
110.75 75.75 707 -0.048842955 0.4618772 -0.885598 0.0099713197
113.5 76 707 -0.034899443 0.47900984 -0.87711549 0.01275596
116.66666 76.333336 707 -0.070157588 0.4386023 -0.89593863 0.019079901
118.66666 76.333336 706.66669 -0.083840981 0.49090895 -0.86716729 0.012756887
121 76.333336 706.66669 0.038152907 0.54157478 -0.83978629 0.0061239209
124 76 707 0.032213531 0.49123919 -0.8704288 0.0096455915
126 76 706.5 -0.11339875 0.43701273 -0.89227831 0.0087933075
128.5 76 706.5 -0.065411218 0.42397901 -0.90330684 0.0086862128
130.75 76 706.5 0.0021667848 0.44771963 -0.89417136 0.0068999128
133.5 76 706.5 0.045634277 0.50300485 -0.86307794 0.00087832159
136 76 706.5 -0.017569365 0.5032171 -0.86398143 0.0052685393
138.33333 75.666664 706.33331 -0.044107713 0.46366498 -0.88491201 0.014447
141 76.400002 706.79999 -0.031009858 0.43399677 -0.90038055 0.016662898
65.5 78.5 705.75 0.49576971 0.33620331 -0.80073696 0.0054024234
68 78 707 0.43267658 0.40555131 -0.8051827 0.0054676537
141 78 707 -0.025183277 0.44145292 -0.89693099 0.0082079368
29 -12 708 0.080736019 -0.80037504 -0.59403825 0.0089786313
31 -12 709 0.13077903 -0.83236122 -0.53858298 0.0098747062
33.5 -12 709 0.10058674 -0.84719825 -0.52166784 0.0097637549
38.5 -12 709 -0.05790193 -0.7294696 -0.68155807 0.014579688
40.5 -12 709 -0.059848182 -0.76311594 -0.64348447 0.01977781
43.5 -12 709 0.025921438 -0.72383112 -0.68949014 0.017796876
46 -12 709 0.00609252 -0.76988292 -0.638156 0.022512291
48 -12 709 0.071879283 -0.74384964 -0.66447055 0.018883012
36.5 -10 708 0.062616006 -0.7592814 -0.64774299 0.016870815
38 -10 708 -0.036480043 -0.74467045 -0.66643465 0.023333408
41 -10 708 -0.05039937 -0.71907443 -0.69310313 0.013766294
46 -10 708 0.051476695 -0.77642667 -0.62810177 0.027986439
49 -10 708 0.053924527 -0.81330121 -0.57933873 0.021768425
-96.5 -6 709 -0.067961045 -0.78346533 -0.61770815 0
-94 -6 709 -0.034414139 -0.77284813 -0.63365716 0.0012976665
-91.5 -6 709 0.01669395 -0.720254 -0.69350952 0
-89 -6 709 -0.006828445 -0.74857968 -0.66300964 0.0078657055
-87 -6 709 -0.15185042 -0.85236388 -0.50041723 0.0061284229
-84 -6.6666665 708.33331 -0.27949417 -0.84180707 -0.46178326 0.0099934749
-99 -5 708.33331 -0.094699815 -0.75637984 -0.64724147 0.002728736
-96.5 -5 708 -0.079479702 -0.75714445 -0.64839435 0.0058422694
-94 -5 708 -0.0017276992 -0.75897926 -0.6511125 0.00031610229
-91 -5 708 0.0011329345 -0.75592619 -0.65465575 0
-90 -5 708 0.051269874 -0.7670064 -0.63958782 0.0038345912
66 56 708.5 0.54829532 -0.64333874 -0.53431034 0.0057494924
71.5 57 708 0.093217961 -0.85789698 -0.5052951 0.023472048
93.5 57 708 -0.2171299 -0.78020751 -0.58662671 0.009999102
95.5 57 708 -0.087222889 -0.79116213 -0.60535502 0.0038328455
98.5 56.5 708.5 0.078093223 -0.81079376 -0.58009899 0.027503058
102 57 708 -0.021745779 -0.78704256 -0.61651528 0.06376157
103 57 708 0.13959871 -0.77512825 -0.61618853 0.069955498
109 57 709 -0.17601059 -0.74409533 -0.64447063 0.028782662
111 56.75 708.5 -0.21257031 -0.75680935 -0.61810476 0.0094100498
113.66666 56.333332 708.66669 -0.147248 -0.78256297 -0.60490769 0
116.25 55.75 708.25 -0.12058029 -0.7617861 -0.63650793 0.0029220297
118.33334 55.666668 708.33331 0.023653984 -0.81237459 -0.58265597 0.0068340809
121 56 708 0.0069759036 -0.79230905 -0.61008006 0.0087274816
123.5 56 708 0.031758752 -0.81106633 -0.58409137 0.0075765313
126 56 708.33331 0.088852972 -0.79763103 -0.59656501 0.0069867284
128.5 56.5 708.5 0.043544307 -0.78272295 -0.62084526 0.0025856812
131 56.5 708.16669 0.0786357 -0.72143877 -0.68799889 0.0059384787
133.5 56.5 708.75 0.11357395 -0.70618325 -0.69886053 0.012063118
135.75 56.5 708.5 -0.040742844 -0.75770086 -0.65132898 0.022533806
138.5 56.5 708.5 -0.12969589 -0.809744 -0.57227057 0.0081002163
141.25 56.25 708.75 0.026476786 -0.7824896 -0.62210053 0.0047607189
143 56.5 708.5 0.087335654 -0.77432978 -0.62672639 0.0056134877
67 58 708 0.32232702 -0.8524456 -0.41163307 0.026694898
68.5 58 708 0.13863358 -0.85382408 -0.50176215 0.053673301
70 58 708 0.073977485 -0.88886368 -0.45216009 0.038033739
74 58 709 0.23160602 -0.80117542 -0.55179399 0.012866717
75.800003 58.599998 708.40002 0.12419077 -0.82472807 -0.55172479 0.0053898334
78.5 59 708 0.021439685 -0.84522372 -0.53398228 0.0045849974
81 59 708 0.011360578 -0.85031831 -0.52614623 0.00091657508
83.5 59 708 -0.039610703 -0.88042426 -0.47252944 0.0054649739
86 58.666668 708.33331 -0.089631118 -0.89841133 -0.42991096 0.00062811706
89 58 709 -0.10987499 -0.83182687 -0.54405093 0.011960913
91 58.25 708.75 -0.20762798 -0.78451079 -0.58432293 0.010974276
100.5 58 709 0.1629108 -0.73835742 -0.65443736 0.046856426
104 59 708 0.3190074 -0.70163339 -0.63713807 0.030316237
106 58.25 708.75 0.03200661 -0.74631381 -0.66482413 0.05162587
108 58 709 -0.13784118 -0.81377977 -0.56459033 0.043447971
134 58 708 0.075906619 -0.77060682 -0.63277429 0.028913215
135.5 58 708 -0.083046854 -0.81177378 -0.57803679 0.018431565
-126 66 709 -0.3348611 -0.24727981 -0.9092418 0.013673941
-126 68.5 708.5 -0.40287921 0.15117314 -0.90268207 0.034352075
-128 70 709 -0.28470582 -0.04628269 -0.95749706 0.023158766
-126 70.5 709 -0.33657363 0.23865807 -0.91091192 0.028665913
80 74 708 -0.00086484128 0.3976604 -0.91753227 0.0088776872
71.25 76.75 708 0.2252772 0.53023803 -0.81737256 0.0032790352
73.5 76.5 708.5 0.17289416 0.55765611 -0.81186652 0.0077569457
76 76 708.33331 0.13720939 0.51489091 -0.84620392 0.010966017
78.5 76 708.33331 0.047385544 0.50012147 -0.86465782 0.0093930569
80.666664 76 708.66669 0.099102169 0.51022357 -0.85431296 0.003829119
83.5 75.5 708.75 0.040032327 0.52193135 -0.85204762 0.00174144
86.14286 75.714287 708.42859 -0.1290877 0.49973348 -0.85650623 0.0023392313
88.400002 75.800003 708.20001 -0.15546998 0.51351172 -0.84388077 0.0080229556
91.285713 76.14286 708.28571 -0.07392858 0.50585443 -0.85944515 0.0055675609
93.5 76 708.16669 0.076293111 0.53784811 -0.8395825 0.0036370475
95.5 76 708.33331 -0.021400716 0.53892851 -0.84207958 0.0074549871
98.400002 76.199997 708.20001 -0.074725129 0.5775736 -0.81291133 0.006267183
101.125 76.125 708.25 0.0046919007 0.52910495 -0.84854341 0
103.4 76.199997 708 -0.079712845 0.53914034 -0.83843517 0.0025764175
106.5 77 708 -0.068220414 0.63028002 -0.77336484 0.0023637693
108.5 77 708 -0.034278121 0.6385808 -0.76879096 0.0033451023
111 77 708 -0.031228907 0.61449993 -0.78829861 0.0011548531
114 77 708 -0.051323567 0.60447252 -0.79497099 0
115.5 77 708 -0.048668053 0.48549733 -0.87288243 0.0066228914
118 77 708 -0.073907539 0.64584786 -0.75988042 0.0086393347
124 77 708 -0.038694862 0.54166681 -0.83970219 0.0067720958
68.666664 78.666664 708.33331 0.44729272 0.43946934 -0.77897108 0.0053387699
71 78.5 709 0.31149042 0.4820897 -0.81887931 0.015387554
74 78 709 0.18357864 0.51725 -0.83591342 0.010839911
91 78 709 -0.060466956 0.53164595 -0.84480548 0.0034160204
93.5 78 709 0.041729163 0.5192346 -0.85361236 0
99 78 709 -0.049981471 0.57980961 -0.81321746 0.00065000571
101 78 709 -0.048717123 0.52076823 -0.85230696 0
103 78 709 -0.014231591 0.55552244 -0.83137977 0.0032583077
106 78 709 -1.8393531e-09 0.70710677 -0.70710677 0
108.5 78 709 -0.036236268 0.68404418 -0.72853988 0.0020603111
110.5 78.5 709 -0.076171413 0.59540641 -0.7998057 0.000103282
113.5 78.5 709 -0.034173608 0.48673308 -0.87288207 0
116 78.5 708.66669 -0.051416833 0.45415318 -0.88943863 0.0025612845
118.5 78.5 708.75 -0.024702489 0.52038044 -0.8535772 0.01274726
121 78.5 708.5 0.022082161 0.57258224 -0.8195498 0.004627062
123.5 78.5 708.75 -0.026044577 0.53799397 -0.84254616 0.0049133697
126 78.5 708.16669 -0.14214642 0.54979074 -0.82311881 0
128.5 78.5 708 -0.015724059 0.52658391 -0.84997773 0
131.5 78.5 708 0.038970735 0.54007018 -0.84071726 0.0018177176
133.5 78.5 708.5 0.078311853 0.58084536 -0.81023824 0.0059835282
135.8 78.400002 708.40002 0.044760983 0.56949514 -0.82077509 0.0020140202
138.66667 78.666664 708.66669 -0.14032568 0.54450977 -0.82693279 0.003435357
141 79 708 -0.2075731 0.52151072 -0.82761103 0.0020503809
67 81 708 0.53870004 0.40099853 -0.74094695 0.0047575734
68.333336 81 708.66669 0.5184288 0.41552797 -0.74737412 0.0073334589
116.5 80 709 0.0060210153 0.41665733 -0.90904373 4.7002606e-05
127 80 709 -0.099829979 0.53949684 -0.83604848 0
129 80 709 -0.016127557 0.49543431 -0.8684957 0.0033703605
131 80 709 0.071289465 0.4943583 -0.86633009 0.0033104711
133 80 709 0.097630784 0.50701147 -0.8563922 0
141.2 80.400002 709 -0.45249403 0.42351842 -0.7847811 0.0036558162
66 83.5 708.5 0.55640805 0.48244622 -0.67650259 0
143 83.5 708.5 -0.47000977 0.52631253 -0.70858026 0.026709169
65 85 709 0.63194191 0.37618536 -0.67759418 0.0042461571
31 -13 711.66669 0.14183256 -0.90080374 -0.41040987 0.0033493454
33 -13 712 0.014771544 -0.92135859 -0.38843277 0.0015176981
36 -13 712 -0.08425618 -0.85603273 -0.51000863 0
38.5 -13 711.5 -0.12368326 -0.8736282 -0.4706125 0.0038076197
40.666668 -13.333333 711.33331 -0.022254664 -0.87407094 -0.48528838 0.001069013
43.5 -13 711 0.0065962453 -0.84798908 -0.52997261 0.0036286844
45.799999 -13.4 711.40002 -0.034566011 -0.84230268 -0.53789538 0.0056557758
48 -13 711 0.10137171 -0.85097957 -0.5153228 0.0082682623
50.5 -13 712 0.20075901 -0.86465609 -0.46050587 0.0002797528
36.5 -12 710 -0.028004982 -0.79912251 -0.60051548 0.026959829
46 -12 710 0.0060982597 -0.76993829 -0.6380893 0.022709657
51 -12 710.33331 0.25916398 -0.78116804 -0.56798804 0.007849616
-98 -8 712 -0.056663252 -0.86445582 -0.49950513 0.0081666857
-97 -8 712 -0.03386135 -0.88235104 -0.469372 0.0077806776
-93.5 -8 712 -0.069456868 -0.9010219 -0.42817676 0.00096331647
-91 -8 712 0.0040149996 -0.90104866 -0.43369946 0.00079456641
-88 -8 712 -0.051648576 -0.85354203 -0.51845765 0.009248211
-86.5 -8 712 -0.13599792 -0.83894068 -0.52695656 0.0015985535
-83.5 -8 711 -0.21393764 -0.83718795 -0.50333583 0.0074796258
-82 -9 711 -0.24008808 -0.83752596 -0.49082375 0.006410297
-98.5 -6.5 710.5 -0.17311497 -0.78738177 -0.59165961 0
-96.5 -7 710.5 -0.021733154 -0.85760856 -0.51384354 0.0081266146
-94.5 -7 710.5 -0.050212897 -0.86601251 -0.49749482 0.0043744794
-91.5 -7 710 -0.0088869007 -0.81676018 -0.57690889 0.0064541814
-89 -7 710.33331 -0.00042604498 -0.84100068 -0.54103392 0.0064024888
-87 -7 710 -0.12670633 -0.86130255 -0.49203998 0.0065555521
-85 -7 710 -0.21745379 -0.82497805 -0.52165604 0.0078987889
66 53.5 711.5 0.26292431 -0.81246889 -0.52035087 0.020288851
106 54 712 -0.025641188 -0.86680728 -0.49798369 0.01082261
108 54 712 0.0049236994 -0.85765904 -0.5141952 0.0080828127
112 54 712 -0.053654883 -0.89415884 -0.44452345 0.0071004373
113.5 54 712 -0.094520733 -0.85914457 -0.5029279 0.001006623
116.33334 54 711.66669 -0.078497097 -0.84857905 -0.52321303 0.00049340288
119 54 711 0.045100059 -0.89062577 -0.45249489 0.0034415801
121 54 712 0.063174099 -0.88473094 -0.4618012 0.0036472001
123 54 712 -0.0037520078 -0.82217121 -0.56922787 0.0060043056
126 54 712 0.030680291 -0.82831067 -0.55942827 0.0096809119
128.5 54 712 0.0061913617 -0.86879498 -0.49513337 0.0028025273
130.5 54 712 -0.040717147 -0.87654281 -0.47959858 0.0046021412
133.5 54 712 0.06717851 -0.85355705 -0.5166502 0.003941284
135 54 712 0.10826275 -0.85173154 -0.51267201 0.0050394093
143.5 54 712 -0.16004373 -0.79873192 -0.58001137 0.0015176103
66.5 55 710 0.49410123 -0.6765123 -0.54607242 0.0078997472
68.5 56.25 710.75 0.33507943 -0.73546356 -0.58891016 0.014006229
70.75 56.5 711 0.13486505 -0.87006587 -0.47412741 0.027946144
73.333336 56.666668 711 0.19437669 -0.90475851 -0.37898505 0.0091474084
76 57 711.33331 0.12024431 -0.88551879 -0.44877362 0.0042840922
79 57 712 -0.0052910564 -0.88047045 -0.47407153 0.0021158096
81 57 711.33331 -0.070960902 -0.85279077 -0.51740932 0.0081386473
83.666664 56.333332 711.66669 -0.061824713 -0.82274991 -0.56503117 0.0049377922
86 56.333332 711.33331 -0.12463973 -0.76387173 -0.63321787 0.015341292
88.5 56 711.5 -0.20040774 -0.76494235 -0.61212742 0.0053783162
91 55.833332 711.16669 -0.14920801 -0.74857557 -0.646043 0.0032338002
93.333336 55.666668 710.33331 -0.18034391 -0.78460759 -0.5931837 0.01006047
96.199997 55.400002 710.59998 -0.07933905 -0.85304654 -0.51576829 0.00038843503
98.5 55 710 0.11113979 -0.81415617 -0.56991017 0.026580587
100.8 55.599998 710.40002 0.055964917 -0.80308604 -0.59322912 0.033888251
103.66666 55.333332 710.66669 -0.04761922 -0.84713507 -0.52923965 0.00083102944
106 55.5 710.5 -0.013596011 -0.65643388 -0.75426114 0.0076926243
108.5 55.5 710.5 -0.12847316 -0.64056253 -0.75708282 0.014828295
111 55.333332 710.33331 -0.12838729 -0.80175889 -0.58369458 0.0095838234
113.5 55 710 -0.14367345 -0.81389976 -0.56296104 0.003669909
115.5 55 710 -0.11561457 -0.83083534 -0.54437655 0.0003206344
121 55 710 0.054338921 -0.88278377 -0.46662629 0.00047028347
123.5 55 710 0.011984454 -0.88794219 -0.4597989 0
125.5 55 710 -0.0046185777 -0.86926115 -0.49433169 0.0037371486
128.5 55 710 0.015437832 -0.84547454 -0.53379244 0.0018789276
131 55 710 0.024289755 -0.80082679 -0.59840328 0.00069470034
133.5 55 710 0.078666478 -0.80627018 -0.58629346 0.0038221003
136.5 55 711 0.093002394 -0.85746545 -0.50606674 0.0018221391
138.5 55 711 0.0019066995 -0.85247827 -0.5227592 3.2622982e-05
141.33333 55 710.66669 -0.097970918 -0.82715416 -0.55336934 0.0011443789
144 55 710 0.0084914286 -0.77213156 -0.63540608 0.0018824298
77 58 710 0.11859097 -0.87153047 -0.47578442 0.0010253423
78.5 58 710 0.023128243 -0.86932534 -0.49369881 0
81.5 58 710 -0.068377689 -0.8491748 -0.52366656 0.0077918242
83.5 58 710 -0.079401039 -0.78470206 -0.61476672 0
85.5 58 710 -0.084660187 -0.82987434 -0.55149001 0.0095870811
-141.5 64 711 -0.19039693 -0.64713776 -0.73821527 0.030470002
-139 64 711 0.11993064 -0.6395238 -0.75935894 0.019444108
-133.5 64 711 -0.07115896 -0.60264742 -0.79482865 0.044980969
-131 64 711 -0.057346113 -0.63489687 -0.77046573 0.054364156
-128.8 63.599998 711.20001 -0.21598761 -0.60953021 -0.76277268 0.031954814
-126.66666 63.333332 711 -0.20688708 -0.63365984 -0.74543476 0.030973647
-173.5 67 712 -0.21433493 -0.28910434 -0.93299478 0.043361019
-172 67 712 -0.022389811 -0.42745981 -0.90375704 0.015513597
-169.5 67 712 0.16684316 -0.3753899 -0.91172683 0.026208
-161 67 712 -0.11657415 -0.39505401 -0.91123152 0.017618511
-159 67 712 0.011111601 -0.31994817 -0.94736993 0.013721243
-156.33333 66.666664 712 -0.11460154 -0.55583483 -0.82335538 0.016107157
-153.5 66.5 711.5 -0.041890293 -0.49022916 -0.87058634 0.0088935653
-151.5 66.5 711.5 0.02601679 -0.46523196 -0.88480645 0.0081324289
