ply
format ascii 1.0
comment PCL generated
element vertex 747
property float x
property float y
property float z
property float nx
property float ny
property float nz
property float curvature
element camera 0
property float view_px
property float view_py
property float view_pz
property float x_axisx
property float x_axisy
property float x_axisz
property float y_axisx
property float y_axisy
property float y_axisz
property float z_axisx
property float z_axisy
property float z_axisz
property float focal
property float scalex
property float scaley
property float centerx
property float centery
property int viewportx
property int viewporty
property float k1
property float k2
end_header
-1.6666666 -109.66666 597 0.43604711 0.42374676 -0.79391527 0.070878491
-8 -107 597 -0.38095048 0.84740686 -0.3698357 0.061505627
-6.5 -107 597 0 0.89865351 -0.43865925 0.032736279
-5 -107 597 0.39328289 0.83105785 -0.39328289 0.04938769
-21 -42 597 -0.11968976 -0.012179163 -0.9927367 0.086052381
59 57 597 -0.23410589 -0.86592209 -0.44201076 0.0033470301
61.25 56.75 596.5 -0.21340331 -0.83362257 -0.50944322 0.0095048854
63.5 56.5 596.25 -0.062347576 -0.76839972 -0.63692594 0.0047560651
66 56.5 596 -0.061322007 -0.77123809 -0.63358617 0.0057658274
68.5 56 596 -0.12650214 -0.80282462 -0.58264035 0.010076726
71.125 55.75 596.25 0.020984381 -0.71851736 -0.6951924 0.0016818243
73.5 56 596 0.041673962 -0.72142386 -0.6912387 0.0051576635
76.14286 56.285713 595.85712 0.14981423 -0.56458676 -0.81166339 0.030148724
78.5 56 596.83331 0.37714964 -0.30853677 -0.87324858 0.037747823
-11.5 58.5 597 -0.37823161 -0.14208931 -0.91474122 0.04330904
-9 58.5 596.5 -0.019349277 -0.69297278 -0.72070408 0.023286467
-6.5 59 597 0.2016512 -0.8228814 -0.53122777 0.014151614
-4 59 597 0 -0.89442724 -0.44721362 0
-1.5 59 597 0.071899943 -0.85826349 -0.50814784 0.0068535991
0 59 597 0.13023029 -0.82895845 -0.5439375 0.0074000186
8.5 59 597 0.042959195 -0.83402437 -0.55005258 0.039696857
11.5 59 597 -0.16352487 -0.69758856 -0.69758856 0.0070997076
13.5 58.75 596.75 -0.39089939 -0.67331582 -0.6275695 0.015545479
16 58.5 596.5 0.021828115 -0.76851863 -0.63945508 0.003790617
18.5 59 596 6.585445e-10 -0.70710677 -0.70710677 0
21 59 596.33331 0.10418099 -0.82448071 -0.55621743 0.0075839013
23.5 59 597 0.050858811 -0.75349003 -0.65548927 0.0051268674
26 59 597 -0.03389186 -0.73859918 -0.67329234 0.0034179117
28.5 59 596.5 -0.14138845 -0.83519775 -0.53146404 0.0059360573
31.200001 58.599998 596.20001 -0.15675853 -0.84737211 -0.5073334 0.0059769284
33.5 58.5 596 0.12380105 -0.80996275 -0.57326573 0.012077479
35.75 58.75 596.25 0.079057872 -0.74195862 -0.66576821 0.0078727566
38.5 59 596 -2.405812e-09 -0.70710683 -0.70710683 0
41 59 596.33331 0.16756977 -0.73065042 -0.66186881 0.012845263
43.5 59 597 -0.082576551 -0.71764714 -0.69149387 0.01048483
45.75 59 596.5 -0.076381922 -0.79370755 -0.60348505 0.036953498
48.5 59 596 0.11281589 -0.82793981 -0.54935253 0.0090487842
51 59 596.66669 -0.04365135 -0.88346279 -0.46646336 0.011675499
53.5 59 596 -0.081053488 -0.83164054 -0.54936713 0.012204697
56 58.5 596 -0.29728532 -0.82746238 -0.47636902 0.0056978483
58.5 58 595.5 -0.23410589 -0.86592209 -0.44201076 0.0033470301
60 58 595 -0.23410589 -0.86592209 -0.44201076 0.0033470301
76.199997 58.400002 595.40002 0.54260194 -0.069502577 -0.83710963 0.030473072
78.333336 58.333332 596.66669 0.60971814 0.25790223 -0.74948663 0.023751041
-11.333333 60.333332 597 -0.56478781 0.27630302 -0.77760625 0.029267749
-9.2857141 60.857143 595.57141 -0.64798874 -0.12523434 -0.75128347 0.019355971
-6.5 60 595 -0.016029667 -0.79847395 -0.60181594 0.0030976827
-4 60 595 0.03868873 -0.89305794 -0.44827518 0.0014743851
-1.5 60 595.5 0.17214999 -0.83707958 -0.51928997 0.011375997
1 60.5 595.66669 0.14122713 -0.81532878 -0.56151026 0.0099042347
3.5 60.5 596 0.03873843 -0.82566279 -0.56283242 0.0037083076
6 60.5 596 -0.074102722 -0.81649894 -0.57257169 0.006611295
8.5 60.5 595.5 0 -0.79249424 -0.60987926 0.011561862
11 60.333332 595.83331 -0.07726863 -0.79052997 -0.6075294 0.013075699
13.5 60 595.5 -0.24191211 -0.7421245 -0.6250838 0.01601341
16 60 595 0 -0.70710683 -0.70710683 0
18.5 60 595 0 -0.70710683 -0.70710683 0
21 60 595 4.3902967e-10 -0.70710683 -0.70710683 0
23.5 60 595 0 -0.70710683 -0.70710683 0
26 60 595 0 -0.70710683 -0.70710683 0
28.5 60 595 -0.072219409 -0.73547626 -0.67369062 0.0082384013
36 60 595 0.083929569 -0.71811324 -0.69084662 0.0050380239
38.5 60 595 -8.0139062e-10 -0.70710683 -0.70710683 0
41.200001 60.200001 595.40002 0.10158298 -0.72957516 -0.67631429 0.0095083676
43.333332 60.333332 595.66669 -0.12687418 -0.76916105 -0.62633395 0.0098821754
46 60 595.33331 -0.088558584 -0.8022123 -0.59043443 0.03230378
48.5 60 595 0.018064255 -0.76522714 -0.64350688 0.0038359207
51 60 595 -0.010727311 -0.82303172 -0.5678941 0.0091294302
53.5 60 595 -0.11063249 -0.81846243 -0.5638082 0.009496225
74 62 595 0.66929018 0.32264736 -0.66929018 0.014199421
76.125 61.125 596 0.53692675 0.41888967 -0.73228484 0.024435909
78 60.5 597 0.69758856 0.16352487 -0.69758856 0.0070997104
-9 63.5 596.25 -0.78701466 0.39390153 -0.47481525 0.0057814843
73.666664 63.666668 595 0.61620831 0.26888689 -0.74026155 0.020675529
75.5 63.5 596.5 0.65279818 0.17572257 -0.7368691 0.013855806
-8 65.5 596.5 -0.79266948 0.43128723 -0.43089026 0.005384577
-6.6666665 66.666664 595.66669 -0.7852869 0.33594084 -0.52006555 0.0090143941
73.5 66 595.83331 0.66225278 0.20675467 -0.72019017 0.01978983
75 65.5 597 0.46884841 0.37533611 -0.7995649 0.014738349
-6.3333335 68.333336 595.66669 -0.78822726 0.27483848 -0.55060101 0.0095628286
72 68.5 595 0.52478689 0.32902175 -0.78507543 0.027748009
73.5 68.5 596.25 0.73276782 0.12247498 -0.66936624 0.022856977
-6 71 596.66669 -0.82053787 0.29234296 -0.49117529 0.0059745871
-4.75 71.25 595.25 -0.68037575 0.3523269 -0.64261544 0.01279905
71.199997 70.800003 595.40002 0.54185438 0.40803289 -0.73478091 0.018615101
74 70 597 0.62315047 0.34336847 -0.70269603 0.018290924
-4 73.599998 595.79999 -0.73084748 0.2504029 -0.63494921 0.01140905
68.5 73.5 595 0.52625996 0.39657822 -0.75218093 0.01536601
70.5 73.5 596.5 0.65817034 0.40104485 -0.63716155 0.0074060941
-3.5 76 596 -0.68753546 0.31529564 -0.65412813 0.022134855
-2 76.5 595.5 -0.61067837 0.43272081 -0.66319269 0.03429459
67 76 595 0.63300747 0.25835946 -0.72976154 0.011764433
68.666664 76.333336 596.33331 0.6296922 0.32552746 -0.70535076 0.0080158999
70 75 597 0.64599717 0.38135314 -0.66125453 0.0081236279
-3 79 597 -0.70710683 0 -0.70710683 0
-1.6666666 78.666664 595.66669 -0.73934442 0.11609899 -0.6632427 0.014344911
66.333336 78.666664 595.33331 0.59873176 0.37038878 -0.71016371 0.0076129511
68 78.5 597 0.6765669 0.37902221 -0.6313473 0.011032199
-3 80 597 -0.66683948 0.25228459 -0.70119727 0.015838025
-1.5 81 596 -0.72575456 0.1388748 -0.67379087 0.0086394232
64 82 596 0.74239612 0.45258796 -0.49397591 0.0075167753
65.666664 80.666664 596.33331 0.57784003 0.49924925 -0.64564002 0.0079686381
-1.5 83.5 596.5 -0.69758856 0.16352484 -0.69758856 0.0070997104
0 83.5 595 -0.77635467 0.2476757 -0.57959485 0.012256261
62 84 595 0.77494097 0.34255016 -0.53115529 0.0093046073
63.5 83.5 596.25 0.73994255 0.41283041 -0.53108948 0.0081135109
-1 85.5 597 -0.71309066 0.33972713 -0.61325949 0.014981274
0.40000001 86.199997 595.59998 -0.72909945 0.07996811 -0.67971992 0.0056126127
61.75 86.25 595.75 0.76107931 0.33504397 -0.55543125 0.024962012
63 85.5 597 0.73944956 0.26931387 -0.61699629 0.010673771
0.5 88.5 595.75 -0.77726513 0.13894568 -0.61363924 0.0089383032
61 88.5 596.16669 0.69373685 0.4542833 -0.55888808 0.03150643
1 91 596 -0.73876113 0.090352029 -0.66788357 0.0078722984
59 91 595.33331 0.79464072 0.2940782 -0.53109705 0.0063015479
60 91 596.66669 0.80172205 0.30683929 -0.51292431 0.0059206281
1.5 93.5 596 -0.7550537 0.22588311 -0.61552477 0.014073947
58.5 93.5 596 0.74633068 0.34335116 -0.57017583 0.011417019
1.75 95.75 596.5 -0.70643204 0.28368896 -0.64843994 0.017650859
3.25 96.25 595.5 -0.66837078 0.32566038 -0.66874945 0.021060474
56.333332 96.166664 595.16669 0.50605106 0.44284505 -0.74013561 0.020001858
58 96 596.66669 0.74552172 0.36819816 -0.55554247 0.01441395
3.6666667 98.333336 596.33331 -0.71576893 0.3532753 -0.60238808 0.013516878
5 98.5 595 -0.67068595 0.34990364 -0.6540243 0.010868169
53.5 98.5 595 0.58022922 0.49144012 -0.64947718 0.012822211
55.666668 98.666664 597 0.5739547 0.53753209 -0.61776626 0.025537746
4 100.5 597 -0.76305807 0.36387804 -0.53416783 0.0076478329
5.5999999 101.2 595.79999 -0.67888749 0.37349367 -0.63215059 0.010451666
51.599998 101.2 595.20001 0.62730688 0.38225031 -0.67850626 0.016082631
53.5 100.75 596.5 0.57670557 0.42674118 -0.69663674 0.013825453
55 100 597 0.70919949 0.47943249 -0.51689512 0.01877543
6.6666665 103.66666 596.33331 -0.73647648 0.32704669 -0.59215099 0.0096439999
8 104 595 -0.80774093 0.30445552 -0.50483817 0.0059463098
50.75 103.75 596.25 0.56811494 0.50324827 -0.65114242 0.014517328
53 103 597 0.62450641 0.45490712 -0.6348632 0.025081079
7 106 597 -0.73879832 0.28902459 -0.60880357 0.0060045356
8.25 106.25 595.5 -0.79192883 0.20569226 -0.5749256 0.0075424481
48.75 106.25 596 0.72832537 0.46115223 -0.50683403 0.0093316734
50.5 105 597 0.54213464 0.43254736 -0.7204116 0.023782948
8.5 108.5 595.75 -0.80724758 0.17191519 -0.56462061 0.010357057
46.666668 108.66666 595.33331 0.71110016 0.53710723 -0.45370966 0.0069355294
48 108 597 0.63369298 0.48470011 -0.60290885 0.028118361
8.6000004 110.8 596.40002 -0.79079366 0.19955039 -0.5786407 0.01445072
10 112 595 -0.75702465 0.41160432 -0.50744033 0.035596043
44 112 595 0.81649661 0.40824831 -0.40824831 0
45.400002 110.8 596.20001 0.71585888 0.48446676 -0.50283003 0.0085263327
9 113 597 -0.72624993 0.43093061 -0.53559309 0.0080311811
10.5 113.5 596 -0.81698549 0.39318874 -0.42182606 0.031361446
43.666668 113.66666 596 0.74824107 0.47514263 -0.46300611 0.0074005709
45 113 597 0.74635446 0.43276975 -0.50563371 0.0060637803
11.4 116 596 -0.8731038 0.42542464 -0.23812541 0.025957569
41.200001 116.2 595.59998 0.6386683 0.60057122 -0.48105821 0.0075519397
43 115 597 0.71528912 0.56726569 -0.4081313 0.0037123277
12 118 597 -0.85728848 0.49159613 -0.15293705 0.016683059
13 118.5 596 -0.6325956 0.65936118 -0.4062826 0.0141347
39 118 595 0.57735032 0.57735032 -0.57735026 0
41 118 597 0.66426164 0.58136857 -0.46985868 0.0086519634
16 120 595 -0.58709383 0.74201453 -0.32362837 0.0028550792
37 120 595 0.66610432 0.60489994 -0.43634981 0.0044803992
-86.5 131 597 -0.013571679 -0.093883865 -0.99549061 0.13423179
-84 131 597 0.11756163 -0.17743978 -0.97708464 0.1289199
-18.5 -143 598.5 -0.40436074 0.10152458 -0.90894729 0.010351818
-16.5 -143 598.5 0.13605687 0.18790685 -0.97271758 0.0038598226
-14 -143 598.66669 0 1 0 0
-11.5 -143 599 0 1 0 0
-9 -143 598.66669 -0.038855474 0.99840546 -0.040948424 0.014190207
-7 -143 598 -0.29027963 0.9379465 -0.18972117 0.030674515
1.5 -143 598.5 0.26888219 0.93323404 -0.23827851 0.081730373
3 -143 598 0.03659422 0.97536099 -0.21755897 0.083975919
-6 -141.5 599 -0.57477754 -0.12352321 -0.80893308 0.064197272
-4 -141.66667 598.88892 0.019692117 0.11126727 -0.99359542 0.032181162
-1.6 -141.60001 599 0.20978233 -0.35358259 -0.91157597 0.053966314
0 -141 599 0.39442214 -0.39442214 -0.82997733 0.028433036
8 -142 599 0.033902813 -0.0108342 -0.9993664 0.089308701
10.5 -142 599 -0.092506863 0.89482397 -0.43672937 0.10874018
-8.8000002 -138.60001 598.79999 -0.46416077 -0.41582581 -0.78207648 0.01791963
-6.5 -138.75 598.25 -0.31836975 -0.40238649 -0.85832733 0.029400883
-3.8 -138.60001 598 0.06102309 -0.36319941 -0.92971092 0.0270861
-1.5 -138.5 598 0.15720038 -0.37263623 -0.91456562 0.024044242
1 -139.5 599 0.14344068 -0.27623963 -0.95032436 0.027002603
3.5 -139 599 0.27676427 -0.19985569 -0.93992513 0.034053314
-13.75 -136.25 599 -0.22925952 -0.52719092 -0.81823581 0.028198397
-11.5 -136.5 598.75 -0.22668022 -0.52503526 -0.82033783 0.032235183
-8.8571424 -136.28572 598.14288 -0.17106991 -0.43636283 -0.88335872 0.021286054
-7 -137 598 -0.34025913 -0.34025913 -0.87661141 0.047077164
1.2 -136.60001 598 0.21929246 -0.42514798 -0.87815714 0.027705783
3.5 -136 598 0.27003214 -0.39181331 -0.87952542 0.027873058
5 -136.5 599 0.57470769 -0.35834044 -0.73573309 0.013782356
-18 -134 599 -0.43132868 -0.13358091 -0.8922509 0.038286757
-16.5 -134 598.83331 -0.25154653 -0.26414004 -0.93110389 0.03472935
-14.142858 -134.28572 598.14288 -0.26363567 -0.42667744 -0.86512583 0.028546974
-11.5 -135 598 -0.18409915 -0.47408235 -0.86101878 0.030527938
4 -134.5 598 0.16246372 -0.086056374 -0.98295462 0.014076862
5.875 -133.875 598.25 0.38169897 -0.33491629 -0.86147374 0.032183442
8 -133 599 0.66929018 -0.32264736 -0.66929018 0.014199421
-18 -132 599 -0.49698219 0.19544926 -0.8454634 0.033740375
-16.5 -131.5 598.5 -0.53552556 0.059970289 -0.84238702 0.029395957
-15 -131.5 598 -0.44733459 -0.13866311 -0.88355213 0.032801487
6.6666665 -131.66667 598 0.38042033 -0.35107306 -0.85558641 0.032494638
8.333333 -131.33333 598.66669 0.48527706 -0.44674861 -0.75161284 0.024221415
10 -131 599 0.32264736 -0.66929018 -0.66929018 0.014199415
-18.799999 -128.39999 598.79999 -0.44177651 -0.33120039 -0.83375049 0.042285334
-16.5 -129 598.33331 -0.52715755 -0.2504909 -0.81200945 0.030172186
8.5 -130 598 0.31800306 -0.58222944 -0.74825323 0.025905769
11 -129 598.44446 0.46577099 -0.30457327 -0.83083844 0.033534843
13 -128 599 0.58229339 -0.240172 -0.77669299 0.061343644
-18.5 -126.5 598.5 -0.57235396 0.04177469 -0.81894189 0.021610562
-16.666666 -126.66666 598 -0.23347284 -0.10708512 -0.96644878 0.027570441
11 -126.5 598.33331 0.43850291 -0.026691157 -0.89833331 0.032736287
13 -126.5 599 0.44575265 -0.044905238 -0.89402914 0.048077244
-19 -123.88889 598.66669 -0.54081106 -0.15036874 -0.82759458 0.035949819
-17 -125 598 -0.41258112 -0.21619098 -0.88489449 0.031883918
9 -123.5 598 0.38892487 0.14838906 -0.90924037 0.042283889
11 -124 598.33331 0.39694965 0.094241343 -0.91298932 0.025389114
13 -125 599 0.49698219 0.19544926 -0.8454634 0.033740375
-19 -121.5 598.5 -0.52503151 -0.19863728 -0.82757801 0.035050411
-17 -121 598 -0.48248807 -0.001076721 -0.87590194 0.04868558
8.5 -121.5 598.25 0.42788407 0.19246131 -0.88310468 0.056577139
11 -121.5 598.83331 0.33909723 0.20428763 -0.91830254 0.058924597
-19.222221 -118.88889 598.44446 -0.61300832 0.18548223 -0.7679956 0.031451449
7 -118.5 598 0.46942952 0.11818336 -0.87502491 0.033238329
8.5 -119 598 0.21288885 0.013775441 -0.97697932 0.037503432
10.714286 -119.14286 598.85712 0.37681624 0.086437747 -0.92224616 0.054437347
-18.4 -116.6 598.59998 -0.6326775 0.46266633 -0.62101454 0.020367453
-17 -116 598 -0.54572612 0.49489361 -0.67621249 0.036441926
6.3333335 -116.16666 598.33331 0.25318965 0.64463794 -0.72134382 0.076035611
8.3999996 -116.6 598.40002 0.42328915 0.46980402 -0.77466804 0.067795858
10.5 -117 599 0.29971138 0.14104319 -0.94354647 0.066696465
-18 -114.5 599 -0.69322252 0.31034094 -0.65048528 0.031520162
-16.428572 -113.85714 598.14288 -0.42845461 0.49962965 -0.75285918 0.072937384
-15 -113 598 -0.55226952 0.56566244 -0.61239237 0.043672338
3.8 -113.6 598.20001 0.53134859 0.44757926 -0.71926457 0.054058265
5.3333335 -114.16666 598.66669 0.52900684 0.4090403 -0.74353063 0.046398107
-14.2 -111.6 598.40002 -0.5789355 0.57104963 -0.58201039 0.035758831
1.3333334 -111.5 598.5 0.40380952 0.64833218 -0.64544815 0.046526995
3.25 -111.75 598.75 0.34500575 0.57456088 -0.74219328 0.076779328
-13.5 -109.5 599 -0.42384663 0.33486879 -0.84155631 0.043334458
-11.6 -108.8 598.40002 -0.6165567 0.48201784 -0.62250841 0.033237047
-9.5 -108 598 -0.36999848 0.63183022 -0.6810959 0.10761065
-3.5 -108 598 0.33416831 0.7200858 -0.60811836 0.07315845
-1.4 -108.8 598.20001 0.53390694 0.53723037 -0.65293723 0.039350495
0.25 -109.25 599 0.50399315 0.3710641 -0.77993739 0.032470021
-11 -107 599 -0.53316081 0.53316081 -0.65687078 0.014216077
-9 -106.5 598.5 -0.24110246 0.62347835 -0.74373668 0.051954191
-6.5 -106.5 598.5 0.016515721 0.79394096 -0.6077705 0.026667323
-4 -106.5 598.83331 0.15682974 0.41074717 -0.89815992 0.040445302
-2 -107 599 0.42003411 0.54894018 -0.72265905 0.029728996
-8.5 -105 599 0 0.50675553 -0.86208981 0.033740375
-4 -105 599 0.047297064 0.42930177 -0.90192187 0.038002633
-23 -44.200001 599 -0.44320333 -0.28111184 -0.85120326 0.028211962
-21.571428 -43.857143 598.28571 -0.2178943 -0.41411868 -0.88375783 0.042123321
-19.125 -43.875 598.75 0.34793153 -0.3737298 -0.85980797 0.031587977
-23 -41.5 599 -0.67908227 0.059375707 -0.73165685 0.011772981
-21.666666 -41.333332 598 -0.32016316 0.4348124 -0.841685 0.047475029
-19 -41.5 598.66669 0.38748196 0.35682935 -0.85001796 0.050905868
-23 -39.5 599 -0.51634711 0.26277837 -0.8150664 0.04113289
-21.5 -39.5 599 0 0.35848555 -0.93353528 0.041781843
-19.666666 -39.666668 599 0.2626597 0.36397296 -0.89360708 0.039982352
66 54 599 -0.07353384 -0.77385783 -0.62907612 0.019648381
68.5 54 599 -0.098190404 -0.9574008 -0.27155554 0.040038429
71 54 598 0.034544047 -0.89067435 -0.45332754 0.023255706
73.5 54 599 -0.0045321682 -0.94892228 -0.31547734 0.026023107
76 54 599 -0.054626565 -0.91101652 -0.40873554 0.038623754
78.75 53.75 598.25 -0.07234633 -0.76102215 -0.64467919 0.02704509
80.666664 53.666668 598.66669 0.38218153 -0.66650987 -0.64007962 0.04484855
-13.333333 56.666668 598.66669 -0.610425 -0.47835997 -0.6313107 0.053866535
-11.5 57 598.5 0.11207025 -0.93455625 -0.33770531 0.053046096
-9 57 599 0.12123607 -0.9758907 -0.1814913 0.01895103
14 57 599 0.51834536 0.84408426 -0.13725829 0.023728587
16 57 599 0.19989449 -0.84071606 -0.50322843 0.025956994
18.5 57 599 0.04001892 -0.8979336 -0.43830785 0.032736279
21 57 599 0 -0.86131835 -0.5080657 0.028592318
23.5 57 599 0 -0.89865351 -0.43865925 0.032736279
26 57 599 0 -0.86131835 -0.5080657 0.028592318
28.5 57 599 0 -0.89865351 -0.43865925 0.032736279
31 57 599 -0.0099970838 -0.96077389 -0.27715284 0.02109603
33.666668 56.666668 599 -0.27877012 -0.86916524 -0.40845925 0.063919052
35.75 56.75 598.75 0.27417785 -0.82853991 -0.4882091 0.047818102
38.5 57 599 0 -0.89865351 -0.43865925 0.032736279
41 57 599 0.04232223 -0.87733954 -0.47799999 0.082434781
43 57 599 0.29226819 -0.92391044 -0.24691865 0.059019465
46 57 599 -0.06886588 -0.96914738 -0.23666619 0.071502618
53.5 57 599 -0.18732099 -0.91721451 -0.35160825 0.045541126
56 57 598.66669 -0.069072679 -0.96968383 -0.23439795 0.032496456
58.5 56.5 598.5 -0.2481534 -0.95177466 -0.18040176 0.025618356
61 55.666668 598.66669 -0.38187578 -0.89423299 -0.23349148 0.025242537
63.5 55 598 -0.15571479 -0.88902062 -0.43057552 0.046584275
66 55 598 0 -0.70710683 -0.70710683 0
68 55 598 -0.14735191 -0.77661568 -0.61249948 0.012948992
76 55 598 -0.0420499 -0.82205564 -0.56785238 0.029225798
81 56 598.5 0.647461 -0.043791268 -0.76083934 0.030238867
-13.333333 58.333332 598.33331 -0.76869154 -0.039785203 -0.63838112 0.022390798
-6.5 58 598.5 0.19605713 -0.93015933 -0.31042761 0.025991116
-4 58 599 -0.014460738 -0.99463719 -0.10241005 0.0040470022
-1.5 58 599 0 -1 0 0
1.2 58.400002 598.59998 0.063882887 -0.8874442 -0.45646656 0.024856132
3.3333333 58.666668 598.33331 0.016532522 -0.81067777 -0.5852592 0.026294028
5.75 58.75 598.25 0.042587232 -0.88828927 -0.45730561 0.050658196
8.5 58 599 -0.16136427 -0.95622861 -0.2441075 0.023672804
10.75 58.25 598.25 -0.055711288 -0.83215404 -0.55173904 0.027737346
13 58 598 -0.23977244 -0.75543612 -0.60977495 0.021262821
18.5 58 598 0.069260135 -0.85434717 -0.51506698 0.019166455
21 58 598 4.3902967e-10 -0.70710683 -0.70710683 0
23.5 58 598 0 -0.70710683 -0.70710683 0
26 58 598 0 -0.70710683 -0.70710683 0
28.5 58 598 -6.585445e-10 -0.70710677 -0.70710677 0
30 58 598 -0.13808002 -0.82645148 -0.54581308 0.0075399312
36.5 58 598 0.15328397 -0.83601129 -0.52686727 0.02051441
38.5 58 598 -0.008168594 -0.76912862 -0.63904184 0.0099331075
41 58 598.66669 -0.012881133 -0.78039086 -0.62515932 0.05878697
43.5 58 598 0.079467751 -0.80821598 -0.58349961 0.034950413
46.25 58 598.25 -0.11759035 -0.88049835 -0.45923331 0.052256018
48.5 58 598 0.06086392 -0.98754436 -0.1450921 0.0073562362
51 58 598.66669 -0.034205429 -0.9502669 -0.30955246 0.028246505
53.5 58 598 -0.15253249 -0.83772737 -0.52435356 0.036251225
55 58 598 -0.18464626 -0.81484514 -0.54948443 0.01132061
79 59 598 0.65561372 0.21363489 -0.72424501 0.010110377
81 58.5 599 0.55928141 0.31530324 -0.76667345 0.011839714
-13 60 599 -0.8283639 0.35149565 -0.43619266 0.0039077336
-11.666667 61.666668 598.33331 -0.71122688 0.44351491 -0.54539055 0.016888468
78.666664 61 598 0.64416027 0.23496951 -0.72790581 0.014924352
80 62 599 0.58750391 0.23164029 -0.77535927 0.018825859
-11 63 599 -0.71495694 0.56920183 -0.40601221 0.0049402919
-10 64 599 -0.73592412 0.52959216 -0.42183876 0.0044273143
78.5 63.5 598.75 0.4689275 0.41256016 -0.78096169 0.022044349
80 63 599 0.61478966 0.45668149 -0.64302075 0.032410581
-8.666667 66 598.33331 -0.81649661 0.40824831 -0.40824831 0
76.75 66.25 598.5 0.66054595 0.19002159 -0.72634071 0.011235831
78 65 599 0.6195935 0.43428403 -0.65383589 0.017569503
-8 68 599 -0.81649661 0.40824831 -0.40824831 0
-7 69 598 -0.86396641 0.32298747 -0.38631752 0.0032041164
76.333336 68.333336 598.66669 0.66604233 0.28075433 -0.69106048 0.011329
-7 71 599 -0.88424605 0.17568368 -0.43271706 0.0093063749
73.666664 71.666664 598.33331 0.56621653 0.55851966 -0.60618031 0.0027189655
75.333336 70.333336 598.66669 0.67882788 0.43416134 -0.59219652 0.00954457
-6.3333335 73.333336 598.66669 -0.77256733 0.28837785 -0.56566584 0.010132754
72 73.5 598.5 0.72118306 0.49715003 -0.48242798 0.0057861023
73 73 599 0.57735032 0.57735032 -0.57735032 0
-6 76 599 -0.7181133 0.083929583 -0.69084668 0.0050380239
-5 76 598 -0.72528309 0.15832816 -0.66999745 0.0090494705
70.5 76 598.25 0.74492764 0.39554572 -0.53723961 0.0076079685
-4.5 78.5 598.25 -0.68145335 0.14225699 -0.71790272 0.038648304
69 78.5 598 0.70987105 0.3439897 -0.61461705 0.0097448826
70 78 599 0.7585004 0.3893342 -0.52258605 0.010571672
-4.1666665 81 598.5 -0.67338908 0.25782287 -0.69287401 0.01532647
66.5 82 598.5 0.46818799 0.55615985 -0.68664849 0.021894764
68.333336 81 598.66669 0.6741913 0.49403891 -0.54899156 0.019359237
-3.5 83.5 598.5 -0.70984697 0.1447621 -0.68931937 0.0073283734
65.5 83.5 598.5 0.62315553 0.39592344 -0.67447895 0.0082444288
-3 85 599 -0.65974498 0.43323135 -0.61404175 0.0089895958
-1.6666666 86.333336 598.33331 -0.73535752 0.19177592 -0.64997792 0.0046945792
63.75 86.25 598.25 0.69823164 0.33395332 -0.63320434 0.010542013
65 85 599 0.66248333 0.28105769 -0.69435042 0.010848658
-1.6 88.400002 598.59998 -0.70710677 1.5650116e-09 -0.70710677 0
63.333332 88.333336 598.66669 0.62102163 0.32602966 -0.71276695 0.013385671
-1.25 90.75 598.5 -0.74347919 0.15115736 -0.65145236 0.0074130958
0 92 598 -0.78254342 0.23211023 -0.57771164 0.011979768
61.400002 90.800003 598.59998 0.71121854 0.38671896 -0.58704066 0.016512129
-1 93 599 -0.74209148 0.18058455 -0.64551491 0.015996302
0 93.5 598 -0.79039383 0.21015365 -0.57542419 0.011148194
60.333332 93.333336 598.33331 0.77582747 0.31541106 -0.54645002 0.0081571182
0.5 96 598.75 -0.77882457 0.36734906 -0.50841618 0.0075603006
59 96 598.33331 0.78583539 0.33982247 -0.51670444 0.0070238765
60 95 599 0.76284021 0.34178725 -0.5488683 0.012293031
2 98 598 -0.73592412 0.52959216 -0.42183876 0.0044273143
3 99 598 -0.80947024 0.3662506 -0.45893189 0.011634395
57 98.5 598 0.48679617 0.60165918 -0.63327378 0.03208511
58 98.5 598.5 0.60875523 0.54268599 -0.57871324 0.028424913
3.25 101.25 598.5 -0.76850581 0.36297488 -0.52692312 0.0081076203
54 102 598 0.69034028 0.42981446 -0.58197069 0.012898033
55.799999 100.8 598.79999 0.62430835 0.52039993 -0.5826003 0.017679777
4 103 599 -0.59076941 0.48944661 -0.64143085 0.01047389
5 103.5 598.5 -0.72920233 0.34232083 -0.5925203 0.011572626
53.666668 103.66666 598.66669 0.70472878 0.41280675 -0.57701647 0.008534926
5.5999999 105.8 598.59998 -0.72246164 0.2217088 -0.65490025 0.0097112656
51 106.25 598.25 0.6545862 0.47175279 -0.59073365 0.016124455
53 105 599 0.60395044 0.57778549 -0.54900622 0.028525384
6.5 108.5 598.5 -0.76103044 0.066287272 -0.64532071 0.0095751071
48.5 109 598 0.54728687 0.57257062 -0.6104424 0.023462458
50 108 598 0.6276266 0.54138291 -0.55945456 0.021178233
6.75 110.75 598.75 -0.76122791 0.25707281 -0.59535342 0.010268776
8 112 598 -0.77768713 0.30354875 -0.55050981 0.0046122433
47 110.5 598 0.64505988 0.51288027 -0.56643766 0.015674248
48 111 599 0.58884001 0.38511243 -0.71060252 0.027123477
8.5 114 598.5 -0.6887154 0.47083241 -0.55135101 0.0060522393
46 113 599 0.62079 0.40481371 -0.67137599 0.015916618
10.5 115.5 598 -0.77986825 0.43135709 -0.4535819 0.027045764
43 116 598 0.58810496 0.51512212 -0.62352377 0.013566676
45.5 115 599 0.61942959 0.51649183 -0.59122175 0.020321062
-88.5 127 599 0 -0.75042969 -0.6609503 0.013931449
-85 127 599 -0.02175574 -0.72497267 -0.68843395 0.028827189
-88.875 128.25 598.125 -0.13528766 -0.26212564 -0.9555037 0.045390088
-86.5 128.66667 598.33331 0.055311959 -0.53585833 -0.84249419 0.037421558
-84.125 128.75 598.375 0.198085 -0.55159312 -0.81025141 0.039585721
-81.5 129 599 0.27039403 -0.53226697 -0.8022337 0.069817603
-80 129 599 0.65339887 -0.38228312 -0.65339851 0.089476638
-106 132 599 -0.53586769 -0.32565168 -0.77897167 0.020717055
-104 131.36363 598.81818 0.053825736 -0.2430747 -0.96851301 0.095450252
-102 132 599 0.53637815 -0.0043114377 -0.84396684 0.049542081
-88.800003 130.60001 598.40002 -0.47920835 0.20464122 -0.85351115 0.0209025
-86.5 131 598 -0.07424441 0.082983732 -0.99378145 0.034928948
-84 131 598 0.084064357 0.096694589 -0.99175769 0.031246426
-81.571426 130.85715 598.57141 0.54779512 -0.07229308 -0.83348322 0.0677623
-80 131 599 0.80825675 0.11644531 -0.57720137 0.1074439
-106 133.5 599 -0.32183328 -0.087233163 -0.94276917 0.048492108
-104.16666 133.33333 598.66669 0.17469496 0.17782961 -0.96843082 0.12694532
-88 133 599 -0.47289684 0.47289684 -0.74346298 0.00525541
-86.333336 133.66667 598.66669 -0.34635183 0.44900903 -0.82366937 0.023829639
-84 133.5 598 0.042554069 0.25261965 -0.96662945 0.022535598
-81.5 133.5 599 0.60871691 0.50637227 -0.61077887 0.055179015
-106 135.5 599 0.059648443 0.58071089 -0.81192178 0.085636489
-105 135.5 599 0.4027887 0.4950453 -0.7698645 0.08618664
-86 135 599 -0.43106732 0.38052216 -0.81815886 0.022258017
-84.199997 135.39999 599 0.075531669 0.46182102 -0.88375127 0.03531884
-82 135 599 0.5086261 0.46243447 -0.72626019 0.10402071
-24.5 -143 601.5 0.10085016 0.98793286 0.11754984 0.03201551
-21 -144 600 -0.019247143 0.97734845 -0.21075979 0.026724316
-19.333334 -143.66667 600.66669 -0.38601997 0.793603 -0.47030085 0.039682824
-16.5 -143 602 0 0.39575976 -0.91835409 0.10297028
-14 -143 602 -0.059344329 0.60599273 -0.79325348 0.071818031
-11.5 -143 601 -0.13505363 0.92970467 -0.34265107 0.061038453
-9 -143 600.33331 -0.22847407 0.88496321 -0.40575814 0.079370767
-7 -143 600 -0.49068657 0.60119408 -0.63070792 0.11420929
1 -143 600.66669 0.32518983 -0.34143302 -0.88185889 0.15650849
3.5 -143 600.5 -0.24846543 -0.06723614 -0.96630442 0.091806039
6 -143 600 -0.11773369 0.52086258 -0.84548259 0.048765775
9 -143 600 -0.049169492 -0.11344185 -0.99232721 0.12182276
-28 -142 601 0.59254962 0.79149562 0.14973199 0.015912155
-16.5 -141 602 -0.2580477 -0.34711248 -0.90162313 0.034361824
-14 -141 602 -0.11354762 -0.6618197 -0.74101394 0.01909443
-11.333333 -141.33333 602 -0.33453587 -0.38393587 -0.86062711 0.050570261
-9 -141.5 601.16669 -0.36456826 -0.043006741 -0.93018299 0.055619378
-6.6666665 -141.66667 600 -0.59279072 -0.11508837 -0.79709083 0.049432378
-1 -142 600 0.39865902 -0.20332003 -0.89427733 0.052325848
1.2 -141.60001 600.20001 0.20572133 -0.44830576 -0.86988539 0.07045313
3.5 -141.5 600.5 0.032318663 -0.43147248 -0.90154701 0.045649033
6 -141.5 600.83331 -0.054198742 0.21799108 -0.97444469 0.050776511
8.5 -141.5 600 -0.010985612 0.32243025 -0.94652951 0.087641232
11 -141.5 600.83331 0.21244597 0.65973502 -0.72084427 0.080223672
-18 -138 601 -0.43566823 -0.65890259 -0.61322147 0.04498034
-16.5 -139 601.5 -0.21491867 -0.43421084 -0.8747977 0.031886421
-14 -139 600.88892 -0.18451789 -0.47533974 -0.86023563 0.032416906
-11.5 -139 600.66669 -0.13015297 -0.54085612 -0.83098429 0.028607054
-9.666667 -139.66667 600.33331 -0.47447926 -0.5515945 -0.68601239 0.02279152
6 -139 600.22223 0.20116882 -0.25697616 -0.94524837 0.032256972
8.5 -139 600.66669 0.32108784 -0.065501228 -0.94478154 0.055773694
10.714286 -139.14285 601.57141 0.5598098 0.27230453 -0.78260028 0.040615492
-21 -136 602 -0.49395895 -0.30169463 -0.81546611 0.014574951
-19 -136.5 601.16669 -0.49052292 -0.42988241 -0.75801611 0.031546116
-16.5 -136.5 600 -0.042992715 -0.47358134 -0.87970018 0.032077767
-14.5 -137 600 -0.32902172 -0.52478689 -0.78507543 0.027748005
6.5 -136.5 600 0.19813316 -0.075595044 -0.9772557 0.021141944
8.5 -136.5 600.5 0.54955465 -0.020250455 -0.83521235 0.028141126
10.8 -136.39999 602 0.41237164 -0.075024776 -0.9079212 0.039396565
-23 -133.5 602 -0.61981398 -0.2192553 -0.753497 0.025777087
-21.4 -133.8 601.40002 -0.3967663 -0.335789 -0.85429639 0.031793721
-19.5 -134 600.5 -0.6052832 -0.22647069 -0.76311421 0.020676311
7 -135 600 0.34025913 -0.34025913 -0.87661141 0.047077164
8.6000004 -134.2 600.40002 0.5515728 -0.26134616 -0.79212731 0.030062985
11 -134.11111 601.44446 0.30253127 -0.27299684 -0.91320735 0.032483872
13.333333 -133.66667 602 0.43337831 -0.38869086 -0.81308222 0.024403544
-23 -131.5 602 -0.61611652 -0.037266754 -0.78677291 0.049043309
-21.6 -131.39999 601.20001 -0.46633506 0.085839048 -0.88043362 0.052282106
-19.200001 -131.39999 600 -0.34677351 -0.030083433 -0.93746626 0.035201017
9 -132 600 0.50462979 -0.50462979 -0.7004981 0.033259552
11.2 -131.60001 600.40002 0.29873189 -0.59832257 -0.74348456 0.022304462
13.333333 -131.33333 600.66669 0.38107803 -0.53545451 -0.75370282 0.02556281
15 -131 602 0.70929331 -0.21602444 -0.67099661 0.013512407
-23.555555 -129 602 -0.32828334 -0.11160439 -0.93796295 0.036900532
-21.571428 -128.57143 600.71429 -0.64505893 -0.12569797 -0.75372338 0.017860891
-19.25 -129.75 600 -0.37452978 -0.31346881 -0.87261951 0.038036726
13.166667 -129 600.16669 0.68274367 -0.19180416 -0.7050336 0.034582507
15 -129.5 602 0.72548801 -0.079587944 -0.68361747 0.0079137487
-24 -126.5 602 -0.62182808 -0.085919194 -0.77842641 0.011816319
-21.6 -126.6 600.59998 -0.60832363 0.012257526 -0.79359442 0.014044327
-20 -126.5 600 -0.43546006 0.086122349 -0.89607894 0.034398429
14 -126.66666 600.33331 0.84313399 -0.10846506 -0.52665025 0.029990276
15 -126.5 602 0.70710683 1.256828e-09 -0.70710683 0
-24 -124 602 -0.75540853 0.015105098 -0.65508002 0.0038166037
-21.375 -124 600.375 -0.66269779 -0.074155249 -0.74520642 0.016301299
-20 -125 600 -0.44260868 -0.28312084 -0.85084671 0.047461107
13.666667 -124 600.5 0.75228059 0.1443046 -0.64284527 0.012623623
15 -124.2 602 0.70710677 -4.7892508e-09 -0.70710677 0
-24 -121.5 602 -0.69885021 -0.0073056184 -0.71523076 0.016572597
-21.25 -121.625 600.25 -nan -nan -nan 0.0017979852
13.4 -121.6 600.40002 0.69180059 0.029419675 -0.72148895 0.0048569776
15 -121.5 602 0.70710683 0 -0.70710683 0
-23.5 -119 601.66669 -0.61778855 0.15010631 -0.77188426 0.014258642
-21.200001 -118.8 600.20001 -0.62834871 0.1588791 -0.76153481 0.025723031
-20 -118 600 -0.66782004 0.3286837 -0.66781998 0.041881662
12 -119 600 0.46445805 0.11124855 -0.87857974 0.05153298
13.5 -119 600.5 0.61038196 0.036296099 -0.79127526 0.018617017
15 -119 602 0.70710683 0 -0.70710683 0
-23 -116.5 602 -0.68892419 0.18499997 -0.70082706 0.019330017
-21.5 -116.5 600.75 -0.53749859 0.28905672 -0.79217517 0.024125321
-19.666666 -116.33334 600 -0.49845663 0.3842485 -0.77710617 0.034707125
9 -116 600 0.34170687 0.59496647 -0.72749662 0.019240314
11.25 -116.25 600 0.27115923 0.52623576 -0.80594581 0.031290986
13.5 -116.5 600.75 0.55512953 0.27819583 -0.7838611 0.02635815
15 -117 602 0.74209148 0.18058455 -0.64551491 0.015996302
-21.5 -114 601.83331 -0.45031679 0.30513364 -0.83911157 0.033740494
-19.285715 -113.85714 600.71429 -0.54956979 0.35776144 -0.75497007 0.024569064
-17 -113 600 -0.41292351 0.7452662 -0.52351946 0.061449774
6.75 -113.75 600 0.37877166 0.40687591 -0.83125454 0.032438133
8.5 -114 600.33331 0.25488898 0.42085654 -0.87058103 0.039215479
11 -114 601.22223 0.2260177 0.48968074 -0.84209794 0.032453768
13.4 -114.2 601.79999 0.43196547 0.44808629 -0.78270322 0.033785548
15 -115 602 0.70019096 0.22413033 -0.67786306 0.037108403
-21 -112 602 -0.34025913 0.34025913 -0.87661141 0.047077164
-19 -111.5 601.5 -0.48846176 0.45060703 -0.74723387 0.023099693
-16.5 -111.5 600 -0.36359504 0.36520174 -0.85698676 0.045335449
-15 -111 600 -0.59496647 0.34170687 -0.72749662 0.019240312
4 -111 600 0.34025913 0.34025913 -0.87661141 0.047077164
6 -111.5 600.33331 0.45680675 0.26264548 -0.84990889 0.03467169
8.5 -111.5 602 0.38286376 0.32829878 -0.86350173 0.048092879
10 -112 602 0.48461041 0.59071374 -0.64514339 0.018654265
-18 -110 602 -0.57746553 0.63431805 -0.5139789 0.020315317
-16.5 -109.5 601.25 -0.46560225 0.63936138 -0.6119082 0.046070606
-14.4 -108.6 600.59998 -0.59927952 0.50442827 -0.62162375 0.034237735
1.6 -108.8 600.20001 0.4755525 0.29266605 -0.82957608 0.046889532
3.5 -109 600.66669 0.11193299 0.5036943 -0.85659969 0.042929634
6 -109 601.11108 0.36392963 0.36910924 -0.85516882 0.043173432
8.25 -109.25 602 0.49284992 0.28948477 -0.82054716 0.059509411
-14 -106.5 601.5 -0.60417336 0.43266651 -0.66915929 0.035088383
-11.666667 -106.33334 600 -0.50354713 0.42398328 -0.7527805 0.022063231
-1.3333334 -106.33334 600 0.31871587 0.31871587 -0.89265913 0.035536755
1 -106.5 600.33331 0.38259906 0.33475024 -0.86113888 0.041650325
3.5 -106.5 602 0.10402079 0.30670267 -0.94610423 0.064178944
5.8000002 -106.6 602 0.27768356 0.36680037 -0.88789034 0.061165761
-13.333333 -104.66666 601.66669 -0.62650639 0.58546877 -0.51450568 0.031652223
-11.428572 -104.14286 601.28571 -0.40129673 0.68074065 -0.6128239 0.055063553
-9.25 -103.625 600.75 -0.32923305 0.57931 -0.7456578 0.036805909
-6.5 -104 600.33331 0.0098091904 0.47596163 -0.87941134 0.032066409
-3.8571429 -103.57143 600.85712 0.24586749 0.66399688 -0.70615667 0.044777457
-1.5 -104 601.25 0.1340441 0.62590641 -0.76829255 0.075501315
0.75 -104.625 601.75 0.38049656 0.70714676 -0.59595793 0.051976278
3.5 -105 602 0.17431024 0.75357854 -0.63382596 0.099518478
5.5 -105 602 0.22560117 0.69711179 -0.68054336 0.10791254
-8.5 -102 601 -0.25358731 0.89407849 -0.36921144 0.092057727
-6.5 -102 601 -0.058098875 0.66667312 -0.7430824 0.091277301
-4.5 -102 601.5 0.2102378 0.7442742 -0.63392115 0.080651961
-26 -48 602 -0.11115595 -0.87728089 -0.46692884 0.022038531
-23 -48 602 -0.047297254 -0.85594851 -0.51489329 0.010688793
-20 -48 602 0 -0.89309227 -0.4498736 0.0084301624
-28 -46.5 602 -0.42941096 -0.43821707 -0.78966576 0.031577863
-26.666666 -46.666668 601.33331 -0.43076596 -0.47923699 -0.76470423 0.019036924
-24.142857 -46.42857 600.42859 -0.060112927 -0.63054186 -0.77382386 0.01450458
-21.5 -46.5 600.5 -1.1396329e-09 -0.70710683 -0.70710683 0
-19 -46.5 600.5 0.056752488 -0.68589848 -0.72548079 0.009547215
-16.5 -46.5 600.75 0.4402158 -0.32295129 -0.83780217 0.035556816
-14.2 -46.400002 602 0.37106669 -0.22084922 -0.9019618 0.041415997
-28.25 -44.25 602 -0.58463323 0.15508464 -0.79633707 0.03145767
-26.75 -43.75 601.25 -0.56803352 0.17569762 -0.80403244 0.024741555
-25 -44.200001 600 -0.4114992 0.047622941 -0.91016507 0.0037366382
-18 -45 600 0.34025913 -0.34025913 -0.87661141 0.047077164
-16.5 -44 600.5 0.60170823 0.010261446 -0.79864997 0.028081374
-14.5 -44 601.66669 0.53242111 0.021791562 -0.8461991 0.031653542
-26.5 -41.5 601.75 -0.51160109 0.34984112 -0.78477734 0.025792342
-24.5 -41.5 600.5 -0.66298884 0.21032031 -0.71847838 0.018012634
-16.5 -41.5 601.25 0.64219755 0.32142583 -0.69589347 0.018870072
-15 -42 602 0.53316081 0.53316081 -0.65687078 0.014216077
-26 -40 602 -0.46258456 0.46258456 -0.75632739 0.021831086
-24.285715 -38.857143 601.14288 -0.68846011 0.29710364 -0.66162831 0.019064194
-21.5 -38 600 0 0.53538555 -0.84460777 0.032203451
-18.666666 -38.666668 600.5 0.53218889 0.4731499 -0.70207137 0.028192749
-16.6 -39.200001 601.79999 0.60587198 0.28554988 -0.74254996 0.020921972
-23.5 -36.5 601.5 -0.64563537 0.27703249 -0.71162349 0.024059583
-21.5 -36.5 600.5 -0.0052852989 0.37134933 -0.92847818 0.041819774
-19 -36.5 601.5 0.51616508 0.30932233 -0.79868215 0.028089819
-23 -34.5 601.5 -0.42464566 0.50865692 -0.74896204 0.044023596
-21.4 -34.200001 601.59998 -0.14412059 0.47149178 -0.87001425 0.036143932
-19.6 -34.200001 601.79999 0.45763156 0.32809964 -0.82639211 0.035675425
-21 -32 602 -0.28719556 0.3493816 -0.89188075 0.074543148
78.5 52 602 -0.12601322 -0.72164071 -0.68070215 0.0075570359
81 52 602 0 -0.70710683 -0.70710683 0
83 52 602 0.32264736 -0.66929018 -0.66929018 0.014199415
63.5 54 602 -0.14291878 -0.87115854 -0.4697414 0.008231217
66 54 602 -0.056666091 -0.89721113 -0.43795112 0.0041038585
68.5 54 601.5 -0.15715735 -0.95223361 -0.26182562 0.019952923
71 53.599998 601.20001 -0.067680836 -0.92440408 -0.37536162 0.017139334
73.5 53.5 601 -0.042574923 -0.95239681 -0.30187359 0.0045888717
76 53.5 601 -0.081071116 -0.936369 -0.34152687 0.0096918782
78.333336 53.333332 600.66669 -0.16915186 -0.82678622 -0.53648126 0.014507447
81.199997 53.400002 600.59998 0.22777799 -0.73500931 -0.6386537 0.028501466
83.5 53.5 601.25 0.32437801 -0.58737534 -0.7414642 0.024770491
85.75 53.75 601.75 0.36835277 -0.53084189 -0.76323199 0.032458913
-16 56.5 602 -0.52170771 -0.25200483 -0.81505495 0.039891705
-14 56 601.28571 -0.3350656 -0.70832324 -0.62129647 0.036001828
-11.5 56.5 600.75 0.21079583 -0.90828919 -0.36135292 0.0296575
-9 57 601.33331 0.12157445 -0.93308157 -0.33849436 0.018121408
-6.5 57 602 0.018064255 -0.76522714 -0.64350688 0.0038359207
-4 57 602 0.048127089 -0.7265743 -0.68540031 0.0054922677
8.5 57 602 -0.15128115 -0.74870646 -0.64540893 0.016152151
11.2 56.599998 601.59998 -0.14841641 -0.72472811 -0.67286092 0.0085015818
13.5 56.5 601.5 -0.079442196 -0.70926368 -0.70045269 0.0035271973
15.857142 56.57143 600.85712 -0.058173206 -0.96607959 -0.25160712 0.022318248
18.4 56.400002 601.20001 0 -0.96133065 -0.27539673 0
21 56.5 601.16669 -0.086564496 -0.92994827 -0.35735524 0.013866461
23.5 56.5 600.5 0 -0.89086127 -0.45427552 0.027843427
26 56.5 601.16669 0.040694412 -0.88858491 -0.45690361 0.010513775
28.5 56.5 601 -0.027107751 -0.93659043 -0.34937584 0.0025634337
31 56.5 600.66669 -0.044479292 -0.87975836 -0.47333592 0.023649536
33.333332 56.333332 600.66669 -0.13872157 -0.9059034 -0.40011933 0.038279936
36.200001 56.400002 600.79999 0.12048818 -0.94197196 -0.31332305 0.031610582
38.5 56.5 600.5 -0.032469608 -0.86760932 -0.49618518 0.024127776
41 56.5 601 0.12689628 -0.84775484 -0.51498461 0.032624751
43.599998 56.200001 601.59998 -0.085529096 -0.67147565 -0.73607415 0.030428967
46 56 601.66669 0.023022994 -0.52231467 -0.85244197 0.026254477
48.400002 56.200001 601.79999 0.15995681 -0.47613436 -0.86470222 0.050973594
51 57 601.66669 0.047315929 -0.73811769 -0.67301077 0.028753646
53.400002 56.599998 601.20001 -0.15274318 -0.8366366 -0.52603114 0.030232036
56 56.57143 601.14288 -0.083822206 -0.86768556 -0.48999548 0.010802538
58.25 56.25 601 -0.27299955 -0.8938567 -0.35565636 0.020921038
60.833332 55.333332 601.33331 -0.28133443 -0.89133143 -0.35549873 0.014907344
63.5 55 600 -0.27638388 -0.94867283 -0.15372653 0.031369291
83.428574 55.714287 600.14288 0.47383061 -0.24741462 -0.84514529 0.051215593
85.85714 55.714287 601.57141 0.56832826 0.26033425 -0.78053135 0.037152566
-16 58.5 602 -0.72164071 0.12601323 -0.68070215 0.0075570359
-14.666667 58.666668 600.66669 -0.75510323 0.12609787 -0.64336491 0.011070061
-6.5 58 600 0.14447522 -0.98564321 -0.08737506 0.013007912
-4 58 600.33331 0.038915668 -0.98101705 -0.18997635 0.012963095
-1.5 58 601 0.062102802 -0.99465871 -0.082445465 0.011736818
1 58 601 0 -1 0 0
3.6666667 58.333332 600.66669 0.099247046 -0.98704386 -0.12607329 0.05121696
6.1999998 58.400002 600.59998 -0.071756676 -0.93680853 -0.34240434 0.059157841
8.5 58 600.5 -0.22121319 -0.95599586 -0.19270869 0.036105558
11 58 600 0.017617349 -0.94018555 -0.34020692 0.038267743
13.5 58 600 -0.31330076 -0.88111192 -0.35423777 0.083568014
44 58 600 0.33023226 -0.90146053 -0.27984926 0.042819392
46 58 600 0.13704154 -0.93575943 -0.32492134 0.058002442
48.5 58 600 0.071524277 -0.94449371 -0.32064918 0.04083414
51 58 600 -0.16059643 -0.93493289 -0.31640041 0.028504379
82 58.5 600 0.62309879 0.34599996 -0.70144987 0.011595184
83.5 58.75 601.5 0.68612653 0.33126423 -0.64768386 0.011041322
-14 61 601.25 -0.7667073 0.4162648 -0.48875716 0.0085985009
81.5 61 600.5 0.70668769 0.2044664 -0.67733741 0.011436571
83 61.666668 602 0.70025426 0.17528643 -0.69203943 0.0075027701
-13 63 601 -0.68077236 0.53608644 -0.4991596 0.011787099
-11.5 63.5 600.5 -0.65790313 0.52488959 -0.54005033 0.010964291
81 63.5 601 0.69362015 0.40290472 -0.59712553 0.011153715
-11.333333 65.666664 601.66669 -0.7025969 0.3573474 -0.61535382 0.0078899553
-9.75 66.25 600.5 -0.72502714 0.41903034 -0.5465796 0.0077993218
78.599998 66.199997 600.40002 0.6474182 0.30683434 -0.69764048 0.016893947
80.25 65.75 601.5 0.61847401 0.40025142 -0.67623127 0.017524092
-9 68.5 601 -0.74457437 0.38305914 -0.54669434 0.0069275824
77 69 600 0.71657419 0.42685086 -0.55165184 0.013647575
78.5 68.5 601.25 0.72844732 0.39199212 -0.56187785 0.010141078
-8.25 70.75 601.25 -0.79745108 0.16481 -0.58043897 0.011954004
76.199997 71.199997 600.79999 0.69659615 0.54219979 -0.46986514 0.0074273236
78 70 602 0.66145706 0.51866245 -0.54172295 0.0081568966
-8.5 73.5 601.5 -0.72403944 0.00068733899 -0.68975818 0.016131653
-7 74 600 -0.73836386 0.30592051 -0.60102546 0.026505647
73.666664 73.666664 600.66669 0.65620208 0.60969943 -0.44459575 0.0072990358
75 73 602 0.59524798 0.69574779 -0.40201351 0.0032540725
-8 76 601.33331 -0.73211694 0.13082731 -0.66849756 0.027402848
-7 76 600.66669 -0.72848833 0.14891972 -0.66867596 0.029962113
71.75 76.25 600.5 0.80617744 0.32965633 -0.49132946 0.0069376258
73 75.5 602 0.76889682 0.36184412 -0.52713048 0.0081873424
-8 78.5 602 -0.72164071 0.12601323 -0.68070215 0.0075570359
-6.5 78.5 600.5 -0.75097114 0.080908775 -0.65535957 0.012439125
71 78.5 600.75 0.77543688 0.30040351 -0.55538762 0.01575516
-6.4000001 80.800003 601.20001 -0.78251386 0.27768305 -0.55728292 0.0084848795
-5 82 600 -0.76334637 0.28889528 -0.57779056 0.012309187
69 81.5 600.5 0.74346298 0.47289684 -0.47289684 0.0052554174
70.666664 80.666664 601.33331 0.69042164 0.42034945 -0.58874804 0.014381133
-6 83.5 602 -0.7189523 0.30786288 -0.62315983 0.015726475
-5 83.5 600.5 -0.77409452 0.2928642 -0.56125593 0.010364739
67 83.5 600 0.58704615 0.43060064 -0.68553627 0.019521264
68.5 83.5 601.25 0.65502381 0.4866865 -0.57799655 0.025254406
-4.125 86.125 601 -0.7358492 0.21733414 -0.64132035 0.011936748
66.285713 86.14286 601 0.72557062 0.28198445 -0.62771964 0.017435193
-3.5 88.5 601.25 -0.76323175 0.14446042 -0.62976861 0.0088370014
65.5 88.5 600.75 0.70495689 0.31535968 -0.63528275 0.017525477
-3.4000001 90.800003 601.40002 -0.76893091 0.12010559 -0.62794888 0.0093933884
-2 92 600 -0.75645965 0.25331628 -0.60299218 0.0067910301
62 92 600 0.69439733 0.27059811 -0.66677511 0.0079415767
63.599998 91 600.79999 0.61565018 0.39890954 -0.67959249 0.013800156
65 90 602 0.73592412 0.52959216 -0.42183876 0.0044273143
-3 93 602 -0.80483484 0.34959054 -0.47961164 0.007056219
-1.6666666 93.666664 600.33331 -0.73456949 0.29762697 -0.60977525 0.011028086
61.5 94 600.5 0.69260406 0.35492069 -0.6279577 0.012064609
63.333332 93.333336 601.66669 0.71739072 0.33430639 -0.61121982 0.010815483
-1.6 96 601.20001 -0.76171196 0.28933576 -0.57972372 0.0088949995
0 97 600 -0.5514887 0.47814164 -0.68355024 0.018168306
61.142857 96 600.85712 0.71941656 0.34522697 -0.60270905 0.010661105
-1 98.5 601.5 -0.64085913 0.4297576 -0.63608795 0.02199317
0.80000001 98.599998 600.59998 -0.55671978 0.41542676 -0.71936345 0.020924373
59 98.5 600.5 0.7185784 0.49033737 -0.49316767 0.013275684
60.5 98.5 602 0.64304161 0.39785156 -0.65437883 0.010190364
1.3333334 101 601 -0.72008675 0.30798751 -0.62178671 0.011300587
56.666668 101.66666 600.33331 0.6706692 0.52845532 -0.52051681 0.021093905
58.25 101 601.75 0.54023075 0.45692167 -0.70666355 0.018657768
60 100 602 0.555906 0.43147019 -0.71049422 0.017884273
2 104 602 -0.70710683 0 -0.70710683 0
3.3333333 103.66666 600.33331 -0.70843554 0.31628841 -0.63093638 0.013929465
55.333332 103.33334 601 0.7018165 0.43862021 -0.56130737 0.018030664
2 105.5 602 -0.69370359 0.088134505 -0.71484792 0.0078998711
3.5 106 600.83331 -0.66656011 0.24683553 -0.70339882 0.010019979
5 107 600 -0.65454221 0.43584085 -0.6177519 0.022268262
52 106.5 600.5 0.58407384 0.60792959 -0.53784704 0.016418587
53.666668 106 600.66669 0.52796519 0.59838319 -0.60265279 0.015472067
55.5 105.5 602 0.48623925 0.34261838 -0.80385578 0.010988202
3.6666667 108.33334 601.66669 -0.58987194 0.3475807 -0.72886121 0.022420341
5 108.5 601 -0.62499845 0.29980418 -0.72075957 0.019044515
51.25 108.5 600.75 0.71882802 0.43125987 -0.54525328 0.015752194
5.5 111 601 -0.81986433 0.32885802 -0.46869487 0.0092027187
49 111 600 0.68301672 0.38855699 -0.61847526 0.021342173
50.333332 111 601.33331 0.71683836 0.51239324 -0.47285926 0.014021656
6.5 113.5 601.25 -0.79960769 0.38574111 -0.46025142 0.0059249816
47 114 600 0.63749242 0.62293851 -0.45337746 0.028115813
48.333332 113.33334 601.33331 0.68853194 0.60186428 -0.40457767 0.010476355
7 115 602 -0.73007804 0.52020884 -0.44313526 0.017819552
8.333333 115.66666 600.66669 -0.68030578 0.59936577 -0.42183498 0.0046146982
10 117 600 -0.6409868 0.64459497 -0.41669336 0.011773148
47 115 602 0.65285367 0.68403244 -0.32539478 0.0053417888
11 118 600 -0.76786524 0.50968182 -0.3880817 0.011255927
-101 127 602 -0.31893438 -0.88663721 -0.33489615 0.054757405
-98.75 126.75 601.75 -0.28363207 -0.78032452 -0.5573566 0.041342329
-96.5 126.5 601.5 -0.046142854 -0.6915192 -0.72088277 0.031826746
-93.777779 126 601.55554 -0.21307881 -0.61050153 -0.7628141 0.051909968
-91.5 126 601.33331 -0.074863948 -0.64396262 -0.76138526 0.037641022
-89 125.875 601 -0.0078678345 -0.85290271 -0.52201068 0.031478874
-86.5 126.33334 601 0.02067407 -0.86723614 -0.49746761 0.029871991
-84 126.375 601.375 0.29828846 -0.79493231 -0.52830541 0.031006262
-81.5 127 601.5 0.18052003 -0.84157187 -0.50908679 0.033684455
-79.199997 127 602 0.19010344 -0.50876796 -0.83965218 0.043073714
-109 129 602 -0.23442592 -0.62691778 -0.74297959 0.017828874
-106.33334 128.66667 602 -0.13019861 -0.68431437 -0.71746933 0.052871335
-104 128.5 601.83331 -0.15134139 -0.76990175 -0.61995739 0.084412597
-101.5 128.5 601 -0.065192334 -0.47801873 -0.87592697 0.031156622
-99 128.5 600.83331 -0.18208283 -0.29476574 -0.9380613 0.053580429
-96.5 128.5 600.75 0.13071801 -0.063137203 -0.98940712 0.058713607
-94 128.5 601 -0.11082403 0.18915632 -0.97567308 0.030243808
-91.5 128.5 600 -0.51259273 -0.077577837 -0.85512006 0.038315717
-83 128 600 0.36327285 -0.68848556 -0.62771058 0.018220866
-81.5 128 600 0.16352487 -0.69758856 -0.69758856 0.0070997076
-79 128.5 601.33331 0.56955236 -0.38707948 -0.72510666 0.031842522
-108.875 130.875 601 -0.55354875 -0.24209668 -0.79685193 0.022209635
-106.6 130.8 600.20001 -0.33311197 -0.47803357 -0.81272399 0.026599774
-104 130 600 -0.0030927283 -0.68372941 -0.72972912 0.020969808
-101.4 130.8 600 0.24777491 -0.13322821 -0.95961338 0.04286645
-99.125 130.875 600.875 0.33767739 0.3460446 -0.87534398 0.052662443
-96.5 130.5 601.5 0.31551579 0.67462766 -0.66732848 0.026091782
-94 130 602 0.053662434 0.64131248 -0.76540095 0.031495817
-91.25 130.75 601 -0.56310225 0.44968382 -0.69332552 0.021451034
-90 131.5 600.5 -0.73197073 0.41784769 -0.53816545 0.0092777722
-79.125 130.875 601 0.76262379 0.13819888 -0.63190657 0.02927519
-108.5 133.5 601 -0.74797517 0.06672582 -0.66036409 0.014781002
