ply
format ascii 1.0
comment PCL generated
element vertex 731
property float x
property float y
property float z
property float nx
property float ny
property float nz
property float curvature
element camera 0
property float view_px
property float view_py
property float view_pz
property float x_axisx
property float x_axisy
property float x_axisz
property float y_axisx
property float y_axisy
property float y_axisz
property float z_axisx
property float z_axisy
property float z_axisz
property float focal
property float scalex
property float scaley
property float centerx
property float centery
property int viewportx
property int viewporty
property float k1
property float k2
end_header
-46.5 163 545 0.016217969 -0.55180418 -0.83381599 0.044273332
-44 163 545 0.11569639 -0.70235825 -0.70235837 0.021051511
-41.666668 163 545.66669 -0.072496451 -0.81587452 -0.57366627 0.072655849
-39.25 163 545 0.24885423 -0.76144087 -0.59856439 0.093572013
-36.5 163 545 -0.043864507 -0.87922734 -0.47437882 0.047220618
-33.75 163 545 -0.033552457 -0.90986377 -0.41354823 0.093480773
-31.5 163 545 0.081769466 -0.88281906 -0.46254104 0.081183933
-29 163 545 0 -0.84392953 -0.53645414 0.073789924
-27 163 545 -0.54238141 -0.78114945 -0.30923775 0.044948693
-18.666666 163 545 0.29210973 -0.8966701 -0.33264783 0.085253119
-17 163 545 -0.3259804 -0.82632083 -0.45927194 0.061584331
-3.6666667 163 545 0.076152168 -0.95323557 -0.29247701 0.030683259
-1.5 163 545 0 -0.89865351 -0.43865925 0.032736279
1.25 163 545.25 0.37884048 -0.78625292 -0.48814574 0.040799614
3 163.5 546.5 0.89110249 -0.32513779 -0.31657818 0.024442494
-114 165 545 0.072287939 -0.94572991 -0.31681123 0.021127261
-112 165 545 -0.32375717 -0.93702996 -0.13098174 0.023667175
3 165.66667 545.66669 0.96079654 -0.18333064 -0.20799015 0.025170527
-113.8 183.60001 545.40002 0.35202679 0.62515479 -0.69660515 0.040320165
-111.66666 183.66667 545.33331 -0.20197542 0.70018327 -0.68479878 0.016259454
-108.6 184 545 4.3229536e-09 0.70710677 -0.70710677 0
-106.5 184 545 1.891205e-09 0.70710683 -0.70710683 0
-104.5 184 545 -0.17816889 0.64100397 -0.74657202 0.014446455
-114.375 185.875 546.375 0.74444854 0.2588087 -0.61547905 0.040260077
-111.25 185.5 547 -0.3661333 0.56787074 -0.73720366 0.04655445
-109.14286 186 546.28571 -0.21927239 0.63266981 -0.74273038 0.029225037
-106.5 186.5 546.5 4.6832305e-10 0.70710683 -0.70710683 0
-103.875 186.375 546.25 -0.24858578 0.57224572 -0.78149855 0.020639401
-101.6 186.39999 545.59998 -0.34454373 0.45588285 -0.82064635 0.021652834
-100 187 545 -0.56484503 0.44279397 -0.69633591 0.02143383
-114.8 188.39999 546 0.92634797 0.099308059 -0.36334184 0.034153719
-103.5 188.5 547 -0.3193993 0.3165499 -0.89318544 0.045467336
-101.5 188.5 546.5 -0.4223398 0.37573192 -0.82489675 0.018075451
-99 188.5 545.16669 -0.33187124 0.45473969 -0.82648247 0.030401373
-97 189 545 -0.46258456 0.46258456 -0.75632739 0.021831086
-116 191 546 0.91191512 0.28869539 -0.29166049 0.045879278
-115 190 545 0.95312214 0.25331977 -0.16549093 0.056001846
-101.33334 190 547 -0.28150272 0.47044116 -0.83632606 0.020326549
-98.85714 190.71428 546.71429 -0.30848885 0.56051588 -0.76854187 0.021074096
-96.428574 191.14285 545.71429 -0.34686932 0.54077482 -0.76631868 0.043275796
-94.222221 191.11111 545.33331 -0.24421485 0.49404207 -0.83443499 0.052010816
-91.5 192 545 -0.23492895 0.41216147 -0.88030177 0.036382988
-96.333336 193.33333 547 -0.31102577 0.47812894 -0.82137424 0.035796002
-94.199997 193.60001 546.59998 -0.33620769 0.48601487 -0.8066932 0.027863804
-91.5 193.5 545.5 -0.2027279 0.52305067 -0.82784015 0.024403561
-89.199997 193.60001 545 -0.2484709 0.50156373 -0.82867122 0.03540919
-87 194 545 -0.50462979 0.50462979 -0.7004981 0.033259552
-93.400002 195.60001 547 -0.25515321 0.32636529 -0.9101553 0.032377724
-91.400002 196.2 547 0 0 -1 0
-89.181816 196.09091 546.36365 -0.20726742 0.30315658 -0.93012708 0.02535885
-86.666664 196.16667 545 -0.37389234 0.27589887 -0.88548535 0.037535883
-85 197 545 -0.20642225 0.55014449 -0.80915439 0.032367036
-89 198 547 -0.28055966 0.47592443 -0.83353603 0.014365397
-86.5 198.5 546.5 -0.16352485 0.69758856 -0.69758856 0.0070997076
-84 198.33333 545.66669 -0.22615062 0.6534068 -0.72243726 0.0098181954
-81.5 198 545 -nan -nan -nan 0
-79.400002 198.60001 545 -0.30178079 0.47237787 -0.82812291 0.034273993
-83.285713 201 546.85712 -0.28524578 0.41172019 -0.86551797 0.039445251
-81.571426 200.85715 546.42859 -0.25331646 0.50392032 -0.82576942 0.02777799
-78.85714 200.85715 545.57141 -0.2447312 0.4566552 -0.85532022 0.025887074
-76.5 201 545.33331 -0.19840184 0.477658 -0.85585016 0.034198899
-74.666664 201.66667 545 -0.39439929 0.52918643 -0.7512728 0.022726679
2 201 545.66669 0.89816362 0.23438638 -0.37197468 0.0024138985
-79 203 547 -0.10501712 0.54356951 -0.83276862 0.012336082
-76.333336 203.33333 546.66669 -0.29448509 0.54159427 -0.7873717 0.018971918
-73.875 203.5 545.75 -0.44859168 0.4527196 -0.77059096 0.041027557
-71.666664 203.66667 545 -0.21224721 0.39743647 -0.89274591 0.031811006
1.3333334 203.33333 545.66669 0.76559615 0.33965671 -0.54634774 0.01128628
-73.800003 205.39999 546.40002 -0.40548089 0.43391919 -0.80454922 0.029456843
-71.5 206 546.16669 -0.22623996 0.58506596 -0.77878958 0.028895253
-69 205.88889 545.44446 -0.14818664 0.54088509 -0.82793957 0.020653225
-66.5 206.33333 545.16669 -0.33923 0.35057223 -0.87293875 0.042717878
-64.5 207 545 -0.16607973 0.49967015 -0.85014546 0.033957377
-8.333333 206.5 545 0.26326957 0.34380528 -0.90138066 0.025371352
-6.5 206 545.33331 -0.0058323592 0.34726453 -0.93774909 0.03067751
-4.0999999 206.60001 545 -nan -nan -nan 0.0052716695
-1.6666666 207 545 0.074967414 0.64777666 -0.75813276 0.0062277396
0.5 206 545.83331 0.68156981 0.33812672 -0.64894754 0.013603985
-68.800003 208.60001 547 -0.15898445 0.22461961 -0.9613896 0.007774476
-66.5 208.5 545.75 -0.36308083 0.42122644 -0.83110803 0.032099992
-64 208.5 545.5 -0.11332105 0.59595823 -0.79497939 0.025242796
-61.5 208.5 545.25 -0.19327772 0.54918921 -0.81304055 0.030163467
-59.142857 208.57143 545 -0.20992456 0.25873712 -0.94286096 0.030842973
-9.25 208.75 545.75 0.56687248 0.46123767 -0.68257993 0.01988293
-6.5 208.5 546.5 -0.036383759 0.55529523 -0.83085704 0.035351016
-4 208.85715 546.14288 -0.26148602 0.61749917 -0.74183542 0.019477664
-1.5 208.75 546 0.2327891 0.47377685 -0.84932011 0.018887434
0 208.5 546.5 0.61573535 0.33725381 -0.71213049 0.022856558
-68 210 547 -0.4893496 0.17137486 -0.85508341 0.057740014
-66.333336 210.33333 547 -0.056600828 0.30278459 -0.9513768 0.013624514
-63.857143 210.71428 546.85712 -0.1843365 0.3438808 -0.92074209 0.027612478
-61.5 211 546.33331 -0.24818251 0.4144533 -0.87557632 0.035861205
-59.166668 211 545.58331 -0.24777572 0.2638835 -0.93218708 0.023933968
-56.599998 210.8 545 -0.16983373 0.44932246 -0.87707794 0.027610505
-54 211 545 -0.11770853 0.65420264 -0.74710345 0.0085058082
-52 212 545 -0.51766235 0.41534024 -0.7480095 0.031014536
-11 212 545 0.95495862 0.031410687 -0.29507193 0.015425831
-9.333333 210.66667 546.66669 0.62893933 0.37306085 -0.68210042 0.02007301
-6 210 547 -0.016657563 0.47496149 -0.8798489 0.050090153
-4 210.5 547 -0.31440219 0.52644432 -0.78994155 0.040401697
-1.3333334 210.66667 547 0.21114258 0.49595985 -0.84228414 0.021831168
0 210 547 0.64269233 0.33859152 -0.68724263 0.015448031
-61 213 547 -0.45440137 0.45440137 -0.76618463 0.033037852
-59 213.5 546.83331 -0.29902872 0.43001676 -0.85186118 0.03472143
-56.5 213.5 546 -0.099142365 0.30952966 -0.94570726 0.025663557
-53.857143 213.57143 546 -0.15135953 0.33460951 -0.93012196 0.029899148
-51.599998 213.39999 545.20001 -0.45594767 0.42616475 -0.78134203 0.028448606
-49.5 214 545 -0.2634941 0.43779925 -0.85959452 0.037939399
-11 213 545 0.97887844 0.10061321 -0.17797174 0.0194095
-10 213 547 0.84315836 0.28251639 -0.45745867 0.0069019026
-58 215 547 -0.46258456 0.46258456 -0.75632739 0.021831086
-56.666668 215.33333 547 0.020424662 0.60201329 -0.79822487 0.042415112
-54 215.5 547 -0.25062901 0.49372554 -0.83271861 0.039620824
-51.400002 216.39999 546.79999 -0.30542296 0.4722195 -0.82687694 0.018296931
-49 216 545.88892 -0.22920246 0.53344262 -0.81418991 0.027845405
-46.599998 216.2 545.20001 -0.42891377 0.43758544 -0.79028594 0.023730906
-45 217 545 -0.5073415 0.33304906 -0.7947849 0.019272814
-11 216 545.79999 0.98951292 0.018815741 -0.14321414 0.0071198745
-48.75 218.25 547 -0.30527392 0.40222856 -0.86314547 0.024810784
-46.599998 218.60001 546.40002 -0.50280297 0.36951569 -0.7814393 0.028082058
-44.400002 218.39999 545 -0.4703581 0.5346036 -0.70211262 0.022567421
-41.5 219 545 -0.0078142723 0.47526988 -0.87980533 0.030917209
-39 219 545 -0.11273501 0.4437094 -0.88905162 0.057756629
-11 218.33333 546 0.98542184 0.090376511 -0.14413849 0.013160785
-46.5 220.25 546.75 -0.46411389 0.48695058 -0.73991716 0.026220569
-44 220.5 546.16669 -0.22466002 0.51591206 -0.82665747 0.018998126
-41.599998 221 545.79999 -0.022840532 0.4233036 -0.90569991 0.036489654
-38.888889 221 545.88892 -0.13540097 0.27437595 -0.95204216 0.027608274
-36.75 221.25 545.25 -0.4367488 0.53259712 -0.72497636 0.029687395
-35 222 545 -0.13803732 0.62866348 -0.76532871 0.019031491
-11.25 221.25 546.5 0.98209637 0.06124486 -0.1781455 0.0039480431
-43 223 547 -0.41041088 0.46832734 -0.78245282 0.019510768
-41.400002 223.39999 547 -0.01975487 0.12621042 -0.99180681 0.019413365
-39.090908 223.36363 547 -0.033291303 0.0164635 -0.99931008 0.0032675914
-36.5 223.5 546.5 -0.20378993 0.46794957 -0.85993773 0.036327742
-34 223.66667 545.5 -0.37902409 0.51661009 -0.7677595 0.020065226
-31.5 224 545 -0.3907164 0.51142222 -0.76536787 0.046044841
-12 223.5 545.5 0.8841238 0.20547816 -0.41964728 0.0036696175
-38 225 547 -0.12247683 0.42052078 -0.89897817 0.019231895
-36.5 225 547 -0.047859602 0.47473973 -0.87882394 0.030917209
-33.799999 225.8 546.59998 -0.50243717 0.52031106 -0.69053108 0.015748104
-31.571428 226.28572 545.71429 -0.39496571 0.41397944 -0.82013607 0.030026114
-29.25 226.75 545 -0.23373197 0.5908041 -0.77221745 0.016975105
-27 227 545 -0.26173124 0.64533269 -0.71766472 0.028434481
-13 226.5 545 0.8754968 0.17615315 -0.44997281 0.0052611344
-12 226 546.66669 0.89266211 0.16682278 -0.41871768 0.0034318219
-31.799999 228.60001 547 -0.44148603 0.50550127 -0.74132222 0.038862113
-29 228.5 546.33331 -0.1586829 0.60342336 -0.78147304 0.020542188
-26.5 228.5 545.5 -0.45172474 0.37834513 -0.80796021 0.040024057
-25 229 545 0 0 -1 0
-13 228.5 545.5 0.82961673 0.22697103 -0.51011783 0.0064303065
-12 228 547 0.89281315 0.15006492 -0.42469427 0.0039212992
-28 230 547 -0.36103651 0.49935827 -0.78758746 0.016404713
-26.4 230.8 546.79999 -0.48084584 0.44319153 -0.75655043 0.022358561
-24.083334 230.75 545.41669 -0.17353599 0.4160493 -0.89263004 0.016910687
-21.5 231 545.5 -0.03099413 0.71304601 -0.70043176 0.0041451794
-19 231 545.20001 -0.16200012 0.56319374 -0.81028932 0.021136394
-16.666666 231.66667 545 -0.35095498 0.48025644 -0.8038559 0.028142491
-13.666667 231 545.83331 0.75616831 0.29973277 -0.58169562 0.0099167489
-24 233 547 -0.19491915 0.72165066 -0.66424906 0.017493749
-21.5 233 547 0 0.70710683 -0.70710683 0
-18.571428 233.28572 546.42859 -0.20764941 0.67685407 -0.70622259 0.012056382
-16.333334 233.33333 545.66669 -0.24530573 0.52470648 -0.81517369 0.021178475
-14.5 233.25 545.75 0.45344922 0.48884079 -0.74526399 0.029939771
-18 235 547 -0.55708611 0.37139076 -0.74278122 0.044776224
-16.666666 235.66667 547 -0.39680099 0.4909893 -0.77555048 0.038777072
-14.5 235.5 547 0.35476536 0.4952713 -0.79299933 0.023487765
-36 -98.5 549 -0.09210781 -0.19404744 -0.9766584 0.13423179
-39 -96 549 -0.17353325 -0.46587747 -0.86766607 0.10525225
-36 -97 549 -0.003469174 0.20653129 -0.97843385 0.11918234
-46 -93 549 -0.62702394 0.24443944 -0.73965561 0.074034795
-44.5 -93 549 -0.093224153 -0.83072478 -0.5488221 0.1033911
-41.5 -93 549 -0.12194619 -0.033069957 -0.99198562 0.039786197
-38.799999 -93.599998 549 0.073505402 -0.078405738 -0.99420804 0.027219683
-36.666668 -93 549 0 0 -1 0
-34 -93 549 0 0 -1 0
-31.5 -93 549 0 0 -1 0
-29.166666 -93.166664 549 0.048005551 -0.071796276 -0.99626338 0.008375979
-26.5 -93 549 0 -0.43865922 -0.89865351 0.032736287
-25 -93 549 0.18250038 -0.44547886 -0.87649429 0.03549353
-45 -91.5 549 -0.50456643 0.25141761 -0.82595515 0.078895301
-41.5 -91.5 549 -0.17659499 0.18865213 -0.96603549 0.03258549
-39 -91.5 549 -0.0099430997 0.12074976 -0.9926331 0.013927281
-36.666668 -91.5 549 0 0 -1 0
-34 -91.5 549 0 0 -1 0
-31.5 -91.5 549 0 0 -1 0
-29 -91.5 549 0 0 -1 0
-26.5 -91.5 549 0 0 -1 0
-25 -91.5 549 0.43830782 -0.04001892 -0.8979336 0.032736287
-38.857143 -88.714287 549 -0.20446716 -0.15509215 -0.96650892 0.028970422
-36.666668 -89 548.77777 0.027930133 -0.18124819 -0.98304075 0.026440157
-34 -89 548.88892 -0.12934843 0.0042910539 -0.99158996 0.023492761
-31.5 -89 548.5 0.15597309 -0.063615434 -0.98571062 0.067675769
-29 -89 548.83331 0.05418792 -0.030701065 -0.99805868 0.087102145
-26.5 -89 549 0 0 -1 0
-25 -89 549 0.4465389 0.12128922 -0.88650548 0.034665745
-41 -86 549 -0.48041314 -0.37551773 -0.79258418 0.025017165
-39.125 -86.375 548.875 -0.21249619 -0.1616028 -0.96370637 0.03076403
-36.666668 -86.5 548 -0.13672543 -0.051113915 -0.98928934 0.022240823
-33.857143 -86.428574 548.85712 0.13926557 -0.16442582 -0.97650868 0.018725736
-31.5 -86.5 548.5 -0.055574872 -0.15306938 -0.98665148 0.090419292
-29 -86.36364 548.72729 -nan -nan -nan 0.12060606
-26.666666 -86.666664 549 0.42618373 0.41530827 -0.80367059 0.061662745
-41 -85 549 -0.63007528 0 -0.77653408 0.074348181
-38.700001 -83.800003 548.40002 -0.17718785 0.41454405 -0.89261287 0.036896419
-36.636364 -84.090912 548.18182 -0.0059285956 0.094407029 -0.995516 0.0064247637
-34.090908 -84 548.27271 -0.008791469 0.18642579 -0.98242968 0.041653033
-31.5 -84.125 548.125 -0.10073499 -0.01136274 -0.99484837 0.037068665
-29.076923 -84.07692 548.61536 0.47450715 0.20858625 -0.8551811 0.098081239
-38 -82 549 -0.25813177 0.29398406 -0.92029423 0.063242018
-36.5 -82 549 -0.049875017 0.13844883 -0.98911291 0.025413701
-34 -81.5 549 -0.14278565 0.2904824 -0.94616717 0.025739314
-31.5 -81.5 548.25 -0.14348613 0.38133287 -0.91323429 0.049951158
-29.428572 -81.571426 548.85712 0.20272234 0.060420744 -0.97737038 0.032599144
-31.333334 -79.666664 549 -0.29432067 0.59248471 -0.7498914 0.06556005
-29.666666 -79.5 549 0.091647074 0.44210213 -0.89227045 0.10781128
-21.75 -13 549 -0.33855119 0.40099224 -0.85122752 0.075114109
-18.799999 -13.4 549 -0.18615854 -0.33690163 -0.92295301 0.048954643
-16.5 -13.5 548.5 -0.10857377 -0.51258063 -0.85174692 0.067786112
-13.875 -13.75 548.5 -0.24883464 -0.45725811 -0.85381275 0.063147053
-11.333333 -14.333333 548.66669 -0.065593235 -0.77993482 -0.62241405 0.036286004
-9 -13.5 548.5 0.61377585 -0.45774353 -0.64323413 0.042645387
-21 -12 548.5 -0.42013326 -0.06303893 -0.90527022 0.170991
-19 -11.666667 548.66669 -0.075033605 0.091672935 -0.99295825 0.14727087
-16.5 -11.666667 548.66669 -0.037940219 0.48229337 -0.87518775 0.095719717
-13.909091 -11.636364 548.45453 -0.44203892 0.2374423 -0.86499864 0.085347101
-11.5 -11 548 -0.13534848 0.46004075 -0.87752116 0.043980587
-9 -11.571428 548.28571 0.57516271 0.18730292 -0.79630744 0.050247479
-19 -10 549 -0.032095704 0.50638652 -0.86170912 0.046765037
-16.333334 -9.666667 549 -0.18486284 0.28891617 -0.9393366 0.026939178
-14 -9.666667 548.83331 -0.29282159 0.38945451 -0.87325871 0.045684207
-11.5 -9.5 548.5 0 0.58088797 -0.8139835 0.016368143
-9.666667 -9.666667 548.66669 0.35622203 0.57585853 -0.73586202 0.020718621
-39 159 549 -0.06163336 -0.85749972 -0.51077938 0.087033838
-23.5 159 549 -0.22640733 -0.9029038 -0.36538261 0.039449655
-21.5 159 549 0 -0.70710683 -0.70710683 0
-20 159 549 0.5049367 -0.68798077 -0.52126908 0.061098665
-13 159 549 -0.47215691 -0.83517331 -0.28205228 0.044924188
-11.666667 159 549 -0.068495065 -0.91279465 -0.40263411 0.04142366
-9 159 549 0.013349145 -0.8985734 -0.43862015 0.032736279
-6.5 159 549 0.020540444 -0.97414923 -0.22496955 0.01636814
-4.25 159 549 -0.010201873 -0.99368554 -0.11173617 0.0081840698
-1.3333334 159 549 -0.26550633 -0.80709845 -0.52735043 0.034077544
0.75 159 548.75 0.27903649 -0.84528601 -0.45566455 0.047233187
-115 160 549 0.98665482 0.080788918 -0.14136998 0.038061555
-111 162 549 -0.6384896 -0.69972759 -0.32048777 0.024240535
-108.83334 161.33333 548.33331 -0.31073862 -0.80632412 -0.50327224 0.03937519
-106.5 161 548.5 0.027819732 -0.91319847 -0.4065643 0.035857383
-104 161 548.5 0.20920597 -0.89118546 -0.40251866 0.047846641
-101.42857 161.85715 548.57141 -0.14808404 -0.86120373 -0.48620909 0.066594794
-98.85714 161.42857 548.71429 0.17367373 -0.80760735 -0.5635671 0.089265063
-96.5 161.5 548.5 -0.40778229 -0.85168797 -0.32915226 0.056761887
-94.125 161 548.5 -0.032091029 -0.97987056 -0.19703768 0.019377295
-91.666664 161 548.33331 0.077167302 -0.90577644 -0.41667044 0.050904796
-88.75 161.75 548.75 -0.21781775 -0.9061892 -0.36245909 0.09033078
-86.599998 161.2 548.40002 0.067813121 -0.8481214 -0.52544391 0.096100174
-83.875 161.75 548.625 0.070987716 -0.79387897 -0.60391796 0.085156135
-81.428574 161.42857 548.57141 -0.24721999 -0.69966793 -0.67033356 0.067169584
-79 161 548.42859 -0.00314644 -0.94585294 -0.3245801 0.03498394
-76.333336 160.66667 548.66669 -0.20486842 -0.86068034 -0.46610975 0.035696093
-74 160.5 548.5 -0.015251428 -0.81182581 -0.58370042 0.035458665
-71.599998 160.60001 548.40002 -0.0256317 -0.8501085 -0.52598339 0.036521133
-69 160.5 548.5 0.081444211 -0.7869882 -0.61156887 0.039972559
-66.400002 160.39999 548.59998 0.15652086 -0.88955009 -0.42918748 0.057541907
-64.25 161 548.75 0.085796535 -0.91107875 -0.4032051 0.020479629
-61.5 161 549 0 -0.92160225 -0.38813579 0.042977348
-58.75 161 549 -1.1439381e-08 -0.70710683 -0.70710683 0
-56.599998 161.60001 548.40002 -0.058339637 -0.81125271 -0.58177793 0.020484913
-54.200001 161.39999 548.59998 -0.060600556 -0.8113457 -0.58141702 0.017962778
-51.5 161.25 548.75 -0.0040447437 -0.79859078 -0.6018607 0.023069028
-49.142857 161.57143 548.42859 -0.014601207 -0.84906512 -0.5280863 0.04011425
-46.666668 160.66667 548.33331 -0.12683611 -0.87390262 -0.46926197 0.046539664
-43.857143 160.85715 548.57141 0.22903644 -0.91950256 -0.31946409 0.08336927
-41.599998 161.60001 548.40002 0.017490508 -0.82717222 -0.56167632 0.04578907
-39 160.83333 548.5 -0.27264079 -0.83273262 -0.48189551 0.065626614
-36.5 160.5 548.5 0.0079113897 -0.95415419 -0.29921097 0.026821231
-34.25 160.5 548.5 -0.0023002815 -0.90351439 -0.42855161 0.039774567
-31.5 160.5 548.5 0 -0.89865351 -0.43865925 0.032736279
-28.857143 160.42857 548.71429 -0.05677513 -0.9424848 -0.32939184 0.070519395
-26.6 160.60001 548.40002 -0.010119416 -0.92038548 -0.3908813 0.04248042
-24 160 548.33331 -0.16491237 -0.79122007 -0.58887583 0.026339369
-21.333334 160.33333 548 0.15128458 -0.43900537 -0.88565642 0.038060408
-19.25 160.5 548.25 0.080722623 -0.64533758 -0.75962043 0.072603531
-16.5 160.5 548.5 -0.04001892 -0.8979336 -0.43830785 0.032736279
-14 160.5 548.16669 -0.083570153 -0.72099346 -0.68788403 0.065544128
-11.666667 160.5 548 -0.004667385 -0.34466937 -0.93871248 0.10219577
-9 160.5 548 -0.064509414 -0.72679633 -0.68381691 0.066990852
-6.5 160 548 -0.098856233 -0.67576098 -0.73046184 0.010724412
-4.25 160 548 4.2655723e-10 -0.70710683 -0.70710683 0
-2 160 548 -0.26788786 -0.70961285 -0.65167916 0.016602496
1.6666666 160.33333 548.33331 0.53694963 -0.59310836 -0.59992296 0.028270856
3 161.25 548.5 0.88357395 -0.31620285 -0.34541681 0.068833664
-114 163.5 548.5 0.032393973 -0.90449196 -0.42525858 0.05776972
-111.5 163 548 -0.41593751 -0.87078899 -0.26214993 0.037468184
3 163.33333 548.66669 -0.97244126 -0.020014882 -0.23228751 0.016400179
3 166 548.5 -1 0 0 0
-113 186.5 548.25 0.47076231 0.38060239 -0.79594266 0.12193587
-111.5 187 548 -0.16416779 0.50991678 -0.84441334 0.068500385
-110 187 548 -0.33859152 0.64269233 -0.68724263 0.015448035
-113.4 188.60001 548.59998 0.66562915 0.45811775 -0.58912307 0.077944413
-111.33334 188.33333 549 -0.13601606 0.47137159 -0.87138301 0.051780432
-109 188.5 548.16669 -0.2282383 0.4750531 -0.84984219 0.032179117
-106.33334 188.5 548 -0.047072932 0.34572762 -0.93715346 0.05923355
-105 188.5 548 -0.0017219726 0.26234269 -0.96497321 0.045580968
-114.4 190.60001 548.40002 0.77159154 0.43895829 -0.46039349 0.039691709
-108.5 190 549 -0.25787497 0.61123812 -0.74825698 0.023327433
-106.4 190.39999 548.79999 -0.12328158 0.57413989 -0.80942267 0.05968409
-103.875 190.875 548.75 -0.2243368 0.53109938 -0.81707186 0.042128704
-101.66666 191.66667 548.33331 -0.3858223 0.52047443 -0.76173979 0.019938625
-99.5 192 548 -0.2120795 0.57767618 -0.78823382 0.01610565
-115 193.5 549 0.93541151 0.29246327 -0.19867191 0.054238386
-101.33334 193.33333 549 -0.35098132 0.43678084 -0.82827204 0.022636345
-99.25 193.75 548.75 -0.32523841 0.47745267 -0.81624687 0.024230715
-97 194 548 -0.45623198 0.50992656 -0.72926491 0.017742885
-98.333336 195 549 -0.30326286 0.47548535 -0.82579976 0.019751638
-96.400002 195.8 548.59998 -0.46325806 0.37838581 -0.80138391 0.030817127
-94.75 196.25 548 -0.39157528 0.40081751 -0.82825971 0.029132172
-93.75 198.25 548.75 -0.40873754 0.58788919 -0.69808298 0.012737557
-91.5 198.75 548 -0.20457618 0.52310991 -0.82734787 0.020492109
-88.666664 199 548 -0.10243249 0.66068739 -0.74363959 0.0026061942
-91.666664 200 549 -0.18989868 0.65612864 -0.7303654 0.0098995445
-88.599998 201.2 549 -0.30336162 0.46209309 -0.83333164 0.025834739
-86.5 201.16667 548.5 -0.1082442 0.52427149 -0.84464341 0.024813682
-84.75 201.25 548.25 -0.42247105 0.50321597 -0.75385141 0.029689729
-83.75 203.25 548.75 -0.31270191 0.565669 -0.76304394 0.016133755
-81.5 203.5 548.25 -0.2671254 0.62360466 -0.73468453 0.022615269
-80 204 548 -0.32769436 0.53994727 -0.7752893 0.023262024
2 204 548 0.92242223 0.23599456 -0.30568588 0.0021958726
-81 205 549 -0.32264736 0.66929018 -0.66929018 0.014199415
-78.571426 205.71428 548.71429 -0.34143582 0.55205494 -0.76069504 0.021910906
-76.599998 206 548.20001 -0.34654561 0.48156941 -0.80498266 0.020405442
-74.25 206.75 548 -0.26867092 0.55811316 -0.7850641 0.020564437
2 206 549 0.91977805 0.15250389 -0.36159492 0.0024387864
-76 208 549 -0.4587341 0.44634262 -0.76833659 0.0097324885
-73.75 209 549 -0.12707765 0.55753428 -0.82036996 0.018221937
-71.5 208.5 548.5 -0.26379842 0.55299968 -0.79031748 0.02705111
-70 209 548 -0.56484503 0.44279397 -0.69633591 0.02143383
1 209 548 0.80725068 0.24883194 -0.53519076 0.0073446068
-71.400002 210.8 549 -0.24166813 0.14298083 -0.95976722 0.021545697
-69.375 211.25 548.375 -0.42570561 0.32643047 -0.84393007 0.032607291
-67 212 548 -0.20282659 0.51241094 -0.83444375 0.01834316
-8.333333 211.66667 548 0.54913521 0.46624652 -0.69358832 0.032819923
-6.5999999 211.2 548.79999 -0.011742756 0.41862848 -0.90808165 0.056961834
-4.1666665 211.66667 548 -0.24596432 0.21856838 -0.94431424 0.023722643
-1.5 212 548 0.25458792 0.54666799 -0.79770863 0.032387339
0.5 211.25 548.5 0.709503 0.37235796 -0.59829336 0.016749257
-69 213.25 549 -0.20474169 0.54691625 -0.81176567 0.049543351
-66.5 213.5 548.5 -0.14497554 0.62872434 -0.76399463 0.015051795
-64.199997 213.2 548.20001 -0.050355237 0.66158199 -0.74818021 0.0068011777
-61.666668 213.66667 548 -0.3617861 0.49686265 -0.78882086 0.021933043
-8.5 213 549 0.4006047 0.59630078 -0.69565892 0.022612402
-6 213 549 -0.28706327 0.47763795 -0.83033532 0.017275279
-3.8571429 213.42857 548.57141 -0.30847681 0.49077138 -0.81485301 0.038215417
-1.6666666 213.33333 548.66669 0.3274847 0.51964808 -0.78912586 0.035214692
0 213 549 0.33574957 0.68426698 -0.64734143 0.013490936
-63.200001 215.39999 549 -0.38893527 0.42345542 -0.81817776 0.03691031
-61.5 216 549 -7.5031947e-10 0.38268343 -0.9238795 0
-59 215.83333 548.5 -0.25298315 0.62657642 -0.7371577 0.016889505
-56.333332 216.66667 548.33331 0.097811505 0.61797279 -0.7800914 0.064133875
-54.400002 216.8 548.20001 -0.37944284 0.52815986 -0.75965154 0.055853069
-10 216 548.5 0.87906843 0.19782041 -0.43371153 0.00058786146
-3 215 549 -0.36487815 0.5408721 -0.75783998 0.02213335
-2 215 549 0.39328289 0.39328289 -0.83105785 0.04938769
-56.5 218 549 -0.024935773 0.54889697 -0.83551806 0.042170655
-54 218.33333 548.83331 -0.28530574 0.52856213 -0.799514 0.055430885
-51.666668 218.66667 548.33331 -0.48294848 0.35854885 -0.79887635 0.023597447
-11 219 548 0.96897012 0.16051896 -0.18796445 0.019188453
-10 218 549 0.88183266 0.16402689 -0.44211584 0.0027711319
-53 220 549 -0.34025913 0.34025913 -0.87661141 0.047077164
-51.5 220.5 548.75 -0.36489189 0.39086115 -0.84503341 0.030451261
-49.125 220.625 548.25 -0.2044127 0.44458848 -0.87209892 0.018935893
-46.75 221.5 548 -0.35800466 0.41484019 -0.83650476 0.034654096
-45 222 548 -0.18798885 0.38616875 -0.90306914 0.047896758
-11 220.5 548.5 0.97527468 0.095542163 -0.19927627 0.019824972
-48.75 223 549 -0.23191133 0.51690036 -0.82403344 0.030458447
-46.333332 223.33333 548.66669 -0.34419918 0.46403086 -0.81621212 0.025615254
-44.200001 223.60001 548 -0.31530833 0.36247522 -0.87703609 0.040204622
-11 223.5 548 0.99019229 0.052939132 -0.12929304 0.0069023464
-43.25 225.75 548.75 -0.49217105 0.47429723 -0.72993821 0.021591883
-41.400002 226.60001 548.59998 -0.11374219 0.53900814 -0.83458549 0.034914497
-39.142857 226.42857 548.28571 -0.10858805 0.56009448 -0.82128119 0.022787781
-36.5 226.5 548 -0.042112671 0.28697965 -0.95701057 0.023686536
-34.666668 226.66667 548 -0.21802315 0.39845905 -0.89089632 0.035781924
-11 226 549 0.9746291 0.18605386 -0.12442688 0.015970342
-41 228 549 -0.098998457 0.36758596 -0.92470533 0.04131566
-39.5 228 549 -0.088172384 0.48622134 -0.86937588 0.039007962
-36.5 229 549 -0.14373653 0.62243384 -0.76936072 0.018518081
-34 228.66667 548.5 -0.36689997 0.50193769 -0.78322601 0.026585216
-12 229 548 0.98546469 0.059897896 -0.15897079 0.019703509
-33 230.33333 548.66669 -0.46525705 0.51683575 -0.71862137 0.039467525
-31.5 230.5 548.5 -0.24792223 0.66965175 -0.70007223 0.02156557
-29.200001 231.60001 548.20001 -0.35363346 0.54224467 -0.76217723 0.016113583
-27 232 548 -0.23029518 0.57764119 -0.78313142 0.020241905
-12 230.5 548.5 0.98543388 0.089964285 -0.14431368 0.01044406
-28.333334 233.33333 549 -0.32166475 0.56563413 -0.7593351 0.020086123
-26.5 233.5 548.5 -0.39372712 0.48318323 -0.78199291 0.021968821
-24.25 233.75 548 -0.17581789 0.668998 -0.72217017 0.021989401
-21.5 234 548 -0.018064255 0.64350688 -0.76522714 0.0038359244
-20 234 548 -0.23211025 0.57771164 -0.78254336 0.011979786
-13 233.5 548 0.84888315 0.23781462 -0.47206101 0.0031447869
-26 235 549 -0.3784236 0.56763536 -0.73115373 0.01180803
-24 235.33333 549 -0.08574824 0.60480076 -0.79174691 0.0055035087
-21.5 236 549 -0.018064255 0.64350688 -0.76522714 0.0038359244
-18.625 236 548.5 -0.47963598 0.50932449 -0.71451938 0.030168355
-16.5 237 548 -0.24940547 0.64071238 -0.72614366 0.019096274
-14 236.5 548.5 0.61413318 0.38964555 -0.6863066 0.024213806
-18.5 238 549 -0.28603211 0.47756281 -0.83073425 0.050652154
-16.333334 238.33333 549 -0.28537247 0.5599516 -0.77782822 0.026661167
-14.5 238.5 548.75 0.2270627 0.44599378 -0.8657552 0.06245444
-31 -110 552 -0.58516961 0.6762023 -0.44757918 0.027137648
-30 -110 551.5 0.44588688 0.82795924 -0.34010059 0.04617694
-46 -103 552 -0.20782894 -0.46632531 -0.85985339 0.036062792
-44 -103 552 -0.13110806 -0.44993806 -0.88338357 0.036489155
-41.5 -103.5 551.75 -0.28905675 -0.53749853 -0.79217517 0.024125319
-38.875 -103.5 551.5 0.12755887 -0.60202348 -0.78822368 0.020013288
-36.5 -103 552 0.030653697 -0.69604737 -0.71734118 0.014476452
-34 -103.5 551.5 -0.11548597 -0.67398494 -0.72966248 0.01243941
-31.4 -103.6 551.59998 0.15230802 -0.60634822 -0.78047681 0.030225238
-29.4 -103.2 551.79999 0.27563274 -0.61429846 -0.73936731 0.032159757
-26.5 -103 552 0.2316303 -0.6255216 -0.74503028 0.021393139
-48.75 -101.25 552 -0.32450885 -0.38289735 -0.86491829 0.046999674
-46.666668 -101.5 551.5 -0.24721536 -0.51439661 -0.82114601 0.031758148
-44 -101.5 551.5 -0.066157259 -0.40872747 -0.91025549 0.035609409
-41.5 -101.5 551 -0.087103829 -0.087103829 -0.99238396 0.011769291
-38.75 -101.5 551 -0.0066109537 -0.08180473 -0.99662644 0.011289947
-36.5 -101.5 551 -0.014959339 -0.18166736 -0.98324633 0.020890921
-34 -101.5 550.33331 -0.2366181 -0.19653702 -0.95151722 0.032430071
-31.5 -101.5 550.5 0.15428728 -0.39831537 -0.90417933 0.048527215
-29.25 -101.5 550.875 0.21808039 -0.30612499 -0.92667598 0.050375864
-26.5 -101.5 551.25 0.24454506 -0.29505262 -0.9236567 0.026848529
-24 -101.5 552 0.18288168 -0.36539403 -0.91271108 0.049374387
-22 -101 552 0.50833511 -0.34627253 -0.78847373 0.030441487
-53 -98 552 -0.23652516 -0.46166021 -0.85494196 0.035987359
-51.333332 -98 552 -0.13653091 -0.41548944 -0.89929295 0.04902928
-49 -99 551.55554 -0.35991427 -0.21411207 -0.90808463 0.03848134
-46.666668 -99 550.77777 -0.15021931 -0.26758012 -0.95175362 0.082956165
-44 -99 550.55554 0.00050057453 -0.20477983 -0.97880793 0.065911107
-41.5 -99 551 -0.16397895 -0.127801 -0.97815019 0.025156856
-38.75 -99 550.16669 -0.053885859 -0.1922988 -0.97985584 0.029114567
-36.75 -99.25 550 -0.2995719 -0.33685115 -0.89262986 0.036846951
-34 -99 550 0.059952535 -0.053442258 -0.99676961 0.01543902
-31.5 -99 550 0 0 -1 0
-29.25 -99 550.33331 0.26834068 -0.15439017 -0.95087165 0.033355817
-26.5 -99 551 0.055444282 -0.023954928 -0.99817437 0.011622306
-24 -99 551.55554 0.23365797 -0.18185411 -0.95516127 0.023347864
-22 -98.75 552 0.12957871 0 -0.9915691 0.010551008
-53.333332 -96.333336 552 -0.26389602 -0.10068599 -0.95928162 0.028189259
-51.5 -96.5 552 -0.21012639 -0.10976125 -0.97149336 0.019747403
-49 -96.333336 551 -0.23588002 -0.10027581 -0.96659476 0.035027537
-46.333332 -96.5 550 -0.13287377 -0.17319395 -0.97588336 0.035962049
-44 -96.5 550 -0.022031577 -0.057715256 -0.99808991 0.0089562479
-41.5 -96.5 550 0 -0.13862136 -0.99034542 0.025413701
-38.714287 -96.571426 550 0.027843498 -0.15005907 -0.98828489 0.049762342
-36.666668 -96.333336 550 -0.1054713 0.15979789 -0.98149902 0.026083542
-34 -96.5 550 0.045924269 0.016543826 -0.99880785 0.0084712338
-31.5 -96.5 550 0 0 -1 0
-29.25 -96.5 550 0.031788856 0 -0.99949461 0.0074398122
-26.4 -96.800003 550.79999 0.19767256 -0.066393793 -0.97801709 0.022431144
-24 -96.666664 551 0.15333433 -0.02733673 -0.98779613 0.015051378
-22 -96.5 552 -nan -nan -nan 0
-53.25 -94.25 552 -0.30949163 0.085522182 -0.94704849 0.029326014
-51.5 -94 551.5 -0.48352039 -0.10124929 -0.8694576 0.035370391
-49 -94 550.44446 -0.1638215 -0.17488651 -0.97086418 0.022545155
-46.400002 -94.300003 550 -0.097602516 0.090913974 -0.99106425 0.014491035
-43.888889 -94.444443 550 -0.0093406299 0.018407743 -0.99978697 0.022823455
-41.5 -95 550 0 0 -1 0
-39 -95 550 0.01701366 -0.23758064 -0.97121882 0.061864261
-36.5 -95 550 0 0 -1 0
-34 -95 550 0 0 -1 0
-31.5 -95 550 0 0 -1 0
-29.1 -94.800003 550 0.034096628 -0.082835771 -0.99597973 0.016154189
-26.6 -94.599998 550.20001 0.29749754 -0.40353602 -0.86524791 0.035035491
-23.875 -94.125 550.5 0.34048033 -0.32818037 -0.88111901 0.055782013
-21.857143 -93.85714 551.71429 0.74395037 -0.086467393 -0.66261697 0.065616176
-53 -91.5 552 -0.52038598 0.23681073 -0.82043839 0.053641707
-51.5 -91.5 551.5 -0.57581896 0.11676659 -0.809196 0.033330005
-49 -91.5 550 -0.16059747 0.040431947 -0.98619151 0.011079443
-46.333332 -91.5 550 -0.3112905 0.059839942 -0.94842893 0.046747994
-43.5 -91.5 550 -0.0031357489 0.098798417 -0.99510252 0.049452323
-23.5 -91.5 550.25 0.58723354 -0.24690573 -0.77083999 0.030938847
-21.666666 -91.5 551.5 0.68965685 -0.2024707 -0.69525474 0.065903969
-51.5 -89 551.75 -0.51016492 0.19638199 -0.83735645 0.071118608
-49 -88.75 550.91669 -0.16384622 0.19758055 -0.966497 0.051236764
-46.416668 -88.75 550.33331 -0.10625497 0.17357418 -0.97907197 0.022408469
-44 -89 550 -0.024364108 -0.0063244291 -0.9996832 0.0088351332
-41.5 -89 550 -0.18067463 0.077371448 -0.98049498 0.037420705
-39.5 -90 550 -0.30012178 0.0011797103 -0.95390022 0.1174549
-23.5 -89.166664 550.33331 0.53044319 0.19217016 -0.82565171 0.06652008
-21.888889 -89.222221 551.44446 0.79761058 0.11473258 -0.59216017 0.097250283
-51 -86.5 552 -0.49362761 0.095332287 -0.86443251 0.053042699
-49 -86.5 551.5 -0.15170778 0.34634006 -0.92576092 0.054222275
-46.666668 -86.5 551 -0.16871014 0.081911013 -0.98225629 0.033710226
-44 -86.666664 550.33331 -0.199543 0.30071738 -0.93260479 0.040232215
-41.599998 -86.800003 550 -0.19462235 -0.15492551 -0.96856606 0.014945189
-26.333334 -86.333336 550 0.33402067 0.29055724 -0.8966642 0.066638976
-24 -86.666664 550.33331 0.41798466 0.18434237 -0.88955426 0.10586951
-22 -86.5 551.75 0.75896096 0.21398821 -0.61496943 0.040348008
-51 -85 552 -0.39328289 0.39328289 -0.83105785 0.04938769
-48.42857 -84.428574 552 -0.33886182 0.22161216 -0.91436356 0.043059487
-46.5 -84 551.66669 -0.18062967 0.31250155 -0.93258554 0.052690435
-44 -84 550.88892 -0.37435627 0.26490733 -0.88864028 0.033308439
-41.599998 -83.800003 550 -0.29086724 0.25563267 -0.92198056 0.044648156
-40 -83 550 -0.34025913 0.34025913 -0.87661141 0.047077164
-26.5 -84 550 0.27295417 0.038913414 -0.9612397 0.029953031
-24 -84 550.55554 0.41551724 0.18996216 -0.88952786 0.026764253
-22 -84.25 552 0.82382709 0.23389058 -0.51633722 0.051759996
-46.5 -82 552 -0.094309866 0.52896237 -0.84338874 0.087860689
-43.857143 -81.85714 551.85712 -0.25696185 0.57104284 -0.77966702 0.041677773
-41.5 -81.333336 551.16669 -0.28021777 0.63630044 -0.71874869 0.071717627
-39.142857 -81.285713 550.42859 -0.31835127 0.62116694 -0.71610349 0.039803389
-36.5 -81 550 -0.17872801 0.69436538 -0.69707453 0.0086543579
-28 -81 550 0.49698219 0.19544926 -0.8454634 0.033740375
-26.4 -81.400002 550.40002 0.47348762 0.42550051 -0.77120614 0.041551568
-23.9 -81.5 551.5 0.57836586 0.50546604 -0.64031005 0.090466008
-22 -82 552 0.25234857 0.85166633 -0.45933071 0.084775694
-41 -80 552 -0.2442897 0.58848447 -0.77071959 0.077043481
-38.888889 -79.777779 551.44446 -0.29203391 0.65579593 -0.69616657 0.027155997
-36.5 -79.666664 551.33331 -0.11726975 0.72005188 -0.68393934 0.013410539
-34 -79.083336 550.83331 -0.27319565 0.69106221 -0.66917646 0.055828702
-31.5 -78.5 550.83331 -0.30708018 0.72264242 -0.61926538 0.032286193
-28.888889 -78.777779 550.44446 0.23271839 0.73755997 -0.63391435 0.06188878
-26.666666 -79.333336 551.33331 0.53236222 0.45557782 -0.71346986 0.045152228
-24.666666 -79.666664 552 0.32335454 0.50837421 -0.79812127 0.040666286
-31.25 -76.75 552 -0.32141191 0.47558147 -0.81885082 0.048614025
-29.200001 -76.599998 552 0.14703791 0.48748446 -0.86066175 0.034866329
-29 -16 552 -0.089947529 -0.76864219 -0.63332355 0.0066613443
-26.5 -16 552 0.11978868 -0.8109023 -0.57278979 0.0088968333
-21.5 -16 552 -0.15115954 -0.82717532 -0.54123175 0.013927589
-19 -16 551.66669 -0.15047045 -0.82299626 -0.54775536 0.010204249
-16.666666 -16.333334 551.33331 8.8805785e-10 -0.77785981 -0.62843788 0.0028100542
-14 -16 551 2.6246132e-09 -0.70710683 -0.70710683 0
-11.5 -16 551 0.10384041 -0.85936147 -0.50071448 0.0098153912
-9.5 -16 552 0.36387801 -0.76305807 -0.53416777 0.0076478226
-41 -14 552 -0.52065742 -0.39711258 -0.75578934 0.10967883
-38.857143 -13.428572 552 -0.17139475 0.36406779 -0.91546625 0.080718316
-36.42857 -13.571428 552 -0.031329151 -0.059788883 -0.99771929 0.0045548454
-34 -13.75 551.83331 -0.15710518 -0.068806037 -0.98518211 0.029403584
-31.416666 -13.75 551.25 -0.038747959 -0.22464314 -0.97367036 0.0052443743
-29 -13.75 550.5 -0.14761241 -0.25140405 -0.95655972 0.064327382
-26.5 -13.75 550.25 -0.043007951 -0.23465055 -0.97112793 0.009068083
-23.923077 -13.846154 550.61536 -0.049855772 -0.34790623 -0.93620282 0.015640549
-21.666666 -14.166667 550.33331 -0.41504338 -0.48936895 -0.76697916 0.040713485
-19.25 -14.75 550 -0.18019494 -0.66261399 -0.7269612 0.014780179
-16.5 -15 550 0 -0.70710683 -0.70710683 0
-14.333333 -15 550 -0.23844276 -0.69590044 -0.67739761 0.0099334214
-12 -15 550 -0.057835717 -0.80554754 -0.58970177 0.031523444
-8.6000004 -14.4 550.59998 0.57458138 -0.68811375 -0.4431203 0.016704995
-7 -13 552 0.88783646 -0.30225125 -0.34697354 0.0073158359
-36.333332 -11.666667 552 -0.17350127 0.21865882 -0.96025288 0.0269736
-34 -11.5 552 -0.018867234 0.21236214 -0.97700882 0.018599242
-31.666666 -11.5 551.66669 -0.40821809 0.18612888 -0.89370799 0.029783273
-29 -11.5 550.66669 -0.31385311 0.24137123 -0.91827899 0.042010128
-26.5 -11.5 550 0 0.22501703 -0.97435486 0.016368143
-24 -11.5 550 -0.010866751 0.23406197 -0.972161 0.018147526
-21.799999 -11.4 550 -0.084960625 0.09076488 -0.99224162 0.0059325667
-7 -11.5 551 0.93533647 0.065883845 -0.34757006 0.016165294
-31.666666 -10 552 -0.39507714 0.46584705 -0.79177058 0.034820102
-29 -9 551.55554 -0.26842126 0.39084375 -0.88044941 0.039509717
-26.5 -9 551.33331 0 0.43865919 -0.89865345 0.032736287
-23.75 -9 551.58331 -0.055397391 0.36475825 -0.92945284 0.028980643
-21.5 -9 550.83331 -0.32207599 0.43619663 -0.8402378 0.039156515
-19 -8.875 550.5 -0.19847968 0.47209859 -0.85891134 0.042787164
-16.666666 -8.333333 550 -0.37221426 0.42517114 -0.825037 0.030382061
-14 -8.333333 550.16669 0 0.50055349 -0.86570561 0.079294436
-11.5 -8 550 0 0.43865922 -0.89865351 0.032736287
-8.666667 -8.666667 550.66669 0.64936984 0.44912305 -0.61368334 0.021565281
-7 -10 552 0.85220677 0.33943781 -0.39815274 0.0028247717
-28.5 -7 552 -0.11818337 0.46942952 -0.87502491 0.033238329
-26.5 -7 552 0 0.43865922 -0.89865351 0.032736287
-23.75 -7 552 -0.010201873 0.11173616 -0.99368554 0.0081840716
-21.333334 -6.6666665 552 -0.30055058 0.38530752 -0.87247199 0.044328097
-19 -6.5 551.16669 -0.12758251 0.32403761 -0.93740189 0.030667549
-16.5 -6.5 550.75 -0.22468945 0.50835329 -0.83131927 0.038075656
-14 -6.5 550.625 0.039410532 0.32066715 -0.94637173 0.075373247
-11.5 -6.5 550 0.04538944 0.2192253 -0.9746179 0.016155051
-9.5 -6.5 551 0.64287633 0.36539289 -0.67319989 0.023542231
-21 -5 552 -0.15497898 0.54492503 -0.82403779 0.097910136
-19 -5 552 -0.090849929 0.74233991 -0.66383564 0.084643982
-16.5 -5 552 -0.15988788 0.82762128 -0.53803235 0.06765233
-13.909091 -4.7272725 551.81818 -0.13807549 0.39338431 -0.90894657 0.036596071
-11.571428 -4.4285712 551.71429 0.090138711 0.70017058 -0.70826274 0.074163258
-9.666667 -5 551.66669 0.48759249 0.69806129 -0.52436996 0.063420922
-114 156 552 0.97521216 0.15469348 -0.15821262 0.016740592
-71 157 552 -0.20344417 -0.95607775 -0.21101159 0.12268426
-70 157 552 0.41941664 -0.85631943 -0.30134159 0.10548531
-6.5 157 552 -0.12653787 -0.31257689 -0.94142652 0.03522573
-4.25 157 552 0.0078773517 -0.47763434 -0.87852341 0.057130944
-1.5 157 552 0.020044949 -0.4882454 -0.87247616 0.053263105
0 157 552 0.23825222 -0.58853638 -0.77256775 0.070451461
-114 158.5 550.5 0.96566707 0.15105332 -0.21135257 0.083202437
-108 159 551.5 -0.31912503 -0.821724 -0.47215351 0.055415593
-106.5 159 551.5 0.070368052 -0.98696762 -0.1447178 0.029045885
-104 159 551.66669 0.10843939 -0.78521609 -0.60965288 0.051687136
-101.5 159 552 0.091367573 -0.65821308 -0.74726671 0.028821927
-99.25 159 552 -0.10056054 -0.67495376 -0.73097533 0.012893253
-96.5 159 552 0 -0.70710683 -0.70710683 0
-94 159 552 -6.2443078e-10 -0.70710683 -0.70710683 0
-91.666664 159 552 0 -0.70710677 -0.70710677 0
-89 159 552 6.2443067e-10 -0.70710677 -0.70710677 0
-86.5 159 552 0 -0.70710683 -0.70710683 0
-84.25 159 552 0.14330281 -0.81575048 -0.56037092 0.032306463
-82 159 552 0.19544926 -0.8454634 -0.49698219 0.033740375
-79 159 552 -0.062107403 -0.88047254 -0.47001144 0.032079201
-76.666664 159 551.66669 -0.18802486 -0.92040741 -0.34277812 0.057249676
-73.85714 158.85715 550.85712 -0.14776984 -0.90153062 -0.40670207 0.096814536
-71.5 158.66667 550.83331 -0.099487446 -0.82468778 -0.55676955 0.065258913
-68.909088 158.63637 551.09088 0.20877925 -0.84923643 -0.48498318 0.062841915
-66.5 158.5 552 0.031103779 -0.7394312 -0.67251319 0.098078422
-64.25 158.75 552 0.17679478 -0.74060971 -0.64825982 0.0804094
-61.400002 158.39999 551.59998 -0.14073497 -0.690211 -0.70979035 0.030598324
-59.142857 158.57143 551.57141 0.16899364 -0.58432609 -0.79372805 0.036234941
-56.5 159 552 0.20420201 -0.85770583 -0.47184974 0.049406148
-53.75 159 552 -0.020735741 -0.92625988 -0.37631452 0.041145843
-51.5 159 552 0.08845973 -0.8776806 -0.47101125 0.033455327
-49 159 551.66669 -0.091996945 -0.88448286 -0.4574129 0.047871273
-46.5 159 551 -0.062729351 -0.70266467 -0.70875049 0.017660692
-44 158.66667 551.33331 -0.0017663692 -0.77545577 -0.63139945 0.0090625314
-41.5 158.5 551.5 0 -0.81398356 -0.58088797 0.01636814
-39 158.5 551.5 0.0084131453 -0.82869452 -0.5596379 0.0192203
-36.666668 158.5 551.5 0.008235313 -0.89647901 -0.44300979 0.0065820278
-34 158.5 551.5 0.053045306 -0.81249714 -0.58054692 0.020459816
-31.5 159 551.5 0.063045248 -0.87876266 -0.47307664 0.032077767
-29 159 551.5 -0.0001060516 -0.96541876 -0.26070419 0.028046317
-26.5 159 551.5 0 -0.89865351 -0.43865925 0.032736279
-24 159 551.5 -0.011733559 -0.93286747 -0.36002859 0.026916156
-21.333334 159 551.5 -0.026323535 -0.97637922 -0.21445471 0.023962356
-19 159 551.5 0.005692686 -0.9331044 -0.35956043 0.028406212
-16.5 159 551.5 0.04001892 -0.8979336 -0.43830785 0.032736279
-13.75 158.75 551 -0.2167844 -0.87846541 -0.4257969 0.043368328
-11.5 158.33333 551 -0.0027634418 -0.92152697 -0.38830459 0.040519074
-9 158.33333 551 -0.032212168 -0.89736849 -0.44010472 0.036145378
-6.5 158.33333 551 -0.035174046 -0.79946816 -0.5996778 0.067240141
-4.25 158.33333 551 0.0011005539 -0.8175028 -0.57592368 0.084019206
-1.6 158.2 551 -0.07283403 -0.78701109 -0.61262441 0.071670569
1 158.28572 551 0.22935273 -0.85371357 -0.46751517 0.058325112
3 159 551.66669 0.81844819 -0.53186733 -0.21739301 0.037633363
-114.57143 161.57143 551.42859 0.595779 -0.74644107 -0.29643402 0.063625351
-111.5 161.5 551.25 -0.49576372 -0.78581798 -0.36974117 0.036335427
-109.16666 160.5 551 -0.54762894 -0.74719656 -0.37656337 0.026558602
-106.5 160 550 0.091901131 -0.72944754 -0.67783505 0.012369952
-103.875 160.125 550.375 0.17101078 -0.79536021 -0.58151305 0.08603885
-101.6 160.2 550.59998 0.052386098 -0.82834566 -0.55776262 0.073002242
-98.75 160 550.625 0.040364016 -0.91180438 -0.40863624 0.037921283
-96.599998 160.2 550.79999 -0.022084214 -0.77507532 -0.6314829 0.018714603
-94 160 550.83331 -0.0050519239 -0.84532851 -0.53422302 0.022766987
-91.333336 160.16667 550.5 0.0090541067 -0.82640558 -0.56300241 0.073564872
-89 160.36363 550.27271 0.055830069 -0.60169274 -0.79677403 0.10097665
-86.5 160 550.5 0 -0.89493185 -0.44620278 0.048077248
-84 160.125 550.5 -0.064582303 -0.87305087 -0.48333347 0.054534905
-81.599998 160 550.59998 -0.025258599 -0.91480935 -0.40309533 0.045914959
-79 160 550.5 -0.038356144 -0.89925981 -0.43572995 0.035258155
-76.666664 160 550.66669 -0.2275686 -0.87001121 -0.43737069 0.05710173
-74 160 550.5 0 -0.97175741 -0.23598196 0.16297236
-66.666664 160 550 0.14518939 -0.97581083 -0.1634414 0.042248756
-64 160 550.5 0.012938741 -0.90136504 -0.43286675 0.038385693
-61.5 160 550.5 0.046097901 -0.7198326 -0.69261533 0.088260859
-59.125 160 550.5 0.059492137 -0.71593821 -0.69562429 0.089648724
-56.5 160 550.5 0 -0.89865351 -0.43865925 0.032736279
-54 160 550.5 -0.013354147 -0.90715384 -0.42058706 0.036796618
-51.666668 160 550.5 -0.031235952 -0.98054129 -0.19381188 0.023308953
-49 160 550.5 -0.1071139 -0.87007535 -0.48113978 0.045709297
-46.333332 160 550 -0.038685411 -0.87355477 -0.48518616 0.042868149
-43.833332 160.33333 550 0.26437265 -0.38650104 -0.88358593 0.12811418
-41.5 160.5 550 0.035660133 -0.59943604 -0.79962796 0.088784993
-39.333332 160.33333 550 -0.35165638 -0.70034683 -0.62116998 0.059905853
-36.333332 160 550 -0.0055692485 -0.91157794 -0.41108948 0.04432163
-34 160 550 0.01652585 -0.92002243 -0.39151719 0.0384406
-31.5 160 550 0.04001892 -0.8979336 -0.43830785 0.032736279
-28.75 160 550 -0.035007693 -0.88477349 -0.46470451 0.043056738
-26.5 160 550 -0.00093054929 -0.91139102 -0.41154045 0.038826793
-25 160 550 -0.31893438 -0.88663721 -0.33489615 0.054757405
-18.5 160 550 0.23029917 -0.92349452 -0.30679008 0.03428185
-16.5 160 550 0.04001892 -0.8979336 -0.43830785 0.032736279
-14.5 160 550 -0.16653128 -0.87913471 -0.44653055 0.038289491
3 160.5 550.5 0.86130029 -0.37644297 -0.34125143 0.040142842
-114 163 550.66669 0.29730392 -0.89170462 -0.34128174 0.067026816
-112 163 550 -0.46465123 -0.84741741 -0.25687176 0.031600278
4 163.5 552 0.94471818 -0.18436871 -0.27113786 0.00341423
-113.8 191.2 550 0.63338351 0.47535801 -0.61062258 0.051347572
-111.6 190.8 550.40002 -0.12466544 0.49607509 -0.85928351 0.043050952
-109.2 190.8 550 -0.15987197 0.54521585 -0.82290983 0.033001892
-106.5 192 550 -0.090719983 0.67951447 -0.72803152 0.0079981508
-105 192 550 -0.32264736 0.66929018 -0.66929018 0.014199415
-114 193.39999 551 0.59702903 0.51604068 -0.61421353 0.047069635
-111.6 193.60001 551.79999 -0.14295143 0.57787442 -0.80350858 0.034911454
-109.14286 193.28572 551.28571 0.0088094836 0.6391663 -0.76901811 0.0056223879
-106.33334 193.33333 551 -0.11552031 0.53244567 -0.83854437 0.024360048
-104 193.5 550.33331 -0.32340136 0.44762942 -0.83369029 0.039529759
-102 194 550 -0.39258406 0.47171402 -0.78953385 0.023068167
-116 196 551 0.68214768 0.21784237 -0.6980108 0.022545181
-114.66666 195.33333 551.66669 0.57481545 0.40074694 -0.71343464 0.015718557
-109 195 552 -0.13202664 0.48393804 -0.86508548 0.032542497
-106.66666 195.66667 552 -0.1962301 0.49102342 -0.8487578 0.024713663
-103.8 195.89999 551.70001 -0.2003665 0.51237416 -0.83506042 0.025960481
-101.33334 196 550.83331 -0.24941674 0.54385638 -0.80125618 0.025475254
-99.333336 196.33333 550.5 -0.36840495 0.499331 -0.78418517 0.02415839
-116 198.5 551 0.9508844 -0.16317435 -0.26304552 0.057379879
-115 199 550 0.95144522 -0.21688586 -0.2184321 0.049622554
-101 198.5 552 -0.31541809 0.45581517 -0.83231241 0.034523726
-99 198.5 551.5 -0.37020427 0.48818335 -0.79033267 0.02251176
-96.5 198.25 550 -0.34030095 0.46425959 -0.81771523 0.018657267
-94.5 199 550 -0.27089691 0.4884688 -0.82946551 0.026893929
-98 200 552 -0.57735032 0.57735032 -0.57735026 0
-96.800003 201.2 551.79999 -0.41191462 0.332057 -0.84856611 0.016195849
-94 201 550.625 -0.36050734 0.47297153 -0.80394799 0.016784009
-91.5 201.5 550 -0.090999447 0.43117476 -0.89766777 0.03700839
-89.666664 201.66667 550 -0.30212411 0.33106345 -0.89393395 0.035245527
-96 203 552 -0.22628522 0.45257044 -0.86253989 0.019817108
-94 203.2 552 -0.20198254 0.52097672 -0.82932884 0.020344017
-91.5 203.5 551.25 -0.35704991 0.49080202 -0.79475069 0.025240906
-89.199997 203.60001 550.20001 -0.29972124 0.44558007 -0.84357899 0.033178903
-86.333336 204 550 -0.094584562 0.65796733 -0.74708283 0.013491015
-91.5 205 552 -0.25685123 0.56616592 -0.78325194 0.027859941
-88.909088 205.90909 551.81818 -0.20149897 0.39388537 -0.89680117 0.03089525
-86.5 206 551.66669 -0.20949538 0.52474815 -0.82507646 0.029716125
-84.125 206.125 550.75 -0.20203862 0.43244877 -0.87873113 0.0344298
-81.666664 206 550.33331 -0.26077458 0.46280316 -0.84723657 0.016823821
-79.5 206.75 550 -0.39539933 0.48544523 -0.77974504 0.029051693
-83.75 208.25 551.75 -0.31613493 0.56006181 -0.76576066 0.027066682
-81.5 208.5 551.5 -0.20125045 0.48161775 -0.85296106 0.035521932
-79.25 208.5 550.625 -0.35884279 0.45837235 -0.81309688 0.036270529
-76.666664 208.66667 550 -0.30647901 0.46097419 -0.83281058 0.032151174
2 208.5 550 0.88829428 0.17262077 -0.42559999 0.0031663012
-81.333336 210.33333 552 -0.30647382 0.41581923 -0.85625243 0.028173417
-78.85714 211 551.85712 -0.11230937 0.48825207 -0.86544591 0.019750314
-76.5 211 551.33331 -0.3075394 0.53247386 -0.78860068 0.023610704
-74.125 211.125 550.375 -0.33700347 0.51849401 -0.78587061 0.023928126
-72 212 550 -0.43306801 0.51982892 -0.73636276 0.014446556
2 210.5 550.5 0.87429047 0.20719035 -0.4389627 0.0026023998
-73.800003 213.39999 551.59998 -0.50801677 0.45770529 -0.72967452 0.024237325
-71.25 213.5 550.25 -0.4288635 0.42327026 -0.79807168 0.026118198
