ply
format ascii 1.0
comment PCL generated
element vertex 732
property float x
property float y
property float z
property float nx
property float ny
property float nz
property float curvature
element camera 0
property float view_px
property float view_py
property float view_pz
property float x_axisx
property float x_axisy
property float x_axisz
property float y_axisx
property float y_axisy
property float y_axisz
property float z_axisx
property float z_axisy
property float z_axisz
property float focal
property float scalex
property float scaley
property float centerx
property float centery
property int viewportx
property int viewporty
property float k1
property float k2
end_header
-71.5 81 561.5 0.18745926 -0.56315708 -0.80480629 0.033247028
-68.900002 81 561.5 0.17343076 -0.59933722 -0.78148365 0.034194916
-66.400002 81.599998 561.59998 0.21297061 -0.6507743 -0.72879094 0.03799475
-64 81.5 562 0.038745742 -0.33812484 -0.94030333 0.029220752
-61.5 81.5 561.75 -0.13330284 -0.61333638 -0.77849144 0.026136976
-58.857143 81.428574 561.57141 2.6761313e-10 -0.70710677 -0.70710677 0
-56.599998 81.599998 561.40002 -3.0781805e-10 -0.70710677 -0.70710677 0
-54 81.5 561.33331 -0.04157722 -0.76120448 -0.64717782 0.019856595
-51.5 81.5 561 0.05075296 -0.85303432 -0.51938105 0.068142548
-49 81.5 561.5 -0.016700236 -0.709135 -0.70487487 0.013200342
-46.666668 81.5 561.33331 0.049681954 -0.67963958 -0.73186177 0.037504867
-44 81.5 561.16669 0.026165912 -0.79217571 -0.60973185 0.0094868075
-41.5 82 561 0.075055592 -0.90216178 -0.42481846 0.0072482079
-39 81.666664 561 -0.074355215 -0.97978616 -0.18571618 0.011067796
-36.599998 81.400002 561 -0.15636387 -0.90001923 -0.40683621 0.027661886
-34 81.5 561 0.14444974 -0.78637952 -0.60061747 0.030059718
-31.5 81.5 561.5 0.041251104 -0.69994223 -0.71300715 0.0052424152
-29.25 81.75 561.75 0.30687767 -0.59978843 -0.73897219 0.035378665
-27 82 562 0.25813177 -0.29398406 -0.92029423 0.063242018
-166 84 562 -0.62014681 -0.41012383 -0.66874236 0.039489318
-163.8 83.400002 561.20001 -0.29073852 -0.69646084 -0.65605897 0.017439518
-161.39999 83.599998 560.40002 -1.6607572e-09 -0.70710677 -0.70710677 0
-159 83.5 560.5 -0.10885055 -0.7029053 -0.7029053 0.0047331383
-157 83 560 -0.42981446 -0.69034028 -0.58197069 0.012898023
-149.5 83 560 -0.030025741 -0.86219436 -0.505687 0.022186248
-144.25 83 560 0.095194884 -0.74212027 -0.66347224 0.0077480809
-142 83 560 -0.32264736 -0.66929018 -0.66929018 0.014199415
-71.5 83 560 0.12439746 -0.88225192 -0.45404497 0.034399536
-69 83 560 0.021333307 -0.84175062 -0.53944474 0.02439332
-66.5 83 560 0.014928631 -0.90551907 -0.42404288 0.04068584
-64.25 83 560 0 -1 0 0
-61.5 83 560 -0.066406041 -0.91770911 -0.39166331 0.02783053
-59 83 560 0.013349145 -0.8985734 -0.43862015 0.032736279
-56.5 83 560 0.023210952 -0.91149902 -0.41064674 0.037818387
-54.25 83 560 -0.024146151 -0.89507741 -0.44525665 0.060086027
-51.5 83 560 0 -0.81649637 -0.57735056 0.10650671
-49 83 560 0.0837337 -0.85108817 -0.51830274 0.037763685
-46.5 83 560 -0.095397547 -0.82804465 -0.55248648 0.020272119
-33 83 560 0.20782894 -0.85985339 -0.46632534 0.036062792
-31.333334 83.333336 560 0.38603979 -0.47315541 -0.79189467 0.054143865
-29 83.5 561.16669 0.4900341 -0.025140779 -0.87134063 0.038855314
-26.75 83.25 562 0.28132299 0.072967723 -0.95683485 0.030526597
-166 85.5 562 -0.48539042 -0.26580235 -0.8329137 0.016782001
-165 87 561 -0.78936112 -0.25424328 -0.55881083 0.044335756
-33.57143 86.14286 560.42859 0.42120704 0.57603842 -0.70054579 0.018888427
-31.5 85.5 560.5 0.24168515 0.55553788 -0.79559159 0.022804409
-29.333334 85.666664 561.83331 0.49656856 0.50622708 -0.7050913 0.023912603
-38 89 560 0.19544926 0.49698219 -0.8454634 0.033740375
-36.25 88.75 560.25 0.50789046 0.540039 -0.67112225 0.053418133
-34 88.5 561.5 0.42648757 0.49923158 -0.75423884 0.025283521
-32 88 562 0.43572661 0.4411965 -0.78453046 0.024339503
-41.333332 91.666664 560 0.2626597 0.36397296 -0.89360708 0.039982352
-38.875 91.125 560.375 0.32910681 0.31959379 -0.88856542 0.06477689
-36.555557 91 561.22223 0.44701871 0.38825253 -0.80587482 0.067697562
-35 91 562 0.53425658 0.32878804 -0.77876073 0.039017018
-43 93.666664 560 0.37571621 0.082373343 -0.92306662 0.044916153
-41.599998 93.599998 560.20001 0.23314935 0.26273459 -0.9362756 0.039956499
-39 93.5 561.16669 0.29532707 0.26291123 -0.91850942 0.030220663
-37 93.333336 562 0.623393 0.29172319 -0.72545069 0.070080362
-43.400002 96.199997 560.40002 0.59256542 0.21802676 -0.77545506 0.046392173
-41.42857 95.85714 561 0.098325923 0.078657702 -0.99204081 0.010913656
-39.200001 95.900002 561.59998 0.30932936 0.21171273 -0.92708856 0.030822974
-37 95.5 562 0.17615172 0.17738475 -0.96824855 0.02691027
-44 98.5 560.5 0.45386642 0.2265185 -0.86179739 0.046738032
-41.5 98.5 561.5 0.49441126 0.17332736 -0.85177177 0.030475352
-40 98 562 0.3182897 0.39173195 -0.86327159 0.029665476
-46 101.5 560.5 0.73766637 0.28052971 -0.61412656 0.086321883
-44.099998 100.9 561 0.44258025 0.34233707 -0.82881129 0.04244867
-41.666668 100.33334 561.66669 0.50150561 0.42785415 -0.75195271 0.031105369
-51 103.5 560 0.42627463 0.18108363 -0.88628364 0.04106199
-49.25 103.75 560 -0.050035343 0.26745734 -0.96226972 0.033848796
-46.42857 103.28571 560.28571 0.50834525 0.13788606 -0.8500427 0.083254032
-44 103.5 561.66669 0.43738899 0.11367778 -0.89205843 0.04219475
-51.25 106.25 560 0.45653641 0.18148816 -0.87099743 0.037838399
-49 106 560.33331 0.1219743 0.2967371 -0.94713748 0.025279155
-46.363636 105.81818 561 0.3013193 0.28882822 -0.90872705 0.02378617
-44.799999 106 561.79999 0.54505193 0.33934212 -0.76665854 0.030378556
-51.5 108.5 560 0.46322092 0.11685073 -0.87850571 0.037757374
-49 108.5 561.33331 0.40074044 0.21318312 -0.89104438 0.0487612
-47 108.5 562 0.21089049 0.33046958 -0.91995382 0.055199668
-53.909092 111.27273 560 0.12029814 0.18780796 -0.97481102 0.025309158
-51.5 111 561 0.50168645 0.34670889 -0.79252988 0.03019827
-49.285713 110.85714 561.85712 0.41893035 0.28809291 -0.86110383 0.034012511
-54.111111 113.55556 560.77777 0.42882088 0.2999402 -0.85214353 0.061825864
-51.5 113.5 561.75 0.38604423 0.24244392 -0.89005101 0.035047915
-49.666668 113.33334 562 0.28891617 0.18486284 -0.9393366 0.026939178
-56.25 116.25 560 0.49692574 0.17832696 -0.84927279 0.055109151
-54.363636 116.09091 561.45453 0.62407726 0.20337948 -0.75442982 0.065047197
-51.5 115 562 0.30035424 0.42471567 -0.85405147 0.034194723
-56.5 118.5 560 0.27544203 0.009692898 -0.96126884 0.0351451
-54.666668 118.5 561.16669 0.74006027 0.11842348 -0.66203219 0.041237105
-61 122 560 0.46691513 0.29270455 -0.83445454 0.02413144
-58.75 121.125 560.25 0.31290844 0.45224985 -0.83519959 0.032201916
-56.444443 121 560.77777 0.42159316 0.0076528112 -0.90675282 0.045459535
-54.75 120.5 561.75 0.61013323 0.36317462 -0.70416021 0.077792861
-61.333332 123.66666 560 0.70239419 0.28614047 -0.65174085 0.051725235
-59 123.5 561.16669 0.33935055 0.31195813 -0.88742518 0.039615687
-56.400002 123.4 561.79999 0.49721873 0.46823865 -0.7304287 0.038847722
-63 126.5 560 0.60574627 0.37277359 -0.70293057 0.051104426
-61.5 126 560.66669 0.47423291 0.27433833 -0.83656538 0.043939084
-59.125 125.875 561.625 0.47299245 0.19168647 -0.85996193 0.034721699
-63.166668 128.66667 560 0.49447945 0.26668367 -0.82726651 0.048109632
-61.5 128.5 561 0.40322796 0.034806557 -0.91443741 0.038963236
-59.5 128.5 562 0.49686462 0.09322235 -0.86280656 0.033881642
-66 131 560 0.48666397 0.17965214 -0.85491711 0.0394792
-63.923077 131.07692 560.69232 0.1531323 0.12882377 -0.97977287 0.011273702
-61.5 130.83333 561.33331 0.35117114 0.24992052 -0.90234071 0.029153928
-59.75 130.75 562 0.45494351 0.22483964 -0.861669 0.037311219
-66.333336 133.66667 560 0.56888181 0.35057572 -0.74395573 0.030601183
-64.125 133.5 561.625 0.41502863 0.38814569 -0.82285732 0.058229517
-61.5 133 562 0.25223568 0.51266736 -0.82070047 0.026584312
-68.800003 136.60001 560 0.37235805 0.37576154 -0.84861815 0.048552107
-66.5 136 560.66669 0.454963 0.30356738 -0.83717114 0.047010332
-64.083336 136 561.58331 0.48313114 0.029435905 -0.87505299 0.077243023
-71 139 560 0.7015155 0.12550698 -0.7015155 0.079177901
-68.85714 138.57143 560.42859 0.43420956 0.27133745 -0.85897499 0.069979049
-66.599998 138.60001 561.59998 0.37728739 0.21467304 -0.90087169 0.050979454
-64.800003 138.39999 562 0.15089343 0.20796555 -0.96642721 0.032963306
-71.333336 141.33333 560.33331 0.60206544 0.57419807 -0.55480969 0.032700483
-69.333336 140.83333 561.16669 0.46431315 0.557127 -0.68849313 0.018109273
-66.5 140.5 562 0.22515577 0.4351829 -0.87173432 0.058348522
-65 140 562 0.48476854 0 -0.87464249 0.052200634
85 142 562 -0.95861244 -0.10094449 -0.26621893 0.075696394
-76.5 144 560 0.19841647 0.73214537 -0.65160888 0.028762367
-73.800003 143.60001 561 0.43949685 0.82230604 -0.36146283 0.015865874
-72 143 562 0.36787313 0.7510801 -0.54822266 0.033752955
86 143.5 561 -0.78524822 -0.29812405 -0.54268515 0.061802164
-83.5 147 560.5 0.47195327 0.74978817 -0.46376479 0.0071231406
-82 146.5 560.5 0.3999705 0.79271901 -0.46002191 0.0044092722
-79.25 145.25 560.75 0.32056737 0.83732617 -0.44285595 0.011768182
-77 145 562 0.25056213 0.89123482 -0.37804648 0.0026732939
79 147 562 -0.51908374 -0.58347756 -0.62458467 0.040822458
80.900002 146.60001 561.09998 -0.40401718 -0.8357538 -0.37186787 0.063473642
83.5 145.66667 561.16669 -0.17038521 -0.83872253 -0.51721692 0.050115127
85.800003 145.39999 561 -0.63202405 -0.59750617 -0.49348965 0.087737501
-87 149 560 0.44806463 0.80298835 -0.39299846 0.0028172373
-85 148 560 0.49707881 0.78545958 -0.3687357 0.0021839931
-34 149 562 -0.054292161 -0.80624872 -0.5890801 0.068826243
11 149 562 -0.14051026 -0.7242642 -0.67505419 0.028061023
13.666667 149 562 0 -0.70710683 -0.70710683 0
17 149 562 -0.21767221 -0.67939693 -0.70074153 0.065747298
18.5 149 562 0.094295532 -0.61471331 -0.78309381 0.086572841
21 149 562 0.038484629 -0.5361771 -0.84322774 0.067438222
23.666666 149 562 0 0 -1 0
26 149 562 0.028596297 -0.44289753 -0.89611614 0.06282495
28.5 149 562 0 -0.43865922 -0.89865351 0.032736287
31 149 562 0 -0.53645414 -0.84392953 0.073789924
33 149 562 0.39267054 -0.70247567 -0.59358048 0.066036709
42 149 562 -0.26291916 -0.43336421 -0.86201453 0.036925819
43.333332 149 562 0.081300601 -0.35703549 -0.93054605 0.11225962
51 149 561 -0.019268889 -0.91400188 -0.40525225 0.10432679
53.666668 149 561.33331 -0.069564924 -0.93039668 -0.35989273 0.061634719
56 149 561.33331 -0.078165822 -0.89848793 -0.4319832 0.034853313
58.5 149 560.5 0.16772451 -0.92256767 -0.34747297 0.026381077
61 149 561.14288 -0.02990499 -0.91340816 -0.40594479 0.034869112
63.400002 149 561.59998 -0.24684614 -0.91260445 -0.32591408 0.029324492
66 148.5 560.5 -0.12241179 -0.83139724 -0.54202753 0.022978827
68.599998 148.60001 560.40002 0.017419571 -0.72866035 -0.68465358 0.004372648
71.090912 148.27272 561.09088 0.012695571 -0.93537599 -0.35342687 0.015409582
73.5 148.33333 561 -0.0056862915 -0.89523453 -0.44555897 0.017552828
76 148.33333 561 -0.01939634 -0.87934238 -0.47579485 0.020191558
78.5 148.16667 561 -0.34739652 -0.85194713 -0.39179289 0.046640962
-36 151.25 562 -0.69011259 -0.29921308 -0.65895081 0.031439606
-34.23077 150.46153 561.0769 -0.23820709 -0.8035205 -0.54553854 0.069746777
-31.5 150.33333 561 0.013509843 -0.84496999 -0.53464317 0.021824187
-29 150.5 561 0.024901321 -0.81996155 -0.57187682 0.060526807
-26.6 150.60001 561.20001 0.29923743 -0.85423136 -0.4251422 0.056282174
-24.333334 151 561.11108 0.053812888 -0.95247924 -0.2998122 0.072088599
-21.4 151.2 561.20001 0.042390984 -0.88069421 -0.47178468 0.028951392
-19 151.33333 561 0.088721849 -0.84126908 -0.53328675 0.026134167
-16.4 152 561.40002 0.11820104 -0.89097464 -0.43839794 0.032648541
-14.142858 152 560.85712 -0.1019746 -0.81731933 -0.56708938 0.020175969
-11.428572 151.14285 561.14288 -0.17600079 -0.77058309 -0.61255646 0.05106277
-9.090909 150.72728 561.09088 -0.21473853 -0.73144466 -0.64720643 0.058967043
-6.3333335 150.44444 561.11108 -0.1236051 -0.7637645 -0.63354987 0.048205629
-4 150.33333 561 -0.0043646847 -0.87335747 -0.48706016 0.019540271
-1.5 150.33333 561 0.013509843 -0.84496987 -0.53464317 0.021824187
1.1 150.60001 561.09998 0.26105648 -0.7801953 -0.56845832 0.046532027
3.6666667 151 561.25 -0.12215433 -0.69509679 -0.70846236 0.073847041
6 150.44444 561.11108 -0.1442969 -0.78331769 -0.60464185 0.041825835
8.5 150.33333 561 -0.02863319 -0.84311682 -0.53696758 0.026937842
11 150.33333 560.77777 -0.080082692 -0.73710907 -0.67101192 0.020130605
13.555555 150.33333 560.66669 -nan -nan -nan 0
16 150.33333 560.77777 -0.013855624 -0.77044404 -0.637357 0.021783266
18.5 150.33333 561 0.047699288 -0.80613631 -0.58980429 0.059470695
21 150.33333 560.88892 -0.067322984 -0.72728485 -0.68302602 0.062842183
23.5 150 561 -0.11843976 -0.42942584 -0.89530194 0.04372121
26 150.14285 561.14288 -0.10662569 -0.86575222 -0.48898271 0.080495916
28.5 150 561 -0.049724903 -0.82025975 -0.56982577 0.064701669
31.222221 150.33333 561 0.057420153 -0.75356436 -0.65486151 0.055715185
33.375 150.25 561.125 0.024830904 -0.89023316 -0.45482779 0.079151377
36.142857 150.42857 560.71429 -0.040584922 -0.85073012 -0.52403355 0.036046218
38.400002 150.2 561 -0.052534353 -0.90508765 -0.42196757 0.03976161
41 150.125 560.875 -0.062242579 -0.80111182 -0.5952695 0.038751371
43.5 150.16667 561.33331 -0.10799949 -0.76090932 -0.63980711 0.11284734
46 150.33333 561 0.011773708 -0.87713128 -0.4801062 0.040475223
48.5 150.33333 561 -0.12093315 -0.9003799 -0.41796061 0.046363965
51.166668 150.16667 560.5 -0.12304958 -0.82599008 -0.55009013 0.071646832
53.5 150 560 -0.059375703 -0.73165685 -0.67908227 0.011772981
55.5 150 560 -0.19440247 -0.87400955 -0.4453257 0.05000696
60 150 560 0 -0.70710689 -0.70710677 0.090909116
-36 153.5 561 -0.87440151 -0.088070698 -0.4771432 0.022755284
-35 153.5 560 -0.69965863 -0.33312896 -0.63206244 0.028762143
-36 156 561.66669 -0.87833464 -0.0069161332 -0.47799629 0.014515665
-35 157 560 -0.91247714 -0.14346653 -0.38314849 0.021896958
-38 159 562 -0.40285012 -0.60477233 -0.68699509 0.033605378
-36.400002 158.60001 561 -0.74384832 -0.40279594 -0.53333396 0.031715877
-38.799999 160.89999 561.5 -0.59501112 -0.42658848 -0.68116379 0.037254635
-36.5 160.5 560.25 -0.50659192 -0.55183756 -0.6624499 0.052200582
-39.400002 163.39999 560.79999 -0.78784591 -0.25373653 -0.56117427 0.020650182
-40 166 561 -0.91886508 0.011836982 -0.39439425 0.0073510674
-40 168 562 -0.93511271 0.15123394 -0.32045692 0.00097562675
-39 170 560 -0.9120639 0.22654831 -0.34178272 0.0032717502
83.333336 207 560 0.067131788 0.2492635 -0.96610612 0.027543774
85.5 207 560 -0.21083431 0.32281286 -0.92268133 0.034114908
79 208.5 560 0.38237348 0.34148902 -0.85858941 0.076347478
81 208.33333 560 0.18694891 0.51354349 -0.83745033 0.044733733
83.333336 208 560 0.17521939 0.19955584 -0.96409321 0.042161345
86 208.5 560 -0.31093431 0.28585249 -0.90642607 0.020937441
76.5 212 560 0.31800306 0.58222944 -0.74825323 0.025905769
78.599998 211.2 560.20001 0.44492799 0.40472472 -0.79889733 0.024941491
81 211.11111 561.22223 0.21321063 0.38555405 -0.89771336 0.025971815
83.625 210.625 561.125 0.0049510719 0.14153636 -0.98992068 0.0056146588
85.75 210.375 560.875 -0.15697852 0.19740571 -0.96767181 0.018424112
88.400002 211.2 560.40002 -0.33863273 0.57182133 -0.74722695 0.018577507
73.800003 213.60001 560 0.36652443 0.4171136 -0.83167064 0.035025757
76.166664 213.5 561 0.24842125 0.5284304 -0.81181782 0.029675281
78.5 213.5 561.5 0.082577892 0.62278014 -0.77802682 0.016324773
80.333336 213.66667 562 0.31167293 0.52566737 -0.79153889 0.024830995
86.75 213.25 562 -0.43720883 0.47219312 -0.76542932 0.087528758
88.5 213.5 562 -0.13135611 0.22746255 -0.96488672 0.034858085
66.5 216.5 560 0.39040712 0.54644006 -0.7409355 0.012041787
68.75 215.75 560.25 0.27700111 0.5369038 -0.79687178 0.020817766
71 216 560.88892 0.14152636 0.59236205 -0.79314405 0.015317101
73.400002 215.8 561 0.19793347 0.56544334 -0.80068481 0.025128078
75.666664 215.66667 561.5 0.40720728 0.34391242 -0.84611255 0.021213934
88.5 215 562 -0.29846495 0.18210071 -0.93688738 0.052029245
61.5 219 560 0.31800306 0.58222944 -0.74825323 0.025905769
63.5 218.5 560.25 0.24434875 0.53957433 -0.80570048 0.026091216
65.85714 218.57143 560.71429 0.20918085 0.53294766 -0.81988424 0.017594101
68.5 218.5 561.25 0.32252094 0.41701204 -0.84975356 0.028952891
70.333336 218.33333 562 0.44058478 0.44058478 -0.78215736 0.024031736
56.5 221.75 560 0.33916181 0.486146 -0.80537647 0.023086902
58.5 221 560.33331 0.14622009 0.4655689 -0.87284899 0.034726877
61 221 560.77777 0.29568467 0.49065188 -0.81965321 0.032019302
63.5 221.16667 561.5 0.22920068 0.43734241 -0.8695969 0.026441889
66.14286 221.14285 562 0.17825221 0.39916936 -0.89938307 0.035712209
68.25 220.25 562 0.20679678 0.41573656 -0.88566256 0.0364669
52 224 560 0.19544926 0.49698219 -0.8454634 0.033740375
53.5 223.5 560 0.37331772 0.476576 -0.79593295 0.02341127
56.142857 223.42857 561.14288 0.31443399 0.57497394 -0.75533843 0.023926565
58.400002 223.60001 561.59998 0.09559498 0.6156913 -0.78216743 0.017378742
61 223 562 0.18400516 0.52409977 -0.83154166 0.028743027
63 223 562 0.13496576 0.35747075 -0.9241206 0.013124027
47 227 560 0.53503907 0.27775204 -0.79786408 0.068110175
48.599998 226.39999 560.40002 0.53808784 0.2917937 -0.79077041 0.031360544
51 226 560.5 0.091187544 0.59739554 -0.79674554 0.017574145
53.599998 226 561.20001 0.34087947 0.51957214 -0.78348321 0.021226836
55.5 225.5 561.75 0.46388254 0.4173395 -0.78143501 0.025903398
47 228.33333 560 0.51892078 0.31885964 -0.79312658 0.053491604
48.25 228.5 560.75 0.49186447 0.41802573 -0.76375645 0.024108499
51 228.5 562 0.20477559 0.4203724 -0.88394231 0.034154426
53 228 562 0.39442214 0.39442214 -0.82997733 0.028433036
38.5 231.25 560 0.38126707 0.45122519 -0.80686504 0.034381382
41 231 560.44446 0.19146791 0.53177136 -0.82496011 0.027711416
43.5 231 561 0.065873519 0.6231696 -0.77930766 0.014088002
46 231 561.11108 0.16312742 0.60142493 -0.78209817 0.017220842
48.57143 230.71428 561.85712 0.49255112 0.35048604 -0.79658836 0.026100697
36.666668 233.66667 560 0.41782671 0.41782671 -0.80674762 0.026232386
38.714287 233.57143 560.85712 0.32362217 0.13019152 -0.93718666 0.020535341
40.599998 233.39999 562 0.42681107 0.47262418 -0.77101141 0.026563223
43.5 233 562 0.15457965 0.51221752 -0.84483039 0.02713114
31.25 236.75 560 0.29880223 0.50843066 -0.80759865 0.032213673
33.599998 236.2 560.40002 0.30295983 0.54608589 -0.78102851 0.027095903
35.875 235.875 560.75 0.23526019 0.48702419 -0.84110647 0.029545981
38.5 236 561.5 0.19404505 0.21137246 -0.95795006 0.017054938
40 236 562 0.63257867 0.12441143 -0.76443845 0.014496769
29 238.5 560 0.51335263 0.42798257 -0.74384141 0.025446303
30.75 238.375 560.875 0.38788533 0.53634489 -0.74958599 0.029075695
33.333332 238.33333 561.66669 0.23198333 0.561032 -0.79462373 0.020650253
36.25 238 562 0.055364072 0.64392483 -0.76308298 0.012271848
38.5 238 562 0.16914731 0.48391753 -0.85861111 0.031180704
21.5 242 560 0.44180137 0.52345151 -0.72856718 0.040669404
23.5 241.5 560.25 0.25686836 0.55948973 -0.78802913 0.024862859
26 241.33333 560.5 0.099156559 0.6250481 -0.77426279 0.013007297
28.5 241.25 560.75 0.25629804 0.50753766 -0.82262802 0.018564872
30.428572 240.85715 561.57141 0.61425501 0.28862509 -0.73442924 0.031906292
19 244 560 0.25217125 0.5306806 -0.80918956 0.027905272
21.142857 243.57143 560.42859 0.51148933 0.45276088 -0.73033297 0.047413211
23.5 243 561 0.1559539 0.44514552 -0.88177317 0.029118594
26 243.33333 561.66669 0.24712692 0.48216599 -0.84050232 0.018192228
28.5 243 562 0.059375703 0.67908227 -0.73165685 0.011772981
30 243 562 0.4430238 0.5421952 -0.71397084 0.046862561
16.200001 246 560.20001 0.30969378 0.4837485 -0.81858248 0.022211367
18.6 246 560.59998 0.27031344 0.50501812 -0.81968737 0.024524098
21 245.66667 561.55554 0.4417617 0.49245322 -0.74989092 0.029667659
23.5 245 562 0.13727835 0.63086146 -0.76365471 0.014204649
25.5 245 562 0.2275656 0.51964724 -0.82351726 0.028781474
12 249 560 0.64960265 0.34794948 -0.67597896 0.038523804
13.5 248.75 560.5 0.3967863 0.38714346 -0.83227426 0.039327856
16 248.66667 561.33331 0.2730172 0.36492413 -0.89010793 0.041802619
18.5 248.5 562 0.27955127 0.36700848 -0.88721806 0.040521372
20 248 562 0.47893962 0.36297411 -0.79929137 0.022924777
4 252 560 0.31596646 0.55917996 -0.76647437 0.039974563
6 252 560 0.048540037 0.61873227 -0.78410083 0.011461388
8.666667 251.66667 560.33331 0.25677139 0.60970974 -0.74988163 0.015779244
11.125 250.875 560.375 0.29439467 0.59506869 -0.74781352 0.024762107
13.4 250.8 561.20001 0.29798016 0.35032663 -0.88796341 0.016703442
15.8 250.60001 561.79999 0.39972812 0.32584354 -0.85676336 0.031669658
18 250 562 0.19544926 0.49698219 -0.8454634 0.033740375
2 254 560 0.20647708 0.58088523 -0.7873624 0.019438434
3.6666667 253.66667 560.33331 0.4186599 0.40310779 -0.81377393 0.0313907
6.1999998 253.60001 561.20001 0.24776639 0.49265003 -0.83421087 0.027291209
8.5 253.5 561.75 0.23554845 0.55823058 -0.79554731 0.022367951
11 253 562 0.028571226 0.66673225 -0.74474949 0.0054283082
13 253 562 0.33197048 0.62908709 -0.70288342 0.022103362
-18 256.5 560 -0.86322671 0.24770927 -0.43986332 0.0060972599
-3.3333333 256.66666 560.33331 0.38801381 0.53341675 -0.75160617 0.025895149
-1.5 256 560.5 0.26503065 0.53824997 -0.8000285 0.026583157
1 255.66667 560.66669 0.037372205 0.67500573 -0.73686546 0.005886069
3.75 256 561.375 0.44871467 0.43733734 -0.77935302 0.056755945
5.8000002 255.39999 561.79999 0.36426514 0.45504498 -0.81255466 0.030064967
-18 258 561 -0.87253845 0.28567255 -0.39631802 0.0021713665
-17 259 560 -0.84307855 0.3165018 -0.43479323 0.0019065967
-6 259 560 0.57146531 0.40749621 -0.71230215 0.048728727
-4.4285712 258.57144 560.57141 0.54250759 0.42475447 -0.72475451 0.048577633
-1.5 258.5 561.5 0.2761859 0.32580489 -0.90419716 0.022560887
1 258.5 562 0.050796602 0.28899822 -0.95598102 0.021869717
3.5 258.5 562 0.37087861 0.22357863 -0.90136659 0.079698488
-16.666666 261.66666 561 -0.73827225 0.4681915 -0.48554173 0.014963671
-8.5 261 560 0.4162958 0.40258676 -0.8152433 0.022917092
-6.5 261 560.5 0.34306681 0.52459049 -0.7791726 0.035625864
-4.3333335 260.77777 561.66669 0.52359337 0.4162955 -0.74333578 0.046439193
-1.5 260 562 0.16417091 0.20673668 -0.96452469 0.01496121
-16 263 561 -0.52779335 0.46324033 -0.71192878 0.044883076
-13.75 263.5 560.25 -0.18730405 0.53474772 -0.82399154 0.035763685
-11.5 263.5 560.25 0.19409071 0.47318345 -0.8593173 0.033271931
-9 263.33334 560.83331 0.27563199 0.49614662 -0.82332593 0.020978779
-6.6666665 263.33334 561.66669 0.43605319 0.51470017 -0.73820144 0.022506008
-5 263 562 0.41581634 0.63493145 -0.65112132 0.05416137
-16 265 562 -0.56042564 0.56042564 -0.60979199 0.020452132
-13.714286 265.71429 561.71429 -0.10885416 0.67261469 -0.73194277 0.006343653
-11.5 265.5 561.5 0.11738866 0.64306474 -0.75676125 0.010387438
-9 265.79999 562 0.14275597 0.58668196 -0.79713553 0.011709111
-7 265 562 0.55885059 0.26249984 -0.78662568 0.018179011
-41 -112 563 0.26049307 0.96392024 0.05478299 0.015433172
-40 -112 564 0.16077222 0.98360825 0.081652887 0.046674494
-36.5 -112 563.5 -0.45197451 0.80086762 -0.39284864 0.049374968
-34.166668 -111.33334 563.66669 -0.22521225 0.73132819 -0.64376903 0.074979506
-48.666668 -109 563.66669 0.86949027 0.29306096 -0.39762044 0.045531303
-38.333332 -108.33334 563.66669 -0.40366644 -0.73746043 -0.54148453 0.016417244
-36.666668 -108.66666 563.33331 -0.31428218 -0.7284202 -0.60879445 0.011245459
-34 -109.66666 563.33331 -0.44161025 -0.60810971 -0.659684 0.039055992
-32 -110 563 -0.62506503 -0.53823036 -0.56533343 0.034048222
-49 -106.2 563.79999 0.55064684 -0.39516675 -0.73527634 0.087067857
-47 -106 564 0.16180155 -0.72961026 -0.66444647 0.016251918
-43.5 -106 563.5 -0.23689406 -0.89550567 -0.37676361 0.0029736564
-42 -106 563 -0.23634775 -0.90420812 -0.35573512 0.0022588065
-40 -107 564 -0.53877079 -0.75560671 -0.37253791 0.013887773
-58 -103 563 -0.62414962 -0.48868367 -0.60961097 0.0087548327
-48.75 -105 563.25 0.01559906 -0.74149406 -0.67077804 0.047580179
-46 -105 563 -0.067664482 -0.92100173 -0.38363701 0.011496807
-59.5 -101.5 563 -0.65560925 -0.59743464 -0.46178818 0.011852603
-61.5 -99 563 -0.73276854 -0.494607 -0.46734807 0.01253576
-63 -96.5 563.5 -0.69729024 -0.42947215 -0.57388145 0.011500768
-64.666664 -94.666664 563.33331 -0.71268445 -0.49381241 -0.49822709 0.0093775904
2 -93 563 0.67544091 0.31950366 -0.66460294 0.077371448
-66 -91.5 563.5 -0.90016317 -0.15071651 -0.40864506 0.013046615
1.6666666 -91.666664 563 0.65441763 -0.018054446 -0.75591761 0.045197949
-66 -89.25 563.25 -0.8241232 -0.10411295 -0.55675977 0.018063264
2 -89.25 563.75 0.87113231 0.15055078 -0.46740025 0.0088235456
-66 -87 563 -0.87000048 -0.17468069 -0.4610703 0.010506908
1 -86 563 0.81817549 0.32349852 -0.47532892 0.0068643503
-66 -83 563 -0.82652611 0.35487536 -0.43694183 0.0045083133
0.75 -83.75 563.75 0.84344822 0.18227471 -0.50534242 0.01922866
-66 -81.5 564 -0.78570831 0.42250076 -0.45183569 0.01286679
-65 -81 563 -0.63376987 0.60051197 -0.48756659 0.027535638
0.25 -81.75 563.75 0.73990625 0.32342714 -0.58985889 0.03762801
-63.714287 -79.285713 563.57141 -0.69700867 0.5404911 -0.47122008 0.019573431
-1 -79.25 563.25 0.83200216 0.25691098 -0.49170032 0.006746348
-62 -76.5 563 -0.84663701 0.32188147 -0.42379022 0.011354463
-1.6666666 -76.666664 563.33331 0.76390165 0.26256433 -0.58950335 0.01290793
-61.5 -74 564 -0.77276522 0.42166203 -0.47437865 0.024026256
-60 -73 563 -0.62255627 0.61952627 -0.47813269 0.020595832
-3.5 -74 563.25 0.73288798 0.45510495 -0.50572193 0.012236586
-2 -75 564 0.72624993 0.53559309 -0.43093061 0.0080311811
-59.666668 -71.666664 563.66669 -0.70048195 0.43828738 -0.56323105 0.031534288
-6 -71 563.5 0.61459649 0.75673324 -0.22276901 0.020312034
-4.5 -71.5 564 0.64991874 0.67302656 -0.35304517 0.01391268
-58.5 -69.5 563 -0.70784295 0.59486896 -0.38090581 0.052146547
-56.5 -68.5 563 -0.59933734 0.7736941 -0.20540746 0.014878175
-8.333333 -68.333336 563.33331 0.6438942 0.61858386 -0.45028251 0.016527118
-7 -69.75 563.5 0.75895411 0.57695085 -0.30185491 0.024209423
-56 -67 564 -0.62730587 0.67745286 -0.38411587 0.01515306
-55 -66.5 563.5 -0.62333125 0.72684664 -0.28836113 0.019782446
-16 -66 563 0.54836595 0.57894635 -0.60342026 0.043737579
-13.75 -66.25 563.25 0.24893372 0.62845922 -0.73693353 0.016009416
-11.5 -66.5 563.5 0.029669566 0.69353789 -0.71980894 0.0058864905
-9.666667 -66.666664 563.66669 0.35142723 0.68743861 -0.63555259 0.012217698
-53 -64.5 563.5 -0.56548792 0.73050267 -0.38286969 0.020473666
-51.5 -63.5 563.5 -0.47699928 0.76516008 -0.43243685 0.0092588775
-50 -63 563 -0.38998187 0.72939318 -0.56204957 0.020097414
-21.5 -63 563 0.12601322 0.72164071 -0.68070215 0.0075570359
-18.6 -63.200001 563.59998 0.29004377 0.67848814 -0.67492849 0.020705972
-16.666666 -64.166664 563.66669 0.43744692 0.52704638 -0.72860295 0.05257095
-14.25 -64.75 564 0.22353257 0.54732257 -0.80651802 0.02866251
-48.599998 -61.599998 563.40002 -0.18030371 0.76310891 -0.62060881 0.030701762
-47 -61.5 563 -0.55781156 0.60435247 -0.56886226 0.055108648
-28.666666 -61 563.33331 0.15643398 0.89376807 -0.42036551 0.047611255
-26.5 -61 563.75 0.15621389 0.91273022 -0.37751928 0.025267256
-24 -61.5 563.5 0.16091634 0.8091386 -0.56515545 0.021802165
-21.5 -62 564 0.25498486 0.85099727 -0.45911482 0.041120626
-20 -62 564 0.19544926 0.8454634 -0.49698219 0.033740375
-46 -60 563 -0.27478406 0.89422709 -0.35334364 0.032245163
-44.200001 -60 563.59998 -0.016389119 0.89572299 -0.4443104 0.033668082
-41.333332 -59.333332 563.66669 0.055631276 0.94699669 -0.31638968 0.11230797
-39.285713 -59.142857 563.57141 0.35328701 0.40933245 -0.8412106 0.084042273
-36.5 -60 564 0.22640733 0.9029038 -0.36538261 0.039449655
-33.75 -60 563.75 -0.016403323 0.88784087 -0.45985824 0.034689765
-31.666666 -60 563.33331 0.10154425 0.88152772 -0.46108305 0.035714712
-29.5 -60 564 0.22299545 0.88631302 -0.40585998 0.048247278
19 -28 564 -0.18464626 -0.81484514 -0.54948443 0.01132061
21 -28 564 0.034704622 -0.83566219 -0.54814625 0.010791894
2 -26 564 -0.027342526 -0.82620651 -0.56270349 0.031711526
9 -26 564 -0.3547045 -0.82183838 -0.44583222 0.0047395583
11 -26 563 -0.074057855 -0.78522831 -0.61476165 0.0063308165
13.5 -26 563 0 -0.70710683 -0.70710683 0
16 -26.333334 563.33331 -0.14135745 -0.76160139 -0.63244081 0.0088902414
18.5 -27 563 -0.12601322 -0.72164071 -0.68070215 0.0075570359
20.5 -27 563 -0.072525613 -0.72164243 -0.68845642 0.010890728
23.5 -26.5 563.5 0.61413556 -0.58173245 -0.53331506 0.026899517
-11 -23 564 -0.30445549 -0.80774087 -0.50483811 0.0059463098
-8.75 -23.25 563.5 -0.25775567 -0.8050887 -0.53422302 0.0080960775
-6.6666665 -24 564 -0.18621984 -0.87084496 -0.45491889 0.0068472773
-4 -24 563 -0.12741745 -0.86832649 -0.47934735 0.0058534532
-1.6666666 -24.666666 563.66669 -0.16927049 -0.85094684 -0.49722922 0.0047284639
1 -25 563.33331 -0.14454298 -0.83495134 -0.53100252 0.018112326
3.8 -24.6 563.59998 0.061368298 -0.7817378 -0.62058032 0.012507233
6 -25 564 -0.062036954 -0.74891317 -0.65975791 0.0037735365
8 -25 563 -0.35149565 -0.8283639 -0.43619272 0.0039077159
24 -24 563 0.911919 -0.18969929 -0.36389273 0.027269863
-53.5 -21 564 -0.11717822 -0.75203294 -0.64862603 0.0059898929
-51.333332 -21 564 0.088475905 -0.78292584 -0.6157915 0.011431734
-23 -21 564 -0.21021771 -0.86516589 -0.45529833 0.0046125031
-21.5 -21 563.5 -0.17324723 -0.8901757 -0.4213936 0.0037078245
-18.6 -21.200001 563.20001 -0.019699616 -0.87246913 -0.48827192 0.0087971464
-16.5 -21 563 -0.047566466 -0.89357191 -0.44639292 0.0062220502
-14 -22 564 -0.17062914 -0.89316863 -0.41609541 0.0057900264
-11.5 -22 563 -0.263666 -0.82970208 -0.49201086 0.0058890535
24 -21.5 563 0.95300823 0.065670319 -0.29574093 0.0020463048
-56 -18.5 564 -0.82603264 -0.1441831 -0.54486823 0.015158143
-54.400002 -19.4 563.20001 -0.49846885 -0.54044688 -0.6778245 0.014368376
-51.5 -20 563 -9.5788288e-10 -0.70710683 -0.70710683 0
-49.25 -20 563.5 0.12434109 -0.78374165 -0.60851318 0.010353627
-46.5 -19.5 563.5 0.058223203 -0.76369995 -0.64294058 0.0044134385
-44 -19.5 563.5 -0.016924964 -0.72312397 -0.69051093 0.0017089559
-41.666668 -19.666666 563.66669 -0.043694705 -0.75262636 -0.65699649 0.0024666728
-39 -19.6 563.59998 0.062721767 -0.81678182 -0.57352722 0.018677142
-36.333332 -19.666666 563.66669 -0.02750084 -0.76962924 -0.6378985 0.0036989683
-34 -20 564 -4.3902967e-10 -0.70710683 -0.70710683 0
-31.5 -20 564 2.405812e-09 -0.70710683 -0.70710683 0
-29 -20 563.25 -0.1280437 -0.81637013 -0.56315601 0.013462406
-26.5 -20 563 -0.065152697 -0.89315605 -0.44500262 0.005957467
24 -19 563.66669 0.94535083 0.19554876 -0.26090711 0.0043568374
-56 -17 564 -0.85687113 0.26164779 -0.44419861 0.018431097
-55 -16 564 -0.90217954 0.3364954 -0.26989451 0.0096990569
23 -16.5 563.5 0.82843632 0.45660001 -0.32436058 0.006611065
-55 -15 564 -0.90217954 0.3364954 -0.26989451 0.0096990569
21.6 -13.8 563.20001 0.63045275 0.40620372 -0.66145891 0.021216165
17 -11 563 0.19544926 0.49698219 -0.8454634 0.033740375
18.5 -11 563 0.11086617 0.59480172 -0.79619074 0.025033895
20.5 -11.5 563.5 0.56729984 0.55491346 -0.60847521 0.031710725
16.285715 -8.8571424 563.14288 0.33547625 0.35400859 -0.87300271 0.036718059
18.5 -9 563.66669 0.29577646 0.41968858 -0.85812461 0.036270149
20 -9.5 564 0.56315958 0.27384266 -0.77965468 0.047833614
14 -6 563 0.52744341 0.60075098 -0.60075104 0.070544146
15.375 -6.5 563.625 0.78330761 0.37228796 -0.49782619 0.0694279
6 -3 563 0.12826617 0.41491938 -0.90077174 0.043514013
8.5 -3.5 563 0.065934919 0.21897393 -0.97350037 0.016155051
11.142858 -3.7142856 563.14288 0.27257118 0.38389564 -0.88222969 0.026754636
13.5 -4 563.66669 0.21342908 0.48395133 -0.84866911 0.037768099
15 -4 564 0.55049592 0.30514503 -0.77707189 0.046705592
4 -1.5 563 0.49877989 0.26017299 -0.82675797 0.031686053
6 -1.5 563.5 0.098938666 0.39927119 -0.91147888 0.037412267
8.5 -1.5 563.5 0.02369236 0.51262456 -0.8582859 0.029529165
10.75 -1.75 563.75 0.32132772 0.56106031 -0.76286292 0.026277091
3.75 1.125 563.25 0.54642159 0.31657365 -0.77537382 0.033364676
5.8571429 0.71428573 564 0.22586817 0.17810398 -0.95773822 0.034073375
8 0 564 0.34025913 0.34025913 -0.87661141 0.047077164
2 3.5 563 0.57250613 0.48061886 -0.66426063 0.027464638
3.5 3.25 564 0.35453832 0.3706286 -0.85845035 0.044421043
5 3 564 0.34065157 0.29031765 -0.8942439 0.039028827
-6 7 563 0.46610275 0.45446444 -0.75908524 0.025906732
-4 6.5 563 0.092562959 0.38767496 -0.91713691 0.040630441
-1.4 6.1999998 563.40002 0.40675932 0.47220525 -0.78202873 0.036438186
0.625 5.5 563.75 0.40694812 0.55940151 -0.72212404 0.033574503
-8 9 563 0.58853638 0.23825222 -0.77256775 0.070451461
-6.5999999 8.6000004 563.40002 0.45940527 0.43972027 -0.7717467 0.073364742
-4.1999998 8.3999996 563.79999 0.19013937 0.39749238 -0.89768976 0.044483993
-1.5 8 564 0.35307974 0.58521134 -0.72997427 0.04611019
-11 12 563 0.36297411 0.47893962 -0.79929137 0.022924785
-8.666667 11.333333 563.16669 0.42256594 0.50177151 -0.75476038 0.032151002
-6.8333335 10.666667 563.83331 0.59654796 0.30496645 -0.74237859 0.056579273
-5 10 564 0.18798885 0.38616875 -0.90306914 0.047896758
-13.333333 13.666667 563.33331 0.43342867 0.50943309 -0.74338245 0.02834031
-11.5 13.5 563.5 0.29342082 0.59353119 -0.74941647 0.023461813
-10 13 564 0.43584082 0.65454215 -0.61775184 0.022268262
-16.5 16.5 563.33331 0.67554057 0.30227706 -0.67251289 0.11407655
-14.333333 15.666667 563.5 0.49277276 0.37225032 -0.78651428 0.028079087
-12 15 564 0.19544926 0.49698219 -0.8454634 0.033740375
-18.200001 18.6 563.20001 0.57774633 0.43776795 -0.68888921 0.029774493
-16.5 18.5 564 0.12217514 0.1191245 -0.98533374 0.0064766831
-15 18.5 564 0.51789534 -0.027891165 -0.85498917 0.044346921
-23 22 563 0.53316081 0.53316081 -0.65687078 0.014216077
-21.5 21.5 563.5 0.30557477 0.6207611 -0.72199702 0.023611359
-19 20.625 563.75 0.36885643 0.49685264 -0.78554589 0.036827769
-16.5 20 564 0.12158299 0.43750614 -0.89095789 0.036616273
-26 24 563 0.44279397 0.56484503 -0.69633591 0.02143383
-24 23.5 563.5 0.3978152 0.48121256 -0.78113866 0.025098542
-22 23 564 0.39442214 0.39442214 -0.82997733 0.028433036
-31 27 563 0.23591803 0.4518795 -0.8603183 0.032866687
-28.625 26.5 563.375 0.42523798 0.60014474 -0.67749453 0.059822019
-26.6 25.799999 563.79999 0.40363488 0.52845043 -0.7468729 0.033263993
-24.5 25 564 0.31800306 0.58222944 -0.74825323 0.025905769
-46 28.5 563.5 -0.87334847 0.36058709 -0.32747424 0.0042076851
-34 29 563 0.1830319 0.46879652 -0.86413491 0.03682385
-31.5 28.5 563 0.27493772 0.38906765 -0.87922448 0.040985487
-29.5 28.25 563.75 0.64516264 0.50957537 -0.56929618 0.030808326
-44.666668 31 563.33331 -0.76674056 0.39608723 -0.50519693 0.012753405
-38.599998 31.6 563.20001 0.55775368 0.39381856 -0.73062825 0.041012324
-36.400002 31.200001 563.59998 0.34414044 0.58050936 -0.73795414 0.024635905
-34 30.5 563.5 0.089600794 0.56334549 -0.82134861 0.022915227
-31.666666 30.333334 564 0.3553988 0.57404405 -0.73767549 0.022044988
-43.5 33.5 563.5 -0.66648084 0.34882662 -0.65888035 0.018068623
-41.5 34 563 0.18918806 0.62917352 -0.75388896 0.039250311
-39.285713 33.42857 563.57141 0.47793326 0.46454179 -0.745507 0.031564821
-43 35 564 -0.53316081 0.53316081 -0.65687078 0.014216077
-41.5 35.5 563.75 0.1508038 0.57739395 -0.80241787 0.05751054
-40 35 564 0.40564728 0.32110688 -0.8557691 0.036678061
-139 79 564 0 -0.92545295 -0.37886256 0.022102278
-98 79 564 -0.32758933 -0.89347094 -0.30723771 0.055299997
-96.5 79 564 -0.013122327 -0.88048643 -0.47388977 0.031470686
-94 79 564 0.0082849208 -0.93588734 -0.35220209 0.02696868
-91.333336 79 564 0 -1 0 0
-89 79 563.66669 -0.085774519 -0.9064185 -0.41357964 0.06523516
-86.5 79 563 -0.087232463 -0.55381149 -0.82805997 0.056434538
-84 79 563.33331 0.15218627 -0.91427863 -0.37541169 0.079612255
-81.5 79 564 -0.12018126 -0.93196547 -0.34204799 0.03242797
-79 79 563.42859 -0.052537721 -0.92538768 -0.37536305 0.036992762
-76.5 79 563.5 0.033218216 -0.90897101 -0.41553384 0.030283405
-74 79 563.5 0.01649987 -0.91022336 -0.41378894 0.035345927
-71.666664 79 563.33331 0.081508093 -0.90742064 -0.4122428 0.031589825
-69.5 79 563 0.2813659 -0.91088641 -0.30185956 0.083631001
-164 82 563.57141 -0.12648019 -0.90845823 -0.39837977 0.04676177
-161.33333 82 563.33331 -0.11300837 -0.93417269 -0.33845308 0.027721507
-159.25 81 563.5 -0.37885919 -0.76719856 -0.51756352 0.02715295
-156.33333 80.333336 563.66669 0.027727216 -0.77166498 -0.63542449 0.0062088496
-154 80.5 563.5 0.067583181 -0.77003717 -0.63440937 0.016701952
-151.5 81 563.5 0.17232488 -0.79631472 -0.5798164 0.010505076
-148.8 80.599998 563.59998 -0.077994041 -0.77926093 -0.62182742 0.019761283
-146.60001 80.599998 563.79999 0.10006587 -0.74082828 -0.66419899 0.08612816
-144 80.875 563.75 -0.053025004 -0.4933933 -0.86818856 0.022089282
-141.5 80.5 563.25 -0.34743944 -0.64150041 -0.68393207 0.027768521
-139 80 563 -0.041103847 -0.70124179 -0.71173769 0.007248404
-136.5 80 563 0.050035972 -0.76276636 -0.64473552 0.0061561591
-134.25 80 563.5 0.10263644 -0.82307994 -0.55857426 0.014694298
-131.5 80 564 0.067961141 -0.8735466 -0.48197266 0.033828389
-128.83333 80.333336 563.66669 0.031875778 -0.75947016 -0.64976072 0.017421082
-126.4 80.599998 563.40002 -5.1284005e-10 -0.70710677 -0.70710677 0
-124.2 80.400002 563.59998 -0.025189666 -0.73370206 -0.67900437 0.0018221106
-121.5 80 564 2.4388147e-09 -0.70710683 -0.70710683 0
-119 80 563.66669 -0.020082643 -0.83281857 -0.55318159 0.022504574
-116.6 80.400002 563.40002 0.26822442 -0.73624665 -0.62128615 0.032409124
-114 80.5 563.5 8.5245583e-10 -0.70710683 -0.70710683 0
-111.5 80.5 563.5 -9.9683739e-10 -0.70710683 -0.70710683 0
-109.14286 80.428574 563.57141 0.0049320883 -0.73090094 -0.68246573 0.0040528113
-106.5 80 564 0.07518211 -0.94507283 -0.31809589 0.017597783
-103.8 80.400002 563.59998 0.058966137 -0.85689616 -0.51210535 0.024437033
-101.66666 80.333336 563.66669 -0.059467219 -0.87513202 -0.48021609 0.025412364
-98.75 80 563.25 -0.052438207 -0.81405401 -0.57841706 0.011040051
-96.5 80 563 -0.063127704 -0.770899 -0.63382143 0.0045552766
-93 80 563 0.14735191 -0.77661568 -0.61249948 0.012948992
-91.5 80 563 -2.2786009e-09 -0.70710683 -0.70710683 0
-89 80 563 -0.087776229 -0.60852176 -0.78866762 0.025035689
-86.5 80 563 -0.066406041 -0.39166331 -0.91770911 0.027830528
-84 80 563 0.045037277 -0.53630936 -0.84281898 0.028460125
-82 80 563 -0.18058455 -0.74209148 -0.64551491 0.015996302
-68.333336 80 563.66669 0.30145669 -0.86003649 -0.41165668 0.065582879
-66.5 80 563.5 0.014728719 -0.91682011 -0.39902866 0.037259061
-64 80 563.5 0 -0.89865345 -0.43865925 0.032736275
-61.5 80 563.5 0.040478371 -0.89822531 -0.43766749 0.033675853
-59.285713 80 563.57141 -0.02558938 -0.95994461 -0.27901894 0.030457629
-56.5 80 564 0.016526913 -0.98178762 -0.18926126 0.013591789
-54 80 563.66669 0.074255295 -0.91754973 -0.39062595 0.026825912
-51.5 81 564 -0.030951479 -0.90550601 -0.42320311 0.069488421
-49.142857 80.14286 563.57141 -0.23058502 -0.88529176 -0.40384293 0.065118618
-46.5 80 563.5 0.020021487 -0.89847338 -0.43857133 0.032736279
-44 80 563.5 0.11319006 -0.93951392 -0.32326707 0.032623161
-41.5 81 563.5 0.17043795 -0.92078346 -0.35086849 0.036147971
-39.166668 81 563.66669 0.045629371 -0.93141311 -0.36109239 0.023631513
-36.333332 80.333336 563.66669 -0.25036079 -0.91788191 -0.3079161 0.05685633
-34 80.333336 563.33331 -0.03183819 -0.96871662 -0.24611892 0.051976118
-31.5 80 563 0.125337 -0.9414078 -0.31311655 0.040295891
-28.571428 80.85714 563.42859 -0.23011065 -0.75446612 -0.61467874 0.10608939
-26.428572 80.714287 563.42859 0.24231932 -0.67461592 -0.69726235 0.10953391
-24.1 81.199997 563.5 0.20636311 -0.53517288 -0.81914854 0.096037678
-21.6 81.199997 564 0.10863835 -0.44342455 -0.88970351 0.063102379
-19.666666 81 564 0.14528809 -0.60921776 -0.77958006 0.031400371
-166 83 563.5 -0.37307194 -0.73303574 -0.56874943 0.047848642
-26.5 84 563 0.44776711 0.56868082 -0.69000489 0.032213759
-24.25 83.25 563.5 0.40860277 0.48561144 -0.77280354 0.057428919
-28.166666 86.333336 563.5 0.48856476 0.51816255 -0.70200574 0.058853075
-26.6 85.800003 563.79999 0.49418864 0.41867894 -0.76189601 0.034873407
-31.333334 88.666664 563 0.33809689 0.45410091 -0.8243075 0.02999071
-29.200001 88.400002 563.79999 0.52704716 0.41752267 -0.74020004 0.058978111
-33.5 91 563.33331 0.50880212 0.39042902 -0.76725852 0.03162197
-31.5 90.5 563.5 0.16853851 0.5746603 -0.80084974 0.027722014
-29.666666 90.333336 564 0.53455967 0.33476299 -0.77600247 0.05635066
-36.333332 93.666664 563 0.54119205 0.24824171 -0.80342221 0.061708879
-34.5 93.5 563.75 0.52386653 0.43094295 -0.73474622 0.021258187
-38 97 563 0.44681084 0.14291164 -0.88314009 0.049730919
-36.25 96.25 563.25 0.58711976 0.21692191 -0.77989441 0.03997812
-35 96 564 0.62126511 0.12905024 -0.77290082 0.023679161
-38.57143 98.714287 563 0.067398004 0.035141181 -0.99710709 0.0051911459
-36.5 98.5 563.5 0.38997674 0.23196046 -0.89112991 0.026267858
-35 98 564 0.49698219 0.19544926 -0.8454634 0.033740375
-41.333332 101.66666 563 0.45937145 0.3609176 -0.8116135 0.026145361
-38.900002 100.8 563.70001 0.40240908 0.43995285 -0.80281281 0.035476767
-37 100 564 0.43282259 0.60344434 -0.669716 0.029433861
-41.5 103.5 563.5 0.59230733 0.16763942 -0.78807938 0.028456759
-40 103.5 564 0.48290882 0.25390106 -0.83805329 0.049394757
-43.400002 106.2 563.20001 0.52129209 0.34035957 -0.78256619 0.023044383
-41.75 105.75 563.75 0.57595444 0.34098271 -0.7429719 0.028752973
-46 109 563 0.37495369 0.53776652 -0.75512707 0.03491712
-44 108.66666 563.5 0.45739806 0.3656764 -0.81059712 0.026790531
-42 108 564 0.49698219 0.19544926 -0.8454634 0.033740375
-48 111.2 563 0.71380061 0.21386389 -0.6668964 0.03421706
-46.5 111 563.66669 0.3178708 0.38958463 -0.86439681 0.043251872
-44.333332 110.66666 564 0.39536601 0.39536601 -0.82907867 0.035410259
-48.200001 113.6 563.59998 0.57370049 0.33908013 -0.74558198 0.046848841
-46.666668 113.33334 564 0.24311124 0.14788392 -0.95865905 0.037270267
-51.5 116.5 563 0.2476292 0.2943866 -0.9230473 0.030468669
-48.900002 115.8 563.59998 0.47899553 0.26144001 -0.83798116 0.04669847
-47 115 564 0.34065157 0.29031765 -0.8942439 0.039028827
-53 118.33334 563 0.35942945 0.10965307 -0.92670745 0.04545629
-51.599998 118.4 563.20001 0.21021926 0.1407675 -0.96746707 0.026096547
-49.5 118.5 564 0.50865221 0.14159234 -0.84924942 0.064824343
-53.666668 121.16666 563.16669 0.55243742 0.26579496 -0.79004169 0.040359661
-51.5 120.25 564 0.36432412 0.35334507 -0.86163521 0.028037593
-50 120 564 0.36529124 0.51621497 -0.77465123 0.019994225
-56 124 563 0.49964789 0.48345798 -0.71876305 0.054161318
-54 123.5 563.66669 0.53477019 0.2752659 -0.79890519 0.03466801
-58 127 563 0.36359346 0.17980735 -0.91404003 0.035943504
-56.700001 126.3 563.09998 0.19105355 0.11124211 -0.97525573 0.014852789
-54.75 125.75 564 0.49065396 0.31882694 -0.81093037 0.028025255
-58 128.5 563 0.2793479 0 -0.96018994 0.036894962
-56.57143 128.71428 563.71429 0.40369663 0.11252091 -0.90794718 0.088630676
-58.285713 131.28572 563.28571 0.49881196 0.19248872 -0.84506494 0.07793276
-56.799999 130.60001 563.79999 0.42480907 0.14394878 -0.89376509 0.084619716
-61.5 134 563 0.27678445 0.23214462 -0.93246943 0.043160468
-58.75 133.5 563.25 0.43592039 0.10717094 -0.89358145 0.041589752
-61.5 136.125 563.125 0.25020948 0.086930558 -0.9642812 0.040204369
-59 135.77777 563.66669 0.48292804 0.36149663 -0.79755932 0.043634661
-63.333332 138.66667 563 0.27249998 0.19820805 -0.94151866 0.02664795
-61.5 138.5 563.5 0.5363391 0.18113559 -0.82433635 0.035692103
-60 138 564 0.34025913 0.34025913 -0.87661141 0.047077164
-68 142 563 0.43689364 0.7063024 -0.55701065 0.0112766
-66.333336 141.33333 563.33331 0.4163101 0.80310088 -0.42628023 0.011626069
-64 140.33333 563.33331 0.43178111 0.27601954 -0.85870731 0.020927897
-62 140 563 0.22678187 0.051399831 -0.97258836 0.041576002
-71 144 563 0.34054762 0.66207439 -0.66759628 0.0086066388
-69 143.33333 563.66669 0.4674817 0.7551102 -0.4596405 0.018527118
83.666664 144 563.33331 -0.39099479 -0.8574518 -0.33451357 0.10947079
85 143.66667 563.33331 -0.73227036 -0.54754746 -0.40493444 0.10997993
-79 146 563 0.3728497 0.84897655 -0.37446225 0.006819502
-76 145 563 0.2577056 0.90834761 -0.32938203 0.0042306995
-75 145 563 0.31513634 0.88212776 -0.35005677 0.0096535292
59 147 564 -0.18250038 -0.87649429 -0.44547886 0.03549353
61 147 564 0.013349145 -0.8985734 -0.43862015 0.032736279
63.5 147 564 -0.0031813236 -0.91369611 -0.4063856 0.036114223
65.75 147 563.75 -0.057488892 -0.92654687 -0.37176037 0.056900442
68.666664 147 563.33331 -0.11381115 -0.89067745 -0.44015989 0.10389251
70.800003 147 563.40002 -0.0530959 -0.93085772 -0.36150333 0.032628197
73.5 147 564 0 -1 0 0
75.85714 147 563.85712 -0.07942532 -0.98753566 -0.13588598 0.0054813786
78.5 146.25 563.5 -0.37603933 -0.80253035 -0.46318409 0.035609256
81 145.5 563.25 -0.35872281 -0.83599025 -0.41525683 0.0786447
83 145 563.5 -0.52666801 -0.73495221 -0.42716047 0.10742943
-36.5 148.375 563.625 -0.48648018 -0.53017229 -0.69444537 0.05209402
-34.166668 148.33333 563.5 0.14545783 -0.76240212 -0.63054347 0.055266242
-31.5 148.5 563.5 -0.020291101 -0.81381601 -0.58076835 0.01636814
-29 148.5 563.5 0.00570468 -0.82076967 -0.57123071 0.017494122
-26.5 148.5 563.5 0.049908813 -0.72832012 -0.68341714 0.044285651
-24 148.83333 563.5 0.10833665 -0.74536335 -0.65779686 0.076561615
-21.5 149 563.5 0 -0.83049822 -0.55702132 0.090148315
-19.200001 149 563.59998 0.13160536 -0.8275317 -0.54577595 0.074965462
-16.333334 149 564 -0.17096968 -0.69669545 -0.69669557 0.13475479
-14 149 564 -0.096941665 -0.90626609 -0.41144148 0.052004907
-11.5 149 563.75 -0.23976526 -0.80295134 -0.54569381 0.037592214
-9.25 149 563.25 -0.02020189 -0.92357504 -0.38288525 0.039031927
-6.3333335 149 563 0 -0.70710683 -0.70710683 0
-4 149 563 -0.059041176 -0.86273962 -0.50218976 0.028651565
-1.3333334 149 563.33331 0.04633138 -0.87346137 -0.48468405 0.035048842
1 149 563.5 0.015798837 -0.90729517 -0.4201974 0.033335607
3.8 149 563.40002 0.070361704 -0.91408592 -0.39936963 0.046068545
6 149 563.5 -0.005692686 -0.9331044 -0.35956043 0.028406212
8.5 149 563.5 -0.027035335 -0.89989948 -0.43525845 0.036242347
11.25 148.75 564 -0.25918531 -0.85275638 -0.45346388 0.04716105
13.666667 148 563.5 -0.058767527 -0.9738608 -0.21941194 0.034354061
15.875 148.25 563.375 -0.027892554 -0.81744581 -0.57532972 0.082088478
18.333334 148.33333 563.66669 0.24829842 -0.94694531 -0.20406455 0.056295764
20.75 148.5 563.75 0.072586142 -0.95636475 -0.28301537 0.072868362
23.5 149 564 0.044379793 -0.82879943 -0.55778307 0.021488674
26 148.60001 563.79999 -0.25409612 -0.78061599 -0.57102877 0.029885599
28.5 148 563.5 0 -0.89865351 -0.43865925 0.032736279
31 148 563.5 0.081201769 -0.89463985 -0.43934712 0.032205872
33.75 148.5 563.5 0.30354014 -0.75360787 -0.5830425 0.031250246
35.857143 148.42857 563.57141 -0.034092024 -0.81365013 -0.58035433 0.037550416
38.5 148.5 563.5 0 -0.8139835 -0.58088797 0.01636814
40.833332 148.33333 563.5 -0.18045726 -0.82152212 -0.54086649 0.034983367
43.599998 148 563.40002 0.05861865 -0.96656817 -0.24961939 0.050811816
45.900002 148.3 563.40002 0.078953624 -0.77120888 -0.63166696 0.082005687
48.5 148.33333 563.33331 0 -0.70710677 -0.70710677 0.084695518
50.857143 148.42857 563.14288 -0.016819393 -0.66686893 -0.74498516 0.10106631
53.599998 148.39999 563 -0.1977587 -0.46430382 -0.86331534 0.070373394
56.200001 148 563.40002 -0.041400097 -0.93657935 -0.34800181 0.031609487
58.333332 148 563.33331 -0.12974724 -0.84050572 -0.52603775 0.03030628
61 148 563 0 -0.70710683 -0.70710683 0
63.666668 148 563 0 -0.70710677 -0.70710677 0
66 148 563 -0.0022158634 -0.86807972 -0.49641982 0.053055275
68.5 148 563 -0.0056851362 -0.57630217 -0.81721693 0.072786376
-38 151 564 -0.8251521 -0.075729057 -0.55981153 0.015049103
