ply
format ascii 1.0
comment PCL generated
element vertex 752
property float x
property float y
property float z
property float nx
property float ny
property float nz
property float curvature
element camera 0
property float view_px
property float view_py
property float view_pz
property float x_axisx
property float x_axisy
property float x_axisz
property float y_axisx
property float y_axisy
property float y_axisz
property float z_axisx
property float z_axisy
property float z_axisz
property float focal
property float scalex
property float scaley
property float centerx
property float centery
property int viewportx
property int viewporty
property float k1
property float k2
end_header
-46.5 36 646.25 0.46607977 -0.70076698 -0.54008818 0.018071985
-44.666668 36.666668 647 0.38093552 -0.53583866 -0.75350177 0.018048031
-34 37 647 -0.3898074 -0.7899763 -0.47327325 0.020202508
-31.6 35.799999 645.79999 -0.61772519 -0.60521817 -0.50212204 0.010476115
-29 35 645 -0.13455904 -0.62465006 -0.76922435 0.019589446
-27 35 645 -0.49901471 -0.61210132 -0.6134463 0.036827493
71.599998 36.200001 646.20001 0.77975488 0.29124925 -0.55421674 0.0096626617
-43.333332 38.333332 645.66669 0.40274566 -0.72693449 -0.55620342 0.010575694
-41.666668 38.666668 646.33331 0.20699616 -0.83458763 -0.51050562 0.0091361171
-39 39 646 -0.029301621 -0.89638919 -0.44229826 0.0011399153
-36.333332 38.666668 646 -0.2514334 -0.82642198 -0.50379372 0.0078723198
-34.200001 38.400002 645.20001 -0.33197066 -0.70333034 -0.62858713 0.020410735
70.5 38.5 646 0.77122819 0.31949031 -0.55057514 0.0084163547
69 42 645 0.8197428 0.35098642 -0.45258191 0.0031728847
70 41 646.33331 0.84446108 0.27731591 -0.45823735 0.0076412261
68.666664 43.666668 646 0.84452307 0.30836859 -0.4378238 0.003838077
68.25 45.75 646 0.86668742 0.23126787 -0.44200477 0.0035030686
67 48.5 645 0.86592203 0.23410587 -0.44201073 0.0033470239
68 48.5 647 0.87349379 0.19806036 -0.44472542 0.0034374814
66.666664 51 645.66669 0.84725833 0.24916366 -0.46911696 0.0051663634
66 53.333332 645.66669 0.81411153 0.24922651 -0.524508 0.0073302463
65.599998 56.200001 645.59998 0.81789523 0.044427924 -0.57364935 0.0095654149
65.5 58.5 645.75 0.84091485 0.081217051 -0.53503835 0.0073545994
65.5 61 645.83331 0.80222994 -0.025079142 -0.5964883 0.0053287968
65.5 63.5 645.5 0.78315622 0.034820672 -0.62084931 0.0065736989
65.5 66 646 0.76826048 0.033880927 -0.63924021 0.0037906196
64 69 645 0.66929018 0.32264736 -0.66929018 0.014199421
65.5 68.5 646.25 0.74020916 0.10394564 -0.66429341 0.0069940174
64 71 645 0.7217924 0.060448106 -0.68946475 0.0053321007
65.5 71 646.5 0.73697346 0.034011245 -0.6750654 0.0067150281
64 73.5 646 0.71584356 -0.0019850836 -0.69825786 0.04789906
65 73.5 646 0.68207717 0.019789636 -0.73101234 0.047810256
64 76 645 0.71326613 -0.040580697 -0.69971752 0.0073110797
65.5 76.25 646.5 0.75687176 -0.061775222 -0.65063733 0.0099905767
64 79 645 0.70710683 -2.8739947e-10 -0.70710683 0
65.5 78.5 646.5 0.70710683 0 -0.70710683 0
64 81 645 0.70710683 -4.390297e-10 -0.70710683 0
65.5 81 646.5 0.70710683 0 -0.70710683 0
64 83 645 0.74209148 -0.18058455 -0.64551491 0.015996302
65.5 83.5 646.5 0.72495878 -0.10835137 -0.68021673 0.0077775931
65.875 86.125 645.875 0.69350928 -0.21822399 -0.68660265 0.014445431
68.5 87 647 0.25312126 -0.48010486 -0.83989817 0.03886763
144 87 647 -0.26469785 -0.6547423 -0.70798844 0.026622625
146 87 647 -0.041337509 -0.71486419 -0.69804037 0.0055269059
148 87 647 0 -0.70710683 -0.70710683 0
66.666664 88.333336 645.33331 0.50920308 -0.59201896 -0.62468052 0.013111405
68.5 88.5 646.5 0.12715897 -0.61894232 -0.77507484 0.019488143
70.75 88.75 646.75 0.2266752 -0.73913449 -0.63427013 0.014270439
73.5 89 647 -1.5275292e-09 -0.70710683 -0.70710683 0
75.5 89 647 0 -0.70710683 -0.70710683 0
78 89 647 0.12929209 -0.74633253 -0.65289462 0.015479411
90.5 89 647 -0.015173507 -0.78409171 -0.62045938 0.014728051
104 89 647 -0.13564205 -0.83307093 -0.53627801 0.0062177009
106 89 647 -0.036818273 -0.79066938 -0.61113524 0.0056605325
108.5 89 647 0.023327503 -0.88661671 -0.46191624 0.0044617299
110 89 647 0.1190094 -0.88247806 -0.45504865 0.0060944757
121 89 646.66669 -0.20720789 -0.85892957 -0.46830004 0.0037220519
123.5 89 646 -0.057464801 -0.88918996 -0.45391512 0.0032720659
126.2 88.599998 646.40002 -0.041619632 -0.822124 -0.56778508 0.013538769
128.5 89 646 0.067223087 -0.84139675 -0.53622061 0.008030667
131.5 88.5 646.5 -0.051357668 -0.72952956 -0.68201828 0.0030142292
133.5 88.5 646.5 8.1036067e-10 -0.70710683 -0.70710683 0
136 88.5 646.5 0 -0.70710683 -0.70710683 0
138.5 88.5 646.5 0 -0.70710683 -0.70710683 0
141 88.5 646.5 0 -0.70710683 -0.70710683 0
143.5 88.5 646.25 -0.27919459 -0.68561327 -0.67229819 0.028365504
146 88.5 645.5 -0.017438376 -0.80912757 -0.58737427 0.026773738
148.33333 88.333336 645.66669 -0.0088026421 -0.86074239 -0.5089646 0.053339709
151 88.5 645.83331 0.10457885 -0.91635168 -0.38647503 0.018203251
153.66667 88.666664 645.66669 0.0042849826 -0.97969049 -0.20046993 0.0022748667
156 88.5 646 -0.0009293264 -0.8964467 -0.44315064 0.00688454
158.5 88.5 646.5 0.070040897 -0.7538361 -0.6533187 0.011991897
161.2 88.400002 646.59998 -8.105161e-10 -0.70710677 -0.70710677 0
163.33333 88.666664 646.33331 0.043694705 -0.75262636 -0.65699643 0.0024666728
166.25 89 645.75 -0.061576169 -0.66115129 -0.74772143 0.060059145
168.33333 89 646 0.2836284 -0.7956661 -0.53522927 0.056697607
170 89 647 0.26173124 -0.64533269 -0.71766472 0.028434481
69 90 645 0.18058455 -0.74209148 -0.64551491 0.015996302
71 90 645 0.041337509 -0.71486425 -0.69804037 0.0055269059
73.666664 90.333336 645.33331 0.22090952 -0.74371076 -0.63094634 0.014474188
76 90.5 645.5 -2.1951485e-10 -0.70710683 -0.70710683 0
78.5 90.5 645.5 5.2423615e-10 -0.70710683 -0.70710683 0
81.199997 90.599998 645.40002 0.039103668 -0.76345551 -0.64467561 0.0032724845
83.666664 90.333336 646.33331 0.054027945 -0.82201189 -0.56690162 0.007345458
86 90.5 646 -0.015018238 -0.7904647 -0.61232346 0.0044822022
88.5 90.5 645.75 -0.069823623 -0.75960392 -0.64662701 0.0050872527
91 90.5 645.5 -5.4024046e-10 -0.70710683 -0.70710683 0
93.5 90.5 645.5 0.071970761 -0.76084858 -0.64492607 0.0053935861
96.14286 90.714287 646.14288 0.043595124 -0.81779999 -0.57384902 0.01364217
98.5 90.5 646 -0.12860866 -0.82136446 -0.55571592 0.0067210374
101 90.5 645.5 -0.070160009 -0.76512885 -0.64004332 0.0081916591
103 90 646 -0.064442866 -0.85573834 -0.51338005 0.010043324
106.25 90 645.75 -0.075638205 -0.83590215 -0.54364181 0.010709541
109 90 645 -0.012321234 -0.81704634 -0.57644033 0.0068246
111 90 645 0.087893099 -0.79825902 -0.59586686 0.0083351713
113.66666 90.333336 645.66669 0.15310089 -0.82197237 -0.54856318 0.012264125
116 90.5 645.5 -4.3902967e-10 -0.70710683 -0.70710683 0
118.5 90.5 645.5 -0.097641647 -0.75163007 -0.6523177 0.01111304
121 90 645 -0.14629747 -0.77407241 -0.61596191 0.013728958
129 90 645 0.14392339 -0.7585966 -0.63546622 0.016476803
131 90 645 -0.060448106 -0.7217924 -0.68946475 0.0053321007
159 90 645 0.290369 -0.93894285 -0.18458651 0.029327728
161 90 645 -0.0015470597 -0.90913039 -0.41650879 0.031417068
163.5 90 645 -0.04001892 -0.8979336 -0.43830785 0.032736279
166 90.333336 645 0.29356188 -0.69827414 -0.65286642 0.075810142
168 91.5 645 0.23292674 -0.44973603 -0.86225438 0.091467768
170.875 91.125 646.125 0.600209 -0.28225613 -0.74838537 0.027444998
171 93.5 646 0.81495512 0.0092610456 -0.57945007 0.0097391456
169 97 645 0.72360605 0.2244245 -0.65270817 0.010944801
171 96 646.33331 0.86799484 0.11183903 -0.48381504 0.005488677
169 98.5 645 0.78825504 0.12029662 -0.60347545 0.018581634
171 98.5 647 0.78986418 0.1829737 -0.58535045 0.0091528893
168.5 101.5 645.5 0.70260352 0.36142114 -0.61296254 0.011840906
170 100.5 646.5 0.73384511 0.32083023 -0.59878153 0.0092939064
166.5 103.5 645 0.71486998 0.36050093 -0.59916598 0.021216754
168.5 103.5 646.5 0.74300939 0.3259078 -0.58456922 0.010188884
166.5 106.25 646 0.71672565 0.26790667 -0.64384037 0.010990043
168 105 647 0.76268291 0.34603566 -0.54641944 0.0060786153
166 108.5 646 0.78416955 0.13992403 -0.60456538 0.014153266
164 111.5 645 0.80596268 0.24466723 -0.53903818 0.010913038
166 111 646.5 0.79462552 0.20007074 -0.5731858 0.013362919
163.5 114 645.5 0.71437246 0.36569595 -0.59660578 0.0046825046
166 113 647 0.76012772 0.26845488 -0.59172451 0.013907335
162 116 645 0.77172858 0.32872659 -0.54440224 0.003493404
163.5 116.5 646.5 0.67138833 0.34807205 -0.65428096 0.0090004178
165 115 647 0.70260352 0.36142114 -0.61296254 0.011840906
161.5 118.5 645.5 0.69251603 0.3546387 -0.62821412 0.0076646125
163 119 647 0.70260352 0.36142114 -0.61296254 0.011840906
161 121.2 646.20001 0.72309715 0.25046098 -0.64373887 0.015062255
159 124 645 0.78842551 0.22359313 -0.57305449 0.010586121
160.5 123.5 646.5 0.66297328 0.32859796 -0.67267364 0.015367107
36 127 645 -0.033694729 0.71032763 -0.7030642 0.015691627
158.75 126.25 646 0.83219397 0.23612238 -0.50169653 0.0080411304
34 129 645 0.45206764 0.66458279 -0.59494931 0.0077171922
36 129 646 0.061142169 0.82676172 -0.55921972 0.016966883
38.5 129 645 -0.26750088 0.64617562 -0.714773 0.020480959
40 129 645 -0.16879727 0.56967592 -0.80434871 0.020719787
158 128.5 645.5 0.86442637 0.30990273 -0.39588812 0.0028185658
32 130.5 646 0.36591566 0.80731553 -0.46297657 0.0071790526
33.5 130 646.5 0.30736592 0.77745593 -0.54871529 0.014650762
38.75 130.75 646.75 -0.50681829 0.52471471 -0.6839661 0.028240966
40.714287 131.14285 645.71429 -0.55636919 0.41839519 -0.71791279 0.017838551
156.75 131.25 645.75 0.80689412 0.34207964 -0.48156354 0.0040150704
158 130 647 0.70164323 0.37086055 -0.60840714 0.015109585
41.200001 133.39999 646.59998 -0.61539698 0.40593967 -0.67564762 0.0203574
43 134 645 -0.62199986 0.39785537 -0.67440885 0.0080333287
156 133.5 646 0.86192209 0.2848945 -0.41943476 0.0036618123
42 135 647 -0.64143085 0.48944661 -0.59076941 0.01047389
43.599998 135.8 646.20001 -0.58321559 0.51384979 -0.62914062 0.0082969693
45 136.5 645.5 -0.72578156 0.44110531 -0.52788943 0.0095784822
155.25 136 646 0.793383 0.28797257 -0.53629774 0.0046713832
45.799999 138.60001 646 -0.6645931 0.32689425 -0.67190498 0.019881804
154 138.5 645.5 0.69058639 0.33102873 -0.64304775 0.0091772992
155 139 647 0.71155256 0.33172813 -0.61939436 0.0065254807
46.333332 140.66667 646.5 -0.59019345 0.35778466 -0.72364479 0.015507076
48.400002 141.2 645.20001 -0.57827556 0.30467445 -0.75681633 0.024546206
153.33333 140.66667 645.66669 0.76001787 0.31865063 -0.56642264 0.00546108
48.5 143.5 646 -0.61194986 0.38564309 -0.69050473 0.01906159
50 143.5 645 -0.57206476 0.38469848 -0.72439557 0.022933882
152 143 645 0.6831131 0.22043645 -0.6962502 0.007210664
153 143.5 646.5 0.83766049 0.31067377 -0.44922915 0.0053755147
49 146 646.5 -0.58143622 0.37965837 -0.71957731 0.021316078
51.125 145.875 645.625 -0.42671469 0.4414835 -0.78930783 0.025220556
53 147 645 -0.64143085 0.48944661 -0.59076941 0.01047389
151.5 145.75 646 0.78035676 0.32989135 -0.53123915 0.0054703951
51 148.66667 647 -0.38134167 0.45853746 -0.80269665 0.016879329
53.666668 148.33333 645.66669 -0.44397753 0.5060389 -0.73946512 0.013140413
55 148.5 645 -0.59803098 0.45938531 -0.65675265 0.023216777
150.66667 148.66667 646 0.80968523 0.32079661 -0.49142593 0.0065556909
52 150 647 -0.26249984 0.55885059 -0.78662568 0.018179024
53.5 150.5 647 -0.41053888 0.47360441 -0.77920258 0.013068601
55.833332 151.16667 645.66669 -0.67504162 0.34306186 -0.65316719 0.01078204
148 151.5 645 0.67955023 0.30908921 -0.66533852 0.008239449
150 150.5 646.5 0.71366906 0.43368992 -0.55008137 0.0064701457
56.5 153.5 646 -0.71729648 0.26354367 -0.64500421 0.015774962
147 154 645 0.70152515 0.30662885 -0.64330494 0.0048424443
149 153.5 647 0.81542945 0.25552267 -0.51940638 0.0045428686
56.75 155.75 646.75 -0.6946069 0.35202822 -0.62737334 0.010252477
58.333332 156 645.33331 -0.56561655 0.40867907 -0.71628165 0.010275626
60 157 645 -0.53559309 0.43093061 -0.72624993 0.0080311839
146.5 156.5 645.5 0.72455794 0.24486069 -0.64425081 0.010111021
148 155.5 646.5 0.77771604 0.28453225 -0.56053472 0.0059210849
58.666668 158.33333 646.66669 -0.65243721 0.53952026 -0.5322063 0.031069161
61 158.75 645.25 -0.4895511 0.38141009 -0.78413397 0.016161686
147 158.5 646.5 0.80449474 0.20013291 -0.55922711 0.0059753554
59 160 647 -0.73751348 0.57604861 -0.35247976 0.04611408
61.200001 160.8 646.20001 -0.55500084 0.55419546 -0.62035584 0.024075499
63 161 645.33331 -0.62452793 0.35817108 -0.69403046 0.021379955
144 162 645 0.66884291 0.49054569 -0.55858219 0.013549952
145.75 160.75 646 0.71715659 0.34644255 -0.60470146 0.0078339437
62 163 647 -0.66929018 0.32264736 -0.66929018 0.014199421
63.599998 163.39999 646.20001 -0.45361486 0.62128562 -0.63893479 0.02959555
65.5 164 645.5 -0.46751013 0.61893654 -0.6311512 0.020837862
143.5 163.5 646 0.63278496 0.45878229 -0.62378049 0.017596157
66.333336 165.66667 646.16669 -0.6257261 0.48806241 -0.60849148 0.013466668
68 166.5 645.5 -0.62954617 0.50280547 -0.59233284 0.021695608
141.66667 166 645.33331 0.80073512 0.31156221 -0.51161724 0.0073929527
144 166 647 0.69170666 0.28365564 -0.66413969 0.018513996
67 168 647 -0.68638355 0.41992575 -0.59375089 0.019079074
68.5 168.5 646 -0.70908463 0.37850869 -0.59492034 0.016968757
141 168.5 645 0.89472383 0.19757573 -0.40054098 0.0060675424
143 168 647 0.71913415 0.27649352 -0.63749307 0.015870722
69 170.5 646.5 -0.7510286 0.36192751 -0.55223584 0.0074454062
70.666664 171.33333 645.5 -0.60049003 0.35517362 -0.71642393 0.014885068
141 171 646 0.75576085 0.29386762 -0.58520722 0.0074151792
71.199997 173.39999 646 -0.66787326 0.33873367 -0.66272539 0.02491219
73 174 645 -0.50866294 0.32904673 -0.79560691 0.035606209
138.5 173.5 645 0.72190249 0.43452838 -0.5385552 0.011339124
140 173.5 646.5 0.65005118 0.40903202 -0.64041096 0.0067480458
72 175.5 647 -0.49915278 0.39718056 -0.77012604 0.019527225
73.5 176 646.16669 -0.44829857 0.54802507 -0.70618469 0.021574153
75 176.5 645.5 -0.68104416 0.43344694 -0.59017169 0.020235147
137 176 645 0.76828462 0.35087001 -0.5353775 0.012256506
138.33333 176 646.33331 0.66552228 0.38610804 -0.6387493 0.0071900752
74 178 647 -0.52340901 0.30746484 -0.79467505 0.016139813
75.800003 178.60001 645.79999 -0.66965377 0.37463138 -0.64126062 0.012698226
136.66667 178.66667 645.66669 0.80452949 0.28439611 -0.52139354 0.0070534274
76.5 180.75 646 -0.64057708 0.37851101 -0.66812456 0.013987006
78.333336 181.66667 645.33331 -0.53360564 0.49974698 -0.68228871 0.0099817924
136.33333 181 646.33331 0.8249532 0.27720103 -0.49255648 0.0065416195
77 183 647 -0.47289684 0.47289684 -0.74346298 0.00525541
78.5 183.5 646.5 -0.47289684 0.47289684 -0.74346298 0.00525541
80.333336 183.66667 645.33331 -0.54553598 0.54553598 -0.63622397 0.0017518033
135.33333 183.33333 646 0.84546798 0.32085061 -0.42689446 0.0035399913
79 185 647 -0.47289684 0.47289684 -0.74346298 0.00525541
81.199997 185.8 646.20001 -0.49575114 0.49575114 -0.71306491 0.0042043282
83.333336 186.66667 645.33331 -0.58924294 0.50605869 -0.62983918 0.0053858217
134 186.5 645.5 0.74176538 0.27453282 -0.61189532 0.028508857
135 185 647 0.86598879 0.30741203 -0.39441258 0.0014693872
82 188 647 -0.47289684 0.47289684 -0.74346298 0.00525541
83.5 188.5 646.5 -0.58195442 0.40070859 -0.70764524 0.013987516
85 189 645 -0.72893715 0.47041419 -0.49735421 0.0069387462
133 188.5 645.5 0.74573433 0.34521833 -0.56982863 0.011777323
83.75 190.75 647 -0.61721319 0.29869106 -0.7278952 0.06633801
86 191.16667 646 -0.49238235 0.51029652 -0.70509368 0.019112615
88 192 645 -0.64143085 0.48944661 -0.59076941 0.01047389
132 191 645.33331 0.77576697 0.27657479 -0.56717896 0.014255449
133 190.5 647 0.82941014 0.23358901 -0.50745928 0.0074273478
86.5 193.5 647 -0.71165693 0.54022408 -0.44911289 0.056216914
88.666664 193.33333 645.33331 -0.64511728 0.29465052 -0.70498568 0.013598792
131.33333 193.33333 646 0.75336772 0.30903459 -0.58046085 0.010744247
87 195 647 -0.79216349 0.49097896 -0.36251441 0.050284654
88.400002 196.2 646.40002 -0.76972008 0.33888298 -0.54100764 0.039245337
90.25 196.25 645 -0.57406247 0.24913964 -0.77998829 0.024839692
130.5 196.25 646 0.74004209 0.32759419 -0.58738381 0.0070489589
89 198.5 646.5 -0.84304589 0.34978324 -0.40856493 0.048840337
91 198.33333 645.33331 -0.59700483 0.33493474 -0.72897464 0.048547428
127 199 645 0.65245295 0.38550049 -0.65245277 0.016364742
129 198 646 0.56943643 0.47150087 -0.67337149 0.0052983607
130 199 647 0.7453115 0.33685511 -0.5753603 0.0097731613
91.285713 200.85715 646.14288 -0.76579112 0.23766822 -0.59755975 0.05337875
93.333336 201.66667 645 -0.49301183 0.38681826 -0.77930152 0.016223248
126.66666 201 645.33331 0.62878394 0.25195003 -0.73563021 0.011379269
128.66667 200.66667 646.66669 0.71607399 0.31671402 -0.62203723 0.0083287954
92 203 646 -0.52925402 0.61040968 -0.58931345 0.067849763
94 203.5 646 -0.57752633 0.56824285 -0.58614278 0.018006448
95 204 645 -0.56152534 0.39365035 -0.72782469 0.020999946
126.33334 203.66667 645.66669 0.65007716 0.28386956 -0.704853 0.019577982
128 203 647 0.73580986 0.326594 -0.59322864 0.014633565
96 206 646.20001 -0.55866003 0.60454023 -0.56782919 0.021485422
98.333336 206.66667 645.33331 -0.47353107 0.59382051 -0.65049642 0.015070446
124 206.5 645 0.80116981 0.19385073 -0.56617045 0.011560813
126 206 646.25 0.61636508 0.27561682 -0.73765129 0.017035689
97 208 647 -0.44279397 0.56484503 -0.69633591 0.02143383
98.5 208.5 646.5 -0.59130436 0.43019843 -0.68212056 0.028370731
100 209 645.5 -0.78659809 0.3826741 -0.48458636 0.047378592
124 208 645 0.74117684 0.18855782 -0.64428473 0.012198852
125.5 208.5 646.5 0.6197536 0.26208112 -0.73974252 0.0081781456
99 211 647 -0.61798233 0.17486392 -0.76649886 0.033238843
100.33334 211 645.66669 -0.83820218 0.22888169 -0.49500528 0.056152727
122 212 645 0.79613906 0.3798354 -0.47104952 0.0026927239
123.66666 210.66667 646 0.69319439 0.37496358 -0.61553544 0.0061040209
125 211 647 0.63165277 0.44445857 -0.63519394 0.0057397834
100.6 213.60001 646.20001 -0.79405117 0.046254765 -0.60608852 0.029445931
121.5 214 645.5 0.74792129 0.33586982 -0.57254267 0.0048169778
101.4 215.8 646.20001 -0.7295956 0.45572746 -0.50990468 0.042097811
103.33334 216.66667 645.33331 -0.5667128 0.52349043 -0.63623452 0.0097952709
120.66666 216.33333 646 0.71435082 0.35036421 -0.60576224 0.007349622
123 215 647 0.6954785 0.35187751 -0.62649184 0.0093987333
104 218 646 -0.57735032 0.57735032 -0.57735032 0
105.75 218.75 645.25 -0.44626471 0.5358296 -0.71675265 0.012258381
119 219 645 0.80964005 0.28226641 -0.51459569 0.0051203589
120 218.5 646 0.81440848 0.27553946 -0.51070219 0.0041217091
106.66666 220.33333 646 -0.37998888 0.6408655 -0.6670081 0.017769089
108.4 221.2 646 -0.48963723 0.56200135 -0.66664076 0.018382641
110 222 645 -0.68795061 0.23118806 -0.68795067 0.010390499
118.66666 221.66667 646 0.72030199 0.35626116 -0.59518319 0.010903012
120 220 647 0.7091918 0.34582061 -0.6143738 0.0032777146
109 223 647 -0.6413725 0.3586612 -0.67823559 0.0085096611
110.33334 223.66667 645.33331 -0.6447646 0.4105573 -0.64476454 0.010632671
116.66666 223.66667 645.33331 0.54801899 0.42668951 -0.71945208 0.017290697
118 223.5 646.5 0.66349065 0.45305651 -0.59541577 0.011707466
111.28571 225.85715 646.28571 -0.50820625 0.39532763 -0.76514208 0.021428397
113.5 226 645.66669 -0.0062678759 0.37595606 -0.92661625 0.012190737
115.875 225.875 646.125 0.43480942 0.47282591 -0.76640493 0.026660522
112 228.5 647 -0.40503019 0.40617943 -0.81912684 0.029751869
113.5 228.5 646.5 0 0.46689805 -0.8843112 0.037311219
115 228.5 647 0.41674441 0.38805199 -0.82203394 0.028701631
113.5 230 647 -0.10960261 0.43578011 -0.89335483 0.0274489
28.5 -88.5 648.5 0.38145921 0.9195686 -0.094247274 0.12246801
31.200001 -89 648.40002 -0.41885611 0.9005515 -0.11647542 0.13765381
24 -86 648 0.79177713 0.57870561 -0.19541974 0.0059974166
25 -87 648 0.65253341 0.75677931 0.038538843 0.006650818
-33 -83 649 0.71972924 0.61719334 -0.31790292 0.01935119
-32 -84 649 0.78476274 0.55431145 -0.27728397 0.01128673
-18 -84 649 -0.70313454 0.69775546 -0.13689145 0.0047274278
-17 -83 649 -0.71012294 0.67845076 -0.18822856 0.0070534605
23 -83.5 649 0.90876311 -0.038111713 -0.41556853 0.010582806
37 -83.5 648.5 -0.46531484 0.56969541 -0.67744315 0.060552143
38.333332 -83.333336 648.33331 -0.52343285 0.40657267 -0.74881023 0.032279108
-35 -81.5 648.5 0.67163575 0.51838291 -0.52932459 0.022776764
-16 -82 649 -0.65996915 0.72167087 -0.20888257 0.0081748934
-14.5 -81 648.5 -0.51695853 0.75319541 -0.40675616 0.010988139
23 -81.5 648.5 0.81787121 -0.27832577 -0.50360852 0.011698714
34 -81 649 -0.23173703 -0.76331103 -0.60303748 0.012312192
36.25 -81.25 648.75 -0.29002583 -0.69960952 -0.65301722 0.022212539
38.333332 -81.666664 648.33331 -0.47387391 -0.47387391 -0.7422176 0.025928842
-38 -78.5 648 0.69832885 -0.091484927 -0.70990652 0.026846891
-36.599998 -79 648.79999 0.56265384 -0.023268199 -0.82636511 0.038464919
-34 -78 649 0 -0.70710683 -0.70710683 0
-32 -78 649 0.14735191 -0.77661568 -0.61249948 0.012948992
-13 -79 649 -0.69382358 0.12955357 -0.70839596 0.033458505
-12 -78.5 648 -0.76114148 0.13091584 -0.63523597 0.02733613
24 -80 648 0.43098605 -0.72942078 -0.53122157 0.035432167
26 -79.666664 648.66669 0.25304827 -0.86394793 -0.43538547 0.0065900614
28.666666 -79.333336 648.33331 -0.11119492 -0.86680114 -0.48609814 0.0082524745
31 -80 649 -0.14464612 -0.85651612 -0.49543673 0.0093155522
33.5 -80 648.5 -0.25221089 -0.77191126 -0.58356035 0.011217859
35 -80 648 -0.14675888 -0.82674372 -0.54309922 0.0070421412
-36 -77 648 0.13023029 -0.82895845 -0.5439375 0.0074000186
-34 -77 648 0.012037626 -0.74644732 -0.66533566 0.0025572805
-31.5 -77 648 0.07400503 -0.74517483 -0.66275018 0.0064744959
-29 -77 649 0.18338002 -0.84670502 -0.49946198 0.0076020635
-26 -76 648 0.081698231 -0.90060419 -0.42689282 0.0040775379
-24 -76 648 0.026391517 -0.89346296 -0.44836071 0.0014235266
-21.5 -76 648 -0.015877452 -0.88458496 -0.46610871 0.0030976827
-19 -76.5 648.5 -0.042652927 -0.76582086 -0.64163798 0.0041535147
-16.5 -76.5 648.5 -0.037853938 -0.75815141 -0.65097892 0.0064024851
-13.8 -76.599998 648.59998 -0.12701175 -0.61319649 -0.77965254 0.045687743
-12 -76.5 648.5 -0.43336299 -0.36919373 -0.82212687 0.080365472
69 -54 648.5 0.88402015 0.26942456 -0.38199306 0.0019999375
68 -51 648 0.87328643 0.19190118 -0.44782236 0.0073833466
-53.5 -48 648 0.37168783 0.24518842 -0.89539421 0.080036208
-52 -48 648 -0.19544926 0.49698219 -0.8454634 0.033740375
67 -48 648 0.8542636 0.40636703 -0.32419053 0.0049171792
68 -50 649 0.83344102 0.31901833 -0.45122427 0.01091364
-53.333332 -46.333332 648 0.20327543 0.42761663 -0.88080817 0.043585584
-51.5 -46.5 648 -0.25052258 0.20602386 -0.94593477 0.031676549
66.5 -46.5 649 0.75808632 0.51370561 -0.40176076 0.0026340308
-53.799999 -44.599998 649 -0.11256529 0.50436103 -0.8561244 0.041704178
-51.5 -44 648.83331 -0.28558221 0.39455402 -0.87336701 0.037376482
-49.599998 -43.799999 648.20001 -0.45888716 0.42637074 -0.77950668 0.02133288
64 -43 648 0.82807344 0.34729189 -0.44009399 0.0032678423
65 -44.5 648.5 0.80683213 0.43773261 -0.39675191 0.0015218647
-48.799999 -41.599998 648.79999 -0.38857952 0.51511604 -0.76397735 0.023602854
-47 -41 649 -0.23046553 0.59701586 -0.76841247 0.014803181
-45 -41 648 -0.43209386 0.669981 -0.60367244 0.017955486
64 -41.5 649 0.88325495 0.19149882 -0.42800575 0.0062957322
-47 -40 649 -0.24858487 0.51034862 -0.82325566 0.020768262
-44 -39 648.71429 -0.48948053 0.43044779 -0.75836903 0.017025888
63.333332 -39 648.66669 0.82171208 0.28486052 -0.49360281 0.0059308796
-43 -37 649 -0.47629973 0.42372042 -0.77045417 0.023777807
-41.666668 -36.333332 648.33331 -0.57526851 0.5021587 -0.64568007 0.016900139
62 -36.5 648 0.83393985 0.28084093 -0.47505024 0.0050990563
63 -37 649 0.80774093 0.30445552 -0.50483817 0.0059463098
-41 -34 649 -0.49839252 0.35353318 -0.79159278 0.034341659
-39.333332 -33.666668 648.33331 -0.54525214 0.38884389 -0.74263084 0.026229322
61.666668 -34 648.66669 0.82951343 0.24700157 -0.50089687 0.010940876
-38.5 -31.5 648.5 -0.66066438 0.25744531 -0.70515567 0.020094821
61 -31.5 648.5 0.85169339 0.10709654 -0.51298028 0.02148585
-38 -30 649 -0.64143085 0.48944661 -0.59076941 0.01047389
-36.666668 -29 648.33331 -0.70327044 0.47048408 -0.53296852 0.017520189
61 -29.5 648.5 0.88821459 0.037832633 -0.45786843 0.013092648
-36 -27 649 -0.67880881 0.38060638 -0.6279788 0.029059455
-34.5 -26.5 648.25 -0.51521569 0.50622439 -0.69158483 0.022936437
60.333332 -26.666666 648.66669 0.79051322 0.38064176 -0.47979227 0.011960525
-33.666668 -24.333334 648.66669 -0.57516146 0.41312173 -0.70605934 0.019927954
-32 -23.5 648 -0.54296654 0.33342499 -0.77072376 0.024802897
58.666668 -24 648 0.82891071 0.3574692 -0.43025905 0.0076551363
-31.5 -21.5 648.5 -0.65049279 0.32263947 -0.68757761 0.016249236
58 -21.5 648.5 0.85130507 0.28325215 -0.44164231 0.0051179864
-31 -19.5 649 -0.58078468 0.39284492 -0.71299517 0.020337071
-29.125 -18.875 648.25 -0.44550642 0.33241096 -0.83128035 0.030388683
57 -18.5 648.5 0.85303998 0.26005444 -0.4524318 0.00694058
58 -20 649 0.87513959 0.29343787 -0.38474008 0.0026740539
-28.5 -16.5 648.75 -0.45044231 0.38685992 -0.80463731 0.021220267
-26 -16.5 648 -0.47898093 0.22242461 -0.84917879 0.021076681
56.666668 -16.333334 648.66669 0.83171046 0.2271373 -0.50662237 0.0062038954
-28 -15 649 -0.46229586 0.42533645 -0.7780562 0.017979279
-26.666666 -14 648.66669 -0.45793137 0.25467691 -0.85172677 0.023038462
-24.666666 -13.333333 648.33331 -0.44389498 0.48901692 -0.75087935 0.014434628
54 -13 648 0.61609185 0.52214128 -0.58974522 0.02408809
55.75 -13.75 648.5 0.73730153 0.40833372 -0.5381915 0.015895281
-23.799999 -11.6 648.59998 -0.53037524 0.34814718 -0.77297837 0.020505177
-22 -11 648 -0.47893962 0.36297411 -0.79929137 0.022924777
53.5 -11.5 648 0.51857042 0.5837996 -0.62471008 0.022794966
55 -12 649 0.55027378 0.64718091 -0.52759421 0.02983498
-23.333334 -9.333333 649 -0.50017333 0.21926716 -0.83770436 0.02062002
-21.666666 -8.666667 648 -0.52922779 0.30790028 -0.79064238 0.022744203
52 -8 648 0.70712602 0.21655948 -0.67310834 0.013386231
53 -10 649 0.80959874 0.40691075 -0.42305264 0.021164319
-21.5 -6.5 648.5 -0.56740779 0.13268691 -0.81267625 0.023094716
-20 -6.5 648 -0.55476052 0.020741627 -0.83175153 0.038259637
51.333332 -6.3333335 648.66669 0.63967079 0.22997628 -0.73343867 0.024545034
-21.25 -4.25 648.75 -0.67598253 0.21674089 -0.70432305 0.019710742
-20 -3.5 648 -0.68242651 0.13206677 -0.71892446 0.014217241
49 -3 648 0.69861966 0.19808313 -0.68752718 0.016085137
51 -4.25 648.75 0.63784277 0.31047282 -0.70481431 0.019366883
-21 -2 649 -0.74209148 0.18058455 -0.64551491 0.015996302
-19.666666 -1.3333334 648 -0.63986617 0.26219919 -0.72237313 0.020035829
49 -1.5 648 0.81078511 0.17844483 -0.55748087 0.017954584
-19 1 648.40002 -0.71435338 0.30771241 -0.6285001 0.021232095
48.5 1 648.25 0.72799993 0.35365474 -0.58731967 0.0081712287
-18 3.5 649 -0.66845137 0.32862684 -0.667216 0.016026653
-17 4 648 -0.76284021 0.34178725 -0.5488683 0.012293031
47 3.5 648.5 0.69752115 0.41791427 -0.58207554 0.011998418
48 3 649 0.59014541 0.3527815 -0.72613609 0.011004901
-16.5 6 648.75 -0.69544101 0.39904028 -0.59760243 0.012523787
-15 7 648 -0.72405994 0.24991098 -0.64287001 0.015114072
46.333332 6 648.33331 0.83588737 0.27834082 -0.47309476 0.0062707881
-16 8.5 649 -0.71839225 0.10050857 -0.68833899 0.002801023
-15 8.5 648 -0.71104306 0.083800621 -0.69813699 0.003864557
46 8.5 649 0.84700757 0.11441392 -0.51912194 0.0063925944
-14.666667 11.666667 648.66669 -0.68246198 0.25428039 -0.68526429 0.017138757
45.333332 11.333333 648.33331 0.81202853 0.18304536 -0.55416983 0.011899144
-13.75 13.25 648.75 -0.56992972 0.47488621 -0.6705693 0.019841675
-12 14 648 -0.66929018 0.32264736 -0.66929018 0.014199421
45 13.5 648.5 0.85250324 0.14274792 -0.50285304 0.017527942
-13 15.5 649 -0.68242651 0.13206677 -0.71892446 0.014217241
-11.6 16.200001 648.20001 -0.6352998 0.24613872 -0.73199046 0.02617282
44 15.5 648 0.81737363 0.15642785 -0.55446428 0.020603325
45 16 649 0.71784121 0.019328749 -0.69593847 0.012580504
-13 18.5 649 -0.42257455 0 -0.90632814 0.031883918
-11.5 18.5 648.5 -0.61850446 0.10184353 -0.77915347 0.027185749
45.799999 18.6 648.79999 0.49336401 -0.43773001 -0.75165439 0.021101471
-11.5 21 649 -0.39292455 0.173108 -0.90313005 0.03871873
-9.6000004 21.200001 648.20001 -0.47018558 0.37535077 -0.79877239 0.026964992
46.5 20.5 648.25 0.46011797 -0.4696711 -0.7534591 0.029844727
48.5 20.5 649 0.25082478 -0.38773158 -0.88698995 0.02502574
51.666668 21.333334 648.66669 0.074241102 -0.74349612 -0.66460651 0.0059883385
53.5 21.5 648.5 0.0090233404 -0.73682463 -0.67602372 0.0019179604
56 21.5 648.5 -3.2072561e-10 -0.70710683 -0.70710683 0
58.5 21.5 648.5 0.0090233404 -0.73682463 -0.67602372 0.0019179604
60.75 21.75 648.5 0.016855426 -0.79076779 -0.61188418 0.012128251
63.5 21.5 648.5 -0.18541761 -0.75814801 -0.62516552 0.014822662
66 21 648.66669 -0.17737877 -0.84258884 -0.50850832 0.0098601952
68.333336 20.666666 648.33331 -0.13010897 -0.85007751 -0.510333 0.011409088
71 20.25 648.75 0.021987509 -0.82158101 -0.56966764 0.011500619
73.333336 20.666666 648.66669 0.22706912 -0.75809807 -0.61133212 0.011386705
76.199997 21.4 648.79999 0.38965833 -0.53977609 -0.74619579 0.028244803
-16 24 649 -0.23304962 -0.72286201 -0.65050638 0.045095708
-13 24 649 -0.21806315 -0.51132894 -0.83125883 0.028171962
-11.333333 23.666666 649 -0.23637557 -0.41519186 -0.87848866 0.044576515
-9 23.5 648.83331 -0.25567436 -0.084515542 -0.96306163 0.05038612
77 23.5 648.5 0.80804509 -0.13097094 -0.57437766 0.014197599
-18 27 649 -0.44279397 -0.56484503 -0.69633591 0.02143383
-16.5 26 648.5 -0.57200581 -0.28395647 -0.76953107 0.025484122
-14 25.5 648.33331 -0.0099554081 -0.6166802 -0.7871508 0.036118966
-11.5 25 648 -0.16352487 -0.69758856 -0.69758856 0.0070997076
-9 25 648 -0.085583068 -0.66637099 -0.74069238 0.020183535
76.333336 26 648.33331 0.85844845 0.25827694 -0.44312441 0.007577965
-96 29 649 -0.30821893 -0.90613335 -0.2896955 0.038873989
-94 29 649 -0.059731863 -0.96708274 -0.24735224 0.026878022
-91.5 29 648.5 -0.1366436 -0.93134373 -0.33753136 0.017940072
-89 29 648 -0.0069126454 -0.83446836 -0.5510124 0.010183752
-87 29 648.5 0.20411342 -0.86739683 -0.45382869 0.02453371
-84 29 649 0.12617204 -0.97039723 -0.20593607 0.01960396
-76.5 29 648 -0.15807079 -0.86162442 -0.48230383 0.021622863
-74 29 648 0.29965535 -0.79541034 -0.52681029 0.078964069
-18.5 28 648.5 -0.54953462 -0.47353405 -0.6883148 0.032057509
-17 28 648 -0.54412675 -0.26243436 -0.79690301 0.057104673
76 28 649 0.85799646 0.22424453 -0.46212181 0.002522971
-106.5 32 648.5 -0.35307795 -0.93332791 -0.06507618 0.018065624
-103.5 31 649 0.1027533 -0.96938646 -0.22300616 0.028879985
-101.66666 31.333334 648.66669 -0.073160715 -0.98995179 -0.12100836 0.04870984
-99 31 649 -0.15960819 -0.95905185 -0.23397593 0.034945846
-96.5 30 648 -0.34910819 -0.86546814 -0.35928869 0.039260853
-95 30 648 -0.13808002 -0.82645148 -0.54581308 0.0075399312
-81.5 31 648 0.0085256491 -0.97742909 -0.2110917 0.024214057
-79 30 649 -0.31507286 -0.85206211 -0.41799432 0.093385227
-74 30 649 0.28502876 -0.83321601 -0.47382468 0.081844114
-71.666664 30.666666 648.33331 0.31004161 -0.89492965 -0.32089731 0.054642912
-69 31 648 0.01234221 -0.97655678 -0.21490578 0.024445316
-66 31 648 -0.11428391 -0.95577794 -0.27097568 0.04161172
-64 31 648 -0.087931365 -0.97842383 -0.18696228 0.019396685
-61 30 649 0.036248628 -0.99070233 -0.13112983 0.032751512
-59 30 649 0.026098665 -0.97575819 -0.21728991 0.018246243
-57 30 649 0.071497992 -0.98242056 -0.1724465 0.020700321
-53 31 648 0.60090297 -0.66524649 -0.44312844 0.036647599
-51.5 31.5 648.5 0.20440975 -0.65144998 -0.73063648 0.017528521
-49.5 31.5 648.75 0.44133171 -0.42344835 -0.79114968 0.036581114
-29 32 649 -0.24315493 -0.7598843 -0.60286939 0.012011059
-26.5 31.5 648.5 -0.28423688 -0.62986797 -0.72282487 0.019159101
-24.125 31.125 648.375 0.16163971 -0.58941692 -0.79149246 0.035069697
-21.5 31 649 -0.063643821 -0.63373953 -0.77092391 0.015628828
-19.200001 30.4 648.40002 -0.44366559 -0.46090543 -0.76858777 0.039213546
-17 30 648 -0.50882214 -0.39704585 -0.76384199 0.047418304
75 31.5 649 0.90237778 0.12206959 -0.41329578 0.0056246999
-51 33 648 0.25603202 -0.65301609 -0.71275365 0.044635355
-49 33.5 648.5 0.4939152 -0.47439995 -0.72869229 0.028222229
-46.5 34 649 -0.017902799 -0.66192871 -0.74935293 0.010457559
-44 34 649 0.23175372 -0.66695189 -0.70814216 0.016580094
-31.333334 33.666668 648.66669 -0.574664 -0.60434985 -0.55183554 0.014334782
-30 33 648 -0.38669685 -0.81230223 -0.43661278 0.022093927
74 34 648 0.76279038 0.1714614 -0.62349963 0.012803302
75 33.5 649 0.85033965 0.15632857 -0.50247777 0.0063221417
-46 35 648 0.28889528 -0.76334637 -0.57779056 0.012309199
-43.666668 35.666668 648.33331 0.31983185 -0.5968526 -0.7358495 0.024964288
-41.599998 36.200001 648.79999 0.30957437 -0.4857789 -0.81742442 0.032813851
-39.25 36.75 649 0.17925842 -0.59833169 -0.78093892 0.027812682
-36.5 37 649 -0.087750584 -0.818681 -0.56750453 0.034788936
-33.333332 35.666668 648.66669 -0.63971442 -0.63859147 -0.42774579 0.010213311
74 36 648.66669 0.81630492 0.27087441 -0.51016992 0.0072720996
-41 38 648 0.26469785 -0.6547423 -0.70798844 0.026622625
-39 38 648 0.05637186 -0.70104825 -0.71088225 0.02209405
-37 38 649 -0.057637028 -0.84346133 -0.53408897 0.045848668
73 38.5 648.5 0.71444952 0.36676329 -0.59585786 0.0086200414
71.333336 41 648.33331 0.75189036 0.22529389 -0.61959958 0.017779075
70.5 43.5 648.5 0.74272168 0.25105664 -0.62075365 0.015048162
69 46.5 648 0.83302897 0.26030591 -0.48816347 0.011795821
71 45 649 0.74707687 0.23340499 -0.62241334 0.014202678
69 48 649 0.70093757 0.11991075 -0.70307034 0.019783339
68.5 51 648.5 0.75829184 0.18498045 -0.62512058 0.0097528044
67 54 648 0.85365313 0.20751277 -0.47771835 0.0066716983
68 53.5 649 0.67192113 0.19494665 -0.71450531 0.015746029
67 56 648 0.87276405 0.052877709 -0.4852699 0.0029128499
67 58.5 648 0.834764 0.044711661 -0.54878956 0.0077548544
67 61 648 0.70710683 1.1515539e-10 -0.70710683 0
68 62 649 0.82645148 -0.13808002 -0.54581308 0.0075399312
67 63.5 648 0.70710683 -1.6207213e-09 -0.70710683 0
68 63.5 649 0.79840606 0 -0.60211933 0.010253735
67 66 648 0.70710683 -2.8703708e-09 -0.70710683 0
68 65 649 0.8373366 0.096017689 -0.53818959 0.0091641992
67 68.5 648 0.80455065 0.019273272 -0.59357119 0.0096602459
67 71.5 649 0.8368752 0.093402222 -0.53936625 0.025831023
68 70 649 0.84572387 0.078916728 -0.527753 0.020343786
66.666664 73.666664 648.33331 0.79118919 0.13708463 -0.59600961 0.019021226
66.75 75.75 648.75 0.76087171 -0.040631734 -0.64762902 0.0094588082
67 78.5 648 0.72803152 -0.090719983 -0.67951447 0.0079981508
68 78.5 649 0.78055954 -0.16691464 -0.60238379 0.011282966
67 81 648 0.70710683 0 -0.70710683 0
68 81 649 0.70710683 1.0804809e-09 -0.70710683 0
178 81 649 -0.76543981 0.59786153 -0.238041 0.014874138
67 83.5 648 0.63515466 -0.1696993 -0.75351226 0.028641652
68.333336 83.666664 648.66669 0.57921708 -0.30603307 -0.75554699 0.022881886
67 85 648 0.5156014 -0.20385481 -0.83222508 0.030055787
68.5 85.5 648.25 0.42910355 -0.4115006 -0.80407542 0.029505832
70.400002 86.199997 648.79999 0.36383533 -0.46097967 -0.80939579 0.018433262
73.5 87 649 -3.0874485e-09 -0.70710683 -0.70710683 0
75 87 649 0.14392339 -0.7585966 -0.63546622 0.016476803
122 87 649 -0.32264736 -0.66929018 -0.66929018 0.014199415
123.5 87 649 0 -0.70710683 -0.70710683 0
126 87 648.66669 -0.082007527 -0.78677672 -0.61176556 0.019036429
128.5 87 649 -4.3055564e-09 -0.70710683 -0.70710683 0
131 87 648.66669 -0.16689306 -0.79820329 -0.57880753 0.011343193
133.5 87 648 -0.050858811 -0.75349003 -0.65548927 0.0051268674
136 87 648 0 -0.70710683 -0.70710683 0
138.66667 86.666664 648.33331 -0.03198076 -0.75898749 -0.65031934 0.0032990593
141 87 648 1.5195105e-09 -0.70710683 -0.70710683 0
143.33333 86.333336 648.66669 -0.13762052 -0.83032751 -0.54001558 0.0091643436
146 86 648.66669 -0.1381402 -0.85049349 -0.50752163 0.0060194563
148.5 86 648.5 0.18021475 -0.78329271 -0.59495801 0.009912339
151 86.5 648.5 0.026435645 -0.71387815 -0.69977075 0.0017071306
153.5 86.5 648.5 0 -0.70710683 -0.70710683 0
156 86.5 648.5 0 -0.70710683 -0.70710683 0
158.33333 86.666664 648.33331 0.060448106 -0.7217924 -0.68946475 0.0053321007
160.75 86.75 648.5 0.11862509 -0.78311872 -0.61045331 0.0086335083
163.5 87 649 0.03112228 -0.75271255 -0.65761328 0.0061989389
174 87 649 0.2462835 -0.37962615 -0.89175588 0.068572797
71.5 88 648 0.12045101 -0.70256203 -0.70135456 0.010501477
73 88 648 -1.070135e-09 -0.70710683 -0.70710683 0
76 88 648 0.030794479 -0.78393632 -0.62007713 0.0071020522
78.666664 88.333336 648.33331 0.20628937 -0.76749629 -0.60695475 0.01326933
81 88.5 648.5 0.020654365 -0.71114647 -0.70274037 0.0027634529
83.5 88.5 648.5 0 -0.70710683 -0.70710683 0
86 88.5 648.5 0.026677681 -0.73873103 -0.67347211 0.010871892
88.5 88.5 648.5 -0.10968972 -0.77234948 -0.62565523 0.022141691
91.25 88.25 648.5 0.11139252 -0.81779873 -0.56462103 0.017923295
93.666664 88.666664 648.33331 0.12199111 -0.8786025 -0.46170965 0.015998716
96.5 89 649 0.07278654 -0.84476304 -0.53016752 0.010939173
98.5 89 649 -0.002191341 -0.96814501 -0.2503804 0.055024832
101 89 648 -0.11459994 -0.88458925 -0.4520717 0.0053652464
103.33334 88.333336 648.66669 -0.099505492 -0.77438378 -0.6248427 0.0069829659
106 88 649 0 -0.70710683 -0.70710683 0
108.5 88 649 0 -0.70710683 -0.70710683 0
111.2 88.400002 648.59998 0.048146725 -0.75251615 -0.65681148 0.0035587333
113.5 88.5 648.5 0 -0.70710683 -0.70710683 0
116 88.599998 648.40002 0 -0.78213966 -0.62310326 0.0042225113
118.5 88.5 648.5 -0.043780435 -0.76914644 -0.63757116 0.003802943
121 88 648.66669 -0.1395606 -0.75771374 -0.63748944 0.0092523834
123.5 88 648 -0.032758202 -0.80787629 -0.58844101 0.0089627877
125 88 648 -0.21147318 -0.75335073 -0.62268913 0.012412862
128.5 88 648 0.017545445 -0.83313119 -0.55279708 0.0090487842
130 88 648 -0.18464626 -0.81484514 -0.54948443 0.01132061
164 88 648 0.15250149 -0.84117067 -0.51882106 0.0044720955
166 88 648 0.040310856 -0.88795525 -0.45815989 0.0017552451
168.5 88 648 0.023424696 -0.85145992 -0.5238961 0.0066613946
171.2 88.400002 648 0.23990799 -0.42550007 -0.87257886 0.043561928
174 88.5 649 0.58279836 -0.10788282 -0.80542368 0.039532375
182 88 649 -0.96936053 -0.1825304 -0.16438632 0.077755459
172 90 648 0.33880869 -0.31896573 -0.88513821 0.024758885
173.66667 91 648.66669 0.58813906 -0.054374188 -0.80692983 0.022747273
175 91.5 649 0.54037273 -0.035602137 -0.84067231 0.056057598
172 93.5 648 0.70803088 0.19397895 -0.67901725 0.026459862
173.5 93.5 648.5 0.63983297 0.13714981 -0.75617707 0.017067205
172 96 648 0.70616174 0.071897313 -0.7043907 0.034789559
174 95.5 649 0.58249962 0.17601191 -0.79354519 0.014330369
173 98.5 649 0.71112156 0.21056348 -0.67079747 0.013008187
171 101.33334 648.33331 0.6591295 0.35115001 -0.66501272 0.016068013
169 104 648 0.78686923 0.36207232 -0.49974048 0.0028790168
170 104 649 0.59011328 0.39480498 -0.70419836 0.0070251063
168.5 106.5 648.5 0.68812168 0.33865568 -0.6417172 0.0065810448
167 109 648 0.85399991 0.25141513 -0.4554939 0.0054116645
168 108 649 0.70452386 0.25111532 -0.66376746 0.0063808053
167 111 648.66669 0.82987291 0.13316186 -0.54182923 0.0075602033
166 114 648 0.78355652 0.31380865 -0.53624934 0.013484916
165.33333 116 648.66669 0.72192645 0.41535029 -0.55344957 0.0094905989
164 118.5 648.5 0.80800992 0.36960715 -0.45881417 0.0046840301
163.25 120.75 648.75 0.78086227 0.30640465 -0.54439896 0.0086492682
162 123.5 648.5 0.81495667 0.34557587 -0.46521285 0.0039130035
161 126 648.5 0.72079289 0.30464286 -0.62261569 0.0058638202
160.5 128 648.5 0.75624985 0.29160133 -0.58570874 0.0070054475
31.5 132 649 0.18996739 0.72317398 -0.66402704 0.014973521
33 131 648 0.16003485 0.85658157 -0.49056801 0.012020374
36.285713 131 648.42859 -0.21354569 0.53028065 -0.82048804 0.035782717
38 131.5 648 -0.53898036 0.47132334 -0.69810784 0.027355766
159 132 648 0.68591213 0.20988201 -0.6967597 0.012856165
160 130.5 649 0.82590616 0.22324926 -0.51772457 0.0085547008
38.5 133 649 -0.52795798 0.46225014 -0.71245015 0.022659857
158.5 133.5 648.5 0.77555048 0.34582004 -0.52813816 0.007935361
39 135 649 -0.50036794 0.16279899 -0.85036963 0.01864701
40.666668 136 648.66669 -0.49595606 0.34947619 -0.79491752 0.018063251
43 137 648 -0.48694572 0.4500255 -0.74857265 0.011948002
157 137 648 0.76013124 0.22078677 -0.6111086 0.005968166
158 135.5 649 0.85607493 0.28675297 -0.43000987 0.004170673
41.666668 138.33333 649 -0.49643052 0.3927539 -0.77414542 0.015833439
43.5 138 648 -0.46726054 0.34446913 -0.81425345 0.015058652
157 138.5 649 0.78442454 0.35119015 -0.51121777 0.013463616
43.75 140.75 648.75 -0.69922727 0.36300707 -0.61587912 0.0088159721
45 142 648 -0.62199986 0.39785537 -0.67440885 0.0080333287
154 142 648 0.75225341 0.21348763 -0.62332803 0.012565391
155.5 140.5 648.5 0.6669203 0.37926987 -0.64138258 0.0071195485
45.799999 143.60001 648.40002 -0.59060103 0.23157258 -0.77302307 0.025016585
154 143 648 0.73573524 0.29643732 -0.60894883 0.016836651
155 144 649 0.67759848 0.22786419 -0.69924116 0.0055928784
46.599998 145.8 648.59998 -0.42828092 0.48273078 -0.76390219 0.031884454
48 146.5 648.5 -0.62340754 0.37667659 -0.68518454 0.022627998
152 147 648 0.76452273 0.23946778 -0.59846485 0.011073315
153.5 145.5 648.5 0.67138833 0.34807205 -0.65428096 0.0090004178
48.666668 148.33333 648.66669 -0.67032206 0.42300802 -0.60969871 0.013247927
50 149 648 -0.56484503 0.44279397 -0.69633591 0.02143383
153 148 649 0.70830584 0.3190271 -0.62970203 0.0065578413
49 150 649 -0.58350194 0.5477491 -0.59958023 0.03644038
51.200001 150.8 648.40002 -0.50135136 0.5429104 -0.67371738 0.02053198
53.333332 151.66667 648 -0.36954135 0.40172914 -0.83788598 0.035733178
150.66667 151.33333 648.33331 0.73212725 0.35027432 -0.58420688 0.0062290705
52 153 649 -0.66929018 0.32264736 -0.66929018 0.014199421
53.5 153.5 648.5 -0.38407779 0.43645179 -0.81363022 0.04335897
55 153.5 648 -0.66034377 0.22155403 -0.7175374 0.020433586
150 154 649 0.69238818 0.22792795 -0.68457836 0.016333101
54 155 649 -0.49935827 0.36103651 -0.78758746 0.0164047
55.5 156 648.25 -0.69349563 0.39655286 -0.60150617 0.017362354
149 156 648.5 0.76778626 0.23953722 -0.5942443 0.0048445454
150 155 649 0.65274161 0.34805194 -0.67289543 0.01259367
57 158 648.5 -0.63567382 0.65137106 -0.41428804 0.019443266
58.5 159 648.5 -0.66320187 0.58845311 -0.46247825 0.035113566
148 158.5 648 0.79803848 0.23005614 -0.55696386 0.0096525559
59 160 649 -0.77882755 0.42285079 -0.46327633 0.035729028
60.5 161.5 648 -0.67920649 0.45003995 -0.57977802 0.02640444
147 162 648 0.85202622 0.30324018 -0.42672807 0.0019642555
148 160 649 0.75221312 0.31728774 -0.57749808 0.021587266
61 163.33333 648.33331 -0.62524796 0.34575751 -0.69965476 0.0097750202
146.5 163.5 648.5 0.76981193 0.47901443 -0.42182317 0.0076086903
61.5 165.5 649 -0.51323813 0.50409871 -0.69460136 0.012127459
63.666668 165.66667 648.33331 -0.34381187 0.54924041 -0.76166165 0.011713628
65.5 166.5 648 -0.5411188 0.46834856 -0.69845551 0.011609952
144 167 648 0.81649661 0.40824831 -0.40824831 0
145 165.5 648.5 0.75903106 0.43282101 -0.48635152 0.01551437
65.5 168.5 649 -0.53250873 0.40916377 -0.74095845 0.01434922
143.5 168.5 648.5 0.82420075 0.30662778 -0.47610143 0.011612704
67 170.5 649 -0.57985085 0.30457091 -0.75565177 0.016907116
68 171 648.5 -0.69071567 0.39684471 -0.60450476 0.0106123
143 171 648.33331 0.85226768 0.21118645 -0.47858131 0.0071407016
68.666664 173.33333 648.66669 -0.69870216 0.27849457 -0.65898108 0.016246391
142 173.5 648.5 0.70537144 0.38676393 -0.5940243 0.0079844575
69 175.5 649 -0.73949438 0.21715112 -0.63717622 0.012621035
70.400002 176.2 648.20001 -0.53676867 0.3569271 -0.76451445 0.015694469
140.33333 176 648.33331 0.67178965 0.44678876 -0.5908286 0.0071475059
71.666664 178.33333 648.66669 -0.5701586 0.50122428 -0.65091729 0.006168358
73 179 648 -0.47289684 0.47289684 -0.74346298 0.00525541
139 178 648 0.72647607 0.29093713 -0.62256581 0.0059728879
73.5 180 648.5 -0.51674587 0.62243456 -0.58783406 0.016302757
75 181.5 648.5 -0.75878787 0.42355287 -0.49481714 0.014099575
137 181 648 0.74741769 0.2705456 -0.60677177 0.012203248
139 180 649 0.71423525 0.35058576 -0.60577029 0.0091690486
76.333336 183.66667 648.33331 -0.67719197 0.50374961 -0.5363276 0.005385824
136 184 648 0.71997708 0.32222885 -0.61465573 0.011526433
138 183 649 0.70671678 0.30586833 -0.63796234 0.011682629
77 185 649 -0.64143085 0.48944661 -0.59076941 0.01047389
78.400002 186.2 648.59998 -0.56293076 0.5347535 -0.63019639 0.013640952
80 187 648 -0.48944661 0.59076941 -0.64143085 0.01047389
136.33333 186.66667 648.66669 0.73535091 0.23410937 -0.63596523 0.022609146
81 188.5 648.5 -0.56711948 0.59925473 -0.56503916 0.014582658
134 189 648 0.68994772 0.23202412 -0.68566531 0.013101201
136 188.5 649 0.62999874 0.30904356 -0.71245611 0.019211978
83 191 648.5 -0.9067471 0.16894782 -0.38635015 0.05411759
135 190.5 649 0.62988627 0.31029645 -0.7120108 0.011970708
85.800003 193.60001 648.79999 -0.55551887 0.1815224 -0.8114484 0.060494952
133 193.5 648.5 0.69539422 0.31257969 -0.64708644 0.0049237791
86.400002 195.60001 649 -0.47012714 0.25391239 -0.84528625 0.046571266
88 196.5 648.5 -0.80755067 0.36623296 -0.4623152 0.06024123
132 196 648.33331 0.78952074 0.28193372 -0.54513329 0.0063468716
88.666664 198.66667 648.33331 -0.81000704 0.26794261 -0.52162766 0.040581603
131 198.5 648.5 0.73901647 0.34352735 -0.57952017 0.0096950866
88.5 200.75 648.75 -0.63647866 0.30862942 -0.70685416 0.022831395
90.333336 201 648 -0.62724555 0.39615709 -0.67053908 0.042632908
129 202 648 0.78591657 0.39664713 -0.47434828 0.0051310933
130 201 648.66669 0.66495651 0.36924809 -0.6492216 0.01339957
91 203.33333 648.66669 -0.55718964 0.58379841 -0.59052449 0.031189358
93 204 648 -0.45001596 0.70497346 -0.54817712 0.028853051
128.66667 203.66667 648.66669 0.74219871 0.22070011 -0.63279736 0.01072042
92 205 649 -0.51525056 0.63351744 -0.57721102 0.016126556
94 206 649 -0.5575313 0.54595792 -0.62537098 0.016724415
95 206 648 -0.75877166 0.39821613 -0.51545089 0.0031288525
128.25 205.75 648.5 0.77110499 0.21998401 -0.59749824 0.0095881941
96 208.33333 648.33331 -0.60427916 0.41196746 -0.68200403 0.010201481
127 208 648 0.76427412 0.33802786 -0.54920155 0.0059910645
128 208 649 0.66596806 0.22764212 -0.71039826 0.010541277
96.666664 211 649 -0.6458689 0.26033252 -0.71769106 0.013814907
98 211 648 -0.68201286 0.13978244 -0.71785748 0.0076144007
126.33334 210.66667 648.66669 0.69845164 0.38698003 -0.60200644 0.005641913
98.5 214 648.5 -0.67635602 0.32248136 -0.66222984 0.0094172321
124 213 648 0.75845969 0.41627917 -0.50144851 0.011087239
125 213 649 0.66331285 0.49451351 -0.56166935 0.0066586635
99 215.5 649 -0.68870676 0.37910721 -0.61802971 0.011155833
100 216.5 648.5 -0.64733875 0.46154547 -0.60657096 0.0078217899
123.5 215.5 648.5 0.77704823 0.34224346 -0.52826643 0.010749632
101.5 218.5 649 -0.57735032 0.57735032 -0.57735032 0
103 219 648 -0.57735026 0.57735026 -0.57735032 0
122 218 648 0.69271231 0.31773221 -0.64745349 0.0050300919
123 218 649 0.80274361 0.31293502 -0.50761634 0.0037589823
103.66666 220.33333 648.66669 -0.57735026 0.57735026 -0.57735026 0
105.33334 221.66667 648.33331 -0.57187158 0.47458363 -0.66912878 0.010418668
121.66666 221 649 0.78856558 0.31597045 -0.52756703 0.010611851
106.5 223.5 648.5 -0.61337852 0.37418446 -0.69552332 0.014438055
108 224 648 -0.37681773 0.37397435 -0.84743828 0.013237374
120.5 223.5 648.5 0.72819346 0.33376545 -0.59861082 0.011143045
107 225 649 -0.53316081 0.53316081 -0.65687078 0.014216077
108.6 225.8 648.40002 -0.55143255 0.41618139 -0.72299057 0.014851493
110 227 648 -0.59203374 0.32904911 -0.73567843 0.013010449
119 226.5 649 0.66591346 0.40039343 -0.62947941 0.0075928341
120 225 649 0.74244916 0.4092333 -0.53037477 0.0074049709
