ply
format ascii 1.0
comment PCL generated
element vertex 757
property float x
property float y
property float z
property float nx
property float ny
property float nz
property float curvature
element camera 0
property float view_px
property float view_py
property float view_pz
property float x_axisx
property float x_axisy
property float x_axisz
property float y_axisx
property float y_axisy
property float y_axisz
property float z_axisx
property float z_axisy
property float z_axisz
property float focal
property float scalex
property float scaley
property float centerx
property float centery
property int viewportx
property int viewporty
property float k1
property float k2
end_header
-91.5 201.5 700.5 0.027136531 0.49926728 -0.86602294 0.020804662
-89.125 201.125 700.375 -0.018351005 0.54759258 -0.83654392 0.020444021
-86.400002 201.2 700.40002 0.050780512 0.58269268 -0.8111046 0.011431693
-84.285713 201.14285 700.42859 -0.020846464 0.47039768 -0.88220835 0.023468567
-81.400002 200.8 700.20001 0.0021603019 0.36810124 -0.92978323 0.020903718
-79 201 700.33331 0.020924233 0.35956335 -0.932886 0.015954657
-76.5 201 700.33331 -0.019435458 0.46000749 -0.88770229 0.015442689
-74.5 201 700.66669 0.27285188 0.31221411 -0.90998578 0.038589638
-71.5 200.5 701 0.011639304 0.31143552 -0.95019603 0.017260421
-69 200.5 701.5 0.26133135 0.43445209 -0.86194974 0.031542107
-66.5 200.5 702 0.041614994 0.062544115 -0.99717426 0.0073183915
-64.25 200.5 702 -0.048260637 0.28097808 -0.95850003 0.016021684
-61.5 200.5 701.75 -0.25976288 0.57735151 -0.77407265 0.028749593
-59 200.66667 701.16669 -0.025534531 0.55573595 -0.83096671 0.023346789
-56.5 201 701.5 0.16011073 0.60092562 -0.78310466 0.019017641
-54 200 702 0.15185072 0.61012822 -0.77761489 0.013908827
-52 200 702 0.17393762 0.64296722 -0.74588132 0.014823664
-183.8 203.8 700.59998 0.58391756 0.42215869 -0.6934135 0.043023139
-181 204 702 -0.012594596 0.45869592 -0.88850409 0.019934123
-179 203.5 702 0.02765484 0.33829531 -0.94063354 0.019492447
-176.5 203.5 702 -0.035357419 0.18157408 -0.98274148 0.020890921
-174.5 203.5 702 0.02457682 0.20269915 -0.97893262 0.022500781
-171.5 203.5 702 -0.03375319 0.40253934 -0.91478014 0.02715354
-169 203.5 701.66669 -0.18763565 0.5911634 -0.78442258 0.02524267
-166.5 203.5 701 -0.029151548 0.60435593 -0.79618096 0.03267904
-164 203.5 701.5 0.070289172 0.63252044 -0.77134776 0.019594951
-161.5 203.5 701.75 -0.095462069 0.55952954 -0.82329434 0.029440448
-159 203.5 701.5 -0.05908598 0.5176453 -0.8535527 0.022257293
-157 204 701 -0.19961138 0.54611689 -0.81357956 0.01619426
-153.8 203.60001 701.20001 0.1288822 0.43133867 -0.89293689 0.050222926
-151.5 204 701 -0.11074965 0.36484331 -0.92445868 0.050755396
-149 204 701 0.048877563 0.59342891 -0.80340093 0.019468794
-146.66667 203.33333 700.33331 -0.13843471 0.42073151 -0.89656055 0.013871032
-144.25 203.75 700 -0.12054037 0.52937329 -0.83978206 0.012396652
-141.33333 203.66667 700 0.079660356 0.47269389 -0.87761879 0.020948239
-139.5 203.5 700 0.046229575 0.39833403 -0.91607475 0.023504987
-136.5 203.5 700 0.098050483 0.3987833 -0.91178834 0.021934554
-134 203.5 700.16669 -0.12678677 0.51596195 -0.84717673 0.035261944
-118.5 204 700 0.082049862 0.54243141 -0.83608371 0.030533064
-116.33334 203.66667 700 0.079568043 0.38604733 -0.91904098 0.035762239
-114.25 203.75 700 -0.16971394 0.61951345 -0.76642042 0.027718564
-111.5 204 700 -0.079951622 0.52794641 -0.84550595 0.029166074
-108.5 204 700 0.033978943 0.45415249 -0.89027572 0.02784214
-106.5 204 700 0.19036099 0.59953433 -0.77738106 0.026586555
-103.75 203.75 700.25 0.2081266 0.66831207 -0.71417242 0.011281935
-101.66666 203.66667 700.66669 0.08567255 0.61937153 -0.78040957 0.012444757
-98.800003 203.39999 700.40002 0.033612661 0.46881178 -0.8826583 0.028107231
-96.5 203.5 700.5 0.16532503 0.41854805 -0.89302027 0.039195225
-94.25 203.25 701 0.18187074 0.24746759 -0.95167363 0.027742375
-91.5 203.5 701.5 0.15392894 0.41455239 -0.89691257 0.014974832
-88.5 204 702 0.020336194 0.55187118 -0.83368134 0.011904314
-86.5 204 702 0.018064255 0.64350688 -0.76522714 0.0038359244
-84 203.33333 701.33331 -0.055603769 0.47393242 -0.87880385 0.014241879
-81 203 701 0.027708203 0.37780949 -0.92546868 0.019847924
-79 203.66667 701.66669 0.010660453 0.57975 -0.81472474 0.017325982
-76.5 204 702 -0.032998689 0.64584917 -0.76275158 0.025916606
-73.75 203.75 702 0.1212551 0.56284904 -0.81761736 0.014651725
-71 203 702 0.10044987 0.52086389 -0.84770912 0.015813103
-69.5 203 702 0.20585875 0.42299289 -0.88243932 0.02991274
-186 206.5 701 0.53500992 0.3473815 -0.77012372 0.057704613
-184 205.8 701.79999 0.57027388 0.47605094 -0.66944993 0.055090021
-175 205 702 0.032095704 0.50638652 -0.86170912 0.046765037
-159 205 702 -0.07693097 0.23728296 -0.96838963 0.017744983
-157 205 702 -0.098201625 0.45306215 -0.88605374 0.02232445
-154.33333 205 701.66669 0.04480328 0.514346 -0.8564117 0.055588793
-151.5 205.5 701.5 -0.14916323 0.5301947 -0.83465195 0.039220586
-149 205.5 701.83331 0.088395521 0.41068438 -0.90748256 0.026127825
-146.5 205.5 702 -0.040530346 0.31634408 -0.94777828 0.016253071
-143.75 205.5 701.5 -0.030086406 0.64774817 -0.76126021 0.0041773827
-141.5 205.5 701.5 -0.0164106 0.64990747 -0.75983608 0.0044813957
-139 205.83333 701.5 -0.071069993 0.59220082 -0.80265015 0.0073627308
-136.33333 206.33333 701.66669 0.035706289 0.55521947 -0.83093709 0.012007174
-133.8 205.8 701.40002 -0.11040165 0.55953324 -0.82142192 0.026670933
-131.5 205.75 701 -0.16630384 0.55878681 -0.81246561 0.014513737
-129.25 205.5 700.5 -0.19636062 0.53284347 -0.82311618 0.022742961
-126.5 206.5 700 -0.053600043 0.29191732 -0.9549405 0.032460131
-124 206.5 700 0.062197246 0.29299662 -0.95408833 0.022426432
-121.4 206.2 700.40002 0.26640773 0.57451892 -0.77392167 0.023901369
-119.25 205.5 700.75 0.21139988 0.53689909 -0.81673098 0.033326842
-116.5 205.5 700.75 0.16885482 0.47870919 -0.86158317 0.02547971
-114 206 701.5 -0.034060925 0.47382006 -0.87996274 0.014188315
-111.5 205.5 700.5 -0.14537391 0.53233868 -0.83395559 0.023625273
-108.75 205.5 700.5 0.0048487242 0.50249594 -0.86456597 0.020221042
-106.5 205.5 700.75 0.20836331 0.49939233 -0.84094715 0.024598433
-104 206 701.5 0.19637741 0.51883429 -0.83201373 0.022938721
-101.5 206 702 0.13017473 0.49600077 -0.858509 0.024578115
-98.75 206 701.5 -0.0032699136 0.51243007 -0.85872275 0.01781212
-96.5 206.5 702 0.047070313 0.32208782 -0.94553894 0.019288972
-94 206 702 0.16432627 0.31947461 -0.93323785 0.028191635
-91.5 205 702 0.24468637 0.48480853 -0.83969599 0.029796101
-76 205 702 -0.032095704 0.50638652 -0.86170912 0.046765037
-185 208.5 702 0.64624971 0.12773214 -0.75236017 0.010869004
-131.5 208 702 -0.15846524 0.57353079 -0.80371094 0.024832129
-129 208.33333 702 -0.258219 0.4919261 -0.83146358 0.035904691
-127 209 702 -0.15536462 0.31430233 -0.93652338 0.047205102
-124 209 702 0.10460627 0.487928 -0.86659324 0.027557522
-121.5 209 702 0.042877696 0.64548528 -0.76256818 0.008142462
-119.25 208.25 702 0.18724373 0.55390209 -0.81125349 0.022779983
-116 208 702 0.016711231 0.53201962 -0.84656715 0.013534352
-114 208 702 -0.098529562 0.44790411 -0.88863593 0.035887416
-111.5 208.5 702 -0.079986572 0.32334599 -0.94289422 0.026997916
-109.5 208.5 702 -0.021465108 0.42294571 -0.90590078 0.024780367
-106.5 208.5 702 0.14988224 0.38006616 -0.91273493 0.023633828
-105 208 702 0.39442214 0.39442214 -0.82997733 0.028433036
-128 210 702 -0.39328289 0.39328289 -0.83105785 0.04938769
-127 210 702 -0.066255532 0.50895351 -0.85824037 0.02158126
-124.5 210 702 0.17957869 0.4650197 -0.86689568 0.028745091
28.5 -16.5 703.5 0.4992331 -0.63628656 -0.58813757 0.024766807
31 -14.666667 703.33331 0.33596212 -0.83309054 -0.43941969 0.0040370617
33.5 -14 703.5 0.20018114 -0.84203672 -0.50090086 0.0054428885
36 -14 704 0.064350687 -0.88727516 -0.45672947 0.0030419282
38.5 -14 704 0 -0.89442724 -0.44721362 0
41 -14 704 -0.015707176 -0.8082602 -0.58861583 0.0044409297
43.333332 -13.666667 703.33331 -0.10055352 -0.81510019 -0.57052666 0.017702082
-101.5 -6 704 -0.20775664 -0.81400567 -0.54243147 0.010934761
-99 -6 703.5 -0.1653818 -0.83381093 -0.52669561 0.005609585
-97 -6 703 -0.24060796 -0.8797611 -0.41003448 0.0065712058
-103.5 -5 703.5 -0.45837215 -0.72213924 -0.51808292 0.011115719
121.66666 51.666668 703.33331 -0.25440428 -0.86075503 -0.44088456 0.035744723
123.5 51.5 703.5 -0.054256719 -0.80659127 -0.58861423 0.010535528
125.5 51.5 703.5 0.034830283 -0.84028965 -0.54101759 0.014647106
128.5 52 703.5 0.4548519 -0.74355918 -0.49013215 0.026719831
140.66667 51.666668 704 -0.48506752 -0.51225889 -0.70873147 0.047454849
67 53 704 0.36030811 -0.78746212 -0.5000816 0.0080142487
69 54 704 0.26924187 -0.82839322 -0.49119601 0.0071977088
70 54 704 0.15193084 -0.85265553 -0.49989563 0.0054420261
83.5 54 704 -0.14185628 -0.87520802 -0.46247995 0.0057953503
86.5 54 704 -0.038519841 -0.88672447 -0.46069071 0.0021076591
88.5 54 704 -0.02127948 -0.86456543 -0.50206959 0.0056550475
91 54 704 0.023640132 -0.87954307 -0.47523174 0.00350983
94 54 704 0 -0.89442724 -0.44721362 0
96 54 704 -0.010584553 -0.88793617 -0.45984492 0.0020651219
98.5 54 704 0.0073921178 -0.86037767 -0.50960344 0.0053571034
101 54 704 -0.0028091511 -0.8854661 -0.46469548 0.002687102
103.5 54 704 -0.013373443 -0.88529199 -0.46484321 0.004574337
106 54 703.33331 -0.13011089 -0.83664113 -0.53207415 0.0076915645
108.5 54 703 -0.050635129 -0.78375715 -0.61899984 0.0079065515
111.5 53.5 703.5 -0.16942132 -0.87028182 -0.46249977 0.0063648513
113.5 53 704 -0.042229984 -0.89575523 -0.44253722 0.001689532
116 53 704 -0.093687907 -0.95790434 -0.27137008 0.021530354
119 53 704 -0.29149133 -0.90486723 -0.31023881 0.055246957
120 53 704 -0.52950168 -0.64999855 -0.54509622 0.024860835
131 54 703.66669 0.23317663 -0.79517579 -0.55975372 0.011639693
133.5 54 704 -1.9762301e-09 -0.70710683 -0.70710683 0
136.5 54 704 -0.047962416 -0.77138692 -0.63455641 0.0053487751
138.5 54 703.5 -0.16295151 -0.87371892 -0.45832536 0.020522054
140.5 54 703 -0.4938677 -0.70849514 -0.50411242 0.072545424
71 55 703 0.098889425 -0.86478746 -0.49230424 0.0048789554
73.5 55 703 0.042229984 -0.89575523 -0.44253722 0.001689532
75.5 55 703.5 0.11640109 -0.87451237 -0.47082791 0.0044085863
78.5 55 704 -0.051134568 -0.82213026 -0.56699842 0.0086895879
81 55 703.33331 -0.13630873 -0.80566519 -0.57647508 0.0084361425
83 55 703 -0.14392339 -0.7585966 -0.63546622 0.016476803
133.5 55 703 0.074732296 -0.84543049 -0.52883118 0.011954502
135 55 703 -0.13564205 -0.83307093 -0.53627801 0.0062177009
-124 64 704 -0.16201171 -0.87666321 -0.45300537 0.0035390467
-193.5 67 704 0.27468824 -0.79034716 -0.54762918 0.016389735
-158.5 67 704 -0.23421055 -0.83351636 -0.50039572 0.0058970768
-156.5 67 703 -0.044519488 -0.88291264 -0.46742207 0.016022231
-154 67 704 0.064164147 -0.89778489 -0.43573534 0.0026114201
-152 67 704 0 -0.89442724 -0.44721362 0
-149 67 703.66669 -0.14807355 -0.82277101 -0.54874593 0.0095233424
-146.5 66.5 703.5 -0.1188961 -0.75325489 -0.6468932 0.007530502
-144 66 704 0.0095565487 -0.80834931 -0.58862555 0.0048197052
-141 66 704 0.11236991 -0.89008528 -0.44172522 0.0051027471
-139.25 66.75 703.25 0.12309811 -0.87697732 -0.46449712 0.0059203845
-136.5 67 703 -0.028024198 -0.89261508 -0.44994769 0.0026730206
-134 66.5 703.5 -0.20036937 -0.86002266 -0.46926865 0.0061091455
-131.5 66 703 -0.19835632 -0.80477571 -0.55945587 0.010294461
-129.25 65.25 703.75 -0.15967551 -0.85365605 -0.49575704 0.0068884781
-127 65 703 -0.11823688 -0.85932571 -0.49757349 0.0041111424
-125 65 703 -0.19434272 -0.86062157 -0.47070318 0.0048725759
-193.5 68 703 0.27967477 -0.70064574 -0.65641266 0.010245878
-191.5 68.5 703.5 0.33349982 -0.80981213 -0.48268223 0.013224229
-189 69 704 0.15125649 -0.88622886 -0.43785846 0.0074489289
-186 69 704 0 -0.89442724 -0.44721362 0
-184 69 704 -0.031183498 -0.88110799 -0.47188586 0.0033610698
-181.5 69 704 9.4665775e-10 -0.70710683 -0.70710683 0
-179.5 69 704 0.020208301 -0.78827477 -0.61499155 0.0045662038
-176.5 69 704 -0.083592787 -0.85647428 -0.50937617 0.0094965631
-174 69 703 -0.07351277 -0.83934724 -0.53860199 0.007249462
-172 69 703 -0.039555315 -0.84659213 -0.53077036 0.0099378508
-169.25 68.75 703.25 -0.10117116 -0.86095214 -0.49852353 0.0091156196
-166.5 68 704 -0.04296387 -0.83049619 -0.55536491 0.01272978
-164 68 704 -0.0081080617 -0.7635619 -0.64568365 0.0037528051
-162 68 704 -0.095147245 -0.82268888 -0.56047314 0.0060591074
-159.5 68 703 -0.23687866 -0.82578796 -0.51182306 0.0051483912
61 192 703 0.11140162 0.056572843 -0.9921639 0.009679391
63 192 703 0 0 -1 0
65.5 192 703 -0.29610083 0.40309098 -0.86593419 0.052623227
76 192 703 0.11140162 0.056572843 -0.9921639 0.009679391
78.5 192 703 0 0 -1 0
81 192 703 0.051367499 0.24492386 -0.9681806 0.011290234
83.5 192 703 0.030416794 0.59869176 -0.80040169 0.027772561
86 192 703 -0.052682515 0.52442217 -0.84982699 0.031614434
88 192 703 -0.12182074 0.46140477 -0.87878633 0.018466692
42 194 703 0.46258456 0.46258456 -0.75632739 0.021831086
43.5 193.5 703 0.15290198 0.40441641 -0.901703 0.032851521
45.5 193.5 703 -0.042332668 0.4372935 -0.89832199 0.026151286
48.333332 193.66667 703 -0.10574783 0.62299687 -0.77504343 0.022775242
50.5 194 703 -0.16352487 0.69758856 -0.69758856 0.0070997076
53 194 703 0 0.50076389 -0.8655839 0.043004472
57 194 703 0.18226314 0.61542922 -0.76682925 0.015764911
58.5 194 703 0.14157282 0.65961254 -0.73815215 0.022257812
61 193.5 703.33331 0.21005933 0.43848133 -0.87384737 0.035919804
63.5 193.5 703.5 -0.0092692906 0.4991906 -0.86644268 0.016163498
65.800003 193.60001 703.59998 -0.13079627 0.58644915 -0.79935586 0.030094991
68.5 194 703 -0.090719983 0.72803152 -0.67951447 0.0079981508
71 194 703 -2.7805214e-10 0.70710683 -0.70710683 0
74 194 703 0.083912045 0.64435309 -0.7601105 0.019608514
76 193.5 703.16669 0.16782792 0.30770767 -0.93656272 0.033622712
78.5 193.5 703.25 -0.15425496 0.33492291 -0.92953324 0.04159262
81.25 193.5 703.5 0.14269787 0.35169265 -0.92517543 0.033617266
83.5 193.5 704 0.0054019089 0.23688388 -0.97152293 0.016406074
86 193.39999 703.59998 0.005383411 0.52272344 -0.8524853 0.059760213
88.333336 193.33333 703.33331 -0.089961737 0.56124932 -0.82274306 0.022927934
91.199997 193.60001 703.59998 0.013392067 0.60154575 -0.79872614 0.0060521727
93.5 193.5 703.5 -0.041251104 0.69994223 -0.71300715 0.0052424152
95.800003 193.39999 703.40002 0.01647565 0.61318058 -0.78977096 0.011298113
98.666664 193.66667 703.66669 -0.064614989 0.63832915 -0.76704681 0.0090172244
100.8 193.39999 703.40002 0.056136493 0.61439192 -0.78700143 0.020149572
103.5 193.5 703.5 -0.08628194 0.64888996 -0.75597435 0.011723781
105.5 193.5 703.25 -0.14773029 0.49440956 -0.85658336 0.024693649
108.5 193.5 703 -0.11411296 0.38064733 -0.91765237 0.028342713
111.2 193.60001 703 0.077673234 0.38196915 -0.92090517 0.033618242
113.5 193.5 703 -0.059541974 0.35994479 -0.9310717 0.022962697
116 194 703 -0.062499125 0.74893737 -0.65968686 0.025794283
118.5 194 703 -0.17838947 0.58298206 -0.79265958 0.017578082
129 194 703 0.16090652 0.52936864 -0.83299339 0.02236711
131 194 703 -0.087082095 0.55080914 -0.83007592 0.01663718
-13 197 703 0.15969959 0.57731605 -0.80075109 0.01434245
-11 197 703 0.017575346 0.57465529 -0.81820685 0.0058432757
-8.75 196.75 703 0.09471 0.53448457 -0.8398549 0.024954651
-6.5 196.5 703 0 0.22501703 -0.97435486 0.016368143
-4.5 196.5 703 0.0010994772 0.40744045 -0.91323113 0.020631701
-1.6 196.2 703 -0.044425428 0.34597486 -0.93719149 0.034518834
1 196.33333 703.16669 0.22281566 0.39815316 -0.88984674 0.029798523
3.3333333 196 703.33331 -0.1611979 0.55474532 -0.81625545 0.019903025
6.5 197 703 -0.15107982 0.54515404 -0.82461023 0.015649782
8 197 703 -0.17673554 0.56091875 -0.80878597 0.015616775
14 196.5 703 0.14935338 0.40324706 -0.90282077 0.027398475
16 196.5 703 -0.014119591 0.27561146 -0.96116543 0.018391645
18.5 196.5 703 0.10660265 0.30971703 -0.94483399 0.022014329
20.5 195.75 703.25 0.18695495 0.43945974 -0.87859148 0.028514342
23.666666 196.33333 703.66669 0.15783852 0.5615257 -0.81226593 0.022028968
26 196 703.5 0.025042873 0.6891669 -0.72416979 0.0025924232
28.5 196 703.5 0.0013140285 0.57545328 -0.8178336 0.0070028938
31.5 196 703.5 -0.10195029 0.52151358 -0.84713018 0.015740521
33.333332 196.33333 703.66669 -0.11893404 0.63481349 -0.76345694 0.02725946
36 196.66667 703.66669 0.03152366 0.58420551 -0.81099325 0.020984514
38.5 196 703.5 0.16365851 0.57643795 -0.80058426 0.019306596
41 196 703.5 0.12715468 0.62835723 -0.76746261 0.019622345
43.666668 195.66667 704 0.069973715 0.44752181 -0.89153123 0.037247512
45.5 196 704 -0.062160425 0.3064585 -0.94985223 0.037231583
48.5 196 704 -0.0090679741 0.37867996 -0.92548329 0.039044477
51 196 703.83331 -0.089402229 0.44417948 -0.89146608 0.036382925
53.5 196 703.5 -0.018189723 0.53206903 -0.84650558 0.018851748
56.25 196 703.5 0.096218437 0.62822545 -0.77205878 0.036445826
58.5 196 704 0.15679076 0.39352825 -0.90584332 0.06745372
60 196 704 0.25916177 0.43083641 -0.864416 0.064091489
68.666664 195.33333 704 -0.094845936 0.54940069 -0.83015853 0.02425904
70.5 195 704 0.034070127 0.59005916 -0.80664074 0.017821219
73.5 195 704 0.018294623 0.54413623 -0.83879733 0.0063949339
76 195 704 0.048877563 0.59342897 -0.80340093 0.019468794
78.5 195 704 -0.081619903 0.44117776 -0.89370042 0.023243222
81.5 195 704 -0.008583853 0.30795851 -0.951361 0.010915561
83.5 195 704 0 0 -1 0
85 195.5 704 0.23424958 0.17928834 -0.95550132 0.03468889
95 195 704 -0.099942453 0.62330526 -0.77556562 0.025181243
100 195 704 0.020060521 0.37346086 -0.92742902 0.044527218
106 195 704 -0.11553508 0.61390829 -0.78087652 0.015030758
108.6 195.8 704 -0.22449112 0.34294397 -0.91213667 0.029431131
110.66666 195.66667 703.83331 0.15536946 0.50226581 -0.85064065 0.036463972
113 195 704 0 0.70710683 -0.70710683 0
117 195 704 -0.17556331 0.71686518 -0.6747458 0.015799768
118.5 195 704 -0.16352487 0.69758856 -0.69758856 0.0070997076
121 195.5 703.5 -0.10127058 0.69948041 -0.70743996 0.0070916614
123.33334 195.33333 703.33331 0.0028171728 0.55329406 -0.83298117 0.0067292801
126.2 195.60001 703.59998 0.052228622 0.63396883 -0.77159297 0.0067022606
128.5 195.5 703.75 0.15594774 0.5465551 -0.82277447 0.025852229
130.5 195.5 704 0.015492418 0.4684861 -0.88333499 0.027517827
133.25 195.5 703.75 -0.14076047 0.61291695 -0.77750838 0.019526236
136.125 195.875 703.375 -0.22122042 0.55012101 -0.80525053 0.030127132
138.5 197 703.5 -0.28213361 0.67414105 -0.68259388 0.01975047
-34 199 703 0.068762474 0.12175296 -0.99017572 0.0048129898
-31.5 199 703 0 0 -1 0
-29 199 703 0.028178025 0.18609707 -0.98212725 0.009082621
-26.5 199 703 0.016526911 0.18926123 -0.98178768 0.013591783
-24 199 703 0.026861945 0.14070795 -0.98968661 0.011372973
-21.5 199 703 0.10609688 0.52110422 -0.84687293 0.021496203
-18.5 199 703 -0.026783073 0.57481223 -0.81784689 0.006757562
-16.5 199 703 0.018064255 0.64350688 -0.76522714 0.0038359244
-14 199 703.66669 0.11413047 0.4969683 -0.86023068 0.021126514
-11 199 704 -0.025756912 0.31163219 -0.94985366 0.0096901152
-9.5 199 704 0.22614209 0.29789433 -0.92742586 0.056144137
-6.5 199 704 -0.12625176 0.52651554 -0.84073895 0.04019618
-4.5 199 704 -0.008583853 0.30795851 -0.951361 0.010915561
-1.5 199 704 0.008583853 0.30795851 -0.951361 0.010915561
1 198.66667 704 0.19887182 0.33680186 -0.92033392 0.031878073
3.5 198 704 -0.10867287 0.50318211 -0.85732019 0.025159825
6.5 199 704 -0.17429943 0.46484607 -0.8680656 0.023016151
8.5 199 704 0.073079325 0.53055477 -0.84449458 0.029203191
11 199 704 -0.072133727 0.61921322 -0.78190267 0.014993377
14 199 704 -0.021557579 0.3982639 -0.91701752 0.012513627
16 199 704 -0.068973981 0.28381473 -0.95639521 0.028946862
18.5 199 703.5 0.13498139 0.37802753 -0.9159013 0.049290597
20.333334 198.33333 704 0.28096578 0.32964486 -0.90132821 0.01577838
23 198 704 0.12254764 0.47506338 -0.8713764 0.025381302
33 198 704 -0.1302481 0.53391331 -0.83544719 0.049684815
35 198 704 0.079873502 0.57875961 -0.81157726 0.038506426
138.66667 198.33333 704 -0.24242623 0.37006915 -0.8968156 0.023728574
140 198 704 -0.43077976 0.43769982 -0.78920698 0.051863324
-53.666668 201.66667 703 0.10572873 0.60250872 -0.79107815 0.018569672
-51.333332 201.66667 703 -0.011854838 0.39634186 -0.91802639 0.023757368
-49 201.5 703.33331 0.11519038 0.49903977 -0.85888904 0.024711447
-46.666668 201.66667 703.66669 0.00026458999 0.52140248 -0.85331082 0.018390445
-43.666668 201.16667 703.33331 0.15268071 0.49293476 -0.85656524 0.031677425
-41.5 201 703.5 -0.11017331 0.63514942 -0.76449138 0.041679509
-39.166668 201.16667 703.5 0.088121921 0.60603446 -0.79054207 0.028167568
-36 201 703.33331 0.06654536 0.52252585 -0.85002255 0.037644427
-34.142857 200.71428 703.57141 0.16739467 0.52385265 -0.835199 0.024651958
-31.5 200.5 703.5 0.020291101 0.58076835 -0.81381601 0.016368143
-29.200001 200.8 703.59998 -0.054028969 0.52351791 -0.85029995 0.02166253
-26.6 200.8 703.59998 0.080820836 0.50222862 -0.86094975 0.026545364
-24 200.5 703.5 0.053696003 0.5637998 -0.82416415 0.01959726
-21.666666 200.33333 704 0.28812107 0.56150389 -0.77569306 0.020971352
-18.5 200 704 0 0.70710683 -0.70710683 0
-16.5 200 704 0 0.70710683 -0.70710683 0
-14 200 704 0.090607561 0.5807718 -0.80900836 0.028331824
-11 200 704 0.023046147 0.48412234 -0.87469673 0.025135882
-9.5 200 704 0.22029653 0.42279205 -0.8790428 0.04106199
-6 200 704 -0.19544926 0.49698219 -0.8454634 0.033740375
-4.5 200 704 -0.031544074 0.46138391 -0.8866396 0.028936084
-1.5 200 704 0.031544074 0.46138391 -0.8866396 0.028936084
0.5 200 704 0.11155022 0.44304743 -0.88953108 0.034114908
7 200 704 -0.19544926 0.49698219 -0.8454634 0.033740375
8 200 704 0.19544926 0.49698219 -0.8454634 0.033740375
12 200 704 -0.19862783 0.56079203 -0.80377817 0.016308341
14 200 704 0.023046147 0.48412234 -0.87469673 0.025135882
16 200 704 0.0081549324 0.46313792 -0.88624865 0.031523567
18.5 200 704 0.17893936 0.60007262 -0.7796753 0.033122074
-71 204 703 0.1917495 0.46832016 -0.86250126 0.020102654
-68.75 203.75 703.25 0.27610615 0.4990463 -0.82141232 0.039562903
-66.5 203.5 703.5 -0.0041065537 0.54255545 -0.84000993 0.021334693
-64.199997 203.60001 703.59998 0.0051901336 0.50064868 -0.86563498 0.024861831
-61.333332 203.33333 703.33331 -0.014832617 0.53227162 -0.84644377 0.013328805
-59 203.5 703.5 0.0093854517 0.59203357 -0.80585867 0.015761783
-56.5 203.5 703.75 0.20310968 0.57453734 -0.7928766 0.024836514
-54 203 704 0.046106376 0.53622466 -0.84281516 0.011976802
-52 203 704 0.0077969562 0.57961935 -0.81485003 0.012974342
-48.5 203 704 0.088417865 0.42492235 -0.90090138 0.025330953
-46 203 704 -0.064143054 0.37587079 -0.9244495 0.013034136
-43.5 203 704 0.2030568 0.38166231 -0.9017216 0.033438109
-183.5 206.5 703 0.41570109 0.38028964 -0.82617944 0.030096203
-181.5 205.5 703 0.12480025 0.43702883 -0.89074725 0.026363956
-178.5 205.5 703 -0.041504968 0.42267859 -0.90532869 0.024780367
-176.5 205.5 703 -0.065256074 0.323421 -0.94400239 0.024684781
-173.8 205.8 703.20001 0.10506848 0.46173173 -0.88077486 0.032046258
-171.66667 206.33333 703.66669 0.11632148 0.49961632 -0.85840142 0.023558848
-169 205.8 703.40002 -0.014162833 0.59040838 -0.80698037 0.0071891872
-166.5 206 703.5 -0.045712531 0.54830325 -0.8350293 0.023410564
-164 206 703.5 -0.066045143 0.37777814 -0.92353761 0.013331012
-162 206 703 -0.23543453 0.31058392 -0.92092794 0.016983977
-159 207 703 -0.012256266 0.60142815 -0.79883283 0.0042632893
-156.5 207 703 0 0.70710683 -0.70710683 0
-154.5 207 703 -0.09456595 0.58493012 -0.80555207 0.021784743
-101.5 207 703 0.013515422 0.58169711 -0.81329322 0.022864796
-93 207 703 0.40147272 0.46167538 -0.79099655 0.016923986
-91.5 206.5 703.25 0.34641698 0.4232136 -0.83718908 0.025004353
-89.400002 205.8 703.59998 0.17001361 0.47862235 -0.86140352 0.028982798
-86.5 205.5 703.5 0.02961125 0.55903554 -0.82861477 0.020188645
-84 205.5 703.5 0.029520584 0.61089003 -0.79116493 0.014325776
-81.5 205.5 703.5 1.9135779e-10 0.61385274 -0.78942055 0.011514843
-78.75 205.5 703.5 -0.037713639 0.53107822 -0.84648305 0.018103387
-76.666664 205.66667 703.33331 -0.24017926 0.58730036 -0.77291149 0.028308341
-74 205.5 703.16669 0.20105298 0.47795951 -0.85506284 0.026027208
-71.5 205.5 703.5 0.079241112 0.40527791 -0.91075283 0.027487535
-69 205.66667 703.66669 0.2029094 0.35642383 -0.91202515 0.041095272
-66.5 205 704 -0.016526911 0.18926123 -0.98178768 0.013591783
-64 205 704 0.021927502 0.20550995 -0.97840929 0.0069882809
-61 205 704 0.021557579 0.3982639 -0.91701752 0.012513627
-59 205 704 0.040735945 0.40283 -0.91436785 0.02427794
-183.33333 208.66667 703.66669 0.52788895 0.1379346 -0.83803779 0.037229836
-181.5 208.5 704 0.072228275 0.41092795 -0.90880209 0.031480674
-179.5 208 704 0.066814244 0.52894038 -0.84602475 0.023903418
-176.5 208 704 -0.046118997 0.51052219 -0.8586269 0.0098945089
-174 208 704 0.030543758 0.54648983 -0.83690852 0.021387173
-172 208 704 0.19544926 0.49698219 -0.8454634 0.033740375
-166 208 704 -0.12338146 0.46954376 -0.87424582 0.023560425
-164 208 704 -0.075656414 0.48517886 -0.87113583 0.033332173
-161.5 208 704 -0.025266882 0.68049669 -0.73231536 0.012844387
-158.5 208 704 -9.8781705e-10 0.70710683 -0.70710683 0
-156.33333 208.33333 704 -0.16254666 0.49976364 -0.85077316 0.030877328
-154 208.5 703.83331 -0.10932919 0.4524802 -0.88504738 0.026336567
-151.33333 208.66667 703.66669 -0.051302124 0.54879701 -0.83438003 0.010518789
-148.8 208.39999 703.40002 -0.017156016 0.62470829 -0.78066969 0.0050021308
-146.5 208.5 703.25 -0.133486 0.52837831 -0.83844966 0.028122522
-144.5 208.5 703 -0.021465108 0.42294571 -0.90590078 0.024780367
-141.5 208.5 703 0.079993986 0.4270066 -0.90070325 0.02507709
-139 208.5 703.5 0.038214434 0.5797841 -0.81387341 0.020451887
-136.5 208.5 703.5 0.024179954 0.59741414 -0.80156827 0.015458604
-134 208.60001 703.59998 -0.089329533 0.56546026 -0.81992376 0.01930148
-131 209 703 -0.005105292 0.54388571 -0.83914381 0.013774804
-129.5 209 703 -0.27935547 0.5270263 -0.80262309 0.033362225
-118.5 209 703 0.12861834 0.42714947 -0.89498645 0.032310102
-117 209 703 0.004375319 0.48566982 -0.87413144 0.023017474
-114 209 703 -0.12834351 0.59077084 -0.79656625 0.017842235
-104 208.5 703 0.33748618 0.44583037 -0.82905871 0.024868583
-101.5 208.5 703.5 0.045844376 0.45725298 -0.88815427 0.020519242
-99.5 208 703 -0.1501316 0.52193964 -0.83966631 0.020051848
-96.333336 208.33333 703 0.038495693 0.52493614 -0.85027063 0.018103963
-94 208.33333 703.33331 0.12471759 0.50347847 -0.85495907 0.017913034
-91.5 209 704 0.28141108 0.31859317 -0.90515536 0.023915749
-89 208 704 -0.075533561 0.39321262 -0.91633981 0.02116335
-86.5 208 704 -0.022795735 0.31064081 -0.95025396 0.036804132
-84 208 704 -0.059041169 0.50218976 -0.86273962 0.028651552
-81.5 208 704 0.044379789 0.55778307 -0.82879943 0.021488665
-79 208 704 0 0.27627528 -0.96107852 0.037005983
-76.5 208 704 -0.044379789 0.55778307 -0.82879943 0.021488665
-74 208 704 0.029520584 0.61088997 -0.79116493 0.014325776
-72 208 704 0.02916931 0.39278147 -0.91916913 0.037777252
-70 208 704 0.15162738 0.40148205 -0.90322828 0.027997797
-184.39999 211.2 703.59998 0.6073302 0.33740148 -0.71924293 0.02533114
-146 210 704 -0.16879727 0.56967592 -0.80434871 0.020719787
-144 210 704 0.016204078 0.54234833 -0.83999747 0.014479279
-142 210 704 -0.036269613 0.50671703 -0.86134923 0.0096667316
-139 210 704 0.036891166 0.11919948 -0.99218476 0.01043957
-136.5 210 704 0.041086242 0.36306646 -0.93085694 0.024195336
-133.33333 211 704 -0.094874784 0.3308129 -0.93891507 0.04029271
-131 211 704 -0.00090182485 0.48742157 -0.87316632 0.030962087
-129 211 703.5 -0.33078215 0.53541791 -0.77711701 0.015021358
-126.5 211 703 -0.071546189 0.56112289 -0.82463455 0.018661825
-123.33334 210.66667 703 0.16393374 0.4879728 -0.85732627 0.029948557
-121.5 210.75 703.25 0.088281319 0.52182734 -0.84847075 0.019796353
-119 211 703.5 0.027207274 0.574907 -0.81776631 0.017576024
-116.5 211.25 703.75 0.017448228 0.29414362 -0.95560193 0.031255059
-113.5 211.5 704 -0.071848042 0.17785388 -0.98143053 0.028699059
-111.5 211 703.25 -0.13167405 0.38172159 -0.91485 0.032379821
-109 211 703.16669 0.12815303 0.44834682 -0.88462526 0.033174116
-106.5 211 703.5 0.16526449 0.66487134 -0.72844607 0.021325875
-104.25 210.75 703.75 0.28246799 0.53462565 -0.79648435 0.014829454
-101.5 210 704 -0.016713368 0.57348436 -0.81904596 0.021984721
-99 210 704 -0.079409808 0.58077991 -0.81017816 0.017359255
-96 211 704 0.064194091 0.51919001 -0.85224456 0.027175717
-94.25 210.25 704 0.16467282 0.52696675 -0.83377987 0.027499584
-92 210 704 0.19544926 0.49698219 -0.8454634 0.033740375
-116 213.5 704 -0.2912401 0.25781029 -0.9212563 0.045935653
-113.66666 213.66667 704 0.029574858 0.21915005 -0.97524279 0.082715176
-111.5 213 704 -0.096976325 0.59904504 -0.79482114 0.048739299
-109.5 213 704 0.12601322 0.72164071 -0.68070215 0.0075570359
29 -19 706 0.75562495 -0.42531919 -0.49813098 0.0052663689
30 -18 707 0.72503978 -0.5219267 -0.4493438 0.010992778
30.799999 -16.4 706 0.43416297 -0.74697036 -0.50352526 0.017207557
33.5 -16 706.5 0.21326897 -0.84832585 -0.4846231 0.0076504862
45 -16 707 -0.046884287 -0.93068922 -0.36279404 0.0016089332
32 -15 705 0.13023029 -0.82895845 -0.5439375 0.0074000186
33.5 -15 705 0.18624341 -0.81655961 -0.54639173 0.010428391
36 -15 706 0.09086629 -0.86014766 -0.50188577 0.0038198582
38.5 -15 706 -0.039590742 -0.89274615 -0.44881716 0.0021352898
41 -15 705.33331 -0.12027633 -0.84481347 -0.52136719 0.0078226458
43 -15 705 -0.066552825 -0.81704253 -0.57272357 0.010473087
45 -15 705 -0.089349672 -0.90407908 -0.4179208 0.0092137065
-99 -8 706.5 -0.17839578 -0.87849128 -0.44320202 0.018158125
-96.5 -8.5 706.5 -0.23716424 -0.75799721 -0.60761279 0.013198819
-106 -6 706 -0.18393059 -0.81516838 -0.549245 0.010096818
-103.75 -6.5 706.25 -0.20898579 -0.80841345 -0.55026597 0.0090855602
-101.5 -7 705.5 -0.26458415 -0.83013362 -0.49078855 0.0072170189
-99.5 -7 705 -0.12059329 -0.82120126 -0.55775058 0.0069268639
-96.5 -7 705 -0.0054600178 -0.80940753 -0.58722192 0.0081007415
-105 -5 705 -0.31003484 -0.77715272 -0.54764223 0.013656245
125.5 49 707 -0.028104175 -0.87744623 -0.47885093 0.015695583
68.5 52 706.5 0.38986433 -0.78891611 -0.47499165 0.004575219
101 52 707 -0.089033023 -0.82887185 -0.5523085 0.0067749009
103.5 52 707 0.035480998 -0.81842619 -0.57351518 0.0066914484
106 52 707 -0.087020345 -0.87454534 -0.47707224 0.0073212152
108.5 52 706.5 -0.17051077 -0.8405022 -0.51427829 0.0060070548
111 52 706 -0.049497712 -0.83378136 -0.54987139 0.0078588417
113.5 52 706 0 -0.89442724 -0.44721362 0
116.5 52 706 0 -0.89442724 -0.44721362 0
118.5 52 706 -0.33214682 -0.86583316 -0.37418094 0.032395326
120.8 50.400002 706 -0.39441735 -0.80318612 -0.44646055 0.018648434
124 50 706 -0.11829241 -0.88106942 -0.45795593 0.0055621061
126.25 50.25 705.5 0.15171711 -0.84018302 -0.52064806 0.019815495
128.33333 50.666668 706.33331 0.33438009 -0.77851737 -0.53113151 0.018530667
131 51.5 706.5 0.30144674 -0.73494494 -0.60744202 0.020370835
133.5 52 707 0 -0.89442724 -0.44721362 0
136 51.666668 706.66669 -0.24723876 -0.75578183 -0.60635537 0.018772608
138.5 51 706 -0.23185641 -0.70542634 -0.66978836 0.063195832
140.5 50.5 706 -0.27015281 -0.80647767 -0.52593845 0.036695972
69 53 706 0.35743245 -0.79909605 -0.48341244 0.0062126028
71.199997 53.400002 706 0.17980507 -0.86566454 -0.46722037 0.0057095387
73.333336 53.666668 705.66669 0 -0.89442724 -0.44721362 0
75.666664 53.666668 705.66669 0.03800866 -0.8726539 -0.48685786 0.0045147203
78.5 54 705 -3.7361178e-10 -0.70710683 -0.70710683 0
80.800003 53.599998 705.79999 -0.089079499 -0.88385195 -0.45920658 0.0057946267
83.5 53 706.5 -0.14149706 -0.89066923 -0.43207282 0.0034798235
86 53 706 -0.054126389 -0.89164293 -0.44949213 0.002807399
88.5 53 705.5 -0.024400007 -0.89439392 -0.44661406 0.0068110805
91 53 706 0.022734893 -0.89747834 -0.44047222 0.0023137671
93.5 53 706 0 -0.89442724 -0.44721362 0
96 53 706 -0.053647742 -0.8955974 -0.44161892 0.0027827059
98 53 705 -0.011289936 -0.88684779 -0.46192384 0.0074999621
101 53 705.66669 -0.0058344104 -0.84589934 -0.53331065 0.013352859
103.5 53 706 0.024784615 -0.83993256 -0.54212457 0.017055534
106 53 705.33331 -0.15137249 -0.86089921 -0.48573548 0.005834077
109 53 705 -0.040103741 -0.85723877 -0.51335508 0.0091324076
110.5 53 705 -0.10151473 -0.83432984 -0.54183805 0.009127127
131 53 705 0.22230934 -0.7508229 -0.62196749 0.019746203
134 53 705 -0.020089924 -0.84423006 -0.5356043 0.005982847
136 53 705 -0.0023561602 -0.79610837 -0.60514939 0.0046546529
138.5 53 705 -0.26399472 -0.59080869 -0.76239872 0.015366477
-148 64 707 -0.1266028 -0.84429854 -0.52070308 0.0065433029
-147 64 707 -0.11507877 -0.86460847 -0.48909006 0.00648617
-144.5 64 707 0.15861285 -0.88320607 -0.44134921 0.0040970882
-132 64 707 -0.30375147 -0.81557912 -0.49250966 0.0036794543
-129 64 706 -0.1460254 -0.88171399 -0.44861668 0.0035128172
-126.33334 63.666668 705.66669 -0.25263202 -0.87579167 -0.41129795 0.0031593805
-125 63 706 -0.25455526 -0.86750257 -0.42736518 0.0047987443
-193.5 66 706.5 0.2999396 -0.86974061 -0.39190248 0.0057349345
-191.5 66.75 706.25 0.34459412 -0.82207668 -0.45326024 0.014386471
-189 67 707 0.19597805 -0.85411602 -0.48174515 0.011786954
-183 67 707 -0.27615523 -0.82439333 -0.49407881 0.0023922215
-181 67 706 -0.12186621 -0.82418925 -0.55304676 0.0048241047
-179 67 706.33331 0.12145274 -0.8014878 -0.5855481 0.019000027
-176.5 67 706.5 -0.11708891 -0.80890721 -0.57615912 0.021212595
-174 66.400002 706.59998 -0.074901767 -0.790178 -0.60828316 0.0061563924
-171.33333 66.666664 706.33331 -0.004120518 -0.74618751 -0.66572303 0.0022748667
-169 66.5 706.33331 -0.070269056 -0.79075611 -0.60808468 0.0083249351
-166.33333 66.333336 706.33331 -0.021561509 -0.8648302 -0.5016014 0.0038013654
-164.2 66.599998 706 -0.0052161985 -0.83474618 -0.55061018 0.011458611
-161.5 66.5 705.75 -0.18261963 -0.80504632 -0.56440276 0.010349235
-159 66 706 -0.05772265 -0.88177067 -0.46813309 0.003281744
-157 66 706 0 -0.89442724 -0.44721362 0
-154 66 706.33331 -0.014865332 -0.88516808 -0.4650338 0.01229051
-151.5 65.5 706.5 -0.29135981 -0.77047676 -0.56698769 0.015664997
-149.25 65.5 705.5 -0.19552198 -0.76922184 -0.60833281 0.011542346
-146.5 65 705.5 -0.18627162 -0.79910487 -0.5716067 0.010280769
-144 65 705.33331 0.15372387 -0.84319901 -0.51515466 0.0071481992
-141.5 65 706.5 0.15318744 -0.87910002 -0.45134994 0.0051025981
-139 65.5 706 0.11711225 -0.90242416 -0.41462675 0.0044073472
-136.33333 65.666664 705.66669 -0.05433327 -0.90149295 -0.42936972 0.0020463553
-134.25 65.25 706.25 -0.17187272 -0.88153797 -0.43971646 0.004535527
-131 65 705 -0.22392011 -0.86415011 -0.45067102 0.0028648523
-191 68 705 0.42087579 -0.78557318 -0.45358387 0.013516937
-189 68 705.66669 0.20632428 -0.81277817 -0.54481369 0.0072141662
-186.5 68 706 0.026446611 -0.88359779 -0.46749932 0.0021914055
-184.5 68 706 -0.10389006 -0.8786974 -0.46593744 0.0033728289
-181.5 68 705 -0.071502022 -0.73872566 -0.67020285 0.0035225099
-179 68 705.33331 0.076387145 -0.76224071 -0.64277059 0.014442225
-177 68 705 -0.069544084 -0.80973613 -0.58265865 0.017974133
-174 68 705 0.0070352466 -0.81672013 -0.57699114 0.0078437673
-171.5 68 705 -0.075451456 -0.80376381 -0.59014469 0.01280497
-169 68 705 -0.13938154 -0.81683117 -0.55978537 0.017071113
86 194 705 0.036076333 0.33508384 -0.94149733 0.056152996
102 194 705 -0.028457481 0.71761113 -0.69586241 0.028065367
43 197 705 0.12654549 0.78757626 -0.60308367 0.030226292
61.5 196.5 705 0.25981048 0.4770526 -0.83959478 0.042932976
64 196.5 705 0.046747383 0.43999273 -0.89678377 0.019600807
66 196.5 705 -0.022023274 0.37651905 -0.92614704 0.02337016
68 197 705 -0.057348333 0.63986796 -0.76634216 0.021549389
71 197 705 -0.018570961 0.62892759 -0.777242 0.014463363
73.5 197 705 -0.066520989 0.58213013 -0.81036997 0.025055204
76 197 705 0.02201733 0.68516558 -0.72805446 0.0080958214
78.5 197 705 -0.0063365661 0.52499032 -0.85108459 0.0091841873
81.5 197 705 -0.024156578 0.57572085 -0.81728947 0.0072482247
83.5 197 705 -0.01991717 0.61042327 -0.79182494 0.013551697
86.5 196.5 705 0.096450157 0.31745327 -0.94335616 0.037237801
89 196.5 705 0.1110144 0.47469452 -0.87312138 0.023980886
91 196.5 705.5 0.042455383 0.59590536 -0.80193168 0.02140826
93.5 196 705.5 -0.0072982656 0.42308271 -0.90606165 0.02261031
96.333336 196.33333 705.66669 0.049045488 0.28988865 -0.95580286 0.0059859008
98.5 196 705.5 -0.14369005 0.49628925 -0.85618353 0.023233378
101.2 196.2 705.20001 0.001201721 0.37366682 -0.92756218 0.042337112
103.5 196 705 -0.15588291 0.3071903 -0.93879426 0.03975331
106.5 197 705 -0.17081459 0.38375181 -0.90750033 0.021456704
112 196 705 0.25315922 0.35004032 -0.90187705 0.028237436
113 196 705 0.24222323 0.35147274 -0.90432012 0.022870647
115.8 195.8 705.20001 -0.017934816 0.57687324 -0.8166368 0.022143871
118.5 196 705 -0.27446532 0.604702 -0.74766588 0.019764101
128.5 197 705 0.065262206 0.53423369 -0.84281385 0.011541218
131 197 705 -0.023277121 0.5076474 -0.86125046 0.024336543
133.5 197 705 -0.023999678 0.36721203 -0.92982757 0.040902168
135 197 705 -0.25061485 0.36927417 -0.89489043 0.025143212
-8 199 705 0.06550388 0.68712085 -0.72358423 0.060543902
2 199 705 0.39328289 0.39328289 -0.83105785 0.04938769
3.5 199 705 -0.11962313 0.40029627 -0.9085446 0.034278218
22 199 705 0.31741405 0.54319686 -0.77729362 0.014847395
23.666666 198.66667 705.33331 0.2893042 0.55870348 -0.77727312 0.020332133
26 198.5 705.5 0.014680244 0.68212032 -0.73109257 0.0040420946
28.333334 198.33333 705.33331 -0.0098832138 0.61225027 -0.79060221 0.012592417
31.200001 198.60001 705.59998 -0.098527782 0.47256663 -0.87577003 0.027918611
33.666668 198.66667 705.33331 0.049572501 0.53162467 -0.84552813 0.0648885
36.200001 198.60001 705.40002 0.099174023 0.51151812 -0.85353017 0.049347848
39 198.5 705.5 -0.006982334 0.62727851 -0.77876371 0.0031644125
41 198.5 705.5 0.027568722 0.66041362 -0.75039583 0.0060522263
43.333332 198.33333 705.66669 0.08748664 0.6790452 -0.72886461 0.035366382
46 198.5 705.5 -0.034764316 0.63238049 -0.77387744 0.010997318
48.5 198.5 705.5 0.0090233414 0.67602372 -0.73682463 0.0019179622
51 198.5 705.5 -0.0060110157 0.68655223 -0.72705561 0.0012786415
53.333332 198.33333 705.33331 0.036722742 0.66729653 -0.74388635 0.0055245445
56 198.33333 706 0.16796106 0.6588344 -0.73329824 0.021273063
58.5 198 706 0.030509492 0.75629073 -0.65352398 0.034571156
60.5 198 706 -0.01799426 0.59431463 -0.80403125 0.020236954
63.666668 198.33333 706 -0.053999525 0.45442021 -0.88914925 0.019317985
66 198.5 706 0.0067617316 0.3248755 -0.94573259 0.020415144
68.333336 198.33333 706 0.065064214 0.44746572 -0.89193112 0.021003818
71.5 198 706 -0.097782172 0.52191579 -0.8473739 0.0099848416
73.5 198 705.5 -0.030225242 0.71636742 -0.69706821 0.026157195
76 198 706 -0.030585956 0.63598329 -0.77109647 0.019393286
78 198.5 706 -0.039901625 0.52452213 -0.85046124 0.016088651
81 198.5 706 -0.010002526 0.28544965 -0.95834154 0.01636336
83.5 198.5 706 -0.098166235 0.31830648 -0.94289148 0.025839806
85.75 198.5 706 0.042065259 0.50075579 -0.86456585 0.035539664
88.5 198.5 706.5 0.13203274 0.60608369 -0.78436595 0.023076788
91 198.5 706.83331 -0.051298387 0.47204331 -0.88008159 0.031672254
93.5 198.5 706.5 -0.050434195 0.53014129 -0.84640807 0.025956286
96.25 198.5 706.5 -0.033562254 0.51073658 -0.85908192 0.016092654
98.5 198.5 706.5 -0.0039446987 0.59758419 -0.80179644 0.015458604
101 198.5 706.5 -0.0066442075 0.63856769 -0.76953697 0.01679988
103.5 198.5 706.5 -0.10502621 0.61356813 -0.78262615 0.01824476
106 198.5 705.66669 -0.27120098 0.50480884 -0.81952304 0.02852471
108.33334 198.66667 705 -0.09528064 0.45387337 -0.88595736 0.023918265
111.2 198.60001 705.20001 0.2788403 0.46001905 -0.84298903 0.018113976
114 198.5 706 0.21569203 0.56397551 -0.7971251 0.014472933
115.8 198.39999 706.40002 0.090955913 0.57034528 -0.81635368 0.021056784
118.5 198.5 706.5 -0.14324322 0.66591918 -0.73214275 0.021085791
121 198.5 705.75 -0.1720071 0.69966882 -0.69345301 0.025473194
123.5 198.5 705.5 -0.0030888089 0.67630124 -0.7366187 0.00170615
126 198.5 705.5 0.040104963 0.66555285 -0.7452724 0.0029656112
128.5 199 706 0.028890301 0.58662373 -0.80934417 0.0087041091
131.5 199 706 -0.22991447 0.66862446 -0.70716381 0.020040959
133.5 199 705 -0.16729809 0.36734498 -0.91491473 0.036808532
136 199 705 -0.10824335 0.6943171 -0.71148241 0.011258848
-42 202 705 0.036076333 0.33508384 -0.94149733 0.056152996
-38 202 705 0.024139687 0.3536458 -0.93506789 0.029159604
-33.5 202 705 0.16729809 0.36734498 -0.91491473 0.036808532
-31.5 202 705 -0.044379789 0.55778307 -0.82879943 0.021488665
-30 202 705 -0.24642867 0.34551889 -0.90547758 0.030639732
-26 202 705 0.24642867 0.34551889 -0.90547758 0.030639732
-24 202 705 0.042268924 0.51212353 -0.85787112 0.034178462
-21.5 201.5 705 0.19264483 0.52936721 -0.82623136 0.017521568
-18.5 201 705 0.011058174 0.55785865 -0.8298623 0.0070003369
-16.5 201 705 0 0.70710683 -0.70710683 0
-14 201 705 -0.0057209311 0.60061496 -0.79951799 0.0059900493
-11 201 705 -0.046339829 0.56200111 -0.82583731 0.013570979
-8.75 201 705.25 0.1308644 0.51991028 -0.84413731 0.032007985
-6.6666665 201 705.33331 -0.2334169 0.51008582 -0.82784599 0.024584377
-4.5 201 705 0.0094627636 0.51583958 -0.85663295 0.012990357
-1.5 201 705 0.0085419361 0.54282188 -0.83980441 0.0089850742
1.25 200.75 705 0.10897084 0.48337418 -0.86860502 0.027308445
3.5 200.5 705 0.018499354 0.063214332 -0.99782848 0.0029359481
6.3333335 201 705.33331 -0.16934888 0.42684981 -0.88832432 0.016077338
8.666667 201 705.33331 0.21284853 0.54125595 -0.81347245 0.018067567
10.8 201 705.40002 -0.043366008 0.5609374 -0.82672161 0.019768694
14 201 705 -0.046339829 0.56200111 -0.82583731 0.013570979
16 201 705 0.012037626 0.6653356 -0.74644732 0.002557283
18.5 201 705 0.14708376 0.65155691 -0.74420428 0.018650252
21 201.25 705.75 0.20761533 0.55133331 -0.80803925 0.014694834
23.5 201.5 706.5 0.26018992 0.57389486 -0.77649593 0.020327128
26 201 707 -0.015617361 0.68237799 -0.73083258 0.032951031
28 201.5 706.5 -0.20442933 0.58949232 -0.78147775 0.014743292
31 201.5 706.5 0.0058041946 0.5418551 -0.84045196 0.02049344
33.5 201.5 706.5 -0.022079082 0.63629681 -0.77112836 0.010744332
35.799999 201.39999 706.40002 0.011130661 0.54052609 -0.84125364 0.021252489
38.666668 201.66667 707 0.19115441 0.51180977 -0.83756244 0.020948365
41 201 707 0.036415983 0.6481719 -0.7606228 0.0083145667
43.666668 200.66667 707 0.03557352 0.53899014 -0.84156054 0.014058459
46.5 201 707 -0.051728252 0.56849861 -0.82105637 0.0086572003
48.5 201 707 0 0.70710683 -0.70710683 0
51 201 707 0.0074016866 0.61017156 -0.79223472 0.0046668914
54 201 707 0.11092784 0.56887907 -0.81490588 0.013990761
56 200.33333 707 0.18054304 0.65104079 -0.73725843 0.014361549
58.5 200 707 0 0.70710683 -0.70710683 0
60.5 200 707 0.030110262 0.57156044 -0.82000738 0.0058728363
63.5 200.5 707 -0.2175467 0.5596112 -0.79969293 0.01516934
66 201 707 -0.012037626 0.6653356 -0.74644732 0.002557283
68.666664 200.66667 707 0.11653401 0.46477187 -0.87772828 0.013885441
71.5 200 707 -0.0085419361 0.54282188 -0.83980441 0.0089850742
73.5 200 707 0 0.70710683 -0.70710683 0
76 200 707 0.00082177564 0.61055923 -0.79197019 0.0064889467
81 201.5 707 -0.10650664 0.28909212 -0.95135802 0.029864796
83.5 201.5 707 -0.0075155608 0.20835668 -0.97802401 0.015822027
85.666664 201.33333 707 0.14692096 0.30543497 -0.94081014 0.014695932
106.66666 200.66667 707 -0.31937811 0.4169907 -0.85095024 0.034234241
108.5 201 706.5 -0.095781408 0.72388875 -0.68323565 0.010375451
110.5 201 706.5 0.048456192 0.58298856 -0.81103408 0.015470792
113.33334 200.66667 707 0.36077958 0.45596611 -0.81359267 0.028641924
121.5 200 707 -0.14519927 0.53394151 -0.83296078 0.019451952
123.5 200 707 0 0.70710683 -0.70710683 0
126 200 707 -0.012037626 0.6653356 -0.74644732 0.002557283
129 200 707 0.03792195 0.56494522 -0.82425654 0.0054170536
131.25 200.25 706.75 -0.22964798 0.55930465 -0.79651749 0.017933231
133.60001 200.8 706.59998 -0.047185577 0.55502665 -0.83049321 0.018753413
135.875 200.875 706.5 -0.17197485 0.50093192 -0.84822863 0.030559871
138.2 201.2 705.59998 -0.36205563 0.56572175 -0.74086076 0.029052556
140 202 706 -0.092825495 0.64808828 -0.75588697 0.040179934
-51 204 705 0.084265485 0.51974738 -0.8501541 0.039274808
-50 204 705 -0.030006049 0.51763344 -0.85507613 0.041898742
-47 204 705 0 0.32969603 -0.94408715 0.018514872
-41.5 204 705 0.029930817 0.40122816 -0.91548902 0.051371794
-39 204 705 0.045565311 0.5312562 -0.84598505 0.032036614
-37 204 705 -0.054455832 0.35372177 -0.93376416 0.030642275
-34 204 705 -0.0073221526 0.13527258 -0.99078137 0.0041712089
-31.5 204 705 0 0 -1 0
-29.5 204 705 0 0 -1 0
-26.5 204 705 0.098208264 0.30645075 -0.94680679 0.048868846
-24 204 705.33331 0.20920679 0.44932145 -0.86852914 0.031722266
-21.333334 203.66667 706 0.10437642 0.44719219 -0.88832694 0.021756688
-18.5 203.5 706 0.021167647 0.40734941 -0.91302705 0.020631701
-16.5 203.5 706 -0.020540448 0.22496957 -0.97414929 0.016368143
-14 203.5 706.33331 0.12173309 0.54432058 -0.82999772 0.022996543
-12 203.5 706.5 0.0064016106 0.57703298 -0.81669575 0.0055580903
-9 203.5 706.33331 0.12078366 0.45310092 -0.88323891 0.038167186
-6.5 203.5 706.75 -0.11978572 0.40867236 -0.90478629 0.05058758
-4.5 203.5 706 -0.16679008 0.46012872 -0.8720451 0.025644071
-1.5 203.5 706 0.020136541 0.38604596 -0.92225969 0.019925822
1 203.5 706 -0.0068480992 0.22501174 -0.97433197 0.016368143
3.5 203.5 706 -0.010622014 0.41632146 -0.90915543 0.025669023
6.5 203.5 706 0.1080872 0.35730144 -0.92771375 0.035461962
8.5 203.5 706.75 0.21858352 0.44311133 -0.86940986 0.032600619
11 203.5 707 0.01212021 0.3157346 -0.94877017 0.018044917
14 203.5 707 -0.11017793 0.4898991 -0.86478877 0.020980384
16 203.5 706.66669 0.044025928 0.5350613 -0.84366542 0.030641796
18.5 203.5 707 0.14873455 0.35383326 -0.92340678 0.03073141
20 203 707 0.26853725 0.61506301 -0.74134022 0.028163757
133 203 707 -0.14064442 0.3153058 -0.93851018 0.026536334
139 204 707 -0.14082646 0.30794236 -0.94092482 0.08080291
140 204 707 -0.057061139 0.55522954 -0.82973742 0.078470789
-66.5 207 705 0.15659475 0.47305942 -0.86700231 0.028340917
-64 207 705 0.038126238 0.59715801 -0.80121696 0.012927972
-61 207 705 0.18430203 0.58726096 -0.78813535 0.011543611
-59 207 706 0.040530693 0.24691941 -0.96818805 0.020623509
-56.5 206.5 705.5 0.01394473 0.5390408 -0.84216422 0.025447533
-54.5 206 705.33331 0.033013962 0.48945132 -0.87140542 0.020861283
-51.5 206 705.66669 0.19977266 0.46049961 -0.86488789 0.039564453
-49 206 705.66669 -0.14826906 0.44702253 -0.88214916 0.043643586
-46.5 206 705.66669 0.20606869 0.48936462 -0.8473829 0.029306376
-43.833332 206 706 0.13334341 0.58389521 -0.80080318 0.018469093
-41.5 205.5 706 0.053578723 0.38998148 -0.91926265 0.026910124
-39 205.5 705.83331 0.0051383413 0.46605751 -0.88473946 0.035572737
-37 205.5 706 -0.016032372 0.4163816 -0.90904856 0.015068427
-34 205.5 705.5 -0.02967423 0.53021371 -0.84734458 0.018176695
-31.5 205.5 705.5 0 0.58088797 -0.81398356 0.016368143
-29.5 205.5 705.5 -2.2944378e-05 0.5027765 -0.86441648 0.018960578
-26.5 205.5 706 0.25234917 0.53229684 -0.80807179 0.02524212
-24 205.5 706.5 0.10624589 0.6375584 -0.76304066 0.012642294
-21.5 205.5 707 0.11824746 0.45670664 -0.88172364 0.025266133
-18.5 205.5 707 -0.030656211 0.41614929 -0.90877938 0.025669022
-16.5 205.5 707 0.04260603 0.4468731 -0.89358222 0.026871167
-15 205 707 0.20642225 0.55014449 -0.80915439 0.032367036
-8.333333 205.33333 707 -0.03432069 0.28575259 -0.95768869 0.040336486
-6.5 205.5 707 0 0 -1 0
-4.5 205.5 707 -0.033350546 0.28611022 -0.95761615 0.023532132
-1.5 205.5 707 -0.010064116 0.41581303 -0.90939444 0.025805242
1 205.5 707 -0.0068480996 0.22501177 -0.97433197 0.016368143
3.5 205.5 707 0.010526394 0.42048261 -0.90723956 0.026876142
6.5 205 707 0.19289577 0.51756942 -0.83361453 0.019761417
