ply
format ascii 1.0
comment PCL generated
element vertex 765
property float x
property float y
property float z
property float nx
property float ny
property float nz
property float curvature
element camera 0
property float view_px
property float view_py
property float view_pz
property float x_axisx
property float x_axisy
property float x_axisz
property float y_axisx
property float y_axisy
property float y_axisz
property float z_axisx
property float z_axisy
property float z_axisz
property float focal
property float scalex
property float scaley
property float centerx
property float centery
property int viewportx
property int viewporty
property float k1
property float k2
end_header
127 261 783.5 0.617661 0.35995412 -0.69923377 0.015427236
128 261.5 784 0.48350209 0.32844135 -0.81138891 0.018170336
124 264 783 0.41671205 0.51357621 -0.75006044 0.015716828
126 263.5 783.5 0.56245208 0.44781056 -0.69506359 0.014476191
122 267 783 0.60403556 0.42968079 -0.67120457 0.021594914
123 266 784 0.53766042 0.49799013 -0.68038756 0.032757204
125 266 784 0.36359727 0.49385303 -0.78987736 0.021366464
121 268.5 783.5 0.58875406 0.45465162 -0.66832668 0.0097045507
119 270 783 0.71525079 0.29538625 -0.63337457 0.014738829
120 272 784 0.70299709 0.27231693 -0.65699208 0.0062758769
118.5 273.5 783.5 0.6551401 0.31751397 -0.68554819 0.0088847205
117 276 783.5 0.58759034 0.37821749 -0.71532452 0.0070138238
118 276 784 0.50151831 0.3721872 -0.78099686 0.011345948
114 279 783 0.52886975 0.40594107 -0.74532455 0.017071981
116.33334 278.33334 783.66669 0.51048154 0.35425898 -0.78352362 0.010212866
113.5 281.5 783.5 0.59728777 0.37934729 -0.70664203 0.0091094319
111.33334 283.66666 783.33331 0.3833788 0.45234871 -0.80523372 0.0077289795
113 283 784 0.54779035 0.38962305 -0.74035102 0.013058177
108.66666 286 783.33331 0.57577592 0.45437229 -0.67972636 0.026610009
111 286 784 0.44575143 0.41925499 -0.79090518 0.0082372585
107 289 783 0.67257792 0.32863024 -0.66305447 0.0048813969
108 288 784 0.73008376 0.31393185 -0.60697991 0.0045437487
106.5 291.5 784 0.623119 0.39157745 -0.67704493 0.0094861062
104 293.5 783.5 0.61582178 0.44074321 -0.65307647 0.013414878
106 293 784 0.53937876 0.47881994 -0.6926775 0.0084510446
102 297 784 0.51357746 0.5304181 -0.67445898 0.0066924291
103 296 784 0.6336751 0.52256966 -0.57041818 0.0054364665
99 299 783 0.50177103 0.45914388 -0.73308444 0.008633947
100 298 783 0.53268576 0.44351661 -0.72079057 0.0032465342
98 301 783.5 0.65557402 0.37413713 -0.65592998 0.010668607
97 303.5 783.5 0.63804913 0.32979056 -0.6957956 0.017401338
93.666664 306.66666 783 0.49766782 0.39998111 -0.76963747 0.012053132
95.666664 305.66666 783.66669 0.57269758 0.33300939 -0.7490809 0.010868035
92 309 783 0.50780648 0.44789073 -0.7358849 0.011277751
93.5 309 784 0.47804296 0.48654929 -0.73126239 0.014187785
91 310.5 783.5 0.58168149 0.49616301 -0.6445688 0.0080639906
89 314 784 0.75608391 0.35537893 -0.54958439 0.008494244
90 313 784 0.64843976 0.43771639 -0.62284052 0.0078130811
86 317 783 0.49873614 0.43801001 -0.74793684 0.0086014802
88 315.5 783 0.57981598 0.35612267 -0.73279613 0.030521791
172 212 785 0.43966225 0.40410101 -0.80212194 0.011227841
173.39999 210.8 785.40002 0.41565758 0.33447054 -0.8457886 0.017533403
171 213.5 785.5 0.45340163 0.40746534 -0.79271615 0.019076342
173 214 786 0.31293395 0.39680558 -0.86291236 0.022613512
175 214 787 0.27329028 0.32063261 -0.9069218 0.014681075
166.33333 216.66667 785 0.34450161 0.48844194 -0.80171251 0.021692963
168.60001 216.2 785.59998 0.43175602 0.44610578 -0.78394914 0.013755639
171.5 215.5 786.75 0.34468201 0.43783745 -0.83035696 0.016578481
173 215 787 0.29949582 0.56716573 -0.76721925 0.012593765
164 218 785 0.50352222 0.48516417 -0.71489948 0.027414212
166.5 219 786 0.31682095 0.52574003 -0.78944403 0.011517794
168 219 787 0.37522832 0.49069476 -0.78639841 0.011633335
171 218 787 0.3865701 0.40469074 -0.8287273 0.016335666
161 221.5 785 0.42228279 0.41181201 -0.80751967 0.0088049173
163.5 220.75 786 0.48227957 0.42450473 -0.76629114 0.0074662566
166 220 787 0.28829062 0.55706608 -0.77882344 0.0084746722
159 224 785 0.55245048 0.44633651 -0.70397598 0.0044166823
161.33333 223.66667 786.33331 0.45386368 0.49076024 -0.74374878 0.0073624407
163 223 787 0.46982944 0.46982944 -0.74734235 0.0088542979
156 227 785 0.65353823 0.33533967 -0.6785537 0.010340136
158.5 225.75 786 0.4726581 0.45260802 -0.75613511 0.0069614751
161 225 787 0.48484054 0.51102638 -0.70977581 0.014034241
157 229 786 0.62082922 0.39915687 -0.67471838 0.016475115
158 228 787 0.55827826 0.3587006 -0.74810386 0.017937182
153.5 231.5 785 0.61419266 0.35555845 -0.70451796 0.0054216748
155.66667 230.33333 786.33331 0.57907939 0.41687378 -0.70063066 0.011938251
153.5 233.5 786 0.60513049 0.48985684 -0.62758058 0.011603987
149 236 785 0.56480509 0.37561458 -0.73478502 0.012401064
151 235.5 786 0.48913687 0.55354124 -0.67404544 0.0034375391
148.66667 238.66667 786 0.63159072 0.40343973 -0.66206461 0.017352508
145.66667 241 785 0.6294685 0.42610717 -0.64977086 0.016963089
148 241 787 0.62910002 0.37520686 -0.68077379 0.017589875
144 244 785 0.40039882 0.45221174 -0.79698515 0.0069696591
146 243.5 786.5 0.578807 0.45394143 -0.67743611 0.005397005
141.5 245.5 785 0.55712551 0.45064294 -0.69751853 0.012202298
143.66667 246 786.33331 0.45320544 0.44502932 -0.77236885 0.009196396
145 245 787 0.56445217 0.37532187 -0.73520565 0.012776042
139 249 785 0.53480422 0.53480422 -0.65419328 0.020228796
140.66667 248.66667 785.66669 0.56566846 0.46596128 -0.68036711 0.031798881
143 248 787 0.54779035 0.38962305 -0.74035102 0.013058177
136.5 251 785 0.49813658 0.49652401 -0.71086138 0.02004285
139 250.5 785.5 0.52391231 0.58505982 -0.61904842 0.018847115
141 250 787 0.46988603 0.49864593 -0.72839504 0.029286904
135.66667 253.66667 785.66669 0.6760112 0.34906736 -0.64896905 0.012668717
138 253 787 0.51361436 0.47858611 -0.71214873 0.0088819396
134 256.5 785 0.66266435 0.31836516 -0.67787868 0.0097284205
135.33333 255.33333 786 0.73145711 0.28000066 -0.62174767 0.01057822
132 259 785 0.42127591 0.4902904 -0.76298231 0.0061957068
134 259 786 0.51338184 0.45002326 -0.73069704 0.012954019
135 258 787 0.6447112 0.35944089 -0.67464787 0.0052812356
131 260.5 785.5 0.45416653 0.4370091 -0.77637351 0.008130339
133.5 261 787 0.47565371 0.37062052 -0.79774302 0.0098461108
127 264 785 0.43165952 0.47654149 -0.76588404 0.041436993
129 264 785 0.45932451 0.59113109 -0.66301215 0.024597354
130.33333 263.33334 786.66669 0.48039302 0.45635203 -0.74897617 0.020134941
123 267 785 0.47817013 0.52895397 -0.70111424 0.031904075
126.5 265.5 785.5 0.55213118 0.46273282 -0.69356292 0.024847299
128.5 266 787 0.47564334 0.46610662 -0.74599469 0.019612499
122 269 785 0.61848885 0.4547849 -0.64081371 0.019556114
124 269 786 0.42925546 0.43962887 -0.78896534 0.010598137
125.33334 268.33334 786.66669 0.42299938 0.56047177 -0.71199924 0.0091023156
121.66666 271 786 0.63464701 0.37809601 -0.67399305 0.0089457119
124 270 787 0.39954764 0.4826403 -0.77937156 0.0039430112
121 273.5 786.5 0.78527057 0.21577284 -0.58033812 0.012513832
118 277 785 0.48097071 0.33181936 -0.81151903 0.010939769
120.5 275.75 786 0.74904621 0.15247828 -0.64473265 0.025060663
119 279 786 0.59485906 0.36655018 -0.71539062 0.018617915
120 278.5 786.5 0.63318348 0.37792599 -0.67546326 0.023274546
116.25 281 785.25 0.54480934 0.38463649 -0.7451427 0.005819479
119 280 787 0.49179786 0.47210237 -0.73161077 0.0030382711
115.66666 283.33334 786 0.61588144 0.34826511 -0.7066834 0.0070172301
112 286 785 0.59329671 0.49543279 -0.63446468 0.0058760922
113 285.5 785.5 0.43931705 0.51090109 -0.73890507 0.010165017
115 286 786.5 0.55302268 0.43956411 -0.70777768 0.01854321
109 288 785 0.46883529 0.37317294 -0.80058444 0.0058488585
111.33334 288.33334 786.33331 0.5411514 0.47465497 -0.69415981 0.014696072
107 292 785 0.77041101 0.33243218 -0.54401827 0.0053618602
108 290.5 785.5 0.60906565 0.41722536 -0.67450869 0.021852523
110 291 786.5 0.50584352 0.43944904 -0.74229836 0.018041428
107 294 786 0.6343897 0.47813737 -0.6073997 0.0084340414
108 293 787 0.57851744 0.40942571 -0.7054702 0.015742807
103 297 785 0.56546938 0.42334306 -0.70783132 0.0033676287
106 295.75 786.5 0.62376505 0.44976619 -0.63923985 0.0091058873
102 298 785 0.59351647 0.51153982 -0.62134147 0.010813464
103 299 786 0.55606186 0.50030518 -0.6636942 0.01186397
105 298 787 0.5408991 0.43327904 -0.72090042 0.004026873
99 301.5 785.5 0.52543187 0.49425924 -0.69255263 0.018659551
101.33334 300.33334 786 0.53636026 0.50765228 -0.67424548 0.019533083
98 303 785 0.82859564 0.30926096 -0.46667653 0.0028010507
100.5 303.5 787 0.59567386 0.36268634 -0.71668071 0.014630621
97 307 785 0.66721845 0.29976326 -0.68188095 0.016921213
98 305.5 786 0.70133811 0.27137566 -0.65915114 0.0084509505
96.5 308.5 785.5 0.66579968 0.34067881 -0.66381377 0.0075489637
98 308 787 0.66436106 0.39141056 -0.63672769 0.010363647
92 312 785 0.59752995 0.41814646 -0.68418676 0.010340909
93.5 311 786 0.38989064 0.55008394 -0.73850721 0.018049916
96.333336 310.66666 786.66669 0.5730474 0.41268817 -0.70802903 0.013061519
91 314 785.5 0.57128537 0.44334808 -0.69070649 0.0079082437
93.333336 313.33334 787 0.4436571 0.34738865 -0.82612926 0.018852927
89 316 785 0.64376384 0.39165136 -0.65740204 0.012598975
92 315 787 0.49149856 0.43902454 -0.75212145 0.011180595
174 217 788 0.38036573 0.30645064 -0.87258804 0.017787907
171 218.66667 788 0.32328805 0.4957934 -0.80602342 0.01477614
174 218 789 0.35868144 0.44626349 -0.81987596 0.0025871508
166.66667 221.66667 788.33331 0.30696115 0.52384198 -0.79458439 0.013538696
168.5 221.5 788.5 0.31007129 0.50922292 -0.80283737 0.013042593
171 220.5 789 0.33007118 0.54408592 -0.77137768 0.011336423
163 224 788 0.38715017 0.52549505 -0.75760794 0.011461863
165.5 223 788.5 0.44325781 0.4314445 -0.78573424 0.010140417
161.5 226.5 788.5 0.58710396 0.42026776 -0.69186985 0.006177431
165 225 789 0.41252533 0.5692873 -0.71115041 0.015880059
158 229 788 0.54284948 0.45603633 -0.70522714 0.023420783
160.5 228 788.5 0.51848614 0.418834 -0.74548656 0.0059256824
157 232 788 0.6522038 0.34116551 -0.67693162 0.006802503
158 231.5 789 0.51240224 0.33945152 -0.78880709 0.016208163
160 230 789 0.43382141 0.48809642 -0.75733805 0.010158814
154 234 788 0.53913796 0.50494415 -0.67406362 0.017791731
156.5 233 788.5 0.56589651 0.40763679 -0.7166543 0.021289673
152 237 788 0.44068754 0.61506307 -0.65382874 0.0034519027
153 236.5 788.5 0.50255573 0.56415033 -0.65511233 0.0097752204
155.5 235.5 789 0.48920286 0.48424894 -0.72538507 0.011072343
151 238 788 0.58862758 0.50519365 -0.63110769 0.0044657323
149 241 788 0.63646322 0.28575447 -0.71642095 0.0093848705
150.5 241 789 0.68643135 0.3401731 -0.6427241 0.0080556497
147 244 788 0.53957099 0.47401309 -0.69582665 0.0034810659
148 243 788 0.58229929 0.39013574 -0.71324724 0.0071326327
146.5 246.5 788.5 0.5942837 0.31224868 -0.74116647 0.010740576
148 245 789 0.54856777 0.35142547 -0.75866568 0.014853202
143.5 248.5 788 0.47421971 0.47624433 -0.74047756 0.0056122523
146 249 789 0.48299181 0.50541043 -0.71503794 0.023311991
141 252 788 0.42222822 0.47160289 -0.77415377 0.021144513
143.5 250.5 789 0.56741881 0.37786582 -0.73161006 0.01357674
139 253 788 0.52507329 0.40566522 -0.74815363 0.01827573
141 254 789 0.36002034 0.50598323 -0.78381532 0.015407885
137 257 788 0.59300619 0.33702406 -0.7312718 0.013578729
138.33333 255.33333 788.33331 0.54552984 0.34317937 -0.76460785 0.012135088
137 259 789 0.71168578 0.34760931 -0.61046803 0.010891985
134 262 788 0.49958342 0.36773974 -0.78433663 0.0085492982
135.33333 261 788.33331 0.60864717 0.3290765 -0.72198153 0.010903304
133.5 263.5 788.5 0.50624108 0.43655702 -0.74373251 0.0064907833
129 267 788 0.50509006 0.53824925 -0.6746642 0.0087062148
130.66667 266 788.33331 0.47276664 0.50049698 -0.72525471 0.012645394
133 265 789 0.45239732 0.53288817 -0.71509922 0.015674723
128 268 788 0.4995057 0.58225042 -0.64146596 0.0043881931
124 272 788 0.4640609 0.4210982 -0.77930987 0.0033901162
125.66666 271 788.66669 0.55092168 0.4634521 -0.69404441 0.0032751102
123.5 273.5 788.5 0.56624305 0.37794504 -0.73247957 0.0047691413
123 276 789 0.69570512 0.21756577 -0.68458724 0.010735635
121 278 788 0.66729122 0.35125679 -0.6567657 0.01496425
119 282 788 0.49350074 0.44486019 -0.74736637 0.0041045183
120.33334 281 788.33331 0.57213181 0.42818832 -0.69951409 0.0072135278
118.5 283.5 788.5 0.59029251 0.40117043 -0.70044059 0.0050789248
116 286.5 788.5 0.51968032 0.46715569 -0.71533066 0.020869903
118 285.5 789 0.53889328 0.39953142 -0.74159873 0.013859291
114 288 788 0.48852059 0.57475221 -0.6565116 0.018486317
115 289 789 0.47786999 0.55272985 -0.68273723 0.027646849
111.33334 291 788.33331 0.57985067 0.49906915 -0.64397442 0.011524682
113 291 789 0.50301194 0.52736932 -0.68473399 0.0085927658
109 294 788 0.58933079 0.47965899 -0.65008968 0.012015847
110 294 789 0.72607267 0.40742424 -0.55391693 0.0079540927
107 297 789 0.60684735 0.44985911 -0.65525806 0.014432791
109 296 789 0.55780131 0.48308647 -0.67489636 0.011130475
106 298.66666 788.33331 0.61109495 0.42054296 -0.67060173 0.022012994
102 302 788 0.55866319 0.40532929 -0.72360462 0.015784832
104 301.5 788.5 0.52246523 0.47406799 -0.70872396 0.017600387
105 301 789 0.6236546 0.44201148 -0.64473319 0.017244238
102 304 789 0.49528998 0.53280437 -0.68615407 0.011820451
100.33334 306 788.33331 0.73261011 0.30930871 -0.606309 0.016448082
98 309 788 0.62718719 0.3392038 -0.70112556 0.010220886
100 309 789 0.6750496 0.31162146 -0.6687302 0.019171501
97 312 788 0.60440725 0.42890036 -0.67136908 0.012000515
99 311 789 0.62893891 0.32722685 -0.70523649 0.0073795328
95.5 314 788.5 0.42831188 0.51134658 -0.74503261 0.010910343
170.5 221.5 790 0.3328504 0.52465075 -0.78355104 0.013540214
173.66667 220.66667 790.33331 0.31303057 0.47907576 -0.8200599 0.017307477
168.5 224 790.5 0.31043199 0.56626242 -0.76353055 0.011924593
171.33333 223.66667 791.33331 0.26842326 0.5488084 -0.79168075 0.012979197
173.5 223.5 791.75 0.28030038 0.52571219 -0.80315524 0.018454205
163.5 226.5 790 0.47676992 0.48379323 -0.7339173 0.012089532
166 226 791 0.33729106 0.56096607 -0.75601053 0.015666826
168.33333 225.66667 791.66669 0.3824774 0.53602117 -0.75259048 0.012461949
163.66667 228.66667 791.33331 0.47944579 0.42543942 -0.76755005 0.0076220655
165 228 792 0.4264389 0.37019107 -0.82529294 0.010070106
160.66667 230.66667 790.33331 0.51631838 0.39055267 -0.7621575 0.013039239
163 231.5 792 0.5729422 0.25381735 -0.77930355 0.0095569892
159 234 790 0.40183073 0.49001384 -0.77357519 0.014261535
160.75 233.5 791.25 0.45604226 0.33893496 -0.82289034 0.01680994
156 237 791 0.48930627 0.56305033 -0.6659984 0.0066956799
158.33333 236 791.66669 0.45436043 0.53397089 -0.71304393 0.0070935227
152 239 790 0.59484637 0.49360147 -0.63444102 0.012610243
154 239 791 0.41474685 0.47178611 -0.77807641 0.0066088079
155.66667 238.33333 791.66669 0.42322487 0.49733147 -0.75732559 0.0066877548
151.5 240.5 790.5 0.62290353 0.33244452 -0.70814675 0.013518816
153.5 241.5 792 0.48552793 0.40184399 -0.77639169 0.011332567
150.66667 243.66667 790.66669 0.68045592 0.28195062 -0.67637533 0.0097272061
148 246 790 0.42699257 0.360618 -0.82923585 0.0065297214
150.33333 246 791 0.60839766 0.33129799 -0.72117531 0.013670838
147 248.5 790.5 0.62153798 0.36854434 -0.69127822 0.018083965
149 248.5 791.5 0.53394675 0.49024901 -0.68888074 0.01690365
145.66667 251.33333 790.66669 0.51594734 0.47605324 -0.71215981 0.014732194
148 251 792 0.63609046 0.37672043 -0.67340237 0.012661507
142 254 790 0.49121723 0.57932407 -0.65045321 0.0048648953
143.5 253.5 790.5 0.52124029 0.41496965 -0.74572694 0.015084821
145 253 792 0.57268614 0.36750793 -0.73278147 0.022540461
141.2 256 790.79999 0.47657347 0.45218757 -0.7539258 0.0072193341
144 256 792 0.34045517 0.50586903 -0.79258239 0.0045701624
145 255 792 0.6052326 0.34151328 -0.71907043 0.014105783
138 258.5 790.5 0.59113926 0.4086757 -0.69536936 0.02047433
140.5 258 791.5 0.50505173 0.45925078 -0.73076087 0.010392493
137 260.5 790 0.74958271 0.21884938 -0.62468451 0.010099259
138.5 261 791.5 0.62781441 0.24154064 -0.73993725 0.013362614
140 260 792 0.666879 0.35151929 -0.65704381 0.020644017
136.5 263.5 791 0.61424178 0.39488354 -0.68320858 0.0080029834
132 266 790 0.43672532 0.63378316 -0.63842773 0.0074572172
133 267 791 0.40722257 0.57377994 -0.71059579 0.0094602639
135.75 266 791.75 0.52670342 0.47526455 -0.70477456 0.009047173
129 269 790 0.4933846 0.53432596 -0.68634355 0.00413395
131.5 268.5 791 0.4911806 0.40784833 -0.76967621 0.0027102591
133 268 792 0.44535306 0.50229818 -0.74118632 0.012333705
127 271 790 0.50204998 0.43975127 -0.74469095 0.0024131865
128.33333 271 790.66669 0.44261628 0.47067618 -0.76325268 0.0044664978
131 271 792 0.50380993 0.49444374 -0.7083084 0.0081561925
126.5 273.5 791 0.52926689 0.44213891 -0.72414756 0.0036082328
128 273 792 0.4595077 0.46989247 -0.7536934 0.0052884668
124 276 790.5 0.68273789 0.26879829 -0.67942369 0.012413912
126.33334 276 792 0.61883754 0.34850651 -0.70397675 0.020214191
123.5 278.5 790.5 0.74944419 0.24949017 -0.61326021 0.012285689
122 281 790 0.63000065 0.39152125 -0.67067909 0.0093276314
123.5 280.75 791.25 0.71578628 0.24542573 -0.65377086 0.01246816
121 283.5 790.5 0.57529402 0.40565521 -0.71026802 0.0038713817
119 286 790.5 0.60809332 0.35153475 -0.7117905 0.0096857538
121 286 791.66669 0.61458629 0.338754 -0.71241099 0.0078800702
117 289 790 0.43128619 0.50293386 -0.74903256 0.011314989
118.33334 288.33334 790.66669 0.60572577 0.45215845 -0.65471303 0.011233889
114 291 790.5 0.44094783 0.5533464 -0.70666313 0.012969191
116 291 791.33331 0.45612308 0.51582456 -0.72517359 0.010605463
111 294 790 0.57696223 0.31039953 -0.75549108 0.010286435
113.5 293 791.5 0.49950692 0.45745027 -0.73568481 0.015217075
111 296 790.75 0.49948761 0.42411938 -0.75540382 0.018047743
113 295.5 792 0.65672463 0.26585856 -0.70571381 0.0072572441
109 298 791 0.66210538 0.38300517 -0.64414567 0.025250426
110 298 792 0.38798109 0.48599917 -0.78311914 0.0081472406
106 301 790.5 0.53899783 0.42906788 -0.72483248 0.014587153
108.5 300.75 791.5 0.55830461 0.44931725 -0.69743097 0.0225161
104 304 790 0.41767174 0.46475613 -0.78073817 0.0071160146
105.66666 303.33334 791 0.59114975 0.39526102 -0.70307237 0.0053274925
101.5 305.5 790 0.59995776 0.32365227 -0.73164189 0.026890887
103.66666 306.66666 791.33331 0.50680321 0.3688553 -0.77916378 0.014598266
105 306 792 0.5423218 0.42172942 -0.72665769 0.0044932999
101 308.5 790.5 0.66398448 0.29218417 -0.68829715 0.021747518
103 308 792 0.51701248 0.37847069 -0.76776171 0.016822597
100.33334 311 790.66669 0.65130621 0.30281937 -0.69577336 0.016406946
103 310 792 0.60790598 0.28641418 -0.74055207 0.021347178
169 227 793 0.33614233 0.42340261 -0.841272 0.014128066
171.5 226.5 793.5 0.26460487 0.55105072 -0.79140842 0.0095703062
174 226 794 0.25804162 0.64036936 -0.72342354 0.0032066589
175 226 794 0.25804162 0.64036936 -0.72342354 0.0032066589
167 228 793 0.36608034 0.50998098 -0.77839881 0.015999608
168 229 794 0.323459 0.52240461 -0.7889663 0.021540746
170 229 794 0.25811759 0.56402731 -0.78437781 0.025393661
164 231 793 0.50998098 0.36608031 -0.77839875 0.015999608
166 230.75 793.75 0.4723956 0.45153323 -0.75694126 0.0088815186
163 233 793 0.65475255 0.33255625 -0.67875284 0.0064206463
159 237 793 0.44966656 0.52533561 -0.72237289 0.0047883093
161.33333 236.33333 793.33331 0.53531295 0.52877021 -0.65866691 0.018715866
163 235 794 0.5892086 0.43116516 -0.68332267 0.01962479
158.5 238.5 793.5 0.52593315 0.4884454 -0.69628686 0.018391317
154 242 793 0.48729149 0.39912575 -0.77668893 0.0095103625
156.25 241 793.5 0.4690111 0.45971522 -0.7541157 0.013367066
153.5 243.5 793.5 0.54371452 0.31985039 -0.77593189 0.012486627
152 247 793 0.66764414 0.26018849 -0.69753373 0.0070153079
153.33333 245.33333 793.66669 0.63500559 0.22763164 -0.73820859 0.009264674
151 249 793.5 0.48095909 0.55604374 -0.67785972 0.0049360148
153 248 794 0.61001092 0.34275749 -0.71442562 0.019653594
148.5 251.5 793.5 0.63347059 0.43517473 -0.6397953 0.016048003
150 250 794 0.54142272 0.43866619 -0.71724015 0.021827161
146 254 793 0.50420219 0.31011727 -0.80598229 0.011302029
148 254 794 0.61543894 0.34460464 -0.7088601 0.012127799
144 257 793 0.39098987 0.58480579 -0.71072435 0.0062809796
146.33333 255.66667 793.66669 0.5833202 0.32877964 -0.74272567 0.011989445
143 259 794 0.37838617 0.55402231 -0.74154109 0.0096833007
145 258 794 0.33962905 0.52885365 -0.77779555 0.006793079
140.33333 261 793.33331 0.66297984 0.28054804 -0.6940825 0.012271885
139 264 793 0.57200354 0.40213758 -0.71491075 0.0051853433
140 264 794 0.58797282 0.37813231 -0.71505517 0.0029712229
136.5 266.5 793 0.50120497 0.38208362 -0.77640563 0.013402176
139 265.5 794 0.56170523 0.32583371 -0.76047331 0.0082576955
135 269 793 0.43042505 0.53193998 -0.72922844 0.0083015822
138 268 794 0.4498924 0.41262051 -0.79204863 0.015179346
132 272 794 0.5127483 0.5564425 -0.65380508 0.010079003
134 270 794 0.44892237 0.54196578 -0.7104519 0.010438414
131 273.33334 793.66669 0.52013999 0.54036164 -0.66141039 0.017569713
127 277 794 0.66973722 0.287918 -0.68451107 0.019929437
128 275 793 0.53041255 0.47383288 -0.70295447 0.018690893
126.66666 278.66666 793.33331 0.6210196 0.31038883 -0.71971762 0.026774883
126 281 794 0.61204898 0.2591086 -0.74716717 0.015533499
123 284 793 0.53937876 0.47881994 -0.6926775 0.0084510446
125 283.5 793.5 0.62115198 0.39719802 -0.67557681 0.017308697
122 286 793 0.64724499 0.34108368 -0.68171543 0.0062243552
123 285 793 0.52662653 0.45176885 -0.72011769 0.0083091604
121.5 288.5 793.5 0.62520546 0.38982743 -0.67613077 0.008934468
118.5 290.5 793 0.45247355 0.49345404 -0.74281281 0.012163055
120.5 291 794 0.56868362 0.44162849 -0.69394761 0.018629048
116.66666 293.66666 793.33331 0.39431512 0.5411545 -0.74274307 0.012768663
118 293 794 0.4443281 0.43951049 -0.78064275 0.0090649007
115 296 794 0.55229557 0.38822472 -0.73773384 0.021963615
112 299 793 0.42878574 0.43913659 -0.78949469 0.010404528
113 298.5 793.5 0.53248763 0.47416371 -0.70116025 0.0030460134
111.33334 300.66666 793.66669 0.56499392 0.44021446 -0.69784892 0.0088849077
108.66666 303.66666 793.66669 0.57008666 0.40228206 -0.71635908 0.012962587
107 306 793.5 0.58555233 0.37408355 -0.71915925 0.0029434673
108 305 794 0.49648356 0.33445519 -0.80102676 0.017836701
104 309 793 0.55121183 0.34521997 -0.75959784 0.02447913
105.5 308.5 793.5 0.50419742 0.45456436 -0.7342726 0.0071573481
103.5 310.5 793.5 0.58006912 0.31609511 -0.75073534 0.022913154
174 227 795 0.36118743 0.57436365 -0.73460877 0.0094464254
171.5 229 795 0.2204693 0.60437143 -0.76559031 0.02940762
174 229 796 0.33675 0.4627192 -0.82005519 0.01769891
175 228.5 796.5 0.48861617 0.46933782 -0.73551083 0.0073514516
167 231 795 0.43497545 0.4600279 -0.7740612 0.008985878
169 231 795.5 0.38336182 0.5074774 -0.77168673 0.017043408
170.75 231 796.5 0.26511884 0.56031477 -0.78470343 0.01922469
173.5 230.5 796.5 0.40032837 0.4823682 -0.77913934 0.015011575
165.66667 233.66667 795.33331 0.49431941 0.38647094 -0.7786454 0.012102239
168.33333 233.33333 796.66669 0.43146753 0.42714542 -0.7945959 0.011449256
163 236 795 0.46739984 0.45114645 -0.76026595 0.020669907
165.5 236 796 0.5270744 0.33607465 -0.78054237 0.01161813
161.66667 238.66667 795.33331 0.41848585 0.46190986 -0.78199023 0.013747953
164 238 796 0.4264389 0.37019107 -0.82529294 0.010070106
165 238 797 0.39304304 0.41823256 -0.81890094 0.010787573
158 241 795 0.45501852 0.39352247 -0.79881054 0.023149364
160.5 241.25 796 0.48698178 0.44480708 -0.75166178 0.0075560817
164 240 797 0.3291111 0.57847506 -0.74635953 0.018507741
156.66667 243.66667 795.33331 0.43915078 0.35769376 -0.82413697 0.010765556
159 243 796 0.44687414 0.43362129 -0.78248078 0.0096826982
160 243 797 0.55245048 0.44633651 -0.70397598 0.0044166823
154 247 795 0.55400699 0.25638044 -0.79205137 0.0096261548
156.5 246.5 796.25 0.5010556 0.33012468 -0.79997563 0.016301211
159 245 797 0.51757234 0.35088122 -0.78038538 0.014345374
153.5 248.5 795 0.5824526 0.33420777 -0.74098194 0.0099505074
156.5 248 797 0.45206365 0.43195426 -0.78041911 0.012059882
151.66667 251.33333 795.33331 0.43155566 0.42807555 -0.79404718 0.0061845151
153.5 251.5 796.5 0.46912774 0.35454395 -0.80883729 0.0034865383
155 250.5 797 0.55192316 0.30010805 -0.77802056 0.0065889419
149 253 795 0.5454213 0.39934427 -0.73691231 0.016819352
151 253.66667 796.33331 0.42795166 0.45982638 -0.77808553 0.0048910039
148 256 795.5 0.634471 0.32615113 -0.70076531 0.0075118802
150.5 255.5 797 0.48304868 0.45719287 -0.74675214 0.0053445036
144 259 795 0.34605733 0.54128307 -0.76632696 0.0087424014
147 258 795 0.45902893 0.52656251 -0.71555883 0.01668518
148 259 797 0.58775753 0.51855195 -0.62100333 0.0055385251
142 262 795 0.61458784 0.151255 -0.77421176 0.011504008
143.33333 261.33334 795.66669 0.51672632 0.37425655 -0.77001685 0.01296696
146 260.75 796.75 0.4535822 0.51800948 -0.72520989 0.0083567146
142 263 795 0.65019584 0.33142591 -0.68366826 0.0056912629
143 264 797 0.59328991 0.42443469 -0.68400466 0.018626835
141.39999 266.20001 796.20001 0.67607796 0.28811407 -0.67816585 0.0080692247
137 269 795 0.41407162 0.53287065 -0.73796588 0.011403287
138.5 268.5 795 0.54115164 0.52070463 -0.66031927 0.011681101
141 269 797 0.51459223 0.42325264 -0.74568897 0.017582595
134 272 795 0.49598417 0.47651526 -0.72590148 0.0078810025
135.66667 271.33334 795.66669 0.40805131 0.5375672 -0.73791301 0.0095997592
138.5 270.5 797 0.40796205 0.49371538 -0.76799226 0.013446206
141 270 797 0.39948922 0.46473435 -0.79020911 0.021009972
131 274 795 0.51023793 0.43551886 -0.74160683 0.023048503
134 273 796 0.53582591 0.43734619 -0.72223192 0.0065097152
137 273 797 0.38159889 0.58536887 -0.71535003 0.017001709
129 277 795 0.63352126 0.34777296 -0.69116205 0.020372098
130.66667 276.33334 795.66669 0.48591009 0.40439183 -0.7748282 0.016569093
133.33333 275.33334 796.66669 0.50989443 0.43891084 -0.73984122 0.0085002845
129 278 795 0.58814299 0.29910135 -0.75141621 0.017013445
131 278.5 797 0.47454026 0.42724574 -0.76959252 0.011894505
128.5 281 796 0.67037046 0.29076931 -0.68268335 0.012431238
126 283 795 0.65685064 0.43659389 -0.6147626 0.0070358631
128.5 283.5 797 0.61969292 0.26706639 -0.73800826 0.0071823881
124 287 795 0.57070905 0.41784373 -0.70689309 0.0014923436
125.5 286 795.75 0.6239388 0.36050782 -0.6933502 0.0072872238
128 285 797 0.61602575 0.33295855 -0.71389848 0.010243881
124 289 796 0.58234316 0.4308227 -0.68939704 0.0025671003
125 289 797 0.56245536 0.39794862 -0.72476262 0.0019559981
121.66666 291 795.66669 0.60497355 0.44417816 -0.66084248 0.014717471
124 290 797 0.58885622 0.36145499 -0.72290993 0.0090872543
120.5 293.5 796 0.58208954 0.41147351 -0.70132822 0.016506478
123 293 797 0.53399211 0.3959628 -0.74703813 0.017201154
116.33334 296.33334 795.33331 0.47279868 0.44104499 -0.7628504 0.03302367
118.5 295.5 795.5 0.44849294 0.4555853 -0.76895785 0.0077932402
120 295 796 0.63780648 0.3993791 -0.65855843 0.0088993534
116 298.66666 796 0.51465762 0.41309705 -0.7513178 0.02156336
118.5 298 797 0.49085316 0.43676805 -0.75385463 0.01974671
112 302 796 0.54748577 0.4613528 -0.69814962 0.017773535
114 301 796 0.46000618 0.47089431 -0.75276357 0.017362403
115 301 796.5 0.6288051 0.4318549 -0.6466108 0.0077314815
111.5 304 796.5 0.61376685 0.2969214 -0.73152435 0.014578193
114 303 797 0.39620215 0.44433978 -0.80348372 0.011022107
108 307 795 0.49379519 0.39991 -0.7721647 0.015821956
110.8 306 796.20001 0.63295764 0.35229877 -0.68938398 0.01012972
107 308 795 0.56214303 0.35882619 -0.74514365 0.0075157145
108 309 796 0.52613318 0.49775279 -0.68951154 0.0107185
173.5 232 798 0.20796642 0.57818705 -0.78895485 0.014509998
171.5 233 798 0.23099938 0.42161617 -0.87685752 0.015854802
173 233 798 0.1758671 0.45540449 -0.8727414 0.014943584
175 234 799 0.18324228 0.51389664 -0.83805281 0.016623242
168.66667 235.66667 798.33331 0.36733681 0.44348305 -0.81754911 0.012854104
171 235.33333 798.66669 0.34470853 0.43470851 -0.83198822 0.016193977
167 239 798 0.5727585 0.42278856 -0.70228028 0.021214975
168 238 799 0.55326313 0.42409992 -0.71696526 0.025017511
163.5 241 798.5 0.4646543 0.52159971 -0.71556282 0.026334228
165.5 240.5 798.5 0.41442668 0.61623776 -0.66970259 0.026374504
161 244 798 0.49838176 0.34525231 -0.79524618 0.0039697434
163 243.5 799 0.57327598 0.28181514 -0.76937306 0.0044005802
159 246.5 798 0.52218527 0.34547976 -0.77972198 0.0085696252
160.66667 245.66667 798.66669 0.47359157 0.34464517 -0.81051266 0.0042745336
159 249 799 0.57119769 0.30755401 -0.76101494 0.010566219
160 248 799 0.55632049 0.26088658 -0.78895223 0.0099085327
156.5 251 798.5 0.47739697 0.36515662 -0.79922009 0.02025196
158 250 798 0.42668486 0.41218707 -0.8050105 0.017301289
154 254 798 0.41073856 0.50833988 -0.75689137 0.0040206644
155 253.5 798.5 0.53287125 0.46797067 -0.70501894 0.0050813588
151.5 255.5 798 0.5118888 0.5118888 -0.68988389 0.0031824089
154 255 799 0.39098987 0.58480579 -0.71072435 0.0062809796
150.33333 258.33334 798.66669 0.56256717 0.38209817 -0.73315698 0.0070176744
147 261 798 0.52028394 0.47438371 -0.71011597 0.0053157695
149 261 799 0.54940242 0.39827317 -0.73453087 0.0089890175
146 263.33334 798.33331 0.50213253 0.48034263 -0.7191202 0.0092469314
143.5 266 798.5 0.61862284 0.29175365 -0.72951049 0.018015672
145 266 799 0.58857059 0.30096999 -0.7503345 0.020071739
142 269 798 0.65844071 0.3163256 -0.68293053 0.004296314
144 268 799 0.65192568 0.32012987 -0.68739355 0.0067867208
141 271.66666 798.66669 0.47848776 0.55082822 -0.68384045 0.0112162
136.5 274 798.5 0.4523592 0.58930779 -0.66939336 0.015176999
138 273.5 798.5 0.38088655 0.60079759 -0.70282835 0.017518315
135.5 276.5 799 0.57370347 0.41412807 -0.70665568 0.0099327434
132 279 798 0.42031109 0.4969064 -0.75922507 0.0059032082
133 278 798 0.48873141 0.41576335 -0.76699573 0.0061252243
135 278 799 0.5978806 0.34066719 -0.72559267 0.010554801
131.33333 281 798.66669 0.5357672 0.41785082 -0.7337262 0.0098673077
133 280 799 0.3992255 0.49197176 -0.77368134 0.0045108111
129 284 798 0.65768558 0.33635017 -0.67403132 0.0065446035
131 283 799 0.68171543 0.34108368 -0.64724499 0.0062243543
128.66667 286.66666 798.66669 0.63641179 0.32928103 -0.69753426 0.0062750443
127 288 798 0.59928089 0.37651253 -0.70647061 0.0048608771
128 288 799 0.61374831 0.36683652 -0.69910234 0.0050221244
124 292 798 0.55827826 0.3587006 -0.74810386 0.017937182
126 291 798.66669 0.56167525 0.4317328 -0.70578152 0.0070353537
123.5 293.5 798.5 0.58163327 0.38647527 -0.71577901 0.020237971
121 296.66666 798.33331 0.52173114 0.42507944 -0.73966485 0.0080025205
123.5 295.5 799 0.56958342 0.32293317 -0.75583655 0.010654223
119 299 798 0.54700071 0.3445482 -0.76293963 0.014405997
120 299 799 0.55703121 0.44521376 -0.70107126 0.014774421
116 301.5 798.5 0.48184913 0.51039147 -0.71226537 0.032106102
118.5 301 798.5 0.49964947 0.48567945 -0.7172628 0.02236351
114 304 798 0.51682216 0.52816236 -0.67375022 0.013605833
115 303 798 0.62105453 0.44820219 -0.64296663 0.021154404
112 307 798 0.62284476 0.33338332 -0.70775706 0.0087424535
114 306 799 0.57150942 0.4415192 -0.69169199 0.014442511
111 308 798 0.62678337 0.47131205 -0.62048972 0.006957964
172 237 800 0.36608034 0.50998098 -0.77839881 0.015999608
173.5 236 800.5 0.29192218 0.52841175 -0.79722178 0.014841016
175 236 800.5 0.25957078 0.52558738 -0.81017333 0.014342361
168 239 800 0.53979927 0.45744729 -0.70665324 0.025705725
170.75 238.25 800.75 0.29915288 0.49762386 -0.81417328 0.014140166
174 238 802 0.35928667 0.51885712 -0.77569354 0.014805492
167 241 800.5 0.48045525 0.49014169 -0.7272715 0.018654969
169 241.5 801.5 0.44125378 0.47018912 -0.76434112 0.0069143381
170.5 240.5 802 0.33458912 0.44149566 -0.83254534 0.019465452
173 240 802 0.33450276 0.50109208 -0.798132 0.011043245
164 243 800 0.49312508 0.38316223 -0.78103417 0.021944037
166.5 243.5 801.5 0.56568754 0.49126273 -0.66231304 0.024545176
162 247 800 0.54779035 0.38962305 -0.74035102 0.013058177
163 246.5 800.5 0.46010026 0.46256486 -0.75785321 0.011554759
165 245.5 801 0.63145256 0.40901798 -0.65876544 0.027594455
161.5 248.5 800.5 0.54050958 0.28267166 -0.79243058 0.011341174
164 249 802 0.55161369 0.27786303 -0.78645694 0.012841715
158.66667 251.66667 800.33331 0.52026772 0.49551868 -0.6955449 0.010267409
161.66667 250.66667 801.33331 0.537139 0.36124662 -0.76222217 0.011158285
157 253.5 800 0.55362421 0.31062725 -0.77266484 0.015842425
158 253 801 0.51013911 0.29678884 -0.80726361 0.017210541
160.5 253.5 802 0.4944264 0.3026807 -0.81481707 0.018124234
153.5 257 800.5 0.35626894 0.50862515 -0.7838195 0.011528246
156 256.33334 800.66669 0.36524627 0.5287475 -0.76617312 0.016930029
158 255.5 801.5 0.41371071 0.39836842 -0.81862444 0.01681135
160 255 802 0.53718644 0.38301265 -0.75148654 0.017522058
153.5 259 801.5 0.58493555 0.31867972 -0.74585098 0.024135403
156 259 802 0.38374552 0.46733421 -0.79645348 0.023644736
149 262 800 0.54062235 0.43266484 -0.72147667 0.0086709484
151 261 800.5 0.51437098 0.41390544 -0.75106901 0.020020843
153 260 802 0.62472767 0.3654643 -0.69003707 0.024589077
149 263 800 0.589302 0.46535423 -0.66043067 0.0065147248
151.5 263.5 802 0.54400206 0.35316372 -0.76114196 0.016929211
146 266 800.33331 0.5827229 0.3227171 -0.74584693 0.013047296
148.33333 265.66666 801.66669 0.53436112 0.44030258 -0.72152048 0.0085797226
146.33333 268.66666 801.33331 0.58254755 0.32527018 -0.74487424 0.02011312
142 272 800 0.38967672 0.53385627 -0.75043291 0.019034814
144 270.5 800 0.59319025 0.32651627 -0.73587525 0.018472064
145 271 801.5 0.61816794 0.32898217 -0.71389014 0.011632584
140.5 274 800.5 0.41913038 0.57016325 -0.7065717 0.0083474275
143.5 273.5 801 0.44457468 0.50300866 -0.74117178 0.019747484
136.5 276.5 800 0.57108438 0.39631584 -0.71888548 0.0076591806
139 276 801 0.41276947 0.45159286 -0.79100269 0.0027601186
140.66667 275.66666 801.66669 0.38260341 0.50102752 -0.77626407 0.0091200303
136.5 278.5 801 0.55755377 0.37593341 -0.74014038 0.010800825
138.5 278.5 802 0.44885987 0.40655428 -0.79576278 0.0036564246
132 282 800 0.6001426 0.44081154 -0.66746837 0.0067670788
133 281 800 0.39186454 0.47557849 -0.78757054 0.0070490376
135.33333 281 801 0.53237998 0.46657637 -0.70631295 0.019581081
132 284 801 0.61818266 0.34257248 -0.70745629 0.0096638557
134 283.5 802 0.48447534 0.4111746 -0.77215225 0.025726769
131.33333 286 801 0.66649657 0.29979661 -0.68257183 0.0079791956
130.66667 288.66666 801.33331 0.60243881 0.32276267 -0.72999442 0.0063159405
127 291 800 0.59980237 0.44313124 -0.66623706 0.0063536232
128 291 800.5 0.56033474 0.39516172 -0.72792321 0.0074505247
130 291.5 802 0.60677868 0.37018728 -0.70340669 0.0060903467
126.5 293.5 801 0.59039372 0.40290594 -0.69935834 0.011396185
124 296 800 0.5781945 0.42702571 -0.69522673 0.0028239242
126.33334 295.66666 801.66669 0.62541473 0.35439891 -0.69516742 0.0067325141
122 299 800 0.40682462 0.44590333 -0.79728538 0.0063360441
123 298.5 800.5 0.56610465 0.42239779 -0.70788819 0.0032887235
125 298 802 0.61583817 0.35342956 -0.70415264 0.0052376585
121.25 301.25 801 0.49759895 0.43695521 -0.74930996 0.011308889
117 304 800 0.45470124 0.46597219 -0.75902355 0.012262792
118.33334 303.33334 800.66669 0.39772823 0.52933073 -0.74941391 0.0087810634
121 303 802 0.40082651 0.49754363 -0.76927793 0.0032782059
115 305 800 0.52117145 0.41045114 -0.74827152 0.015709665
119 305 802 0.43252936 0.51208943 -0.74208003 0.0041138907
175 239 803 0.34808448 0.51789713 -0.7814216 0.012549383
172 241 803 0.26902652 0.53792065 -0.79891562 0.0096146697
173.66667 241.33333 803.66669 0.34278536 0.54412675 -0.76578337 0.011303837
169 244 804 0.41371337 0.58902699 -0.69418192 0.0087772217
171 243 803.5 0.34130388 0.59661359 -0.72633594 0.012691799
166 245.5 803 0.67522782 0.38481414 -0.62927383 0.02434236
168 245 804 0.42294925 0.55608475 -0.71546048 0.013739842
165.66667 248.33333 803.33331 0.5859369 0.30913311 -0.74907595 0.011789906
164 251 803.5 0.57110101 0.40722418 -0.71274972 0.0055650482
165 251 804 0.44447479 0.47301099 -0.76072514 0.0070488439
161 254 803 0.64907783 0.33785424 -0.68158096 0.0058966218
163 253 804 0.58088309 0.47232583 -0.66293532 0.0031323507
160.5 256.5 803.5 0.6132409 0.35547841 -0.70538688 0.010169794
157 258 803 0.39353579 0.51630265 -0.7606321 0.019873431
159 258 803 0.38780829 0.44919163 -0.8048799 0.021320354
160 258 804 0.56294262 0.44146451 -0.69871646 0.012055352
153 262 803 0.5454213 0.39934427 -0.73691231 0.016819352
155.75 261 803.75 0.44762585 0.53086257 -0.7195943 0.010961955
152 264 803 0.53606296 0.31992409 -0.78120744 0.017686065
154 263 804 0.52240455 0.32345897 -0.78896636 0.021540716
149 267 803 0.43966225 0.40410101 -0.80212194 0.011227841
151.33333 266.33334 803.66669 0.40747008 0.45464087 -0.79200369 0.0057816436
154 265 804 0.55292702 0.35524857 -0.75370437 0.018832343
148 268.5 803 0.69650114 0.30142483 -0.65117532 0.010911532
150 268 804 0.3798807 0.46950233 -0.79703087 0.0029081069
147 271.5 803 0.57327598 0.28181514 -0.76937306 0.0044005802
148 271 804 0.61620384 0.26040801 -0.74329031 0.0046470175
146.5 273.5 803.5 0.54534537 0.4329558 -0.71773797 0.0078434451
142 277 803 0.4443281 0.43951049 -0.78064275 0.0090649007
143.5 276 803.5 0.45129755 0.54049379 -0.71006835 0.013983643
146 275 804 0.41073856 0.50833988 -0.75689137 0.0040206644
141 278.5 803.5 0.4813334 0.43810752 -0.759197 0.014591287
137 282 803 0.47246549 0.47004959 -0.7455399 0.018665189
138.5 280.5 803 0.50290722 0.45581439 -0.73438245 0.01064404
141 280 804 0.50534022 0.51054472 -0.69568342 0.022512976
136 283.5 803.5 0.51618785 0.42698628 -0.74245054 0.024170347
138 283 804 0.59842813 0.4584938 -0.65701383 0.0064490535
133.5 286.5 803 0.52282733 0.31862551 -0.79065126 0.010009378
135 285.5 803.5 0.52968758 0.29610237 -0.79482979 0.012685216
133.5 288.5 803.5 0.61743867 0.33501762 -0.71171111 0.017250927
131 291 803 0.58952069 0.3737115 -0.71610409 0.0080139423
133 290 804 0.67040169 0.3663823 -0.64523298 0.010878171
129 294 803 0.54740584 0.51869249 -0.65673822 0.0033082394
130.5 293.5 804 0.55580801 0.4260726 -0.71382046 0.014671769
127 296 803 0.59676319 0.29769889 -0.74515039 0.012473957
129 296 804 0.5804016 0.32401359 -0.7470938 0.017536161
126 299 803 0.54895329 0.45343018 -0.70217615 0.0026934454
128 298 804 0.54129034 0.39670435 -0.74137068 0.013746598
124 301 803 0.56406683 0.43861049 -0.69960666 0.0031119471
125.33334 300.66666 803.66669 0.54992121 0.42624304 -0.71826428 0.0024471625
122 304 803 0.51822507 0.49443451 -0.69783759 0.0041638734
124 303 804 0.52392948 0.37618837 -0.76418597 0.0013471511
171.5 244 805 0.32276231 0.58651805 -0.74284661 0.011549046
173 243 805 0.34446508 0.60746324 -0.71577388 0.015731983
175.5 243.5 806.5 0.43423986 0.47748274 -0.76383638 0.0053766756
168.5 246.5 805 0.52401388 0.33298618 -0.78391939 0.0080594048
171 246.33333 806.33331 0.37072667 0.39797714 -0.83915192 0.014177605
173.5 245.5 806.5 0.32331637 0.45100138 -0.83190405 0.014735481
175 245 807 0.33675 0.4627192 -0.82005519 0.01769891
168 249 806 0.58919287 0.25618991 -0.76630181 0.026231645
171 248.5 807 0.36347207 0.34680203 -0.8646481 0.013964618
166.5 251.25 805.25 0.59087485 0.37568718 -0.71395105 0.017334837
168 250.5 806.5 0.5984903 0.31422582 -0.73693389 0.028035942
170 250 807 0.42459732 0.3719888 -0.82543409 0.01258373
164 253 805 0.43962887 0.42925546 -0.78896534 0.010598137
166.5 254 806.5 0.50012207 0.3632929 -0.78606373 0.0055468408
162 257 805 0.67296457 0.33880875 -0.657516 0.0061743534
163.33333 255.33333 805.66669 0.53423488 0.37307855 -0.75855488 0.0098441197
165.5 256 807 0.41179022 0.40673834 -0.81547087 0.00670115
162 259 806 0.66647106 0.35424581 -0.65599263 0.0040171128
163 258 807 0.53967583 0.42259893 -0.72812092 0.016892323
156 262 805 0.40985757 0.41323045 -0.81317735 0.0047288011
158.66667 260.66666 805.33331 0.37523454 0.53433514 -0.75741994 0.01034283
161 260.66666 806.33331 0.53106552 0.45403573 -0.71541667 0.0099033676
156 264 806 0.56394011 0.45102409 -0.69177216 0.0099900868
158.5 263 806.5 0.36262208 0.52046257 -0.77306139 0.012086472
154 266 805 0.59328991 0.42443469 -0.68400466 0.018626835
155 266 806.5 0.64536452 0.32613227 -0.69075495 0.0095079131
151.5 268.5 805 0.40069583 0.44934162 -0.79845786 0.0036788522
153.66667 268.66666 806.33331 0.51305318 0.38630819 -0.76651311 0.0089306878
150.5 271 806 0.53717345 0.38976529 -0.74801582 0.01175613
153 271 807 0.44466537 0.43868804 -0.78091329 0.0083577186
149 273.5 805.5 0.66632318 0.36373362 -0.65093106 0.0095503498
150 273 807 0.62472767 0.3654643 -0.69003707 0.024589077
146.66667 276 805.33331 0.5177719 0.42801356 -0.74075413 0.0065009794
149 276 807 0.64528334 0.3384262 -0.68489212 0.0067829988
143 279 806 0.47141865 0.50522107 -0.72285277 0.028421728
145.33333 278.33334 805.66669 0.31390646 0.50844252 -0.80184096 0.019780042
148 278 807 0.58025813 0.37578198 -0.72255689 0.009736564
139 282 805 0.57506871 0.44702944 -0.68517202 0.0060058176
141.66667 281.33334 806 0.49274078 0.48796451 -0.72048402 0.011514299
144 281 807 0.27839541 0.47129646 -0.8368845 0.014947332
146 280 807 0.347718 0.54217333 -0.76494467 0.0080593424
140.5 283.5 806.5 0.51784891 0.39002147 -0.76139063 0.011032704
137 286 805 0.61346108 0.35065615 -0.7076056 0.021527883
138 286 806.33331 0.55730885 0.31350854 -0.76884282 0.026235402
140 285.5 807 0.51273304 0.38877985 -0.765477 0.015618183
134 289 805 0.51579845 0.42188826 -0.74562883 0.025888056
136.5 288.5 806 0.60784358 0.40131947 -0.68517798 0.022773204
133.66667 291.66666 805.66669 0.58869231 0.27183223 -0.76128095 0.017904887
136 290.5 806.5 0.59446871 0.41681969 -0.6876542 0.020922385
132 294 805 0.52398431 0.46799323 -0.71163392 0.0070152381
133.5 293 805.5 0.640917 0.34445 -0.68598807 0.019666642
130.66667 296.33334 806 0.63920963 0.34869871 -0.68543434 0.013023947
133 295 807 0.50582367 0.51519662 -0.69189227 0.0040506208
128.5 298.5 805 0.58894527 0.41232064 -0.69507933 0.0095826155
131 299 807 0.60239172 0.25393146 -0.75673187 0.0044918633
128.5 300.5 806 0.58206654 0.40321827 -0.7061258 0.0084478809
175.5 246 808 0.55799067 0.43665114 -0.70567846 0.0033697463
173.66667 248.66667 808.33331 0.42396438 0.41608137 -0.80444419 0.015456215
175 248 809 0.4666343 0.38716978 -0.79520565 0.0080570905
170.66667 251.33333 808.33331 0.42582792 0.38585386 -0.81840539 0.011167042
173 251 809 0.39805627 0.45227835 -0.79811996 0.006210418
169 253 808 0.54983747 0.31942508 -0.77178138 0.0081628095
170 253 809 0.46031183 0.3785229 -0.80301523 0.0088214763
166.5 256.5 808 0.51830554 0.44069123 -0.73290557 0.0041178386
169 255 809 0.59981889 0.39469868 -0.69601029 0.0014912229
165.5 258.5 808.5 0.48435494 0.46061724 -0.74379569 0.0035272257
162 262 808 0.53320086 0.47804913 -0.69797277 0.010511698
163.5 260.5 808.5 0.53717035 0.40678078 -0.73890287 0.0067519033
165 260 809 0.48318252 0.46693894 -0.74060965 0.0038154735
161 264 809 0.53972572 0.51134717 -0.66874528 0.0080621066
157 266 808 0.48587319 0.43791026 -0.75641388 0.012074308
158.33333 265.33334 808.33331 0.39044544 0.51293415 -0.76449394 0.011506654
156.5 268.5 808.5 0.61774337 0.34284258 -0.70770907 0.01528639
153.5 271.5 808 0.4975155 0.44530013 -0.74443674 0.0065323859
156 270 809 0.65055162 0.35779542 -0.66989934 0.010129015
152 274 808 0.42699257 0.360618 -0.82923585 0.0065297214
153 274 809 0.49661729 0.41762659 -0.76089376 0.0053099259
149 277 808 0.58857059 0.30096999 -0.7503345 0.020071739
150.66667 275.33334 808.33331 0.51099932 0.40423241 -0.75860119 0.014221746
149 279 809 0.56795204 0.37232077 -0.73403525 0.017112417
151 278 809 0.4832761 0.34095481 -0.80634612 0.010176174
145.5 281 808 0.3273997 0.52605134 -0.78490728 0.011357978
148 281 808.5 0.47316465 0.4681606 -0.74628472 0.022772813
143.5 283.5 808 0.43959177 0.45681265 -0.77335709 0.015215812
145 283 809 0.47975022 0.50551355 -0.71714425 0.0080013433
141 286 808.5 0.48821524 0.41093618 -0.76992035 0.015711572
143 286 809 0.48114115 0.41078898 -0.77443892 0.016898753
139 289 808 0.4264389 0.37019107 -0.82529294 0.010070106
140.33333 288.33334 808.66669 0.51604253 0.36827013 -0.77335447 0.024527272
137 291 808.5 0.57752311 0.35176569 -0.73670071 0.022347122
139 291 809 0.54415417 0.4555704 -0.70452243 0.021687262
136.33333 293.33334 808.33331 0.63039827 0.23183322 -0.74084514 0.010446844
133 297 808 0.58145535 0.37812531 -0.72036862 0.013056441
135.5 295.5 808.5 0.50495744 0.47214243 -0.72256458 0.013704844
132 298 808 0.59212524 0.29945534 -0.74814051 0.007687639
134 298 809 0.48557451 0.50798744 -0.7114535 0.010960293
173.5 251.5 810 0.43890089 0.43134928 -0.78822827 0.0068768673
176 250.5 810.5 0.40521482 0.43123674 -0.80612397 0.0044368948
172 254 810 0.40903124 0.39572841 -0.82224846 0.0048277439
173.5 253.5 811 0.46344373 0.39408678 -0.7936722 0.0030800169
175.5 253.5 812 0.40824831 0.40824831 -0.81649661 0
169 256 810 0.58262557 0.4429265 -0.68144238 0.0019013456
171.25 256 811.25 0.39005011 0.53050667 -0.75261122 0.0074498616
173 256 812 0.36343613 0.43934515 -0.82151693 0.0030033332
168.33333 258.33334 810.66669 0.58513033 0.42433923 -0.69105625 0.0024028069
166 261 810.66669 0.55663174 0.45440072 -0.69547188 0.0024738668
168 261 812 0.57519442 0.41958234 -0.70221233 0.0022351844
162 264 810 0.41824943 0.50243914 -0.75671816 0.0097957393
164 263.5 810.5 0.4794623 0.43042198 -0.76475668 0.0070846472
165 263 811 0.56245536 0.39794862 -0.72476262 0.0019559981
160.66667 266.33334 810.33331 0.45051387 0.42625424 -0.78443903 0.013768159
163.33333 266.33334 811.66669 0.4829388 0.41902 -0.76889032 0.0049671731
165 265 812 0.56406683 0.43861049 -0.69960666 0.0031119471
157 269 810 0.55704015 0.29155248 -0.77762681 0.030815449
159 268.5 810.5 0.48532465 0.45199797 -0.74843693 0.025701093
161 268.5 811.5 0.42595208 0.49381334 -0.75809842 0.034183361
156.66667 271.33334 810.33331 0.52874184 0.36694497 -0.76536489 0.010743621
159 271.5 811.5 0.6112982 0.31675348 -0.72524595 0.032315321
155.5 273 810.5 0.54306847 0.43132165 -0.72044307 0.0032380866
152 277 810 0.61408073 0.29244396 -0.73306298 0.011046968
153 276.5 810.5 0.60100216 0.36161354 -0.71276373 0.0089329379
155.33333 275.33334 811.66669 0.58036458 0.40428123 -0.70691836 0.0039043454
151.5 278.5 810 0.53457928 0.34833124 -0.76999372 0.010673124
154 279 812 0.66105258 0.30102894 -0.68730718 0.0048627709
149 281 810 0.5301922 0.44488421 -0.72178549 0.016044322
151 281 811 0.50811273 0.42964074 -0.74647862 0.0041978476
147 283 810 0.39104885 0.5813182 -0.71354753 0.013801156
148 284 811 0.35467899 0.60004431 -0.71704233 0.01194675
150.5 283.5 812 0.45154741 0.5435189 -0.707596 0.0071941074
143.66667 286 810 0.55141026 0.4036189 -0.73009485 0.0081613502
146.33333 285.66666 811.66669 0.45471585 0.48390493 -0.74770957 0.0084305601
143.66667 288.66666 811.33331 0.55562001 0.44667533 -0.70126146 0.0082044424
139 292 810 0.60125166 0.26137161 -0.75510347 0.018968197
141.33333 291 811 0.49695039 0.47243088 -0.72790748 0.029253753
143 290 812 0.64748406 0.44521555 -0.61850423 0.0075263432
139 294 811 0.58380538 0.28984168 -0.75839514 0.0076136868
141 293.5 812 0.56502366 0.34041396 -0.75157613 0.012978341
135 297 810 0.47285235 0.52092606 -0.71066642 0.01073374
138.33333 296 811 0.61590242 0.39656833 -0.68073326 0.014729177
136 298 811 0.53896362 0.58694774 -0.60416108 0.012656649
174 257 813 0.42408428 0.59003675 -0.68702924 0.0027319745
175.33333 256 813.33331 0.44176835 0.50381118 -0.74230379 0.0028245209
171.5 258.5 813.5 0.45996949 0.53735095 -0.70688194 0.0097053796
168 262 813 0.58234316 0.4308227 -0.68939704 0.0025671003
170.33333 260.33334 813.66669 0.52506733 0.45882407 -0.71678782 0.0033732157
167 264 813 0.59981889 0.39469868 -0.69601029 0.0014912229
168 264 814 0.57226884 0.33512601 -0.74846435 0.0084517207
166.5 266 814 0.52560401 0.42052758 -0.73952484 0.0080871526
163 269 813 0.46235451 0.57509124 -0.67490619 0.024118394
