ply
format ascii 1.0
comment PCL generated
element vertex 751
property float x
property float y
property float z
property float nx
property float ny
property float nz
property float curvature
element camera 0
property float view_px
property float view_py
property float view_pz
property float x_axisx
property float x_axisy
property float x_axisz
property float y_axisx
property float y_axisy
property float y_axisz
property float z_axisx
property float z_axisy
property float z_axisz
property float focal
property float scalex
property float scaley
property float centerx
property float centery
property int viewportx
property int viewporty
property float k1
property float k2
end_header
-81 107 637 -0.21619098 -0.41258112 -0.88489449 0.031883918
-80 107 637 0.19544926 -0.49698219 -0.8454634 0.033740375
-68.400002 106.2 636.59998 -0.5615474 -0.34898993 -0.750247 0.024514511
-66.5 106 636 -0.093245991 -0.67216772 -0.73450375 0.012516685
-64 106 635.66669 -0.1408999 -0.61177129 -0.77838486 0.026377056
-61.599998 105.8 635.40002 -0.14546855 -0.57699734 -0.80368716 0.028585032
-59 105.5 635.16669 -0.17198645 -0.40095922 -0.8998068 0.029557431
-56.5 105 635 -0.14134228 -0.36162561 -0.92154723 0.043160468
-111 108.5 636 0.63030493 -0.21428941 -0.74618751 0.024682965
-109.66666 108.66666 636.66669 0.55273765 -0.42353541 -0.71770388 0.021493882
-91 109 637 -0.34170687 -0.59496647 -0.72749662 0.019240314
-89 109 637 -0.033229224 -0.69223672 -0.72090513 0.036292009
-86.5 109 637 -0.082576558 -0.69149387 -0.71764714 0.01048483
-84.199997 108.4 636.79999 -0.19789726 -0.61699039 -0.76168209 0.016576126
-81.5 108.5 636.5 0.087662622 -0.55396539 -0.82791156 0.036859274
-79.599998 108.6 636.79999 0.23327383 -0.42394435 -0.87513119 0.055257786
-76.666664 108.66666 637 0.13217644 -0.63574529 -0.76049805 0.057292823
-74 109 636 0.068014979 -0.86047173 -0.50493807 0.028931865
-71.5 109 637 -0.1556717 -0.89225119 -0.42385629 0.049951836
-69 108.5 636.16669 -0.47959667 -0.52371258 -0.70406836 0.025406661
-67 108.5 635 -0.5822295 -0.31800306 -0.74825317 0.025905777
-111.33334 110.33334 635 0.55234051 -0.31152275 -0.7732228 0.046883017
-109 110.5 635.83331 0.25828665 -0.65046746 -0.71426892 0.01974359
-106.5 111 636 0.020277081 -0.71033823 -0.70356828 0.0036555398
-104 111 636 0 -0.70710677 -0.70710677 0
-101.5 111 636 0 -0.70710683 -0.70710683 0
-99.14286 110.71429 636.28571 -0.021096166 -0.71859998 -0.69510365 0.001849856
-96.5 111 636 0.023108738 -0.73001128 -0.68304437 0.0012566552
-94 111 635.88892 -0.07693997 -0.69334584 -0.71648568 0.012325203
-91.5 111 635.83331 0.019830875 -0.60620511 -0.79506111 0.030752195
-89.14286 110.85714 635.71429 -0.13052906 -0.56372559 -0.81558293 0.021005537
-86.5 110.5 635.5 -0.045306247 -0.69416189 -0.71839172 0.0039990754
-84.5 110.5 635.5 -0.12510405 -0.66709083 -0.73439693 0.014748555
-81.333336 110.33334 635.33331 0.31839675 -0.57712799 -0.75202847 0.029413903
-79 110.5 635.5 0.040953785 -0.68564332 -0.72678471 0.016594954
-76.666664 110.33334 635.66669 -0.12785836 -0.76018023 -0.6370073 0.0075046965
-74 110 635 0 -0.73892295 -0.67378992 0.010664201
-71.333336 110.33334 635.66669 -0.067145199 -0.75866371 -0.64801306 0.014139865
-69 110 635 -0.27745306 -0.64773917 -0.70954466 0.018136464
2 159 635 0.89884418 0.24024391 -0.36655429 0.0030305171
3 159 637 0.91407156 0.2150735 -0.34382635 0.0025605313
2 160.5 636 0.89931077 0.2166971 -0.37984526 0.002459703
2 163.5 637 0.93851739 0.1370278 -0.31687313 0.00077879144
1 165 635 0.94672847 0.073063709 -0.31363499 0.002060785
-1 184 635 0.92603576 0.18713187 -0.32777974 0.0019096417
-1 186 635.5 0.93694109 0.13352628 -0.32297391 0.00098239502
-1 188.5 636.5 0.93571031 0.094903335 -0.339764 0.001554481
-1.5 191 636 0.93099135 0.10990913 -0.34810224 0.0021007091
-2 193.5 635 0.93966442 0.036912758 -0.34010038 0.0013570942
-2 196.5 635.5 0.94334972 0.11314919 -0.31191111 0.0032358572
-2 198.5 636.5 0.9305672 0.1399374 -0.33832264 0.0048327399
-3 201.5 635 0.89361984 0.17947072 -0.41138041 0.0029339266
-2 200 637 0.91984481 0.12260981 -0.37262905 0.0066477563
-3 203.5 636 0.87469655 0.20550567 -0.43894574 0.0031780913
-3.6666667 206 635.66669 0.90796071 0.17397466 -0.38123497 0.0021507319
-4 208.5 636 0.93138415 0.16398466 -0.32501161 0.0011214039
-4.25 211.25 636.5 0.92100406 0.087128565 -0.37968433 0.0018915469
-5 213.5 635 0.90435046 0.054964233 -0.42323661 0.0025497854
-5 216 636 0.89440918 0.19543639 -0.40228954 0.0050040581
-6 219 635 0.90325588 0.20552461 -0.37668091 0.0015159321
-5 218 637 0.87957531 0.20969324 -0.42705512 0.0043156231
-6 221 636 0.9122656 0.1301464 -0.38837254 0.0024920015
-6 223.5 637 0.91482538 0.13331167 -0.38121197 0.002038761
-7 226 635 0.91731155 0.085571952 -0.38886628 0.002710379
-7 228.5 635.5 0.89976132 0.19068195 -0.39251742 0.0038005428
-8 232 635 0.86277616 0.22120908 -0.45462501 0.0032994496
-7 231 637 0.90616101 0.15884452 -0.39197025 0.0054467949
-8 233.5 635.5 0.86641264 0.1761633 -0.46722117 0.0047538048
-8 236 636.66669 0.91677499 0.15651424 -0.36745998 0.0024102507
-9 238.5 635 0.91939938 0.092585161 -0.38227314 0.0017594506
-129.5 241 635 -0.44156733 0.2952452 -0.84725946 0.015589511
-9 241 635.66669 0.92731589 0.13976945 -0.34720275 0.0033652838
-128.66667 243.66667 635.66669 -0.24387655 0.47584844 -0.84503996 0.027533954
-126.5 244 635 -0.28949168 0.37680218 -0.87989467 0.028662864
-125 244 635 -0.21363837 0.44817227 -0.86804396 0.028510058
-9 243.5 636.5 0.91188264 0.23341623 -0.33761954 0.0066448236
-128.5 246 636.5 -0.099496223 0.48998824 -0.8660323 0.014523661
-126.5 245.75 636 -0.22416031 0.49882612 -0.83721244 0.024367604
-124 245.5 635.33331 -0.07458517 0.6305179 -0.77258283 0.038841795
-121.66666 245.66667 635.33331 -0.26297733 0.69675171 -0.66736794 0.019969242
-119.66666 246.66667 635.33331 -0.42640716 0.64494795 -0.63420743 0.0087057389
-11 247 635 0.89789653 0.2404151 -0.36875805 0.0014794877
-10 245.5 636.5 0.83877295 0.31717607 -0.44255987 0.0037224065
-124 248 637 -0.061463151 0.66964084 -0.7401374 0.0019985286
-121.5 248 637 -0.17858551 0.52944678 -0.82933301 0.013643233
-118.75 248.5 636 -0.47343132 0.49640587 -0.72762907 0.0038125976
-117 249 635 -0.57735032 0.57735032 -0.57735032 0
-11 248.5 636.5 0.90976048 0.20989445 -0.35816222 0.0037737782
-118.5 250.5 637 -0.44126588 0.47008377 -0.76439887 0.0048089684
-116.5 250.75 636 -0.44638571 0.5233773 -0.72582096 0.0094815698
-114 251.5 635.25 -0.36948508 0.65790808 -0.65622997 0.010813311
-112 252 635 -0.26173124 0.64533269 -0.71766472 0.028434481
-11.25 251.25 636.5 0.91579038 0.065805651 -0.39622915 0.0019327337
-116 253 637 -0.36097541 0.5656755 -0.74142295 0.010775234
-114 253.66667 637 -0.26409334 0.60287029 -0.75286263 0.012956221
-111.33334 253.33333 635.66669 -0.40250966 0.65379012 -0.64073735 0.015807111
-109.5 254 635.5 -0.44040668 0.67177552 -0.595617 0.013823478
-12 253.5 635 0.89442724 -5.1093133e-11 -0.44721362 0
-108.8 255.8 636.20001 -0.39625242 0.53143579 -0.74870557 0.011279298
-106.66666 255.66667 635.33331 -0.3422654 0.65868974 -0.67006141 0.01145412
-104.66666 256.66666 635.33331 -0.36852595 0.68367499 -0.62990248 0.01085119
-11.75 255.75 635.75 0.92478973 0.083559461 -0.37118977 0.0041348413
-108 258 637 -0.30447829 0.50181264 -0.80961543 0.027129179
-106.5 258.5 637 -0.24828441 0.39427483 -0.8848176 0.024697483
-103.75 258.5 636.25 -0.44847792 0.4927097 -0.74572432 0.018936828
-102 259 635 -0.65276587 0.2739076 -0.70630831 0.0092875939
-12 258.5 636 0.93197089 0.12884362 -0.33886504 0.0017497765
-103.33334 261 637 -0.52630806 0.42366478 -0.73723006 0.011290838
-101.4 260.79999 635.59998 -0.55029815 0.36136708 -0.75271893 0.010186609
-100 262 635 -0.43093058 0.53559309 -0.72624987 0.0080311839
-13 262 635 0.8986817 0.21698919 -0.38116521 0.0018701556
-12 261 637 0.9264425 0.11789931 -0.35749671 0.0018300815
-101.5 263.5 637 -0.50462282 0.45225236 -0.73540711 0.0066432972
-98.800003 263.39999 635.59998 -0.17870817 0.59789056 -0.78140271 0.012925516
-96.5 263.5 635.25 -0.1817268 0.58105928 -0.79331297 0.027841751
-94.666664 263.66666 635 -0.074941076 0.5099625 -0.85692596 0.024576647
-13 264 636 0.86449218 0.21249002 -0.45552307 0.0029388145
-99 265.66666 637 -0.33876732 0.52917618 -0.77795202 0.014669399
-96.5 266.25 636.75 -0.31198058 0.44675559 -0.83849722 0.022273501
-94 266 636 -0.15293899 0.32616827 -0.93285799 0.023623211
-91.666664 266 635.33331 -0.39198628 0.37447295 -0.84030753 0.012680461
-90 267 635 -0.46167538 0.40147272 -0.79099655 0.016923986
-13.75 265.75 635.25 0.87676406 0.20343809 -0.43577272 0.0066197352
-96 268 637 -0.40423387 0.4604688 -0.79029334 0.02131604
-94.25 268.75 637 -0.26128778 0.49418148 -0.82916427 0.019489665
-91.5 268.5 636 -0.35605621 0.39737031 -0.84576643 0.011900975
-89.25 268.25 635.25 -0.23256135 0.51574439 -0.82457441 0.014959473
-86 269 635 -0.33804742 0.67314142 -0.65772688 0.01001756
-14.5 269 635.5 0.83791757 0.3029317 -0.45401171 0.0037001339
-93 270 637 -0.36815959 0.56147063 -0.7410866 0.019035855
-91.5 270.5 637 -0.30260149 0.49332601 -0.81551325 0.021829123
-88.85714 271 636.57141 -0.25813875 0.51298517 -0.81866384 0.02727728
-86.5 271.5 636 -0.22940522 0.52856719 -0.81730658 0.0094086118
-84 271 635.5 -0.12871192 0.52816099 -0.83933264 0.014100421
-81.666664 271 635 -0.45980635 0.40167668 -0.79198104 0.02417721
-14.666667 271 636.33331 0.86581081 0.23857138 -0.43983543 0.0040076668
-86.5 273 637 -0.27254826 0.61982089 -0.73589373 0.020004967
-84.25 273.5 636.75 -0.30416244 0.50320154 -0.80887169 0.018015405
-81.666664 273.33334 635.66669 -0.44404399 0.29999879 -0.84429002 0.010925445
-80 273.5 635 -0.56719297 0.23992661 -0.78786254 0.017578201
-16 273.5 635 0.89483094 0.20615882 -0.39594957 0.003199134
-15 273.5 637 0.87871659 0.19639139 -0.43507195 0.0031431699
-83 275 637 -0.39105821 0.48008841 -0.78523165 0.013262332
-81.5 275.5 636.5 -0.45225957 0.44809136 -0.77115202 0.0052914461
-79.25 276.75 636 -0.57978386 0.39746767 -0.71124548 0.010925691
-16 276.5 636 0.87133473 0.16123469 -0.46344277 0.0049228277
-78.666664 278.66666 636.33331 -0.57607877 0.41113472 -0.70647115 0.0088701518
-76 279 635 -0.37253717 0.49182793 -0.78696972 0.030085195
-16.5 278.5 635.75 0.8572163 0.2014709 -0.47390899 0.0043839146
-78 280 637 -0.57257187 0.41080558 -0.70950705 0.010857048
-76.5 281 636 -0.45866668 0.38145474 -0.80256909 0.017571542
-74.400002 281.20001 635.20001 -0.37932101 0.46454856 -0.80019385 0.017230956
-72 282 635 -0.22711304 0.45153084 -0.86286712 0.036711339
-18 282 635 0.88253951 0.1487024 -0.44610718 0.0047318055
-17 281.5 636 0.85292149 0.21607943 -0.4752205 0.003744201
-76 283 637 -0.36088586 0.49956727 -0.78752398 0.0089612724
-74 283.75 636.75 -0.2393789 0.65138459 -0.71999711 0.013621196
-71.5 283.5 635.5 -0.24339816 0.66308743 -0.70786464 0.016708722
-69 283 635 -0.077882193 0.57966232 -0.81112641 0.0091078281
-66.5 284 635 -0.18951097 0.58359939 -0.78961843 0.016185615
-65 284 635 -0.20539516 0.60476631 -0.76946121 0.010717286
-18 283 635 0.88356405 0.20119087 -0.42289102 0.0044174865
-17 283.5 637 0.86790109 0.20530783 -0.45232338 0.0028174114
-71 285 637 -0.37220943 0.7380352 -0.56281817 0.014759145
-69 285.5 636.5 -0.12832074 0.65154922 -0.74767476 0.012732185
-66.5 286.5 636.75 -0.34379959 0.58970094 -0.73079044 0.023320811
-63.857143 286.14285 635.42859 -0.47019291 0.35984316 -0.80587316 0.022901028
-18 286 635.5 0.93371952 0.022194484 -0.35731664 0.0073397839
-64 288.5 636.75 -0.51192683 0.50149047 -0.69745129 0.022315415
-61.5 288.5 635.5 -0.27803677 0.46130592 -0.84255117 0.018225381
-59 288 635 -0.17878816 0.54579657 -0.81862134 0.013723738
-57 289 635 -0.38980675 0.53096932 -0.75241101 0.0094593558
-18 289 636 0.90081352 0.15398921 -0.40598315 0.0028641657
-63 290 637 -0.53316081 0.53316081 -0.65687078 0.014216077
-61.400002 290.79999 636.40002 -0.33236614 0.46721181 -0.81929606 0.028599137
-59 291 636.33331 -0.020880932 0.40608925 -0.91359484 0.026087962
-56.5 291.25 636 -0.36407906 0.44646505 -0.81738329 0.028126679
-54.666668 291 635 -0.46891865 0.41830966 -0.77790248 0.018665535
-18 291 636.66669 0.90458637 0.12875827 -0.40638 0.0032768797
-59 293 637 -0.092140317 0.45941806 -0.88342816 0.033070982
-56.333332 293.33334 636.66669 -0.35612738 0.52065092 -0.77594846 0.041372143
-54.25 293.5 636 -0.37874117 0.53925246 -0.75217146 0.013434609
-51.5 294 635 -0.32046703 0.53421187 -0.78225225 0.011957405
-18.5 293.5 636 0.9043628 0.099863939 -0.41491574 0.0017447441
-53.333332 295.33334 636.66669 -0.49928644 0.52474624 -0.6894595 0.012229024
-51.5 296.5 636.5 -0.30717522 0.61934578 -0.72253329 0.013672568
-49.200001 296.39999 635.40002 -0.43634406 0.56669927 -0.69889605 0.012251303
-19 296.5 636.5 0.89282137 0.20213512 -0.40250635 0.0022946349
-48.333332 298.66666 636.33331 -0.49463275 0.46155733 -0.73641247 0.015292534
-46.5 298.5 635.25 -0.36500382 0.57273734 -0.73399192 0.021710917
-44.5 299 635 -0.28621787 0.60892695 -0.73978865 0.026234362
-19.666666 298.33334 635.66669 0.90619731 0.15665482 -0.39276668 0.0030392336
-46.333332 301 636.66669 -0.33877856 0.52314639 -0.78201461 0.014751143
-44 300.66666 635.83331 -0.25428396 0.57414615 -0.77826464 0.020704849
-41.5 301 635.5 -0.30699417 0.51159841 -0.80250961 0.023550732
-40 301.5 635 -0.58078468 0.39284492 -0.71299517 0.020337071
-20 301 635.5 0.88975 0.17108931 -0.42317063 0.0018071788
-43.5 303 637 -0.29135692 0.51424336 -0.80663812 0.015101224
-41.5 303.5 636.5 -0.39930582 0.46099126 -0.7924909 0.01481875
-39 303.5 635.5 -0.45880333 0.50429577 -0.73156357 0.0127137
-21 304 635 0.8612166 0.26326433 -0.43473884 0.0037856509
-20 303.5 637 0.88053751 0.23621374 -0.41092172 0.0026479117
-41 305 637 -0.36097541 0.5656755 -0.74142295 0.010775234
-38.75 305.75 636.75 -0.35707164 0.54112178 -0.76137185 0.012763126
-36.5 305.75 636 -0.34285346 0.5619548 -0.75276715 0.012259963
-34 306.20001 635.40002 -0.28140336 0.50222754 -0.81766725 0.010335321
-32 307 635 -0.29557088 0.4601464 -0.83719957 0.0044230092
-21.333334 306 635.66669 0.79451907 0.33541024 -0.50620091 0.012414492
-36 308 637 -0.32594162 0.57906246 -0.74729431 0.017575826
-33.5 308.5 636.5 -0.35483384 0.48097754 -0.80171913 0.0088100377
-31 308 635 -0.25684115 0.54778904 -0.79621589 0.011914751
-29.200001 308.60001 635.20001 -0.30208582 0.42009878 -0.85572267 0.020102203
-24 309 635 0.28923404 0.47505134 -0.83106548 0.025751114
-21.5 308.5 636.5 0.72670269 0.30829799 -0.61388564 0.014344951
-33 310 637 -0.40763596 0.50352567 -0.76177084 0.01214282
-31.5 311 637 -0.40155616 0.37111995 -0.83727092 0.015605252
-28.5 310.5 635.75 -0.27958885 0.48272151 -0.82994574 0.026670463
-26.5 310.5 635.5 0 0.64607948 -0.76327014 0.008142462
-24 310.66666 636 0.28609395 0.46477339 -0.83793551 0.025717504
-22 311 637 0.5713554 0.3995133 -0.71689761 0.010332793
-8 -79 639 0.45882338 0.86655927 -0.19635713 0.0033052089
1 -78 639 -0.41378185 0.8322103 -0.36906722 0.013968379
-12 -76.5 638.5 0.78661501 0.49598026 -0.36775038 0.020167276
5.5 -77 638 -0.20070231 0.9523229 -0.22978196 0.0012000756
9 -76 639 -0.35908607 0.85900676 -0.36491734 0.0037923155
10 -76 638 -0.36123046 0.85393929 -0.37456667 0.0052669677
-13.25 -73.75 638.5 0.75342464 0.060053103 -0.65478617 0.032199323
-12 -74 639 0.64267558 -0.26177266 -0.72003001 0.040390421
11 -75 639 -0.34751257 0.86242235 -0.36805269 0.0059953765
-13.5 -72 638 0.47855604 -0.31649014 -0.81903481 0.047423132
-11.5 -72 638.5 0.25984186 -0.60619527 -0.7516712 0.018977981
-8.666667 -71.333336 638.66669 0.25043598 -0.69139361 -0.67768478 0.014548036
-6.5 -71 639 0.062020667 -0.71825349 -0.69301182 0.0082903588
-4 -71 639 0 -0.70710683 -0.70710683 0
-1.5 -71 639 0.018064255 -0.64350688 -0.76522714 0.0038359244
1.2 -71.400002 638.59998 -0.14629567 -0.71255869 -0.68619072 0.017507607
3.3333333 -71.333336 638.66669 0.2487482 -0.67516685 -0.69445962 0.012155621
5 -71 639 0.26943412 -0.57520646 -0.77236187 0.009902494
-4 -69 638 0.048672076 -0.69345021 -0.71885866 0.028170595
-1 -69 638 -0.14921013 -0.68323356 -0.71479249 0.022042658
6 -69 638.5 0.53598845 -0.43193746 -0.7253595 0.020052126
7 -66.5 638 0.81403309 -0.1225838 -0.56773525 0.022207391
7 -64 638.33331 0.89720416 0.019333992 -0.44119248 0.011051591
7 -61.5 638.5 0.94113797 0.061384965 -0.33240214 0.0058900691
7 -60 639 0.93828291 0.14528747 -0.31387383 0.0010669964
6 -56 638 0.90907109 0.24697052 -0.33555242 0.0044911159
5.5 -54 638.5 0.89901936 0.2904464 -0.32772732 0.0030770784
5 -52 639 0.9214372 0.3148151 -0.22769493 0.00071737822
4 -49 638.33331 0.94192749 0.21370549 -0.25904158 0.0019600953
3 -44.5 638.5 0.92259562 0.26503929 -0.28030607 0.0016145764
2 -42 638 0.94369847 0.22792125 -0.23976068 0.0052695116
2 -40 638 0.95376128 0.17351647 -0.24542114 0.0059595862
1 -36 638 0.93683511 0.15635702 -0.31287786 0.00094091799
1 -34 638.66669 0.92078221 0.19506568 -0.33780092 0.0017439461
0 -31 638 0.87581909 0.13407159 -0.46364403 0.0031441113
0 -29 638.33331 0.90062392 0.13265325 -0.41385943 0.0046702381
0 -26.5 639 0.89859056 0.19440416 -0.39337268 0.0069271633
-1 -24.5 638.5 0.88791984 0.30012336 -0.34860328 0.0035542268
-3 -21 639 0.72358555 0.62944883 -0.28322819 0.00285852
-2 -22 638 0.79619718 0.54390228 -0.26502886 0.0075696376
-4.6666665 -19 638.33331 0.77438396 0.55226851 -0.30875421 0.0035669133
-6 -16.5 638.5 0.8334403 0.40349147 -0.37758702 0.0013195269
-7 -14.5 638.5 0.85921681 0.35176098 -0.37149781 0.0025462878
-8 -11 638 0.81649661 0.40824825 -0.40824825 0
-8.666667 -9 638.33331 0.89969009 0.21653487 -0.37903863 0.0045665423
-9 -6.5 638 0.91973466 0.088594407 -0.38241237 0.0023367368
-9 -4 639 0.92536902 0.035198577 -0.37742972 0.0026967793
-9 -1.5 638.5 0.92335504 -0.084614202 -0.37450761 0.0027492587
-9 1 638 0.9002912 -0.091937378 -0.42546827 0.0044726855
-8 4 639 0.88298219 -0.33589646 -0.32789642 0.0043034567
-8 5 638 0.84083891 -0.35511515 -0.4085134 0.0037973009
-7 6.5 638.5 0.84816808 -0.43845642 -0.29726559 0.0020115965
-6 8.5 638.5 0.84200305 -0.41448778 -0.34529805 0.0026184022
-4.6666665 11 638.66669 0.84822756 -0.32803142 -0.41581896 0.0030751966
-4 14 639 0.92443311 -0.11654237 -0.36309966 0.0025099413
-4 16 638 0.92468071 -0.13902998 -0.35445201 0.0021870134
-3 19 639 0.8977077 -0.20052382 -0.392315 0.0016037014
-3 21 638.33331 0.89218736 -0.23483914 -0.38581392 0.0025761363
-2 23.5 638.5 0.87763834 -0.26038888 -0.40242836 0.0053647757
91.5 24 639 -0.17849512 -0.75680053 -0.62880236 0.014280252
93.5 24 639 -0.15745036 -0.85270035 -0.49810791 0.014227644
96 24 638 -0.077592656 -0.7808342 -0.619901 0.0058845845
98.5 24 638 0.018064255 -0.76522714 -0.64350688 0.0038359207
101 24 638.5 0.10747213 -0.72006226 -0.68553632 0.0050551901
103.5 24 639 6.5854455e-10 -0.70710683 -0.70710683 0
106 24 639 -0.021349197 -0.82566971 -0.56374967 0.0041302438
108.5 24 639 -0.12499873 -0.8335101 -0.53817856 0.0075258818
111 24 638 -0.068780676 -0.89899158 -0.43253124 0.0023914713
113.5 24 638 -0.015877452 -0.88458496 -0.46610871 0.0030976827
116 23.5 638.5 0.046532605 -0.76758075 -0.63926095 0.010128724
118.5 24 639 0.17849512 -0.75680053 -0.62880236 0.014280252
121 24 639 0.11456801 -0.85534573 -0.50523049 0.0098639596
-1.6 26.200001 638.40002 0.73493642 -0.17954314 -0.65393621 0.016497901
62 27 639 -0.14392339 -0.7585966 -0.63546622 0.016476803
63.5 27 639 -0.18513125 -0.7463693 -0.63926464 0.01412018
65.800003 26.6 638.40002 -0.083008356 -0.78098524 -0.61900866 0.014667826
68.666664 26.666666 638.33331 -0.022712972 -0.75777543 -0.65211993 0.0043242243
70.75 26.5 638.5 -0.092838675 -0.84100884 -0.5329963 0.008587827
73.5 26 639 -0.021900553 -0.85409045 -0.51966321 0.0065203216
76 26 639 0 -0.70710683 -0.70710683 0
78.5 26 639 -0.087158024 -0.82310325 -0.56116349 0.0076058861
81 26 638 -0.079361171 -0.89318329 -0.44263455 0.0029002575
83.5 26 638 0 -0.89442724 -0.44721362 0
86 26 638 -0.038302671 -0.89127207 -0.4518483 0.0021813773
88.333336 25.333334 638.66669 -0.18736897 -0.82073772 -0.53970593 0.0085171079
91 25 638.33331 -0.13851334 -0.74904257 -0.64788055 0.0093253627
93 25 638 -0.18058455 -0.74209148 -0.64551491 0.015996302
101.5 25 638 0.14223351 -0.78641003 -0.60110646 0.011122007
103.5 25 638 0 -0.70710683 -0.70710683 0
105 25 638 -0.12153015 -0.72185981 -0.68128473 0.021933239
123.5 25 638.5 0.44721395 -0.76115865 -0.46972027 0.018540427
125 26.5 639 0.81373179 -0.3308669 -0.47787839 0.032151818
-85 29 639 -0.9441269 -0.078110866 -0.32019228 0.0033628121
-1.3333334 28.333334 638 0.47404158 -0.45408076 -0.75438404 0.02087372
0.33333334 28.666666 638.66669 0.46663424 -0.53348053 -0.70544386 0.018231491
24 29 639 -0.13486934 -0.7212519 -0.679416 0.053025793
25 29 639 0.35849968 -0.68955684 -0.62927693 0.019044489
33.5 29 639 -0.2340322 -0.8657527 -0.44238126 0.014358902
36 29 638.66669 0.098266594 -0.90193635 -0.4205406 0.015406593
49 29 639 -0.37298107 -0.81275946 -0.44755688 0.005512204
51 28.5 638.5 -0.36411291 -0.76585829 -0.52998382 0.010962185
53.5 28 638 -0.050858811 -0.75349003 -0.65548927 0.0051268674
56 28 638.33331 0.066601194 -0.83537567 -0.5456298 0.013545823
58.5 28 638 -0.080440588 -0.8928656 -0.44308048 0.0067879511
61 28 638 -0.089333959 -0.87467903 -0.47639912 0.0036720757
125 28.5 638.5 0.91008282 -0.1113933 -0.39917508 0.0027427166
-85 31 639 -0.91381884 -0.14175893 -0.38057786 0.0054317154
1.5 30.5 638.25 0.51057738 -0.5381037 -0.67063785 0.021917675
3.3333333 31.666666 638.66669 0.46735337 -0.68160051 -0.56302887 0.0097249215
19 30.5 638.5 -0.41968089 -0.73285627 -0.53552747 0.0477833
20.75 30.25 638.75 -0.12062296 -0.76928043 -0.62742156 0.0081505729
23.5 30 638 -0.043910034 -0.77176893 -0.63438517 0.016940756
26 30.333334 638.66669 0.30122197 -0.72852433 -0.61523789 0.013612601
28.5 31 638 0.046606686 -0.91261804 -0.40614796 0.011056572
31 30.333334 639 -0.31138161 -0.8133381 -0.49144962 0.023196153
37 30 638 0.21548453 -0.88436788 -0.41407701 0.01970035
38.5 30 638 0.24025029 -0.83289856 -0.49855763 0.0098622097
41 30.5 638.5 0.060626939 -0.8985374 -0.4346894 0.0063502686
44 30 639 -0.13234703 -0.89328545 -0.42956412 0.0039035699
46 30 639 -0.13984825 -0.89217681 -0.42949161 0.005520077
48 30 638 -0.25635102 -0.86970639 -0.42177606 0.0046283668
125 30.5 638 0.87067533 -0.058088243 -0.48841614 0.0079166405
-86 34 639 -0.53171515 -0.52145034 -0.66735935 0.068529837
-85 33 638 -0.85527545 -0.27751026 -0.43759805 0.0036363471
6 33 638.33331 0.35110354 -0.84905094 -0.39476418 0.0078382073
8.5 34 639 0.26805043 -0.83730739 -0.47651368 0.025517166
11 34 639 -0.061145395 -0.87503159 -0.48018843 0.0055632032
13.5 34 638.5 -0.22697103 -0.82961673 -0.51011783 0.0064303065
15.666667 33.333332 638.66669 -0.33221203 -0.83753312 -0.43378961 0.017711217
-129 37 639 -0.049465224 -0.72397739 -0.68804789 0.0030103114
-126.5 37 639 -0.047704328 -0.77114362 -0.63487148 0.0049270876
-124 36.75 638.5 -0.16256741 -0.81406766 -0.55755329 0.016333649
-122 37 638 -0.066975154 -0.88396406 -0.46273315 0.011918649
-119 36 639 -0.14167927 -0.88581717 -0.44187656 0.0034572901
-116.5 36 638 -0.083213225 -0.82421625 -0.56012779 0.0075359298
-113.75 36.25 638.25 0.042648122 -0.78229642 -0.62144464 0.0320253
-111.5 36 638.5 0.035428975 -0.82613528 -0.56235683 0.02314941
-109 36 639 -0.077882193 -0.81112635 -0.57966238 0.0091078235
-106.5 35.5 638.5 -0.12542278 -0.74218047 -0.65835947 0.011342428
-104.2 35.599998 638.40002 0.057571527 -0.81040162 -0.58303928 0.0062232912
-101.5 36 638 0 -0.89442724 -0.44721362 0
-98.333336 35.666668 638.33331 -0.062508605 -0.84390956 -0.53283131 0.0070513673
-96.5 35.5 638.5 -0.033358831 -0.75301033 -0.65716255 0.0044089528
-94 35.5 638.5 -0.028858872 -0.80759871 -0.58902591 0.011350804
-91.5 35.5 638.5 0.15288527 -0.88143438 -0.44687751 0.012264644
-88.75 35.75 638.25 -0.097474597 -0.84673095 -0.52301568 0.00963719
-86.5 35 639 -0.32817939 -0.71752983 -0.61436892 0.025617674
9 35 638 0.15578793 -0.88417596 -0.44041243 0.033349469
-159 39 639 -0.10885055 -0.7029053 -0.7029053 0.0047331383
-156.5 39 639 -0.12601322 -0.72164071 -0.68070215 0.0075570359
-154.2 38.599998 638.40002 -0.085710362 -0.79903197 -0.59514838 0.018852897
-151 38 639 -0.040429935 -0.918176 -0.39410442 0.0099396538
-149 38 639 -0.04005133 -0.90828598 -0.41642836 0.0070214639
-146.5 38 639 -0.023343449 -0.89179486 -0.4518373 0.0048598773
-144 38.5 638.5 0.083910041 -0.8262096 -0.55707884 0.011435482
-141.5 39 638 0.044791836 -0.83023268 -0.55561435 0.010711331
-138.8 38.400002 638.59998 -0.068035126 -0.73642838 -0.67308575 0.0057682088
-137 38 639 -0.10240193 -0.795555 -0.59716505 0.0094390623
-134 38 638 -0.081264265 -0.86967945 -0.48688173 0.0042900736
-131.5 38 638 -0.060479838 -0.88411629 -0.46333632 0.0026328678
-130 38 638 -0.15250149 -0.84117067 -0.51882106 0.0044720955
-166 41.5 639 -0.085031427 -0.16744144 -0.98220819 0.014519086
-163.85715 41.285713 639 -0.20414311 -0.27230003 -0.94030756 0.025791323
-161.60001 40.799999 638.40002 -0.42224523 -0.49375901 -0.76020467 0.025462246
-159 40 638 -0.10885055 -0.7029053 -0.7029053 0.0047331383
-157 40 638 -0.14735191 -0.77661568 -0.61249948 0.012948992
-166 43.5 639 -0.12585105 0.10701873 -0.98625988 0.017623879
-164 43.5 638.83331 -0.14604165 0.030111652 -0.98882002 0.025056729
-161.66667 43.666668 638.33331 -0.42260951 0.46806675 -0.77608931 0.041835759
-160 44 638 -0.34170687 0.59496647 -0.72749662 0.019240314
-164 45 639 -0.13676699 0.39575917 -0.90811312 0.033858832
-161.5 45.5 639 -0.22783257 0.29150665 -0.92904049 0.036566176
-159.125 46.125 638.625 -0.33391759 0.4312802 -0.83815062 0.026851509
-157 47 638 -0.54677469 0.4497453 -0.70623416 0.016992571
-158 49 639 -0.38376665 0.22072396 -0.89666277 0.021177096
-156.5 48.5 638.5 -0.33677229 0.46386477 -0.81939852 0.013827518
-154 48.666668 638 -0.29177201 0.44919699 -0.84444726 0.018991729
-156.33333 50.333332 639 -0.3205817 0.35662004 -0.87752467 0.034333851
-154.14285 51.285713 638.85712 -0.22606823 0.27495661 -0.93450087 0.037576403
-151.66667 51.666668 638.33331 -0.28855807 0.43210134 -0.85441363 0.031010561
-149.5 52 638 -0.17563359 0.17563359 -0.96866179 0.023538582
-153.5 53 639 -0.14838907 0.3889249 -0.90924037 0.042283889
-151.5 53.5 639 -0.29393467 0.29393467 -0.90950805 0.043103345
-149 53.5 638.16669 -0.21134518 0.37648258 -0.90199453 0.038453724
-147 54 638 -0.20642225 0.55014449 -0.80915439 0.032367036
-151 55 639 -0.19544926 0.49698219 -0.8454634 0.033740375
-148.8 55.400002 639 -0.13915074 0.45865083 -0.8776539 0.036081061
-146.5 55.5 638.75 -0.20379964 0.54711586 -0.81186819 0.02894664
-144.5 56 638.33331 -0.40686557 0.45173118 -0.7939769 0.032304734
-142 57 638 -0.28644964 0.53497541 -0.79482573 0.019505689
-143.5 58 639 -0.30938426 0.62793392 -0.71412909 0.020891905
-141.5 58.5 638.5 -0.48548368 0.38882899 -0.78301829 0.014539303
-139.5 59 638 -0.28056976 0.49118286 -0.8246333 0.02202284
-141.25 60.75 639 -0.45982856 0.23118262 -0.85738689 0.033447262
-139 61.142857 638.71429 -0.17768867 0.27301398 -0.94545758 0.017260073
-136.5 61.5 638.5 -0.083126351 0.57166111 -0.81626809 0.017920144
-134 61.5 638 -0.35692662 0.50824571 -0.78376639 0.019117195
-139 63 639 -0.065508857 0.46038967 -0.88529652 0.033070982
-136.5 63 639 -0.053185474 0.47406074 -0.87888432 0.027158774
-133.33333 63.333332 638.66669 -0.33455789 0.55778539 -0.75956994 0.023665769
-131.5 64 638.5 -0.39084882 0.6549542 -0.6467396 0.024081524
-131 65 639 -0.42627609 0.47543329 -0.76957911 0.0086674085
-129 66 638.28571 -0.37459573 0.50226718 -0.77936244 0.023249777
-126.66666 66.666664 638 -0.30119792 0.45289129 -0.83914793 0.035389435
-126.33334 68.333336 638.66669 -0.35310426 0.58492559 -0.73019141 0.022375576
-124.2 68.599998 638.20001 -0.33124983 0.49261293 -0.80473971 0.028810287
-122 69 638 -0.19544926 0.49698219 -0.8454634 0.033740375
-123.75 70.25 638.75 -0.32676318 0.53204536 -0.78112328 0.027198207
-121.4 70.800003 638.40002 -0.33553368 0.51291537 -0.79014874 0.025384668
-119.2 71.599998 638.20001 -0.24847701 0.57427377 -0.7800442 0.025825027
-117 72 638 -0.32264736 0.66929018 -0.66929018 0.014199415
-118.75 73.25 639 -0.13375926 0.45957133 -0.87801063 0.025482355
-116.5 73.5 638.75 -0.1847201 0.57947546 -0.79377997 0.026210308
-114 73.5 638.5 -0.085229382 0.66838801 -0.7389136 0.0093239909
-111.5 73.5 638 -0.099630214 0.3897213 -0.91552782 0.023765523
-109.66666 73.666664 638 -0.0904449 0.20261781 -0.97507215 0.018095611
-111.33334 76.333336 639 -0.39594725 0.38560042 -0.83338952 0.019150376
-109 76 638.5 -0.096849449 0.2097114 -0.97295493 0.013784262
-106.66666 76 638.33331 -0.25740445 0.39568943 -0.88157409 0.011054541
-108.75 78.25 639 -0.13065299 0.30299726 -0.94399285 0.029112924
-106.5 78.5 639 -0.037029307 0.31021363 -0.94994539 0.019762211
-104 78.666664 638.33331 -0.25644687 0.5137043 -0.81874478 0.014994555
-102 79 638 -0.14361326 0.5825941 -0.79997462 0.013163777
-103.5 80 639 -0.12601322 0.68070215 -0.72164071 0.0075570359
-101.5 80 639 -0.10113771 0.68261009 -0.72375041 0.0077674156
-98.400002 80.800003 638.59998 -0.27709523 0.52436173 -0.80514789 0.017469518
-96.599998 81.199997 638.20001 -0.31395301 0.42830226 -0.84734333 0.026800135
-94.25 81.75 638 -0.12497623 0.61756474 -0.7765274 0.021406051
-92 82 638 -0.24991097 0.72405988 -0.64287001 0.015114072
-96 83 639 -0.19762057 0.6001057 -0.77512532 0.022077611
-94 83 639 -0.039572962 0.68881559 -0.72385573 0.0078486539
-91.5 83.5 638.75 -0.32947534 0.52812546 -0.7826426 0.03002568
-89.199997 83.599998 638.40002 -0.15201928 0.61282778 -0.77545613 0.022005042
-87 84 638 -0.32264736 0.66929018 -0.66929018 0.014199415
-91 85 639 -0.34025913 0.34025913 -0.87661141 0.047077164
-89 85.5 639 -0.036660925 0.28213495 -0.95867395 0.025006725
-86.400002 85.800003 638.59998 -0.43248311 0.43248311 -0.79114902 0.049458086
-84.125 86.125 638.375 -0.12941547 0.53942007 -0.8320322 0.032114156
-81.5 87 638 -0.16352487 0.69758856 -0.69758856 0.0070997076
-80 87 638 -0.32264736 0.66929018 -0.66929018 0.014199415
-86 88 639 -0.41258112 0.21619098 -0.88489449 0.031883918
-84.333336 88.333336 639 0.018179242 0.38003692 -0.92479271 0.063724466
-81.5 88.5 639 -0.16265456 0.4219529 -0.89190763 0.040324736
-79 88.5 638.5 -0.35297909 0.41002256 -0.84100372 0.032953002
-77 89 638 -0.41258112 0.21619098 -0.88489449 0.031883918
-79 91 638.77777 -0.38702527 0.13652731 -0.91190553 0.039283458
-76.599998 91.199997 638 -0.19495945 0.19495945 -0.96123958 0.037572298
-74.25 91.75 638 -0.12965815 0.24654928 -0.96041781 0.018898465
-78.333336 93.333336 639 -0.26859343 0.334326 -0.90337348 0.039363537
-76.5 93.5 638.75 -0.36499372 0.40307826 -0.8392303 0.039995074
-74 93.5 638 -0.058289256 0.16031247 -0.98534375 0.022802403
-71 93.5 638 -0.17348351 0.26068863 -0.94970781 0.031310122
-70 94 638 -0.49698219 0.19544926 -0.8454634 0.033740375
-76 95 639 -0.39442214 0.39442214 -0.82997733 0.028433036
-73.875 95.875 638.875 -0.25624442 0.34754047 -0.90197247 0.035431884
-71 96 638 -0.047248159 0.12131403 -0.99148899 0.010631088
-69.333336 96.333336 638 -0.19291948 0.35856521 -0.91335267 0.034911375
-71.333336 98.333336 639 -0.19064128 0.43833318 -0.878362 0.022512337
-69 98.5 639 -0.18585783 0.31366932 -0.93116504 0.028775621
-66.666664 98.666664 638 -0.48218036 0.28569844 -0.82817781 0.032536376
-110 101 639 0.93472147 0.29958621 -0.19116475 0.034907863
-68 100.5 639 -0.32529438 0.11732037 -0.93830675 0.046941996
-66.5 100.5 638.5 -0.35897967 0.29092145 -0.88684738 0.043482367
-64.125 101.125 638 -0.24894497 0.16131267 -0.95498931 0.036767509
-62 102 638 -0.48248807 -0.001076721 -0.87590194 0.04868558
-111 103.5 639 0.89282387 0.027348612 -0.4495748 0.035947122
-71.5 104 639 -0.24251534 -0.58247644 -0.77582693 0.033487007
-68.666664 103.83334 638.5 -0.10264533 -0.64661849 -0.755876 0.089551307
-66.5 103.66666 638.66669 -0.21990563 -0.68926173 -0.69033307 0.096942849
-64.666664 103.33334 638 -0.43129018 -0.43419591 -0.79086196 0.044724766
-111 105.5 638.5 0.83514982 -0.36205304 -0.41405582 0.02005804
-110 106.5 639 0.78196657 -0.49766392 -0.37531173 0.020166745
-86.5 107 639 -0.38025182 -0.5684334 -0.72958356 0.061192684
-84 106.33334 638.33331 -0.16358049 -0.66942096 -0.72464967 0.077946395
-81.5 106 638.5 -0.31423727 -0.68439788 -0.65791684 0.071890227
-78.909088 105.72727 638.36365 0.22298019 -0.60421973 -0.76498252 0.076355644
-76.5 106.25 638.75 0.083176106 -0.51854479 -0.8509953 0.079181395
-74 106.18182 638.81818 -0.011753269 -0.37735647 -0.9259935 0.057023261
-71.800003 106.4 638.59998 -0.27424893 -0.33884054 -0.89998585 0.065873094
-69.75 105.75 638 -0.38341957 -0.32742232 -0.86358792 0.054218091
-108.5 108.75 638.5 0.45874316 -0.84731424 -0.26760662 0.075455278
-106.5 109 638.5 -0.013218409 -0.89939475 -0.43693745 0.038583551
-103.75 109 638.25 0.031973258 -0.8448776 -0.53400332 0.023728985
-101.5 109 638.5 0.014728719 -0.91682011 -0.39902866 0.037259061
-99 109 638.5 0.0085567422 -0.91712254 -0.39851356 0.063135281
-96.5 109 638.5 0 -0.89865351 -0.43865925 0.032736279
-94 109 638.5 -0.042932469 -0.89054692 -0.4528608 0.042678047
-91.599998 108.4 638.59998 -0.40943974 -0.73995429 -0.53369164 0.050916485
-89 108.14286 638.42859 -0.010170648 -0.87398839 -0.48584032 0.065416522
-86.5 108 638.5 -0.25544167 -0.7653839 -0.59070885 0.080426782
-76.5 108 638 0.33996153 -0.59381467 -0.72925323 0.073330894
-74 109 638 0.096059978 -0.85848576 -0.50376052 0.12610647
-71.5 109 638 -0.073489428 -0.65185958 -0.7547704 0.10769142
-99 110 639 -0.052341975 -0.96372622 -0.2617099 0.070582904
3 160.5 638.5 0.92673147 0.20429298 -0.31533018 0.0031720703
2 165 638 0.93954384 0.12297895 -0.31958348 0.0014014973
0 187 639 0.93658626 0.11637741 -0.33054882 0.0020394414
0 188.5 639 0.93576276 0.11567762 -0.33311683 0.002238478
-1 192 638 0.93889064 0.086277187 -0.33322769 0.0011604757
-1 193.5 638 0.95008487 0.072125137 -0.30354029 0.002034493
-1 196 638.5 0.92780519 0.082396828 -0.36385211 0.0031413166
-1 198.5 639 0.91381288 0.084015802 -0.39735037 0.004677779
-1.5 200.5 638.5 0.91826928 0.16739534 -0.35883191 0.0062361024
-2 203.5 638.5 0.93123126 0.084657408 -0.35445949 0.0046678679
-3 207 638 0.88474339 0.2350169 -0.40248761 0.0038197199
-2 205.5 639 0.90360779 0.17205869 -0.39228669 0.0093896911
-3 208.5 639 0.88004845 0.15904865 -0.44745758 0.0052208612
-3 210.5 639 0.89183587 0.10577614 -0.43981832 0.0040870579
-4 214 638 0.91395068 0.06480632 -0.40061748 0.0023529865
-4 216 638 0.87510419 0.1095615 -0.47136924 0.0053752083
-4 218 639 0.8664453 0.23661017 -0.43964553 0.0046249279
-5 221 638.66669 0.9094038 0.13610652 -0.39301366 0.0026096469
-5 223.5 639 0.90853834 0.10743407 -0.40375245 0.00258731
-6 226.5 638 0.90467656 0.056335535 -0.42235848 0.0014704498
-6 228.5 638 0.89423913 0.12915921 -0.42854908 0.0046500508
-6.3333335 231 638.66669 0.88477027 0.18690544 -0.42690495 0.0039435946
-7 234 638 0.90249383 0.1734197 -0.39424679 0.0034775625
-7 235.5 639 0.90881801 0.19509153 -0.36876696 0.0018456669
-8 239 638 0.93342471 0.17227651 -0.3147049 0.00093097275
-8 241 639 0.92086124 0.11868548 -0.37138721 0.0020855488
-9 246.5 638.5 0.86859912 0.27557528 -0.41181767 0.0063456818
-128.5 248 638 8.2318072e-09 0.70710683 -0.70710683 0
-126.66666 248.66667 638.66669 -0.19774848 0.6559 -0.72848517 0.011609809
-124 249 638 -0.058730062 0.71289605 -0.69880611 0.0052665896
-122 249 638 -0.18058455 0.64551491 -0.74209148 0.015996302
-10 248.5 638.5 0.82862264 0.29413986 -0.47630486 0.0045198053
-124 250 639 -0.11196774 0.60182661 -0.79073882 0.016373307
-121.5 250.5 638.75 -0.31082699 0.51732045 -0.79734945 0.012891999
-119 251.66667 638.33331 -0.42742646 0.44023019 -0.78962272 0.0076880776
-10 250 639 0.88067329 0.19895025 -0.42992258 0.004402102
-119 254 639 -0.44835147 0.34024784 -0.82656664 0.0066866209
-116.5 253.5 638 -0.37570831 0.55285949 -0.74376714 0.013919286
-115 254 638 -0.33058175 0.618056 -0.71324784 0.01179931
-11 254 638 0.94559795 0.057855114 -0.3201521 0.0023029826
-118 255 639 -0.44656825 0.4671562 -0.76311332 0.020465162
-116.5 256 639 -0.32275653 0.67604148 -0.66241688 0.014124608
-113.5 256 638.5 -0.21635708 0.52647913 -0.82219791 0.016470838
-111.5 255.5 638 -0.36676127 0.50852293 -0.77903181 0.014441131
-110 257 638 -0.5086261 0.4624345 -0.72626019 0.0049266247
-11 256 638 0.93526763 0.10546028 -0.33786488 0.0035154503
-111 258 639 -0.33848962 0.44527188 -0.82894969 0.0025149223
-109 258.66666 638.33331 -0.43420368 0.43920496 -0.78648978 0.0054882481
-11 258.5 639 0.92359275 0.10384048 -0.36904418 0.00189126
-108.5 260.5 639 -0.27942133 0.5126574 -0.81185353 0.0050467774
-106.5 261 639 -0.21410725 0.53842556 -0.81501895 0.011543082
-104.66666 261 638.33331 -0.50983614 0.44562429 -0.73585737 0.010580878
-11 260 639 0.92174703 0.088482745 -0.3775622 0.0013461318
-103.66666 263.33334 638.66669 -0.61718851 0.29498133 -0.7294274 0.019359678
-102 264 638 -0.47289684 0.47289684 -0.74346298 0.00525541
-12 264 638 0.89857918 0.19809213 -0.39155456 0.0021662912
-103.5 265 639 -0.51906407 0.41137603 -0.74922782 0.030401308
-101.33334 266 638.66669 -0.41081136 0.51277483 -0.75385416 0.011041555
-99 266.5 638 -0.35897806 0.53509128 -0.76473004 0.012364112
-13 267 638 0.9067511 0.18533112 -0.37875447 0.0034395158
-12 265.5 639 0.87731838 0.21210794 -0.4304913 0.002886584
-99 268.33334 639 -0.36045712 0.56686604 -0.74076557 0.010548572
-96.5 268.5 638 -0.45016563 0.44649044 -0.77330285 0.011845378
-13 268.5 638 0.89525998 0.18373291 -0.40589628 0.0038274266
-96 271 639 -0.53380334 0.46383774 -0.70704222 0.017469795
-94.199997 271 638.40002 -0.334075 0.4893558 -0.80555874 0.014772207
-91.5 271.5 638 -0.40283641 0.51858711 -0.7541818 0.015655039
-89 272 638 -0.032095704 0.50638652 -0.86170912 0.046765037
-13.5 271 638.5 0.87227559 0.24021937 -0.42594594 0.0014374027
-93.5 273 639 -0.28578287 0.53823441 -0.79286313 0.022421148
-91.666664 273.33334 638.66669 -0.26125604 0.56398416 -0.78336918 0.022076337
-89 273 638 -0.13113995 0.57205713 -0.80966228 0.034295689
-86 274 638 -0.27767134 0.597646 -0.75214219 0.017671293
-14 273 639 0.86673927 0.24829005 -0.43256813 0.0028041031
-89 275 639 -0.1329933 0.54920185 -0.82503945 0.014698257
-86.5 275.5 639 -0.27642202 0.57109028 -0.77294677 0.015627041
-84 276 638.5 -0.36874974 0.52549195 -0.76673454 0.017662175
-15 276.5 638.5 0.9003278 0.17479733 -0.3985672 0.003151607
-81.5 278.5 638.5 -0.61506438 0.19310679 -0.7644642 0.010811438
-15 278.5 639 0.90133274 0.13878836 -0.41028908 0.0024645445
-81.5 280.5 639 -0.58172071 0.35173047 -0.73340756 0.01077361
-79.25 281.25 638.25 -0.46673107 0.40496737 -0.78623378 0.0050644567
-16 281.5 638 0.87986839 0.19344728 -0.43406188 0.0019583425
-78.5 283 638.5 -0.57614732 0.39043829 -0.71806145 0.01244988
-16 283.5 639 0.88449317 0.18692864 -0.42746872 0.0027268755
-78 285 639 -0.51374042 0.52928907 -0.67522144 0.013127042
-76.5 285.5 639 -0.33419043 0.61612415 -0.71323752 0.013286346
-74 286.33334 639 -0.18542606 0.65659684 -0.73109347 0.0098490445
-71.5 285.5 638 -0.33469298 0.64841419 -0.68376869 0.01532566
-68.5 287 638 -0.18636021 0.56674206 -0.80254173 0.01482345
-17 286.5 638 0.88618404 0.059071947 -0.45955229 0.0016483272
-69 288.66666 639 -0.30601683 0.47836921 -0.82311392 0.0045375773
-66.333336 288.33334 638 -0.33141601 0.51125187 -0.79295969 0.01492945
-65 289 638 -0.40147272 0.46167538 -0.79099655 0.016923986
-17 288.5 638 0.9007839 0.039198797 -0.43249485 0.0017621842
-67 290 639 -0.23129265 0.57058167 -0.7879976 0.010954495
-64 290.75 638.25 -0.47692201 0.43077609 -0.76614451 0.014043487
-62 292 638 -0.42811835 0.5043233 -0.74991512 0.0082549192
-17 291 638.66669 0.8894847 0.15796116 -0.42879507 0.003196652
-63.5 293 639 -0.40728107 0.50642741 -0.76003516 0.017386831
-61.5 293.5 638.5 -0.45951998 0.40380436 -0.79106474 0.013532309
-59 294 638 -0.074520737 0.50306821 -0.8610279 0.031400483
-57 294 638 -0.19544926 0.49698219 -0.8454634 0.033740375
-61.5 295 639 -0.42845428 0.48912448 -0.75972641 0.018523635
-58.799999 296 638.59998 -0.250074 0.37638378 -0.89207524 0.018192768
-56.5 295.75 638.25 -0.16394611 0.41629654 -0.89432591 0.029832616
-54.200001 296.20001 638 -0.29028705 0.46006256 -0.83909237 0.027091909
-18 296.5 638.5 0.87494576 0.23186922 -0.42509595 0.0030415514
-58 298 639 -0.19544926 0.49698219 -0.8454634 0.033740375
-56.5 298 639 -0.10384006 0.51390177 -0.8515411 0.03537485
-54.25 298.75 639 -0.24819562 0.48956433 -0.83589816 0.022433307
-51.5 298 638 -0.21647014 0.55915058 -0.80030698 0.02149942
-50 298.5 638 -0.44154352 0.51437402 -0.73515898 0.026846506
-18 298 639 0.87493289 0.22238727 -0.43015844 0.0032366372
-53 300 639 -0.30208877 0.41607723 -0.8576842 0.037427824
-51.5 300.5 639 -0.16705827 0.40987691 -0.89671201 0.026214121
-49 301 638.5 -0.40179583 0.4501377 -0.79745603 0.019779632
-47 302 638 -0.42680514 0.45346555 -0.78243625 0.018066853
-19 301 638 0.91835022 0.154533 -0.36435214 0.0028562201
-48.5 303 639 -0.47573704 0.48874289 -0.73130333 0.020435821
-46.5 303 638 -0.34718928 0.51304114 -0.78501493 0.028117999
-44.25 303.75 638 -0.22782767 0.51552904 -0.82602924 0.017066874
-19 303 639 0.8898645 0.22806294 -0.39513105 0.0033348582
-46 305 639 -0.39242351 0.49776691 -0.77345449 0.0087523647
-44 306 639 -0.17618164 0.59258574 -0.78600395 0.013291053
-41.666668 306 638.33331 -0.37426901 0.54238439 -0.75215811 0.011991625
-39.5 306.5 638 -0.39495906 0.53555828 -0.74644804 0.0095150769
-20 305.5 638 0.88804877 0.18067828 -0.42275855 0.0020958036
-41 308 639 -0.36097541 0.5656755 -0.74142295 0.010775234
-39 308.33334 638.66669 -0.36005339 0.52059698 -0.77417076 0.014308107
-36.666668 308.66666 638 -0.24088624 0.50958341 -0.82601362 0.01989799
-35 309 638 -0.305554 0.57261622 -0.76075453 0.016304068
-20 308.5 639 0.89406544 0.1660936 -0.41600481 0.0023562321
-38 310 639 -0.45887074 0.49138328 -0.74025685 0.0080785723
-36.5 311 639 -0.23194373 0.48164475 -0.84511566 0.011342177
-34 310.66666 638.33331 -0.35164505 0.50550842 -0.78791302 0.011717819
-21 310.5 638 0.77548438 0.28047693 -0.56564707 0.01098594
-8.5 -78 640.5 0.48949674 0.76845354 -0.41215536 0.023516849
-7 -79 641 0.50334048 0.80709791 -0.3086119 0.0098938355
-4 -80 640.33331 0.03464162 0.94984162 -0.3108069 0.032731507
-1.5 -79 641.5 -0.44515917 0.81928825 -0.3613863 0.01174291
0 -78 641 -0.53299838 0.78156966 -0.32413214 0.0055815568
-11 -76.5 640.5 0.79994845 0.18642044 -0.57037705 0.058009531
-10 -76.5 642 0.60976213 0.11468757 -0.78424287 0.031404849
1.5 -77 641.5 -0.34484458 0.78421772 -0.51583403 0.025150852
3.5 -76.5 641 -0.18635076 0.82758582 -0.52950466 0.0123026
6 -76 641.66669 -0.20631988 0.81871325 -0.53585523 0.009186592
8 -76 640 -0.34238234 0.86592793 -0.36461377 0.0027216894
-11.25 -74 640.25 0.43646589 -0.41346088 -0.79909182 0.052662246
-8.5 -74 641.16669 0.433534 -0.5130747 -0.74081212 0.026091905
-6.6666665 -73.333336 641.66669 0.21924019 -0.71236539 -0.66668528 0.044713248
-4 -73 642 0.0022726995 -0.82621831 -0.56334549 0.011197895
-1.5 -73 641 -0.11281589 -0.82793981 -0.54935253 0.0090487842
1.2 -73.400002 641 0.02913912 -0.77535176 -0.63085705 0.031637035
3.5 -73 641 0.2548722 -0.83927989 -0.48025981 0.0056466674
6 -73 642 0.15828162 -0.70087796 -0.69549763 0.011782557
8.75 -74.25 641.75 -0.2358488 0.6426577 -0.72894889 0.055985421
11 -73.833336 641.5 -0.29561484 0.72109824 -0.62660134 0.024285296
13 -73.5 640.5 -0.32034239 0.77012652 -0.5516212 0.017475091
-8 -72 640 0.23914796 -0.68778646 -0.68538898 0.021002954
-6.5 -72 640 6.5854455e-10 -0.70710683 -0.70710683 0
-4 -72 640 0 -0.70710683 -0.70710683 0
-1.5 -72 640 0 -0.70710683 -0.70710683 0
0 -72 640 -0.32264736 -0.66929018 -0.66929018 0.014199415
4 -72 640 0.28687465 -0.75410014 -0.59079266 0.012564241
6.1999998 -71.599998 640.40002 0.32666835 -0.66664112 -0.66998315 0.016373176
8.5 -71.5 641.75 0.5671885 -0.36500439 -0.73828787 0.037675619
7 -70 640 0.46258456 -0.46258456 -0.75632739 0.021831086
8.5 -69 640.66669 0.75885624 -0.088865176 -0.64516675 0.01553079
8.5 -66.5 640.5 0.83434069 0.090210788 -0.54381758 0.013096873
8.3999996 -64.199997 641.20001 0.85466492 0.21877208 -0.47083607 0.0071686832
8 -61.5 641.5 0.90741646 0.17697802 -0.3811484 0.0045266659
7 -58.5 640 0.94045079 0.15687941 -0.30156451 0.0011168245
8 -60 642 0.92129004 0.2238386 -0.31799519 0.0019053399
7 -56.5 641 0.93244517 0.20728542 -0.29593721 0.0024986295
6.3333335 -54 641.66669 0.89777482 0.34086215 -0.27895042 0.0038957996
5 -51 641 0.9318648 0.26347449 -0.24941769 0.0018614298
5 -49 642 0.9417119 0.1710232 -0.28970647 0.0026085691
4 -46.5 640.5 0.93251407 0.21883142 -0.28728086 0.0011008036
3.6666667 -44 641 0.91464102 0.26198086 -0.30789277 0.00075573917
3 -41.5 641.5 0.90803832 0.24192129 -0.34196576 0.0017330617
2 -39 640 0.94596547 0.17679073 -0.27183533 0.0055630896
3 -40 642 0.90945375 0.18360163 -0.37307414 0.0020574068
2 -37 641 0.9359166 0.074576095 -0.34423625 0.0015957864
2 -34 641.66669 0.93707824 0.16106671 -0.30974492 0.0014876187
1 -31.5 640.5 0.92642421 0.18347825 -0.32874611 0.0024928921
1 -29 641.33331 0.94105381 0.11083162 -0.31958419 0.0015397081
1 -26.5 642 0.91299897 0.17842244 -0.36687633 0.0035868392
-1 -23 640 0.8569414 0.41388747 -0.30716211 0.011106843
0 -24 641.33331 0.8727482 0.31261063 -0.37494698 0.0033067018
-1.5 -21.5 641 0.71624172 0.56015587 -0.41620097 0.0024038248
-3.5 -19 641.25 0.77232617 0.54758376 -0.3219696 0.0026145387
-5 -16.5 641.5 0.86552459 0.39560831 -0.30718258 0.0018824781
-6.3333335 -14 640.33331 0.88674527 0.3241922 -0.32951805 0.0029932708
-7 -11 641 0.91885287 0.2361822 -0.31611291 0.0012159247
-8 -8.5 640.5 0.9172973 0.20417337 -0.34187555 0.0029230136
-7 -10 642 0.89222223 0.25937232 -0.369683 0.0019656355
-8 -6.5 641 0.90687305 0.031496357 -0.42022523 0.001270275
-8 -4 641.33331 0.92919946 0.021958224 -0.36892575 0.0040305811
-8 -1.5 641 0.92490667 -0.038795806 -0.37820971 0.0040047956
-8 1 641 0.94137877 -0.084799007 -0.32651973 0.002563742
-8 3 640 0.9109484 -0.26228139 -0.31840467 0.0013859575
-7 4 642 0.87495351 -0.36069 -0.32304671 0.0015778716
-6.3333335 6 641.33331 0.84172231 -0.42134157 -0.33760154 0.0010488927
-4.6666665 8.666667 641.33331 0.78114849 -0.49234891 -0.38392675 0.003748317
-3.6666667 10.666667 641 0.84430212 -0.35778269 -0.3989304 0.0032853959
-3 13.5 642 0.91557699 -0.10682059 -0.38769597 0.0027413629
-3 16 640.66669 0.91382015 -0.18238647 -0.36286062 0.0020854501
-3 18 640 0.8977077 -0.20052382 -0.392315 0.0016037014
-2 18.5 642 0.90971494 -0.18693237 -0.3707763 0.0023044767
-1.75 21.25 641 0.8791647 -0.26239228 -0.39776838 0.002932311
91.5 22 642 -0.036289081 -0.86064112 -0.50791728 0.017192654
96.5 22 642 -0.15550013 -0.83590913 -0.52637982 0.01283158
98.5 22 642 0 -0.70710683 -0.70710683 0
101 22 642 0.01966699 -0.78905058 -0.61401331 0.0055449144
103.5 22 642 -0.013348892 -0.76517659 -0.64368194 0.0053767744
106 22 642 -0.060448106 -0.7217924 -0.68946475 0.0053321007
108.5 22 641 -0.15668878 -0.77521652 -0.61195415 0.011333298
111.25 21.75 641.25 -0.0327374 -0.74164361 -0.66999483 0.0018500047
113.5 21.5 641.5 -0.058232211 -0.77774274 -0.62587953 0.0076988917
115.8 21.6 640.79999 -0.056108654 -0.82693332 -0.55949354 0.011240894
118 21.5 641.5 0.26864883 -0.78789759 -0.55411655 0.0063968436
121 22 642 0.17557323 -0.78043634 -0.60007775 0.011085273
-1 23.5 641 0.87621033 -0.28341973 -0.38978043 0.0023584501
74 24 642 -0.18875426 -0.86051881 -0.47315881 0.011717735
76 24 642 -0.042285148 -0.75836331 -0.65045905 0.0055791843
78.5 24 642 -0.12430995 -0.78906 -0.60160726 0.010042352
80.800003 23.6 641.40002 0.0030480323 -0.78648376 -0.61760342 0.012679969
83.5 24 642 0.075007938 -0.80168676 -0.59301949 0.021959277
86 24 641 -0.12496533 -0.80808443 -0.57565898 0.012274086
88.75 23.5 641 -0.25896713 -0.81828517 -0.51317191 0.017041013
90.333336 23.333334 640.66669 -0.14719735 -0.79282683 -0.59140396 0.013793242
93.5 23 641 0.012090388 -0.89492083 -0.44606113 0.011419335
95.666664 23 640.33331 -0.1065587 -0.9084543 -0.40417311 0.004944595
98.5 23 640 0 -0.89442724 -0.44721362 0
101 23 640 0.076551251 -0.86149138 -0.50196844 0.007217329
103.5 23 640.5 0.076569207 -0.85078865 -0.51989985 0.012419253
