ply
format ascii 1.0
comment PCL generated
element vertex 733
property float x
property float y
property float z
property float nx
property float ny
property float nz
property float curvature
element camera 0
property float view_px
property float view_py
property float view_pz
property float x_axisx
property float x_axisy
property float x_axisz
property float y_axisx
property float y_axisy
property float y_axisz
property float z_axisx
property float z_axisy
property float z_axisz
property float focal
property float scalex
property float scaley
property float centerx
property float centery
property int viewportx
property int viewporty
property float k1
property float k2
end_header
-21.5 198.5 573.75 0.25962183 0.33804023 -0.90461338 0.025662158
-19 198.25 574 0.0032563389 0.050961059 -0.99869531 0.0060258899
-16.5 198 574 0.0031813274 0.40638557 -0.91369611 0.036114227
-14.5 198 574 0.18108363 0.42627463 -0.88628364 0.04106199
-28.333334 200.33333 573.66669 -0.51195949 0.44415843 -0.73526919 0.021269174
-26.5 201 573.66669 -0.083558969 0.54990125 -0.83103931 0.024880121
-24 201 573.88892 0.16146526 0.3614141 -0.91831839 0.031681612
-21.5 200 574 0.079555504 0.16546813 -0.98300111 0.020757506
-20 200 574 0.23959221 0.35485879 -0.90369844 0.028234318
-36.5 -101 577 -0.084580801 -0.45595965 -0.88597232 0.034399539
-34.5 -101 577 0.078320995 -0.47129047 -0.87849373 0.033238329
-38.333332 -99 577 -0.038251825 -0.032599822 -0.99873626 0.0043365364
-36.5 -99 577 0 0 -1 0
-34 -99 577 0.038275894 -0.038275894 -0.9985339 0.0052307961
-31.5 -98.5 577 0.075595059 -0.19813317 -0.9772557 0.021141944
-30 -98 577 0.4518795 -0.23591803 -0.8603183 0.032866687
-41 -96 577 -0.29031765 -0.34065157 -0.89424396 0.039028808
-38.57143 -96.428574 577 -0.011340331 -0.055373263 -0.99840128 0.0055893301
-36.5 -96.5 577 0.02952837 -0.19508921 -0.9803409 0.023559995
-34 -96.5 576.83331 -0.084883325 -0.082134351 -0.99299991 0.040451318
-31.5 -96.5 577 0.09271203 -0.0062777232 -0.99567318 0.0087641208
-29.25 -96.25 577 0.11278091 -0.12926631 -0.98517543 0.021808246
-41 -94.25 577 -0.50092626 -0.069447316 -0.86269927 0.033633977
-39.099998 -94.099998 576.29999 -0.32642916 -0.31458229 -0.8913371 0.025841713
-36.555557 -94 575.66669 0.02778922 -0.50354934 -0.86351937 0.032574728
-34 -94.111115 576.11108 0.064021036 -0.50519425 -0.86062771 0.063363962
-31.428572 -94.14286 576.57141 0.23879112 -0.2612578 -0.93526638 0.028969754
-29 -94.25 577 0.022899479 -0.0082493424 -0.99970376 0.0042356169
-26.6 -93.800003 577 0.064838231 -0.11690775 -0.99102396 0.018871263
-25 -93.5 577 0.3757928 -0.24010223 -0.89505905 0.036012903
-41 -91.5 577 -0.70710683 0 -0.70710683 0
-39.5 -91.5 575.5 -0.69360828 -0.10923408 -0.71202207 0.010773771
-33 -92 575 0.42003411 -0.54894018 -0.72265905 0.029728996
-31.6 -91.400002 575.59998 0.63420874 0.14167045 -0.76007164 0.05319839
-29 -91.5 577 0.12074976 0.0099430997 -0.9926331 0.013927281
-26.5 -91.5 577 0.024868794 0.069033675 -0.99730432 0.012706851
-25 -91.5 577 0.40931389 0.14476345 -0.90083605 0.03341122
-41 -89.5 577 -0.69758856 0.16352487 -0.69758856 0.0070997104
-39.42857 -89.14286 575.71429 -0.7157625 0.17311695 -0.67654604 0.0080028083
-33 -89 575 0.73041707 0.18128717 -0.6585027 0.034247354
-31.5 -89 576.5 0.57174957 0.083898529 -0.81612712 0.021632964
-29.285715 -89.14286 577 0.11430461 0.085712723 -0.98974133 0.01907696
-27 -90 577 0.19544926 0.49698219 -0.8454634 0.033740375
-38.799999 -86.599998 576.20001 -0.58759594 0.50528693 -0.63199383 0.01680411
-36.666668 -86 576 -8.4449914e-10 0.70710677 -0.70710677 0
-33.799999 -86.400002 575.79999 0.29037663 0.66175264 -0.69120544 0.017980125
-31.5 -86.5 576.75 0.44772983 0.41160643 -0.79379982 0.028058561
-30 -87 577 0.34025913 0.34025913 -0.87661141 0.047077164
-38 -84.5 577 -0.21442595 0.43079352 -0.87660617 0.14116129
-36.666668 -84.666664 577 0.16352183 0.55053699 -0.81863892 0.095012337
-34 -85 577 0.11315693 0.62750149 -0.77034885 0.017239308
51.5 144 577 -0.27648106 -0.92408347 -0.2638711 0.039436862
53.666668 144 576.33331 -0.047437314 -0.94923586 -0.31096762 0.023557881
56 143.83333 576.16669 -0.22761257 -0.83799034 -0.49594826 0.044343263
58.599998 143.60001 575.79999 -0.085038684 -0.59890556 -0.79629171 0.067060694
60.75 143.75 576.25 0.16442052 -0.8550809 -0.49173415 0.089729369
63.5 144 576.5 0.11791401 -0.80884051 -0.57608449 0.07457938
66 144 577 0.14287032 -0.63509804 -0.75910383 0.034097482
68.666664 143.66667 577 -0.26927155 -0.51325351 -0.81490105 0.095359623
71 143.5 577 0.0087022912 -0.64803779 -0.76155841 0.091435425
73.666664 143.5 577 0.0294121 -0.50493699 -0.86265492 0.11476841
75 143 577 0.16623753 -0.85309124 -0.49457094 0.089436762
81 143.5 576 -0.71026295 -0.51515299 -0.47973329 0.079450332
19 147 577 -0.3866699 -0.92170858 -0.030654898 0.090982832
21 147 577 -0.30086043 -0.91850352 -0.25658172 0.051548932
23.5 147 577 -0.08347135 -0.98858213 0.12545097 0.014636783
26.200001 146.60001 576.59998 -0.15996729 -0.84536213 -0.50967962 0.026384726
28.5 146.5 576.5 -0.040220074 -0.85239518 -0.52134895 0.032675978
31.25 146.5 575.75 -0.02119357 -0.82702333 -0.561768 0.032285735
33.5 146.5 575.5 0.024787243 -0.77213407 -0.63497609 0.034719333
36 146.5 575.83331 0.042413872 -0.91188782 -0.40824214 0.050483435
38.5 146.5 576 -0.051773924 -0.95197678 -0.30176082 0.053253353
41 146.5 576 -0.061430395 -0.96499181 -0.2549845 0.020039985
43.57143 146.14285 575.85712 -0.067725725 -0.84877157 -0.52440441 0.029060645
46.090908 145.90909 576.09088 0.0095700314 -0.78818464 -0.61536443 0.014392245
48.5 146 576 -0.13363233 -0.84353107 -0.52019012 0.029223854
51 145.5 575.5 -0.20472327 -0.79264438 -0.57428515 0.029162161
53.333332 145.33333 575 -0.23722751 -0.71705776 -0.65540159 0.048527252
56 145 575 0.063282616 -0.66945833 -0.74014926 0.046585932
58.5 146 575 0.15873791 -0.14553738 -0.97653538 0.047240753
61 146 575.11108 0.19212088 -0.031491272 -0.98086596 0.031148179
63.5 146 576 0.10171304 -0.084002145 -0.99126089 0.039559502
66 146 576.11108 0.074466303 -0.19174279 -0.97861618 0.016226457
68.5 146 576.16669 -0.095144071 -0.26291171 -0.96011716 0.035446882
71.25 146 576.16669 -0.015602154 -0.21437731 -0.97662628 0.027099265
73.5 146 576.16669 0.19661291 -0.29629046 -0.93464184 0.039358642
76 146 576.88892 0.24432062 -0.44074571 -0.86374223 0.073433541
78 147 577 0.63205475 -0.34832788 -0.69222438 0.016223388
-1 149 577 -0.14505164 -0.87399882 -0.46377376 0.094587207
1 149 577 -0.033001218 -0.57703608 -0.81605166 0.10650671
3.5 149 577 -0.14669749 -0.80572897 -0.57382989 0.077986687
6 149 577 -0.017210139 -0.79848903 -0.60176331 0.018333174
8.5 149 577 -0.0089110117 -0.92379367 -0.38278708 0.049146883
11 149 576 -0.15701973 -0.89327055 -0.4212037 0.06509006
13.5 148.5 576.5 -0.12044469 -0.83087474 -0.54326808 0.02598137
16 148.5 575.83331 -0.14306515 -0.87530798 -0.46191809 0.038656428
18.5 148.5 575.5 -0.15793283 -0.81747305 -0.55389071 0.030922703
21 148.5 575 -0.054028172 -0.64531964 -0.76199967 0.10088786
23.5 148.5 575 -0.09857516 -0.57453865 -0.81251973 0.10650671
25.799999 148.39999 575 -0.24261966 -0.67006797 -0.70153022 0.085120276
28 148 575 -0.32758933 -0.89347094 -0.30723771 0.055299997
58.5 148 575 0.078116886 -0.63108456 -0.77177072 0.11145509
61.25 148.25 575.25 0.29705182 -0.63061893 -0.71699369 0.072157614
63.400002 148.60001 575.40002 -0.043070704 -0.68574363 -0.7265678 0.050503243
66 148.5 575.5 0.036094014 -0.65658265 -0.75338995 0.050026834
68.5 148.5 575.33331 -0.1371979 -0.47150314 -0.87112659 0.064585947
70.916664 148.33333 575.33331 0.0058125327 -0.5146262 -0.85739493 0.10354692
73.400002 148.2 575.40002 0.12639086 -0.49838164 -0.85769522 0.10168932
76 148.5 576 0.2065762 -0.1354668 -0.96900719 0.032845233
78 148.5 577 0.69149387 -0.082576573 -0.71764714 0.010484839
80 149 577 0.49475041 -0.20763513 -0.84386593 0.15415424
-33.714287 151.71428 576.14288 -0.37482271 -0.72926199 -0.57243764 0.040873282
-31.5 150.83333 576.16669 -0.27752578 -0.84142065 -0.46367091 0.043129321
-29 150.66667 576 0.0015644793 -0.88784719 -0.46013588 0.031374708
-26.5 150.66667 576 0.039960399 -0.90583569 -0.42174026 0.033643275
-24 151.16667 575.83331 0.19584939 -0.87081802 -0.45090902 0.037667066
-21.5 151.5 576.5 -0.033253565 -0.7313754 -0.68116397 0.0087872846
-19 151.66667 576 0.0062181004 -0.8672393 -0.49785274 0.026645703
-16.5 151.66667 576 0 -0.84504706 -0.53469193 0.021824187
-14 151.66667 576 -0.0031001798 -0.84575921 -0.53355587 0.023382438
-11.4 151.60001 576.20001 -0.0020752193 -0.83714539 -0.54697657 0.019301286
-8.75 151.125 575.75 -0.16724816 -0.97253883 -0.16185272 0.016823037
-6.4000001 150.8 575.79999 -0.057796668 -0.95160121 -0.30185205 0.015488503
-4 150.66667 576 0.0046875388 -0.91540897 -0.4024978 0.010912093
-1.6 150.60001 576 -0.074910738 -0.90758675 -0.41312796 0.018607406
1 150.5 576 -0.026097 -0.86234337 -0.50565088 0.055276852
3.3333333 150.33333 576 -0.19049001 -0.84813613 -0.49434665 0.047421511
5.75 150 576 -2.833265e-10 -0.70710683 -0.70710683 0
8.5 150 576 -0.15868078 -0.90214449 -0.40119293 0.038879957
11 150 575.33331 0.048276633 -0.92650259 -0.37317878 0.06191355
13.5 150 575 -0.1957923 -0.91294056 -0.35805726 0.05345919
67 152 575 0.44547886 0.18250038 -0.87649429 0.03549353
68.75 151.25 575 0.38542157 0.24077092 -0.89077467 0.039339773
70.800003 151 575.59998 0.083172143 0.25355697 -0.9637382 0.023097042
73.599998 150.60001 575.79999 0.22176281 0.44580165 -0.86722666 0.035483785
76 151 576.33331 0.1548481 0.29208729 -0.94377273 0.028054629
78 151 577 0.67984378 0.14846967 -0.71817076 0.013622391
-36 153.33333 576.33331 -0.71362948 -0.57664454 -0.39776146 0.036744162
-34.666668 153 575.33331 -0.54893374 -0.65832037 -0.51505923 0.041015398
62 154 575 0.36297411 0.47893962 -0.79929137 0.022924785
63.5 154 575 0.090683334 0.66725791 -0.73928571 0.010113536
66.25 153.75 575 0.22512884 0.56901658 -0.79090905 0.020917084
68.5 153.5 575.75 0.39838678 0.37141913 -0.83865118 0.037241481
71 153.39999 576.40002 0.16586031 0.14649348 -0.97520769 0.016129658
73.199997 153.39999 577 0.090718232 0.22062728 -0.97113019 0.021564271
76 153 577 0.094898492 0.45331535 -0.88628411 0.031783234
-36.799999 155.60001 576.20001 -0.88264227 -0.25166285 -0.39699936 0.011839534
57 156.25 575 0.52330744 0.23898864 -0.81794482 0.034463361
58.5 156 575.33331 0.10218183 0.41732356 -0.90299505 0.036563698
61 156 575.33331 0.16411698 0.48753732 -0.85753894 0.032342266
63.5 156 576.33331 0.2518312 0.51344216 -0.82034028 0.033169057
65.85714 155.71428 576.57141 0.13770075 0.62810838 -0.76584494 0.017317956
68.333336 155.33333 576.66669 0.23936488 0.58887994 -0.77196169 0.018453674
70.666664 155 577 0.22117603 0.58734667 -0.77852756 0.022192739
-37 158.5 576 -0.94407529 -0.0091017894 -0.32960445 0.0045866142
56.666668 158.66667 575.33331 0.49732122 0.36942843 -0.78498048 0.019983716
58.5 158.5 576.33331 0.41761714 0.42001334 -0.80571991 0.033960599
60.799999 158.39999 577 0.2333598 0.51153558 -0.82696712 0.034540277
63 158 577 0.21935691 0.56260008 -0.79709703 0.023148658
-37 160.5 576.5 -0.9622584 0.049955741 -0.2675131 0.0014649861
47 162 575 0.23592387 0.55396646 -0.79841161 0.019866215
48.5 162 575 0.13685489 0.59605479 -0.79119492 0.016007774
51 160.83333 575.33331 0.22761439 0.53740841 -0.81202453 0.020316521
53.599998 161 575.59998 0.15477811 0.62976992 -0.76120543 0.017232049
56 161 576.33331 0.33905017 0.55382967 -0.76047194 0.024331592
58 160 577 0.57735032 0.57735032 -0.57735026 0
46 163.5 575.33331 0.32959715 0.53875881 -0.77530938 0.025050463
48.333332 164 576 0.03769831 0.6555717 -0.75419134 0.0049914648
50.799999 163.39999 576.40002 0.34322613 0.5240798 -0.77944607 0.021301463
53 163 577 0.18058455 0.74209148 -0.64551491 0.015996302
42 167 575 0.41985148 0.64992273 -0.6335023 0.032327402
43.57143 165.85715 575.42859 0.43255046 0.46590471 -0.77190214 0.028097974
45.666668 166.22223 576.44446 0.45236006 0.38561746 -0.80415761 0.028087083
48.5 165.5 577 0.20504303 0.59875476 -0.77424169 0.016239712
50 165 577 0.32128301 0.59141338 -0.73959959 0.022398677
37 169 575 0.42719617 0.28270963 -0.85882401 0.024435077
38.5 168.5 575.25 0.26573089 0.54007018 -0.79856825 0.02623992
41 168.5 576 0.28525946 0.56038249 -0.7775594 0.025200935
43.333332 168.33333 576.66669 0.26964438 0.57043993 -0.77581584 0.016425908
45.5 168 577 0.37322286 0.39637333 -0.83880448 0.028099198
31.5 172 575 0.22847833 0.59064448 -0.77391011 0.019561261
33.5 172 575 0.16320391 0.58406794 -0.79512835 0.017959846
36.142857 171.28572 575.57141 0.36096948 0.52876008 -0.76818866 0.021295045
38.400002 170.8 576.40002 0.44909996 0.45504776 -0.76892185 0.027495969
40.5 170 576.5 0.32115218 0.51358324 -0.7956717 0.024116684
28.666666 173.66667 575 0.29653594 0.62047684 -0.72599924 0.022018412
31 173.5 575.5 0.31210876 0.49284932 -0.81221157 0.028457081
33.5 173.5 576.25 0.31461206 0.55038583 -0.77336586 0.024343273
36 173 576.66669 0.18849176 0.68201846 -0.70662701 0.020933466
38 173 577 0.50462979 0.50462979 -0.7004981 0.033259552
21 176.33333 575.33331 0.39644262 0.75290573 -0.52532482 0.029397333
23.5 176 575 0.15300971 0.89164472 -0.42609593 0.0070787049
26.200001 175.8 576 0.30045161 0.63138252 -0.7149021 0.017548883
28.5 176.25 576.75 0.16158083 0.55851632 -0.81360376 0.020401029
31.125 175.5 576.625 0.26256493 0.57048857 -0.77820462 0.029403366
33 175 577 0.51397884 0.57746547 -0.63431799 0.020315317
19 178.5 575 0.61915082 -0.047555286 -0.78383082 0.041405395
21.125 178.625 576.375 0.30356318 -0.51127774 -0.80401778 0.087880991
23.5 178.66667 576.83331 0.17148474 -0.29546538 -0.9398368 0.073969968
25.25 178.5 577 0.33649197 0.35594389 -0.87182403 0.04452876
16 182 575 0.18045197 0.57095701 -0.80090266 0.020860059
18.5 181.33333 575.66669 0.44826105 0.49565431 -0.74390113 0.035525773
21 181 576.33331 0.23469858 0.41995093 -0.87667429 0.048689518
23.5 180 576.5 0.32495442 0.22607948 -0.91830969 0.12786154
12 184 575 0.34025913 0.34025913 -0.87661141 0.047077164
13.333333 183.33333 575 0.31791085 0.43285093 -0.84354776 0.024879046
16.25 183.75 576.25 0.35604438 0.59067434 -0.72411066 0.019135214
18.6 183.39999 576.79999 0.51850325 0.45791277 -0.72212905 0.042707853
21 183.5 577 0.10748874 0.34537858 -0.9322874 0.10132236
8.5 187 575 0.31800306 0.58222944 -0.74825323 0.025905769
11 186 575.28571 0.35591698 0.50192767 -0.78828406 0.024151167
13.6 185.8 576 0.33241722 0.45942459 -0.82366735 0.024791744
15.4 185.8 576.79999 0.47075236 0.4216468 -0.77498782 0.024949795
7 188.5 575 0.53898036 0.47132334 -0.69810784 0.027355766
8.333333 188.33333 575.66669 0.40245622 0.51425862 -0.7573421 0.018833844
11.25 188.75 577 0.22347675 0.50656825 -0.83273453 0.022845801
13.5 188 577 0.2455526 0.50299221 -0.82867527 0.025957309
-3.5 192 575 0.1238692 0.1813861 -0.97557962 0.016896904
-1.5 192 575 0 0 -1 0
1.1666666 191.33333 575 0.22295018 0.33939561 -0.91384017 0.036686718
3.5 191 575.33331 0.22722594 0.52727091 -0.81875134 0.0312921
5.6363635 190.90909 576.18182 0.38126519 0.58562911 -0.71531492 0.022054458
8.666667 190 577 0.24921069 0.51959246 -0.81726229 0.012777974
10 190 577 0.25770226 0.51220828 -0.8192876 0.020774681
-32 194 576 -0.9039076 0.092308022 -0.41764849 0.0073481742
-8 194 575 0.410916 0.43898857 -0.79902256 0.029662833
-6.75 193.5 575 0.33524507 0.51613367 -0.78817308 0.042589173
-3.8 193.2 575.20001 0.19055074 0.48182064 -0.85530072 0.031032786
-1.5 193.5 575.5 0.045730114 0.55872393 -0.82809198 0.021424912
1 193.5 576.16669 0.28026187 0.59249616 -0.75524938 0.027469926
3.3333333 193.33333 577 0.31122276 0.56124431 -0.76690626 0.028352706
5 193 577 0.1263147 0.47524375 -0.87073994 0.020010216
-31 197 575 -0.74786067 0.3685734 -0.5521397 0.011863199
-13 197 575 0.59496647 0.34170687 -0.72749662 0.019240312
-11.5 196.5 575.25 0.31408027 0.49667817 -0.80911332 0.028032124
-9 196 575.55554 0.25523654 0.49096522 -0.83295101 0.030166958
-6.5714288 196.14285 576.28571 0.30896416 0.49727497 -0.81071502 0.029667277
-4 195.5 576.5 0.14322872 0.59726399 -0.78915226 0.019224206
-1.5 195.5 577 0.12584612 0.50491768 -0.85394424 0.031419251
0.5 195 577 0.32902172 0.52478689 -0.78507543 0.027748005
-31 198 576 -0.7606228 0.37018257 -0.53330839 0.0097348699
-30 199 575 -0.7687403 0.30831236 -0.56034082 0.010013432
-16.5 199 575 0.094441615 0.46632594 -0.87955725 0.023523392
-13.75 198.75 575.25 0.36938536 0.54004139 -0.75624722 0.024376176
-11.666667 198.33333 576 0.33755267 0.39389262 -0.85493082 0.026060805
-9 198.33333 576.66669 0.36689109 0.48010904 -0.79679745 0.015256156
-7 198 577 0.36297411 0.47893962 -0.79929137 0.022924785
-31 200 577 -0.85230458 0.30981824 -0.42141393 0.0029481205
-29.4 201.39999 575.59998 -0.70137203 0.41680479 -0.57823092 0.0081249634
-21.5 202 575 0.23329115 0.45629597 -0.85870206 0.029933259
-18.9 201.3 575.40002 0.4595505 0.46426779 -0.75714517 0.042323787
-16.5 201 576 0.083912045 0.57489783 -0.81391108 0.022394763
-14.142858 200.71428 576.42859 0.30010837 0.55355382 -0.77686113 0.021474605
-11.333333 200 577 0.22106119 0.54892963 -0.80610681 0.017285928
-10 200 577 0.22047772 0.49782056 -0.83878738 0.02546108
-28.666666 203.66667 576.33331 -0.69861084 0.37613016 -0.60866153 0.011513383
-26.5 203.5 575 -0.15720038 0.3726362 -0.91456562 0.024044242
-24.200001 203.39999 575 0.12095902 0.4174296 -0.9006229 0.023735611
-21.5 203.5 575.5 0.2821641 0.32948393 -0.90101266 0.024327159
-19.333334 203.5 576.33331 0.48460713 0.45538062 -0.7468496 0.044917379
-17 203 577 0.13289841 0.4204933 -0.89750957 0.017948655
-28 206 576.66669 -0.69698173 0.32522267 -0.63909829 0.011140674
-26.5 206 576 -0.11099435 0.47575533 -0.87254632 0.01273054
-24 206 576.16669 0.11921224 0.62556076 -0.77101374 0.01211404
-21.5 205.5 576.5 0.20765987 0.60992014 -0.76477104 0.037706956
-20 205.33333 576.66669 0.61415559 0.47076985 -0.63339466 0.047810618
-26.5 208 577 0.10753284 0.51119381 -0.85271192 0.038039282
-41 -103 579 -0.34065157 -0.29031765 -0.8942439 0.039028827
-39 -103.2 579 -0.14411129 -0.40552095 -0.90265429 0.045744292
-36.5 -103.5 579 0 -0.43865922 -0.89865351 0.032736287
-34.200001 -103.4 579 0.1825505 -0.45234722 -0.87295896 0.034328174
-43 -101 579 -0.071334943 -0.3708663 -0.92594248 0.030441487
-41.333332 -101.33334 579 -0.21185869 -0.27790001 -0.93695652 0.025612205
-39.125 -101.5 578.375 -0.26820695 -0.424539 -0.86477262 0.018802388
-36.5 -102 578 -0.090683334 -0.66725791 -0.73928571 0.010113536
-33.75 -101.75 578.25 0.28122124 -0.64420974 -0.71127242 0.013718389
-31.5 -101.5 578.5 0.14607343 -0.59144735 -0.79300225 0.026194455
-29.25 -101.25 579 0.13176648 -0.5946297 -0.79312867 0.016901385
-26.5 -101 579 0.053530779 -0.69221056 -0.71970755 0.020160101
-25 -101 579 0.30425677 -0.49322945 -0.81495553 0.044396125
-43.200001 -99.400002 579 -0.3099362 -0.021275066 -0.95051926 0.023150716
-41.5 -99.333336 578.5 -0.34149554 -0.088545248 -0.93570316 0.033391904
-40 -99 578 -0.41175425 -0.085593671 -0.90726626 0.037583869
-31.5 -100 578 0.22483967 -0.45494351 -0.86166906 0.037311219
-28.799999 -98.900002 578 0.12854175 -0.23616941 -0.96317232 0.027022114
-26.5 -98.75 578 0.0114245 -0.1134055 -0.99348307 0.012019311
-24.133333 -98.933334 578.46667 0.32617989 -0.27935079 -0.90308905 0.042934407
-43 -96.5 579 -0.70710683 9.3664609e-10 -0.70710683 0
-41.75 -96.75 578 -0.51550162 -0.28052872 -0.80966765 0.032264393
-40 -97 578 -0.39328289 -0.39328289 -0.83105785 0.04938769
-26.5 -96.5 578 0.10544615 -0.055253394 -0.99288881 0.0079709794
-24 -96.5 578.25 0.14856888 -0.03963913 -0.98810732 0.0063956263
-22 -96 579 0.49698219 -0.19544926 -0.8454634 0.033740375
-43.400002 -93.800003 579 -0.51066518 -0.20875068 -0.83405286 0.033524465
-42 -94 578 -0.68881565 -0.039572962 -0.72385567 0.0078486539
-26 -95 578 0.19544926 -0.49698219 -0.8454634 0.033740375
-23.799999 -94.099998 578.20001 0.42575502 -0.039713483 -0.90396655 0.025312206
-22 -94 579 0.57730883 0.0098343147 -0.81646675 0.03850697
-44 -91.5 578.5 -0.43047747 -0.20752025 -0.87842155 0.039902769
-42 -91.5 578 -0.48532611 -0.088096745 -0.86988372 0.032469869
-23.666666 -91.5 578.33331 0.64812118 0.13508619 -0.74946016 0.030233225
-22 -91.5 579 0.42714944 0.12861833 -0.89498639 0.032310102
-44 -89 578.66669 -0.46661714 0.094204083 -0.87942821 0.040634699
-41.75 -88.75 578 -0.30997002 0.065136775 -0.94851243 0.029326014
-28 -88.5 578 0.45453265 0.24675792 -0.85586828 0.039744206
-26.4 -88.800003 578.20001 0.29115993 0.37417385 -0.88046569 0.026621252
-24.444445 -89.222221 578.77777 0.43380257 0.36305311 -0.82462591 0.038615968
-43.799999 -86.599998 578.79999 -0.45517203 0.44045454 -0.77383339 0.060756125
-41.599998 -86.400002 578.20001 -0.31718016 0.34942654 -0.88164496 0.064917371
-40 -86 578 -0.34025913 0.34025913 -0.87661141 0.047077164
-28.714285 -86.285713 578.42859 0.39395303 0.50769341 -0.76619083 0.04880977
-26.6 -86.400002 579 0.3537569 0.45190749 -0.81892347 0.087508857
-25 -87 579 0.39119965 0.32645887 -0.86045772 0.10354355
-41 -84.666664 578.66669 -0.50646973 0.49038577 -0.70923215 0.053174164
-39.125 -84.125 578.375 -0.30582225 0.69486421 -0.65087354 0.077890538
-36.5 -83.75 578.25 0.23184878 0.80007279 -0.55328977 0.039977599
-34 -84 578.5 0.056198049 0.88746518 -0.45743558 0.036638398
-31.5 -84.333336 578.33331 0.048842873 0.7187044 -0.69359815 0.08472234
-29.4 -84.599998 578.59998 0.42884922 0.54056215 -0.72379613 0.058179069
-133.8 83.599998 579 -0.015573991 -0.23872907 -0.97096127 0.027142113
-134 85 579 0.058749255 0.4393611 -0.89638734 0.039205834
-136 88 579 0.059054606 -0.18265948 -0.98140109 0.10171285
-135 88 579 0.23570228 -0.23570225 -0.9428091 0.079999961
80 138.5 578.5 -0.89084238 -0.039085817 -0.45262808 0.06372153
58.5 142 579 -0.11962804 -0.91493607 -0.38546214 0.035457272
61 142 579 -0.011864233 -0.79998094 -0.59990811 0.013198056
63.666668 142 579 6.3858863e-10 -0.70710683 -0.70710683 0
65 142 579 0.13713771 -0.81769145 -0.55908316 0.011163916
69 142 579 -0.32264736 -0.66929018 -0.66929018 0.014199415
71 142 579 0 -0.70710683 -0.70710683 0
73.666664 141.66667 578.66669 -0.33619148 -0.73970973 -0.58292782 0.029156437
75.75 141.75 578.75 0.21535927 -0.68644887 -0.69455624 0.031782541
78.333336 142 579 5.4721916e-09 -0.70710677 -0.70710683 0
80.5 141.25 578.75 -0.61375588 -0.33608866 -0.71438652 0.05701115
51 144 579 -0.23825566 -0.87601417 -0.41932487 0.041668802
53.5 143.5 578.5 -0.29471335 -0.91071248 -0.28939041 0.019945305
56 143 578.33331 -0.20673372 -0.87390041 -0.43995374 0.026739083
58.5 143 578 -0.052509837 -0.85782683 -0.5112493 0.032598384
61.333332 143 578 0.0077686328 -0.72091502 -0.69297999 0.009055784
63.5 143 578 8.0139062e-10 -0.70710683 -0.70710683 0
66 143 578.33331 0.14549711 -0.75249344 -0.64232725 0.0081685623
68.333336 143.33333 578.33331 -0.30193937 -0.71608025 -0.62933433 0.048113465
71 143 578 0 -0.84392953 -0.53645414 0.073789924
73.5 143 578 0.028337913 -0.79968393 -0.59975207 0.09960328
76.166664 143.33333 578 0.18150194 -0.33371907 -0.9250344 0.081339061
78.5 143.5 578 0.040563181 -0.24171318 -0.96949953 0.032521863
80.333336 143.33333 578.33331 -0.40801716 -0.35325983 -0.84186077 0.1420809
16.5 147 579 -0.11962804 -0.91493607 -0.38546214 0.035457272
18.5 147 579 -0.033327114 -0.9460929 -0.32217625 0.064578317
20.75 147 578.25 -0.12929522 -0.98880631 -0.074463703 0.056790378
23.5 147 578 -0.047065467 -0.98348624 -0.17475627 0.011462389
25.75 146.25 578.5 -0.30363071 -0.9389416 -0.161855 0.023965769
28.5 146 578 0.02172089 -0.98785919 -0.153826 0.006070503
31 146 578 0.009522656 -0.98132259 -0.1921331 0.0090059964
33.75 145.75 578.25 -0.078553922 -0.80316705 -0.59055221 0.011465195
35.857143 145.42857 578.57141 -0.025510211 -0.77467573 -0.63184398 0.012252197
38.5 145.5 578.5 0.057514872 -0.82952374 -0.55550188 0.019605387
41 146 578 -0.084435359 -0.94804442 -0.30672878 0.02079918
46 145 579 -0.044346087 -0.90817225 -0.41624093 0.03617001
48.333332 145 578.33331 -0.11420547 -0.96266019 -0.24544334 0.014646263
50 145 578 -0.34352261 -0.91685182 -0.20340848 0.027045541
76 145 578 0.16866076 -0.54944915 -0.81832701 0.09635479
78.5 145.83333 578.33331 0.33470953 -0.044372175 -0.94127607 0.059005633
80 146 578.33331 -0.1397182 0.21277224 -0.96706092 0.10575261
-31 149 579 0.028457481 -0.71761113 -0.69586241 0.028065367
-8.8000002 149 578.40002 -0.4804244 -0.4703255 -0.74026108 0.11354099
-6.5 149 578.5 -0.10531069 -0.82790422 -0.55089396 0.081415214
-4 149 578.5 0 -0.89865345 -0.43865925 0.032736275
-1.6666666 149 578.66669 -0.012264474 -0.90971786 -0.4150458 0.039805967
1.25 148.75 578.25 -0.0022761484 -0.85298383 -0.52193242 0.076392144
3.5 148.5 578.5 0.10530742 -0.8158052 -0.56865829 0.034825675
6 149 579 0.076235704 -0.71200997 -0.69801855 0.0035953932
8.5 149 578.5 -0.12865357 -0.94402939 -0.30373818 0.029968232
11 148.5 578.5 -0.090380862 -0.84290373 -0.53041935 0.023319529
13.5 148 579 -0.15571479 -0.88902062 -0.43057552 0.046584275
16 148 578 -0.028819216 -0.92491049 -0.37909099 0.041393299
18 148 578 -0.30821893 -0.90613335 -0.2896955 0.038873989
20 148 578 0.0108342 -0.9993664 0.033902813 0.089308701
79 148.33333 578.33331 0.28652123 -0.54076505 -0.7908721 0.13174695
80 148 578.5 -0.060307298 -0.54836768 -0.83405989 0.083686456
-36.25 151.5 578.5 -0.62868822 -0.50106001 -0.59471834 0.052267
-34 150.39999 578.40002 -0.335495 -0.83194894 -0.44193217 0.051101279
-31.5 150 579 0.013991248 -0.73386383 -0.67915249 0.038304698
-29 150 579 -0.037058599 -0.84840393 -0.5280506 0.036747385
-26.5 150 579 0.039803311 -0.92282772 -0.38315096 0.043529592
-23.75 150 578.5 -0.0071171131 -0.9651466 -0.26161289 0.028727654
-21.5 150 578.5 -0.01180857 -0.94792849 -0.31826413 0.026241181
-19 150 578.5 -0.013349146 -0.8985734 -0.43862018 0.032736275
-16.5 150.25 578.75 0.15802374 -0.85328907 -0.49691683 0.085022166
-14 150 578.5 -0.11499364 -0.87918669 -0.46239296 0.043415282
-11.5 150 578.5 0.020021487 -0.89847338 -0.43857133 0.032736279
-9 150 578.20001 -0.23960857 -0.40732673 -0.88129026 0.05303235
-7 150 578 -0.25056115 -0.65645933 -0.71153373 0.081719548
79 151 578.33331 0.2987968 0.33967665 -0.89181852 0.082257554
80 151 578 -0.10455638 0.2822383 -0.95362961 0.0527923
-36.666668 153.33333 578.33331 -0.77545255 -0.32510918 -0.54127389 0.020177728
75.75 154 578 0.23174922 0.61846673 -0.75086033 0.027210183
78.5 153.5 578.5 0.57369018 0.41196665 -0.70792866 0.045571987
80 153 579 0.37995854 0.42947388 -0.81925809 0.063449845
-38 155.5 579 -0.91710436 -0.13104385 -0.3764931 0.011517605
69 157 578 0.20282659 0.51241094 -0.83444375 0.01834316
71.400002 156.39999 578.20001 0.28520924 0.51585293 -0.80780661 0.027119312
73.571426 156 578.28571 0.019720972 0.42535728 -0.90481061 0.026488025
76 156 578.81818 0.2830849 0.30701455 -0.90862811 0.036815349
78 155.5 579 0.48190662 0.3296656 -0.81184143 0.041622698
-38 159 579 -0.96473396 0.055681553 -0.25727022 0.0023311691
62 159 578 0.23745127 0.55116075 -0.79989928 0.022416607
63.666668 159 578 0.027388157 0.58151942 -0.81307137 0.0067906943
66 158.33333 578 0.15226859 0.47687808 -0.8656798 0.010945355
68.5 158.5 578.5 0.21150729 0.54719341 -0.80984205 0.02471656
70.800003 158.39999 579 0.26147926 0.47956464 -0.83764333 0.034136251
80 159 579 -0.72714233 -0.17958672 -0.66258037 0.14366476
58.599998 161.2 578.20001 0.42745566 0.44322646 -0.78792882 0.023255024
61.083332 161.33333 578.66669 0.11312068 0.41921607 -0.90081161 0.020157952
63.5 161.5 579 -0.0083016073 0.20947066 -0.97777969 0.015832048
65.75 160.75 579 0.21250695 0.49184969 -0.84434867 0.032176055
68 160 579 0.23592387 0.55396646 -0.79841161 0.019866215
52 164 578 0.19544926 0.49698219 -0.8454634 0.033740375
53.666668 163.66667 578 0.35303679 0.52828246 -0.77219331 0.028574489
56 163.5 578.5 0.14972235 0.58846104 -0.79454195 0.024643069
58.333332 163.33333 579 0.32844299 0.4287571 -0.84160113 0.019187389
47 167 578 0.38824803 0.33076274 -0.86015093 0.030231781
48.666668 166.66667 578 0.29158461 0.38415334 -0.87601638 0.036983259
51.125 166.125 578.5 0.32001445 0.45260444 -0.83230996 0.035544716
53.400002 165.8 578.79999 0.30261892 0.45601085 -0.8369444 0.031725384
55.5 165 579 0.16351756 0.43916497 -0.88340032 0.031145059
47 168.66667 578 0.50457585 0.24292272 -0.82848763 0.030618802
48.5 168.5 578.5 0.2556605 0.3804042 -0.88878024 0.039086971
50.333332 168.33333 579 0.40747833 0.35446164 -0.84161651 0.036596771
39 172 578 0.56147063 0.36815959 -0.7410866 0.019035855
41 171.2 578 0.15323322 0.59032422 -0.79248786 0.0092264256
43.599998 171.2 578.40002 0.086352684 0.52344823 -0.84767044 0.026846563
46 171 578.55554 0.23994461 0.32602942 -0.91440225 0.034139264
48.25 170.25 579 0.38898182 0.24679257 -0.88757342 0.041082844
36 174 578 0.073595122 0.49104774 -0.86801845 0.030630069
38.5 173.5 578 0.42152798 0.45460555 -0.78463233 0.018658742
41 173.5 579 0.31832743 0.43021122 -0.84474021 0.021839801
43 173 579 0.23592387 0.55396646 -0.79841161 0.019866215
46 173 579 0.081826195 0.45705655 -0.88566571 0.038621452
31 177 578 0.19916306 0.53639364 -0.82013172 0.0326485
33.5 176.33333 578.16669 0.3913562 0.45948216 -0.79731828 0.027286343
35.857143 175.71428 578.57141 0.2044989 0.49360657 -0.84530038 0.027743001
38.666668 175 579 0.24436949 0.47607961 -0.84476733 0.015860874
40 175 579 0.29573235 0.44870397 -0.84333104 0.022421936
26.666666 178.66667 578.33331 0.48811814 0.52140981 -0.69990885 0.020463472
28.5 178.5 578.5 0.070977435 0.68536067 -0.72473645 0.011128906
31 178.5 578.66669 0.10798014 0.55310178 -0.8260864 0.024561085
33.599998 178.39999 579 0.24405915 0.30734357 -0.91976905 0.045393936
23.5 182 578 0.35957074 0.43717769 -0.82436919 0.031423993
26 181 578.42859 0.53304416 0.32173327 -0.782529 0.019683436
19 184 578 0.16579045 0.46905097 -0.86747026 0.061330348
21 183.5 578 0.3203015 0.27909523 -0.90526944 0.067661412
23.4 183.39999 578.40002 0.39548549 0.25622213 -0.88200986 0.038839933
25.333334 183.33333 579 0.40172911 0.36954138 -0.83788598 0.035733178
16.75 186.25 578 0.4078089 0.46597368 -0.78521365 0.03558797
18.5 185.83333 578.33331 0.17712195 0.46068624 -0.86971033 0.039706733
20.6 185.8 578.40002 0.1154483 0.55507398 -0.82375026 0.043552641
23.5 185.5 579 0.50432801 0.46921095 -0.72490984 0.028607422
13.5 189 578 0.32902172 0.52478689 -0.78507543 0.027748005
15.8 188.39999 578.59998 0.48084056 0.45092458 -0.75197029 0.023764122
8.5 192 578.5 0.44631824 0.48128873 -0.75442767 0.02660043
11 191 578.57141 0.26941493 0.62175268 -0.7354176 0.021703584
13.333333 190.33333 578.66669 0.32934013 0.64518088 -0.68940324 0.015879715
15 190 579 0.18058455 0.64551491 -0.74209148 0.015996302
4 194 578 0.21806315 0.51132894 -0.83125883 0.028171962
6.1666665 193.83333 578 0.2426818 0.53777725 -0.80740398 0.022469608
8.333333 193.33333 578.66669 0.52620012 0.4330073 -0.73185933 0.023169501
-4 197 578 0.065508857 0.46038967 -0.88529652 0.033070982
-1.5 197 578 0.069637433 0.35761526 -0.93126899 0.041781843
1 196 578 0.27101535 0.42566985 -0.8633399 0.027821049
3.5 196 578.5 0.22990301 0.53283441 -0.8143906 0.019050427
6 195.5 579 0.38998288 0.54187107 -0.74450594 0.036349814
-8 199 578 0.4197343 0.59546626 -0.68501323 0.041403241
-6.3333335 198.66667 578 0.26295716 0.51320547 -0.81699067 0.042282503
-4 198.5 578.33331 0.14906415 0.4293018 -0.89077485 0.033481743
-1.5 198.5 578.5 -0.017343936 0.5179888 -0.85521156 0.0257724
1 198 578.75 0.33518851 0.47786525 -0.81196886 0.021475518
-31 201.5 578.5 -0.83454537 0.37455654 -0.4040316 0.0010178256
-11.5 202 578 0.17792532 0.37747234 -0.90876687 0.015547741
-8.5555553 201 578.55554 0.49279177 0.42456624 -0.75953925 0.047538914
-6.5 200.5 579 0.063580327 0.39519799 -0.91639292 0.045332316
-4.6666665 200.33333 579 0.19471461 0.43207008 -0.88056892 0.031094916
-30 203 578 -0.81655002 0.36128902 -0.45024028 0.0035677552
-18 204 578 0.23592387 0.55396646 -0.79841161 0.019866215
-16.333334 204 578 0.03769831 0.6555717 -0.75419134 0.0049914648
-13.8 203.60001 578.20001 0.20915003 0.52159315 -0.82716191 0.024688508
-11.5 203.5 578.5 0.14380307 0.552082 -0.82129538 0.026188772
-9.666667 203.33333 579 0.36212391 0.45667723 -0.81259596 0.02750391
-29.25 205.75 578.5 -0.81234896 0.32036754 -0.48729241 0.004132478
-23 207 578 0.27779618 0.64752853 -0.70960289 0.019897496
-21.5 207 578 0.18357493 0.63815457 -0.74770248 0.020078996
-18.799999 205.8 578.20001 0.45508313 0.48637241 -0.74588287 0.03070195
-16.5 206 579 0.11331005 0.58023953 -0.80652523 0.021681704
-14 205.5 579 0.15553243 0.39539239 -0.90524834 0.034497675
-28 208.5 578.5 -0.64551842 0.41934699 -0.63832134 0.012620594
-26.5 209 578 -0.15974458 0.60515404 -0.77991676 0.04060588
-24 208.5 578.33331 0.32249922 0.54000735 -0.77742279 0.026741127
-21.333334 208 579 0.10592321 0.66086829 -0.74298942 0.0056804493
-20 208 579 0.20146213 0.64640659 -0.73591548 0.020773919
-26.333334 210.33333 578.66669 -0.068484761 0.53517056 -0.84196347 0.044369247
-24 210 579 0.25958428 0.41222921 -0.87331724 0.036027189
-46.42857 -108.57143 582 -0.17639695 -0.10444913 -0.97876167 0.022308076
-43.909092 -108.45454 582 0.033011775 -0.076474182 -0.99652493 0.0040849177
-41.5 -108 582 0.084827095 -0.52309626 -0.84804165 0.040217884
-39 -108 582 -0.047281541 -0.60215533 -0.79697776 0.015127684
-36.5 -108 582 -0.007561787 -0.63740367 -0.77049291 0.0035637117
-34.5 -108 582 0.1727666 -0.67231256 -0.71982461 0.025363952
-48.666668 -106.66666 582 -0.39793977 -0.41990483 -0.81567389 0.040160865
-46.5 -106.5 581.5 -0.16874081 -0.21441789 -0.96205586 0.01230187
-44 -106.25 581 -0.0021286777 -0.1180279 -0.99300802 0.0031280664
-41.666668 -106.33334 581.33331 0.06154367 -0.11720716 -0.99119866 0.0041651088
-39 -106.33334 581.33331 -0.1528931 -0.45354152 -0.87802267 0.02075438
-36.5 -106 581 0 -0.70710683 -0.70710683 0
-34 -106 581 0.032492135 -0.65297467 -0.75668246 0.015615311
-31.666666 -106.33334 581.33331 0.20041718 -0.64073271 -0.74114406 0.015766753
-29 -106 582 0.20758511 -0.69010484 -0.69329906 0.027216809
-27 -106 582 0.37569347 -0.62974757 -0.67990619 0.042876266
-48.900002 -104.1 581.40002 -0.4407554 -0.20954217 -0.87282681 0.039548054
-46.5 -104.25 581 0 -0.11174198 -0.99373722 0.0081840716
-44.099998 -104.2 580.70001 -0.14504403 -0.093792491 -0.98496962 0.019114789
-41.57143 -104.28571 580.42859 -0.13496947 -0.51009107 -0.84946477 0.038204517
-39.200001 -104.6 580.40002 -0.17862129 -0.62376374 -0.76092917 0.018294811
-36.5 -105 580 0 -0.70710683 -0.70710683 0
-33.75 -104.75 580.25 0.20551977 -0.61248964 -0.76329422 0.017174752
-31.5 -103.5 580 0.13414967 -0.4597097 -0.87787855 0.02789646
-28.875 -104 580.625 0.12594815 -0.57508409 -0.80834109 0.02181044
-26.5 -104.125 581.125 0.14817576 -0.67850959 -0.71949196 0.017778303
-24.222221 -103.77778 581.11108 0.32402205 -0.633726 -0.70242512 0.016835634
-21.5 -103 582 0.39284489 -0.58078462 -0.71299517 0.020337071
-51.333332 -101.33334 582 -0.36397299 -0.2626597 -0.89360708 0.039982352
-49 -101.5 581.16669 -0.48263091 -0.045802865 -0.87462538 0.051970001
-46.5 -101.5 580 -0.14246407 -0.14844823 -0.97860467 0.041735247
-44.200001 -101.8 580 -0.15589987 -0.28090161 -0.94698977 0.032441873
-42 -102 580 -0.44547886 -0.18250038 -0.87649429 0.03549353
-23.333334 -101.66666 580 0.37029731 -0.49242452 -0.78765345 0.020200996
-21.5 -101.5 581 0.53717279 -0.44122776 -0.71886259 0.021254115
-19.25 -101.25 582 0.36670443 -0.52835208 -0.76574928 0.024141852
-51.5 -99 581.66669 -0.53811032 -0.15894316 -0.82775271 0.028163442
-49 -99 581 -0.17012158 -0.036703952 -0.9847393 0.018153016
-46.5 -99 580 -0.23644245 0.033643395 -0.9710629 0.016535491
-44.5 -99 580 -0.2670556 0.068396166 -0.96125084 0.036949854
-21.5 -99 580.33331 0.54761189 -0.16198985 -0.82090229 0.028573586
-19 -99 581.33331 0.33803359 -0.1007087 -0.93573028 0.034330614
-16.75 -98.75 582 0.28527597 -0.16287215 -0.94450527 0.032911234
-51.333332 -96.666664 581.66669 -0.55545849 0.32238322 -0.76650822 0.025857627
-49 -96.5 580.83331 -0.18137874 -0.033976261 -0.98282623 0.041781109
-46.5 -96.5 580.25 -0.19655335 -0.1686087 -0.96588713 0.047398049
-44.5 -96.5 580 -0.22501703 0 -0.97435486 0.016368143
-21.333334 -96.666664 580 0.44061959 -0.23450428 -0.86652303 0.038501497
-19 -96.5 581 0.40660653 -0.23789783 -0.88208604 0.039779771
-16.5 -96.5 581.75 0.22223289 -0.34257546 -0.91282785 0.042693615
-14.666667 -96.333336 582 0.34786835 -0.27550429 -0.89615005 0.039691124
-51 -94.5 582 -0.54753512 0.23710601 -0.80248737 0.051647373
-49 -93.900002 581.40002 -0.4942551 0.27334663 -0.82522321 0.054151706
-46.5 -94 580.16669 -0.29139528 0.065910384 -0.95432943 0.032968182
-44.75 -94.25 580 -0.30299723 -0.13065298 -0.94399285 0.029112924
-21 -94 580 0.43862015 -0.013349145 -0.8985734 0.032736287
-19 -94 580.33331 0.21362796 -0.13647951 -0.96733469 0.02340067
-16.5 -94 581 0.28342751 -0.057174001 -0.95728785 0.025574781
-14.2 -93.900002 582 0.1181559 -0.038056787 -0.99226552 0.010736034
-48.400002 -91.400002 581.59998 -0.52632195 0.26887336 -0.80665505 0.060784072
-46.5 -91.5 580.25 -0.60448217 -0.091929689 -0.79129654 0.049238183
-21 -91.5 580 0.43017575 0.11471201 -0.89542723 0.075235471
-19 -91.5 580 0.15229249 0.097542062 -0.98351032 0.04047985
-16.5 -91.333336 581 0.25380063 0.077653855 -0.96413434 0.055833716
-14 -91.333336 581.83331 0.34341592 0.059595544 -0.93729073 0.038219698
-48.25 -89.25 582 -0.58245963 0.14658065 -0.79953414 0.026902653
-46.5 -89 580.5 -0.70797092 0.22730212 -0.66866356 0.018236408
-23.4 -88.599998 580.20001 0.46369886 0.52646351 -0.7126146 0.045377236
-21.5 -89.125 580.625 0.2474564 0.40593272 -0.8797636 0.05852069
-19 -89.25 580.91669 0.25172222 0.40675515 -0.87817204 0.071410276
-16.5 -89 581.83331 0.18488537 0.18862347 -0.9644888 0.025289802
-14 -89 582 0.16541906 0.055586167 -0.98465562 0.017941836
-48 -87 582 -0.74209148 0.18058455 -0.64551491 0.015996302
-46.5 -86.5 581 -0.54309422 0.20920166 -0.81319326 0.035301924
-44.25 -86.25 580 -0.39296868 0.54964185 -0.73720378 0.07374467
-26 -86.333336 580.33331 0.449476 0.54221225 -0.70991355 0.10273519
-24 -86.5 580.66669 0.36580113 0.46730709 -0.8048687 0.061015889
-21.5 -86.5 581.5 0.070743084 0.40155995 -0.91309637 0.037948377
-19 -86.5 581.66669 0.14045708 0.24582011 -0.95908511 0.033770151
-16.5 -86.5 582 0.069033675 0.024868794 -0.99730432 0.012706851
-14.5 -87 582 0.14838907 0.3889249 -0.90924037 0.042283889
-46.333332 -84.666664 581.66669 -0.60431397 0.45672885 -0.65284258 0.01805866
-43.900002 -83.900002 580.70001 -0.29539752 0.41442329 -0.86080986 0.04287855
-41.799999 -83.800003 580.20001 -0.46014845 0.4154737 -0.78463042 0.048593227
-39.5 -83 580 -0.078320995 0.47129047 -0.87849373 0.033238329
-36 -83 580 0.2038548 0.51560134 -0.83222502 0.030055787
-34 -83 580 0.098044045 0.65362984 -0.75043684 0.019953197
-31.5 -83 580 0 0.70710683 -0.70710683 0
-28.799999 -83.400002 580.40002 0.28545552 0.59166414 -0.7539553 0.03412424
-26.555555 -84 580.77777 0.45971286 0.49248406 -0.73900175 0.057738226
-24 -84 581.44446 0.20569882 0.41806492 -0.88482177 0.025767498
-21.666666 -84.666664 582 0.34845945 0.3565042 -0.86687988 0.038884457
-19 -85 582 0.013349145 0.43862015 -0.8985734 0.032736287
-16.5 -85 582 0.071690433 0.44468281 -0.89281452 0.034114908
-43.400002 -81.599998 581.59998 -0.43022341 0.47327775 -0.76871067 0.028470952
-41.5 -81.5 580.75 -0.33991349 0.39454225 -0.85369503 0.030726193
-39 -81.5 580.5 -0.066490792 0.63614053 -0.76870298 0.014879498
-36.5 -81.5 580.5 0.095605135 0.65778947 -0.74710953 0.013293277
-34 -81.5 580.83331 0.098442525 0.49484423 -0.8633877 0.030623494
-31.5 -81.5 581 0 0.43865922 -0.89865351 0.032736287
-28.75 -81.5 581.5 0.19602998 0.53367859 -0.82265377 0.067596965
-26.666666 -81.333336 582 0.2924009 0.27834609 -0.91489083 0.055617739
-41.5 -80 582 -0.08649414 0.77189881 -0.62983406 0.051672228
-39 -80 582 0 0.88163382 -0.47193411 0.046420828
-36.5 -80 582 0 0.84392947 -0.53645414 0.073789924
-34 -80 582 0 0.84392953 -0.53645414 0.073789924
-31.5 -80 582 0 0.84392947 -0.53645414 0.073789924
-29 -80 582 0.015682373 0.79934192 -0.60067171 0.051949427
-51.5 -23.5 582 -0.094442904 -0.19921829 -0.97539359 0.058536071
-48.799999 -24.4 582 0.20745125 0.13646948 -0.96867961 0.083628073
-47 -25 582 0.52688909 -0.33915004 -0.77933645 0.10726789
-51.5 -22 582 0.028953163 0.31938782 -0.9471817 0.042440608
-133.71428 81.714287 581 -0.22194503 -0.7479437 -0.62555623 0.058122199
-131.33333 81.444443 580.88892 0.021075374 -0.49485496 -0.86872 0.10012042
-129 81.25 581 0.11913007 -0.54165828 -0.8321144 0.078530468
-126.66666 81.666664 582 0.32133031 -0.48597977 -0.81275493 0.04155837
-124 81.5 582 -0.056809269 -0.37130088 -0.92677313 0.03131764
-121.33334 81.5 582 0.015477124 -0.19388326 -0.98090249 0.023308953
-120 81.5 582 0.17501587 -0.14915591 -0.97320193 0.019514414
-136.39999 83.599998 581.20001 -0.61345929 -0.57234836 -0.544137 0.027651977
-135 83 580.5 -0.58218175 -0.66039062 -0.47428757 0.028270828
-131.5 83.5 580 0.13872522 -0.20870546 -0.96808952 0.065628953
-128.88889 83.666664 580.55554 0.39430737 0.31762925 -0.86234182 0.083260678
-126.5 83.5 581.5 0.20252678 0.13713579 -0.96962708 0.084434867
-124 83.5 581.66669 0.13530101 0.03578854 -0.99015802 0.074205309
-121.5 83.25 582 0.18624827 0.22644672 -0.95605105 0.051717065
-120 83 582 0.34065157 0.29031765 -0.8942439 0.039028827
-138 85.75 582 -0.77342904 -0.087328874 -0.62783843 0.02017927
-136.5 86 580.33331 -0.63427836 -0.018027896 -0.77289456 0.036153626
-134 86.5 580 0.010090183 0.12253594 -0.99241275 0.030869747
-131.375 86.125 580.375 0.46134204 0.18106619 -0.8685497 0.076065198
-129.10001 86 581.40002 0.28631589 0.30195192 -0.90931195 0.038535148
-126.5 86 582 0.025565982 0.042554356 -0.99876702 0.0065166429
-124.2 85.400002 582 0.14651284 0.25396457 -0.9560523 0.036038116
-122 85 582 0.54492503 0.15497898 -0.82403785 0.097910129
-138 88 582 -0.78679311 0.23006032 -0.57273805 0.056686483
-136.66667 88.666664 581 -0.55246693 0.47838455 -0.68258959 0.040602803
-133.8 88.599998 580.40002 0.22008854 0.53180659 -0.81776696 0.070231222
-131.39999 88.599998 581.20001 0.42262489 0.39502984 -0.8156836 0.075361952
-129.66667 88 581.66669 0.53318083 0.47980428 -0.69678259 0.047880098
-136 90 582 -0.35687706 0.61591703 -0.70234251 0.040366761
-134 90.400002 581.79999 -0.097855449 0.59809881 -0.79542577 0.051552653
-131.75 90.25 581.75 0.4299168 0.53154129 -0.72981876 0.045407511
80 137 580 -0.98940808 -0.1413271 0.033141207 0.030362645
78 139 582 -0.11084152 -0.9218123 -0.37145153 0.023278605
80 138.5 582 -0.75775087 -0.49477351 -0.42545602 0.093196839
54 142 582 -0.50006074 -0.74360967 -0.44382864 0.013356262
56 142 580.5 -0.13163258 -0.9811902 -0.14120395 0.022278564
58.666668 141.66667 581.33331 -0.048876144 -0.95784724 -0.28308958 0.02685255
61.200001 141.60001 581.40002 -0.05562875 -0.89482117 -0.44294524 0.029687399
63.5 141.5 581.5 0.022079084 -0.7711283 -0.63629681 0.010744337
66.222221 141.66667 581.11108 -0.11992718 -0.85006446 -0.51284307 0.042637721
68.428574 141 580.85712 -0.29978675 -0.83262908 -0.46567875 0.047474444
71 140.66667 580.77777 -0.10843281 -0.86436778 -0.49103013 0.027303537
73.400002 140.60001 580.40002 -0.11195712 -0.78011239 -0.61554068 0.022394426
76.125 140.375 580.375 -0.052062999 -0.71955764 -0.69247836 0.080939204
78.5 140.33333 580.33331 0.077665932 -0.6351167 -0.7685017 0.085376121
80 140.5 580.25 -0.83778995 -0.28998458 -0.4626196 0.16637191
34 144 581 -0.27633542 -0.85911328 -0.43077043 0.056672897
36.125 144 580.875 0.036344446 -0.8521719 -0.52199811 0.020248491
38.333332 144 581.33331 0.1249952 -0.82822168 -0.54628289 0.02232983
41 144 582 -2.5635298e-09 -0.70710683 -0.70710683 0
43.5 144 582 -0.0075617866 -0.77049285 -0.63740373 0.0035637117
46 144 581 -0.098407313 -0.92301714 -0.37196139 0.042541314
48.5 144 581 -0.10926077 -0.93749076 -0.33041352 0.03861054
50.875 143.375 581 -0.2588577 -0.89468181 -0.3640565 0.051971223
53.25 143 581 -0.23546275 -0.93997198 -0.24700205 0.033083674
-9.333333 147 581 0.13592221 -0.82040554 -0.55539161 0.10085567
-6.5 147 581 -0.22640733 -0.9029038 -0.36538261 0.039449655
-4 147 581 -0.059041176 -0.86273962 -0.50218976 0.028651565
-1.5 147 581 0.086726576 -0.86999202 -0.48537871 0.029631115
1 147 581.33331 -0.073113039 -0.88726401 -0.45543063 0.0359498
3.5 147 581.25 -0.038714197 -0.90146405 -0.43111929 0.031522553
6 147 581.5 0.016529882 -0.90611947 -0.4226988 0.045354858
8.6000004 146.8 581.40002 -0.26988861 -0.8006711 -0.53487003 0.03193086
11 146.66667 581 -0.021479581 -0.83965075 -0.54270184 0.021736549
13.5 146.66667 581 -0.013509843 -0.84496987 -0.53464317 0.021824187
15.857142 146.57143 581.28571 0.010348924 -0.79550195 -0.60586268 0.012193344
18.5 146.5 581.5 -0.044379793 -0.82879943 -0.55778307 0.021488674
21.125 146.125 581.125 -0.20666696 -0.89249879 -0.40091732 0.021767499
23.5 145.66667 581 -0.10107377 -0.9315151 -0.34937611 0.020899929
26 145.33333 581.33331 -0.10854293 -0.82986212 -0.5473091 0.013358501
28.5 145 581 -0.073743276 -0.94893354 -0.30673608 0.025738221
31 145 580.5 0.0072008297 -0.99867284 -0.05099583 0.0020235011
33 145 580.5 -0.27942428 -0.92974132 -0.23979825 0.042121716
39 145 581 0.33023226 -0.90146053 -0.27984926 0.042819392
41 145 580.5 -0.016422041 -0.94407666 -0.32931688 0.021367682
43.5 145 580.5 -0.13060047 -0.96067077 -0.24506165 0.032523293
-38 149 582 -0.53979206 -0.68568361 -0.48832625 0.039742917
-36.5 149 581.75 -0.28551602 -0.77847761 -0.5589751 0.042790335
-34 149 581.16669 -0.080887906 -0.89435351 -0.43998745 0.041052364
-31.666666 148.66667 581 -0.096581675 -0.88097829 -0.46319452 0.049504202
-29 149 581 -0.028661871 -0.86655271 -0.4982619 0.036425527
-26.5 148.33333 581 -0.09257412 -0.92225593 -0.37533185 0.022820309
-24.222221 148.66667 580.88892 0.097882122 -0.84044921 -0.53297675 0.025203802
-21.5 149 581 -0.041128423 -0.87876922 -0.4754715 0.035948388
-19 148.44444 581.11108 -0.12266853 -0.84018618 -0.52824193 0.023860035
-16.6 148.60001 581 0.14331628 -0.90990245 -0.38927865 0.052823961
-14 148.44444 581.11108 -0.11257552 -0.86751968 -0.48449597 0.045937035
-11.5 148.33333 581 -0.087361909 -0.82981241 -0.55116177 0.025492772
-8.8571424 148.28572 580.57141 -0.051269401 -0.72551352 -0.68629557 0.071841374
-6.5 148 580 -0.16352487 -0.69758856 -0.69758856 0.0070997076
-4 148 580 0 -0.70710683 -0.70710683 0
-1.5 148 580 0 -0.70710683 -0.70710683 0
0.5 148 580 -0.11686156 -0.74150991 -0.66068631 0.0061560962
6 148 580 0.040557791 -0.72034079 -0.69243354 0.0047492539
8.5 148 580 -0.11718695 -0.75971651 -0.63960773 0.012944171
-38.5 151 581.5 -0.72015399 -0.391415 -0.5728634 0.033454418
-36.75 150.75 580.25 -0.54899508 -0.54112256 -0.63701707 0.015316403
-34.5 150 580 -0.29268405 -0.71776015 -0.63178837 0.041209716
-38.333332 153.33333 580.33331 -0.69138038 -0.19517919 -0.69562799 0.027009347
80 154 580 0.28731611 0.32913411 -0.89951116 0.031324796
-38 156 580 0.22181977 -0.26094005 -0.93952453 0.010443381
78.666664 156 580 0.44019386 0.29471987 -0.84815657 0.033960652
80 156.25 580.25 0.33380288 0.29414943 -0.89557344 0.041331358
-38 158 580 -0.95423633 0.010130152 -0.29888192 0.005587033
72 159 580 0.38198397 0.54888463 -0.74351454 0.027957341
73.5 158.5 580 0.10320004 0.47742483 -0.87259114 0.032854099
76 158.5 580.16669 0.18438339 0.47218674 -0.86199909 0.033075575
78.5 158.5 581 0.17617242 0.30314517 -0.93651819 0.047604319
80 158 581 -0.053253617 0.32177639 -0.94531691 0.061658602
-38 160 580 -0.96777874 0.057554301 -0.24513638 0.0023245399
66.5 161.5 580.25 0.40481883 0.51302415 -0.75692004 0.026535098
68.599998 161.2 580.59998 0.25030065 0.58226663 -0.77350843 0.030691678
71 161 580.88892 0.040796325 0.26928738 -0.9621954 0.01694895
73.5 161 581.33331 0.26326346 0.35076052 -0.89869875 0.037118591
76 161 581.66669 0.038868356 0.415696 -0.90867275 0.018625908
78.25 160.75 581.75 0.24638928 0.47391874 -0.84539545 0.035988644
80 160 581.5 0.27880415 0.40245527 -0.87195063 0.059349678
61 164 580 0.094827801 0.35897744 -0.92851651 0.024870902
63.75 163.5 580 0.23562934 0.49640962 -0.83549762 0.026831029
65.85714 163.57143 581 0.42560843 0.44105053 -0.79014677 0.027422084
