ply
format ascii 1.0
comment PCL generated
element vertex 743
property float x
property float y
property float z
property float nx
property float ny
property float nz
property float curvature
element camera 0
property float view_px
property float view_py
property float view_pz
property float x_axisx
property float x_axisy
property float x_axisz
property float y_axisx
property float y_axisy
property float y_axisz
property float z_axisx
property float z_axisy
property float z_axisz
property float focal
property float scalex
property float scaley
property float centerx
property float centery
property int viewportx
property int viewporty
property float k1
property float k2
end_header
-166 78 594 -0.68583965 0.3576785 -0.63379031 0.026954219
-165 78.5 594 -0.65041077 0.24059626 -0.72047156 0.019250277
22 79 593 0.81649661 0.40824831 -0.40824831 0
23 78 594 0.77250284 0.51609731 -0.36997688 0.0036619466
-163.75 81.25 593.5 -0.71310884 0.30183142 -0.63275081 0.007852803
21 81.25 593.5 0.71817547 0.44643629 -0.53377771 0.0082989121
-163 83.5 593.5 -0.68876642 0.41970825 -0.59113944 0.01202694
-162 84 593 -0.5043233 0.42811835 -0.74991512 0.0082548987
19 83.5 593 0.74863023 0.29642358 -0.59303105 0.016491884
20 83.5 594 0.67245305 0.24445757 -0.69860387 0.017584549
-161.33333 85.333336 593.66669 -0.52670515 0.57002181 -0.63060039 0.0052402061
-159.5 86.5 593 -0.58382899 0.55214036 -0.5952183 0.023977727
19 86 594 0.74998367 0.13734992 -0.647039 0.014814918
20 85 594 0.64752847 0.27779615 -0.70960283 0.019897496
-158 88 593 -0.74014306 0.5332467 -0.40967819 0.017112928
-157 89 593 -0.82384175 0.3881489 -0.41306809 0.012800902
18.5 88.5 593.5 0.70710683 -4.0069531e-10 -0.70710683 0
-156.66667 91 593.33331 -0.8128168 0.32619706 -0.48262244 0.0074894787
17 91.5 593 0.60145879 0.27193889 -0.7511968 0.022563457
18.25 90.5 593.5 0.70462114 0.17324413 -0.68811011 0.010901533
-156 93 593 -0.73014677 0.44960999 -0.51452553 0.015836284
-155 94 593 -0.70438266 0.47255239 -0.52965969 0.017137717
16.5 93.5 593.25 0.65607733 0.28932604 -0.69703162 0.020068357
18 93 594 0.66929018 0.32264736 -0.66929018 0.014199421
-154.33333 96 593.66669 -0.69405097 0.42928076 -0.57793695 0.01693227
-152 97 593 -0.50521463 0.55966246 -0.65691423 0.015652834
16 96 593.59998 0.73659343 0.23535617 -0.63406438 0.013228819
-153 98 594 -0.45460445 0.44929278 -0.7690714 0.0068180896
-151.5 99 593.5 -0.66751212 0.37059572 -0.64582229 0.012153653
15.333333 98.333336 593.33331 0.80523777 0.18659426 -0.56282735 0.011750375
-151 101 594 -0.43632942 0.40950245 -0.80120182 0.011192293
-149.66667 101 593.66669 -0.60668379 0.55402285 -0.57008201 0.024895988
14 102 593 0.84117067 0.15250149 -0.51882106 0.0044720955
15 101 594 0.84190619 0.17677587 -0.50984728 0.0052668597
-148.33333 103.33334 594 -0.60566849 0.30422688 -0.73526299 0.017824277
-147 104 593 -0.71545005 0.29947123 -0.63122755 0.017070111
14 103.5 593 0.84816724 0.18475218 -0.49646646 0.0059501212
-148 105 594 -0.6971423 0.28714335 -0.65691811 0.013972981
-146.5 106.5 593.5 -0.59226531 0.34015357 -0.73042274 0.01006544
-145 107 593 -0.66699159 0.2828356 -0.68929404 0.018082384
13.5 106 593.5 0.8167361 0.29155397 -0.49793416 0.0053590005
-145 108.5 593 -0.67414474 0.24078612 -0.69824839 0.014836411
12 109 593 0.70305443 0.34644377 -0.62104052 0.018864965
13 108.5 594 0.8080985 0.32115859 -0.49379542 0.0073829889
-146 110 594 -0.66533107 0.39145911 -0.63568425 0.022973968
-144 111 593.33331 -0.64150316 0.32148945 -0.69650435 0.01504241
11.2 111.2 593.40002 0.71656901 0.3551169 -0.60035062 0.013351152
-144 113.5 594 -0.66963577 0.27855277 -0.68847388 0.0139646
-142 113.5 593 -0.59055799 0.23289718 -0.77265793 0.011923871
10.5 113.5 594 0.79428917 0.26297688 -0.54767489 0.021500848
-143 115 594 -0.58197069 0.42981446 -0.69034028 0.012898033
-141.75 116.25 593.5 -0.68971014 0.30249405 -0.65787327 0.011937124
10 115.8 593.40002 0.88541603 -0.00066902622 -0.46479884 0.022647578
-141 118.5 593.5 -0.6711005 0.41512829 -0.61424148 0.023320232
-140 118 593 -0.41660273 0.3741692 -0.82851648 0.01258161
9 119 593 0.81655961 0.1862434 -0.54639173 0.010428414
10 118.5 594 0.75083965 0.11075418 -0.65113235 0.020297356
-144.66667 121.66666 593.66669 0.18608972 -0.96877253 -0.16386102 0.043663237
-141.33333 122 593.33331 0.18797967 -0.9800306 -0.064836033 0.037186239
-139.2 121 593.59998 -0.46710294 0.09703812 -0.87886202 0.057314873
9 121 593 0.74167162 0.012725118 -0.67064244 0.0040935394
10 122 594 0.88543665 -0.079597518 -0.45789325 0.023122245
-138.83333 123.33334 593.83331 0.44606814 -0.47829992 -0.75647366 0.094532192
-136.33333 123.33334 594 -0.16776837 0.64546913 -0.74513316 0.044906989
-134.66667 123.66666 593.33331 -0.45709121 0.60053903 -0.65606433 0.014759808
9 123.5 593 0.70710683 0 -0.70710683 0
10 123.5 594 0.86056602 -0.12685454 -0.49328899 0.035866767
-138 125.5 593.5 0.88211972 -0.27757826 -0.38054574 0.059505984
-133 125 593 -0.59054822 0.65159351 -0.47610781 0.013394007
-132 126 594 -0.56915206 0.64357895 -0.51173437 0.013343098
9 125 593 0.72834259 -0.33373833 -0.59844458 0.026427794
10.375 126.25 593.75 0.6908257 -0.28846073 -0.66298586 0.060491391
93.666664 127 593.33331 -0.1933587 -0.90719718 -0.37363857 0.052263033
96 127 593.5 -0.03477915 -0.91444886 -0.40320417 0.035955444
98.333336 127 593.66669 -0.036688503 -0.91700441 -0.39718643 0.031952687
100.85714 127 593.42859 0.012456271 -0.9933092 -0.11481119 0.0093924273
103.6 127 593.59998 -0.20090264 -0.88811392 -0.41339052 0.052003495
106 126.2 593.20001 -0.20795046 -0.87971693 -0.42761523 0.048513189
108.5 126 593.5 -0.034812875 -0.91636384 -0.39883003 0.037259061
110.75 126 593.75 -0.045471732 -0.86037004 -0.50763732 0.029496647
113.5 126 593.5 0.0069115879 -0.90020704 -0.43540728 0.036242347
116 126 593.5 -0.0066741696 -0.89793426 -0.44007891 0.033304334
118.5 126 593.5 -0.019072844 -0.79251629 -0.60955238 0.04374969
120.75 125.375 593.375 -0.33872077 -0.90084332 -0.27156863 0.07433182
123.6 125 593.59998 0.005040173 -0.98894912 -0.14816979 0.014786094
126.22222 125.55556 593.55554 0.44873273 -0.64120603 -0.62248999 0.050046779
128 126.5 594 0.53930539 -0.31215581 -0.78211796 0.026905576
10.75 128.5 593.75 0.36864704 -0.194693 -0.90895218 0.078040488
13.333333 128.66667 594 0.2856985 -0.48218042 -0.82817781 0.032536376
74 129 593.5 -0.29941526 -0.92340481 -0.24015416 0.047656003
76 129 593.5 -0.0023366383 -0.93907946 -0.34369218 0.026193609
78 129 593 0.29954678 -0.90651828 -0.29748356 0.046214782
82 129 593.5 -0.49061054 -0.8500098 -0.19179334 0.081251711
83.5 129 593.5 -0.072648197 -0.93834513 -0.3379803 0.051370755
85.666664 128.5 593.66669 -0.21197248 -0.86655432 -0.45183092 0.078886129
88.599998 128.8 593.59998 -0.33646262 -0.80480313 -0.48896298 0.05204317
91 128 593.5 -0.19982716 -0.8497597 -0.48782945 0.049261689
93 128 593 -0.4683198 -0.62848419 -0.62103486 0.04310225
127 129 593 0.73197889 0.14462921 -0.66579986 0.021781463
128 128.5 594 0.70710683 0 -0.70710683 0
9 130 593 0.54177457 -0.64262015 -0.54177457 0.1186595
11 130 593 0.02990989 -0.89018321 -0.45461977 0.057874624
13.5 130 593 0.21605223 -0.85930246 -0.46359548 0.041120626
16 130.5 593.5 0.13637307 -0.80703688 -0.57453787 0.021509944
18.333334 130.66667 593.33331 0.10578866 -0.86964226 -0.48221487 0.023885787
21.200001 130.60001 593.40002 0.0071347165 -0.89345956 -0.44908699 0.023696655
23.5 131 593 -0.005416194 -0.98142451 -0.19177204 0.015275909
26.200001 131 593.40002 0.12182637 -0.91332567 -0.38858029 0.030919671
28.5 131 593.5 0.12682582 -0.91931623 -0.37252229 0.037420765
31.200001 132 593.59998 0.11194085 -0.90777743 -0.40423933 0.037240963
33.400002 132 593.40002 0.0093829921 -0.95415568 -0.29916373 0.033583693
35.857143 132 593.57141 -0.010174493 -0.92113757 -0.38910428 0.038349647
38.5 132 593.5 0 -0.89865351 -0.43865925 0.032736279
41 132 593.5 -0.13209313 -0.89162201 -0.43308386 0.039201248
43.666668 131 593.33331 -0.094327182 -0.93062049 -0.3536211 0.038269028
45.75 131.5 593.75 0.25966904 -0.88949281 -0.37599808 0.043649938
48.5 132 593.5 -0.028157329 -0.91527468 -0.40184498 0.034058414
51.5 132 594 -0.02562486 -0.98450249 -0.17348823 0.02038632
53.5 132 594 -0.066459998 -0.97272694 -0.22222844 0.02025269
56 131.25 593.25 -0.27296549 -0.94173968 -0.19651012 0.027650986
58.5 131 593.75 -0.060398195 -0.97261858 -0.22442195 0.037698392
61.200001 131 593.59998 -0.021563265 -0.88596731 -0.46324611 0.033555675
63.5 131 593.5 0 -0.89865351 -0.43865925 0.032736279
66 130.8 593.79999 -0.21756899 -0.83942777 -0.49802068 0.042880446
68.5 130 593.5 -0.17500158 -0.86806393 -0.46458521 0.048283227
71 130 593.5 -0.03138062 -0.89925987 -0.43628773 0.035073657
73 130 594 -0.39346516 -0.86190313 -0.31985667 0.039862912
79 130 594 0.30821893 -0.90613335 -0.2896955 0.038873989
81 130 594 -0.23674457 -0.88609558 -0.39848047 0.083168238
127 131 593 0.70710683 0 -0.70710683 0
128 131 594 0.70710683 0 -0.70710683 0
127 133.5 593 0.70710683 0 -0.70710683 0
128 133.5 594 0.70710683 -1.6207213e-09 -0.70710683 0
127 136 593 0.72458225 0.06635277 -0.68598682 0.0028550748
128 135.5 594 0.80555946 0.14316948 -0.57495779 0.01078716
126.66666 138.66667 593.66669 0.7916885 0.2777828 -0.54411942 0.006431418
-3.8 141.60001 593.40002 0.16376461 0.75186318 -0.63865709 0.0090677021
-1.4 141.2 593.40002 0.11614098 0.6277017 -0.76974136 0.017382696
0.66666669 141.33333 593.16669 -0.40278754 0.42454112 -0.81088048 0.041004311
126 141 593.66669 0.83409351 0.21064599 -0.50981981 0.0067699109
-8 144 593 0.50683719 0.72932875 -0.45956025 0.0091101062
-6.5 143.5 594 0.51038188 0.73051512 -0.45371571 0.0094494801
1.5 143.5 593.25 -0.58904535 0.26956797 -0.76181281 0.03278517
125.5 143 593.5 0.77420497 0.272306 -0.57136339 0.011929861
-9 145 593 0.48436308 0.76460809 -0.42516702 0.0096744513
1.75 145.75 594 -0.60220027 0.31411403 -0.73395312 0.022737341
3 146.5 593.5 -0.67032564 0.31579438 -0.67151874 0.023321114
123.75 146.25 593.25 0.77038831 0.30747974 -0.55853212 0.0074308142
125 145 594 0.77164292 0.3515119 -0.53010052 0.0044580232
3.5 148.5 593.5 -0.66657436 0.24881577 -0.70268714 0.014449966
123 148.5 593 0.84405828 0.21655598 -0.4905805 0.0071356143
4 150.5 594 -0.62309879 0.34599996 -0.70144987 0.011595184
5.4000001 151 593.20001 -0.57792395 0.36039299 -0.73220265 0.013703947
122 152 594 0.72396439 0.42722994 -0.54161811 0.018371688
123 150 594 0.79729974 0.26013318 -0.54465026 0.022629805
6.5 154 593.5 -0.70926976 0.35209924 -0.61070657 0.011114121
121 153.5 593.5 0.6990248 0.40935862 -0.5863359 0.0091447588
7 156 594 -0.65974867 0.19862822 -0.72476107 0.020075524
8 156.5 593.5 -0.74911749 0.36908877 -0.55008769 0.037359882
119 157 593 0.72831297 0.37956727 -0.57051647 0.0048934636
120 155.5 593.5 0.69720221 0.35632139 -0.62204838 0.0075337542
8.666667 158.33333 593.33331 -0.85466367 0.18312615 -0.48581377 0.024743557
118.5 158.5 593.5 0.70045018 0.29043135 -0.65193504 0.0093702879
9 161 593.66669 -0.90065378 0.33716846 -0.27411717 0.044456571
10 162 593 -0.71487391 0.54427928 -0.4389936 0.037630621
117 161 593 0.75890416 0.19577934 -0.62107569 0.010769519
118 161 594 0.71429026 0.18953164 -0.6736967 0.0081552127
10.333333 163.66667 593.33331 -0.71049601 0.46616802 -0.52714592 0.033908729
116 164 593 0.68549752 0.34604505 -0.6405825 0.013413341
118 163 594 0.71227396 0.21975142 -0.66661477 0.014441304
11.6 165.8 593.79999 -0.53879118 0.43023938 -0.72429156 0.021188993
13 166.5 593.5 -0.52710491 0.41978776 -0.73887664 0.017823026
114 167 593 0.58214259 0.42359027 -0.69403267 0.0086105932
116 166 593.66669 0.55821377 0.36384055 -0.74566579 0.0062349685
13.666667 168.33333 593.66669 -0.6421321 0.40482584 -0.65098566 0.012268213
15 169 593 -0.58197069 0.42981446 -0.69034028 0.012898033
113 169 593 0.70855254 0.20916803 -0.67394513 0.0076993392
115 168 594 0.50998968 0.39674801 -0.76321799 0.0080833761
14 170 594 -0.59683502 0.40376598 -0.69336939 0.012139097
16 171.16667 593.33331 -0.47631061 0.41598913 -0.77464908 0.01866732
18 172 593 -0.59496647 0.34170687 -0.72749662 0.019240312
113.25 171 593.25 0.63447249 0.20980093 -0.7439276 0.013608062
16.5 173 594 -0.40470752 0.50039488 -0.7653867 0.012889206
18.333334 173.66667 593.33331 -0.54443061 0.45646024 -0.70373249 0.015036422
112 174 593 0.6126762 0.23247857 -0.75536853 0.013125392
113 173.5 594 0.78779876 0.28878021 -0.54403961 0.0064791664
19 175.5 594 -0.53201586 0.32424247 -0.78219306 0.015277944
20.25 176.25 593.5 -0.66228873 0.31067076 -0.68180448 0.01834139
111.4 176.2 593.40002 0.68978298 0.35694692 -0.6299113 0.01750578
21 178.5 593.5 -0.68487376 0.30924198 -0.65978587 0.01469493
110.5 178.5 593.5 0.66904879 0.3104296 -0.67528301 0.014995168
21.666666 180.33333 593.66669 -0.63798511 0.40263766 -0.65639764 0.010834035
23 181.5 593.5 -0.65484768 0.36878887 -0.65967363 0.012142642
109 181 593.66669 0.70417398 0.39896709 -0.5873366 0.0095364219
110 180 594 0.62737721 0.41376466 -0.65969443 0.01095476
23.666666 183.33333 593.66669 -0.57632697 0.36974636 -0.72878993 0.023460085
25.5 183.5 593 -0.49694577 0.44364652 -0.74580336 0.013687193
108 184 593 0.79115766 0.09354686 -0.60441583 0.0091949748
24 185 594 -0.55885059 0.26249984 -0.78662568 0.018179011
25.857143 185.85715 593.57141 -0.47296384 0.3034876 -0.82716411 0.021576216
28 186.5 593 -0.69233805 0.4900898 -0.52960372 0.058341384
107 187 594 0.84342408 0.35604948 -0.40232405 0.0083372407
108 185 594 0.83936036 0.36365205 -0.40401909 0.0084093055
26.6 188.60001 594 -0.17146012 0.093842149 -0.98071152 0.015667327
28.333334 189 593.66669 -0.56380224 0.33340803 -0.75562304 0.039350007
106 189 593 0.81551898 0.30774036 -0.49012721 0.0096686939
28.666666 190.33333 594 -0.58143252 0.40481928 -0.70573199 0.036557041
30 191.5 593.5 -0.91878766 0.31728584 -0.23485929 0.034885272
105.5 191 593.5 0.84814918 0.29221904 -0.44187224 0.0061363513
30.25 193.5 593.25 -0.84701639 0.29831469 -0.43996772 0.064516023
104 194 593 0.7858004 0.26760459 -0.55758917 0.020860445
105 193 594 0.87614346 0.28761813 -0.38684434 0.0039370502
31.4 195.8 593.40002 -0.73715562 0.46486372 -0.49041143 0.056519467
33 197 593 -0.54677469 0.4497453 -0.70623416 0.016992571
103.5 196 593 0.80826831 0.27683893 -0.51967543 0.014221678
32 198 594 -0.79352659 0.23021998 -0.56330669 0.051114012
33.333332 198.33333 593.66669 -0.57352775 0.41251659 -0.70774001 0.036153037
35 198.5 593 -0.54317331 0.25196904 -0.80092096 0.030065931
103 198.5 593 0.85001135 0.16567223 -0.5000335 0.0078352951
34 200 594 -0.58893627 0.41243646 -0.69501823 0.012719863
35.75 201.25 593.25 -0.60036969 0.30469373 -0.73940378 0.022274036
102 201.5 593.5 0.8065533 0.333846 -0.48787156 0.0031553558
103 200 594 0.83601207 0.3090483 -0.45340154 0.0047474639
36.400002 203.60001 593.59998 -0.58049184 0.21779801 -0.78459746 0.021614112
38 203.5 593 -0.72034919 0.20092081 -0.66387337 0.039242554
101.5 203.5 593.5 0.76690763 0.35726169 -0.53311986 0.0060167015
37 205.5 594 -0.52503645 0.42234337 -0.73889291 0.014119968
38 206 593.66669 -0.74180555 0.18384698 -0.64492232 0.030272817
98.5 207 593 0.60169399 0.53262705 -0.59520817 0.01637743
100.33334 205.33333 593.66669 0.68569827 0.45032644 -0.57186007 0.0077730794
38.5 208.5 593.5 -0.72476596 0.23538211 -0.64754117 0.016998701
97 208.5 593 0.77763462 0.36675897 -0.51065862 0.01858297
98 209 594 0.7623024 0.3168796 -0.5643425 0.0080227414
39 210 594 -0.7585004 0.3893342 -0.52258605 0.010571672
40 211 593.33331 -0.71893233 0.32582125 -0.61398441 0.013330211
96.666664 211.66667 593.66669 0.81034851 0.32334971 -0.48865137 0.0078775035
41.5 213 593 -0.41895998 0.5927577 -0.68783057 0.015042724
43.5 214 593 -0.40188959 0.48584393 -0.77617037 0.018407965
95.5 213.5 593.5 0.77060378 0.39455748 -0.50049406 0.0041415989
43.666668 216 593.66669 -0.50644958 0.43092501 -0.74686837 0.010707338
45.5 216.5 593 -0.50732505 0.46456218 -0.72581214 0.017383628
94 216.5 593.5 0.74418336 0.33973679 -0.57512605 0.0081865303
95 215.5 594 0.74933755 0.34068239 -0.56782812 0.0070627052
46 218.33333 594 -0.47701481 0.56062949 -0.67686874 0.01594441
93.333336 218.33333 593.66669 0.69137442 0.41796336 -0.58932841 0.0088681066
48.400002 221.2 593.40002 -0.79068267 0.4038921 -0.46010002 0.050830655
91.75 221.25 593.5 0.81002706 0.31588984 -0.4940342 0.0044684131
49 223.5 593.5 -0.87031949 0.24035498 -0.42985284 0.048600629
50 224 593 -0.69554722 0.43146962 -0.57449806 0.068212353
90.5 224 593.5 0.78419477 0.31073102 -0.53710783 0.0066777826
49 226 594 -0.8927319 0.29351118 -0.34187874 0.067079619
50.57143 226 593.14288 -0.62922686 0.28955752 -0.72126973 0.054629002
89 227 593 0.76184434 0.4656387 -0.45030421 0.0065023927
90 226 594 0.69963002 0.25862762 -0.66605526 0.016149037
51 228.33333 593.66669 -0.65193021 0.44848531 -0.61143106 0.030291786
53 229 593 -0.70402449 0.32925636 -0.62923741 0.0094481204
88.5 228.5 594 0.6318143 0.33494246 -0.69901663 0.029597513
52 230 594 -0.6177519 0.43584085 -0.65454221 0.022268243
53.5 231 593.5 -0.66487992 0.46473098 -0.5847733 0.017928466
55 232 593 -0.72944564 0.38164145 -0.56767857 0.0057147173
86.75 231.25 593.25 0.70731962 0.3128255 -0.63390779 0.010494721
55 233.5 593.5 -0.71916199 0.29200262 -0.63050824 0.0074635269
86.5 233.5 593.5 0.64728659 0.23671848 -0.72455812 0.01069777
56.200001 235.8 593.40002 -0.64625865 0.34685647 -0.67973554 0.014389333
85.333336 236 593.33331 0.68185931 0.19872966 -0.70397043 0.014650027
57 238.5 594 -0.69724417 0.32227197 -0.64030564 0.016735772
58.333332 238.66667 593 -0.59105784 0.39003178 -0.70606357 0.019058352
84 238 593 0.66762727 0.31128767 -0.67629427 0.021956123
86 238 594 0.69884545 0.21141821 -0.68331355 0.013619357
58.666668 241 594 -0.59014291 0.38257724 -0.71089107 0.011960879
60.5 241.5 593 -0.61576921 0.38746306 -0.68607634 0.010547195
83.333336 241.33333 593.66669 0.62566513 0.34280759 -0.70073253 0.018197196
85 240 594 0.64868009 0.29976586 -0.69953889 0.021191593
61 243.75 593.75 -0.56230843 0.43758377 -0.70166206 0.0087521356
83 243 594 0.73950255 0.26751366 -0.61771554 0.020661073
62 245 594 -0.66743696 0.4097771 -0.62178022 0.014810874
63.75 246.25 593.25 -0.65011752 0.5103451 -0.56293434 0.030499645
81.5 246 593.5 0.68120539 0.41574824 -0.60258824 0.0150834
65 248.66667 593.66669 -0.80170757 0.41099447 -0.4339914 0.037546951
80 248.5 593 0.78113514 0.3317109 -0.52895725 0.0092963027
66.333336 251.16667 593.5 -0.78798497 0.31500405 -0.52901059 0.047491405
78.666664 251.33333 593.33331 0.70247304 0.36612666 -0.61031371 0.0058389879
80 250 594 0.76402593 0.33650029 -0.55048347 0.007063421
66.5 253.5 594 -0.72704411 0.48082933 -0.4901123 0.032527722
68.333336 253.66667 593 -0.47851068 0.43044743 -0.76533818 0.016104421
77 254 593 0.69831198 0.25613526 -0.66839743 0.0097916396
78 254 594 0.73885363 0.2513296 -0.62524301 0.007704488
68.666664 255.66667 593.66669 -0.55868483 0.41455358 -0.71834308 0.049204167
70.666664 256.33334 593.16669 -0.46365234 0.45399731 -0.7608633 0.021444365
76.199997 256.20001 593.40002 0.55854678 0.46914184 -0.68405515 0.010260934
78 255 594 0.70274234 0.27708417 -0.65526915 0.010077312
71.199997 258.39999 593.59998 -0.45361051 0.32214135 -0.8309406 0.031314503
73.5 258.5 593.25 0.29451323 0.49684209 -0.81633925 0.036837261
75 258 594 0.47289684 0.47289684 -0.74346298 0.00525541
72 260 594 -0.028983038 0.58371216 -0.81144327 0.04437675
73 260 594 0.028983038 0.58371216 -0.81144327 0.04437675
4 -51 597 0.53661686 0.83961189 -0.084228046 0.022244519
6 -51 597 0.4350957 0.88284516 -0.17685068 0.018961022
-68 -48 596 0.74016958 0.65348172 -0.15846317 0.0072339186
-44 -48 597 -0.79778278 0.52327216 -0.2995477 0.0054239566
1 -48.333332 595.33331 0.5827269 0.80821604 -0.084948041 0.009523008
17 -48 597 -0.79416347 0.013429095 -0.60755587 0.031359036
-69.5 -46.5 596 0.65060687 0.74990475 -0.11980657 0.0090586524
-43 -47 596 -0.83929127 0.45847064 -0.29222408 0.013119163
-42 -46 596 -0.86103427 0.4641068 -0.20790583 0.0091251284
-1.5 -46.5 596.5 0.77179825 0.49537933 -0.39865619 0.029249728
17 -46 597 -0.6769141 -0.31028083 -0.66746771 0.036813922
18.333334 -46.333332 595.66669 -0.67308098 0.0034905775 -0.7395606 0.015674066
-76 -43 595.5 0.69701493 -0.4381814 -0.56759781 0.17396453
-74 -43.666668 595.77777 0.30592084 0.29781181 -0.90427905 0.11789421
-71.666664 -44.166668 596.16669 0.61645222 0.2587671 -0.74365735 0.062146191
-41.599998 -43.799999 596.20001 -0.89842981 0.067450956 -0.43390563 0.011008533
-8 -43 595 0.66428989 0.43498799 -0.60786867 0.091258481
-6.3333335 -43.333332 595.33331 0.37261736 0.51969039 -0.76881605 0.050005559
-3.875 -43.875 595.875 0.43437827 0.24969514 -0.86542934 0.068048559
-1.75 -43.75 596.75 0.54651552 -0.35259891 -0.75960171 0.036996819
1 -43 596.33331 -0.13046236 -0.83461457 -0.53516173 0.006790699
3.5 -43 596 -0.012014195 -0.86644804 -0.49912256 0.005801552
6 -43 596 0.064483181 -0.84375399 -0.53284246 0.0096878009
8.5 -43 596.5 -0.098635122 -0.88805485 -0.44903195 0.017569579
11.25 -43.5 596.25 -0.21343404 -0.77732456 -0.59178758 0.030250384
13.5 -43.5 595.5 -0.097866237 -0.73219383 -0.67402846 0.02311822
16 -44.166668 596 -0.24861397 -0.75749576 -0.6036483 0.017951682
18.5 -44.75 595.25 -0.42999494 -0.36087155 -0.82757235 0.037007168
20 -45 595 -0.5079537 -0.20150484 -0.8374837 0.083604023
-76 -42 595 0.64208281 -0.41382632 -0.64535064 0.12053356
-74.125 -41.5 595.25 0.10933499 -0.55577499 -0.82411164 0.062905893
-71.5 -41.5 595.5 0.21034186 -0.65681297 -0.72412229 0.019070327
-69 -41.5 596.16669 0.088839896 -0.77626377 -0.62411714 0.0065040719
-66.666664 -41.333332 596.33331 0.17847586 -0.8294065 -0.52936882 0.011011115
-64 -41 597 0.0554232 -0.89713234 -0.43827131 0.0064091547
-61.5 -41 596.5 -0.14892331 -0.84153694 -0.51926631 0.013362057
-59 -41.5 596.5 -0.036993381 -0.74791467 -0.66276318 0.0031654083
-56.5 -41.5 596.5 0.056637347 -0.77571714 -0.6285342 0.0077083209
-53.75 -41 596.5 0.098935589 -0.7966646 -0.59626943 0.0097277435
-51.5 -41 597 -6.5698552e-10 -0.70710683 -0.70710683 0
-49 -41 596.66669 -0.13076891 -0.8214435 -0.55509466 0.0074219205
-46.5 -41 596 0.077346608 -0.86798579 -0.49052846 0.012385987
-44 -41 597 -0.14373054 -0.74657208 -0.64959353 0.023929775
-41.5 -41.5 595.75 -0.74139899 -0.3066583 -0.59689891 0.02037156
-8 -41.5 595 0.56497651 -0.26668015 -0.78082216 0.040131696
-6.5 -41.5 595.5 0.21583609 -0.46571335 -0.85821086 0.043356113
-4 -41.5 595.33331 -0.17033078 -0.59468645 -0.78570694 0.020987824
-1.5 -42 595 -0.090683334 -0.66725791 -0.73928571 0.010113536
0.5 -42 595 -0.1052741 -0.7719574 -0.62689638 0.014394367
3 -42 595 -0.081718691 -0.87273818 -0.48130053 0.011096905
6.5 -42 595 0.070778437 -0.84644979 -0.5277434 0.011884546
8 -42 595 -0.13564205 -0.83307093 -0.53627801 0.0062177009
-63 -40 595 0.097386062 -0.8956632 -0.43393931 0.025248794
-62 -40 595 0.019811571 -0.87497681 -0.48375931 0.031415287
-59 -40 595 0.02560506 -0.72873974 -0.68431193 0.0062710829
-56.5 -40 595 0 -0.70710683 -0.70710683 0
-54 -40 595 -1.0804809e-09 -0.70710683 -0.70710683 0
-51.5 -40 595 -0.023424696 -0.85145992 -0.5238961 0.0066613946
-49 -40 595 -0.059562273 -0.87606096 -0.47850755 0.0061843847
-46 -40 595 0.10587961 -0.82194263 -0.55964267 0.034218181
-44 -40 595 0.037403356 -0.72801477 -0.68454033 0.0069604181
-42 -40 595 -0.23914796 -0.68778646 -0.68538898 0.021002954
-86 -34 596.66669 0.095534138 0.55034333 -0.8294549 0.029737586
-84 -34 596.66669 -0.016205303 0.48637703 -0.87359875 0.031512894
-81.666664 -34 596.16669 -0.37118438 0.50927681 -0.77644014 0.028148003
-79.5 -33.5 595.5 -0.41376403 0.531775 -0.73892808 0.031203143
-82 -32 597 -0.45166823 0.44001457 -0.77613336 0.050029598
-79.199997 -31.6 596.20001 -0.49353456 0.43207538 -0.75480765 0.028035309
-77 -31 595 -0.57017344 0.45902756 -0.6813193 0.010251844
-78.333336 -29.666666 596.66669 -0.64291388 0.39754221 -0.65469223 0.012284383
-76.333336 -29 595.33331 -0.66818559 0.33043793 -0.66658741 0.012816225
-76.5 -26.5 597 -0.73733509 0.42579436 -0.5244388 0.0086512472
-75 -26.5 595 -0.70026737 0.31577352 -0.64024413 0.008083228
-76 -25 597 -0.73768044 0.42859307 -0.52166617 0.0072740931
-74.199997 -23.799999 596 -0.69782513 0.44155541 -0.56397599 0.012107323
-73.333336 -21.666666 596.66669 -0.68472171 0.46584755 -0.56048399 0.0092575643
-72 -21.5 595.5 -0.6597411 0.53843033 -0.52424663 0.011703942
35 -21.5 596 0.91699785 0.21832617 -0.33383921 0.0058706361
-71.25 -19.25 596.75 -0.66528976 0.41909787 -0.61785644 0.018939881
-69.75 -18.75 595.5 -0.75133926 0.2837542 -0.59579605 0.018073231
34 -18.5 595 0.88991392 0.15447278 -0.42917523 0.0050407564
35 -19.5 596.5 0.91291749 0.20293055 -0.3541199 0.0040733921
-71 -17 597 -0.64295846 0.57465011 -0.50634164 0.035964526
-69 -16.428572 596 -0.64171731 0.54122353 -0.54339302 0.038387708
34 -16.333334 595.33331 0.90625894 0.19300072 -0.37609214 0.0098342691
-68.400002 -14.2 596.79999 -0.61421096 0.36103836 -0.70170951 0.028848698
-66.75 -13.75 595.5 -0.70653158 0.4512727 -0.54512936 0.016275123
33.599998 -13.8 596.20001 0.87914449 0.23962942 -0.41192538 0.0059590167
-66.333336 -11.666667 596.33331 -0.75724334 0.3476426 -0.55292588 0.012319379
-65 -11 595 -0.73836386 0.30592051 -0.60102546 0.026505647
32 -11 595 0.80313063 0.36617386 -0.4699977 0.0038558568
33 -11.5 596.5 0.82064724 0.36227614 -0.44192091 0.0047099683
-66 -10 597 -0.69034028 0.42981446 -0.58197069 0.012898033
-64.199997 -8.8000002 596.20001 -0.68904608 0.45415351 -0.56476557 0.01290376
31.5 -9 596 0.80201691 0.39435655 -0.44861099 0.0043234299
33 -10 597 0.74586982 0.42802042 -0.51036936 0.0078153443
-63.333332 -6.6666665 596.66669 -0.71309024 0.3831166 -0.58713198 0.010961113
-61.666668 -6.3333335 595 -0.59862256 0.39248845 -0.69828635 0.017110882
30.5 -6.5 596 0.84050912 0.29848772 -0.45216092 0.0041723652
-63 -5 597 -0.67815232 0.39052078 -0.62257773 0.01202446
-61.400002 -4.1999998 596.20001 -0.60937667 0.47009331 -0.63849229 0.015024754
-59.666668 -3.3333333 595.33331 -0.66199923 0.50280863 -0.55582416 0.016857952
29 -3.5 595.5 0.80479145 0.32741231 -0.4950878 0.0065935529
30 -4 596.66669 0.81885165 0.32490617 -0.47319973 0.0048240055
-59 -1.5 596.25 -0.68293136 0.44221151 -0.58142388 0.010058239
28.5 -1.5 595.75 0.80589718 0.21646462 -0.55106515 0.0090706265
-58.333332 0.33333334 596.66669 -0.72684932 0.42208028 -0.54179168 0.012223918
-56.599998 1.2 595.59998 -0.52854204 0.60475266 -0.5957495 0.018990133
-54.5 2 595 -0.49431732 0.59830594 -0.63061905 0.019582011
27 1.5 595 0.68280274 0.33127519 -0.65118134 0.010503076
28.4 0.80000001 596.20001 0.78045976 0.25318441 -0.57164693 0.0096809072
-56 3 597 -0.57657695 0.49789771 -0.64780927 0.012855883
-54 3.5 595.5 -0.59252089 0.47911021 -0.64758962 0.012343579
26.5 3.5 595.5 0.72631401 0.17637949 -0.66434795 0.010127666
28 3 597 0.80483484 0.34959054 -0.47961164 0.007056219
-53.5 5.75 596.75 -0.61227 0.40569142 -0.67863095 0.012447756
-51.5 6 595.5 -0.56820911 0.41070327 -0.71306473 0.012007475
-50 7 595 -0.71081311 0.48011443 -0.51403785 0.017094336
24 7 595 0.59496647 0.34170687 -0.72749662 0.019240312
25.833334 6 595.83331 0.7273435 0.35264263 -0.58873993 0.011746853
-51.333332 8.666667 596.33331 -0.64541048 0.29325864 -0.70529759 0.011588634
-49.5 8.5 595 -0.57909846 0.27558252 -0.76726741 0.018226005
24 8.5 595 0.69702107 0.14997713 -0.70119077 0.019771133
25.333334 8.333333 596.33331 0.75110102 0.24939163 -0.61127007 0.01232836
-51 10.5 597 -0.72496015 0.40014333 -0.56064081 0.0099531962
-48.857143 11.142858 595.57141 -0.57769644 0.36781102 -0.72868508 0.013998899
22 12 595 0.45439881 0.46701401 -0.75856423 0.019137073
23.6 11.2 595.79999 0.74522477 0.38587853 -0.5438177 0.01709282
25 10 597 0.78952259 0.41607356 -0.45115069 0.0053219162
-48.333332 13.333333 596.66669 -0.61352724 0.51706123 -0.59685171 0.0094306394
-46.666668 13.666667 595.33331 -0.51974863 0.59223956 -0.61572206 0.012871007
21.5 13.5 595.25 0.62618965 0.43306744 -0.6483357 0.023808055
23 13 597 0.73592412 0.52959216 -0.42183876 0.0044273143
-46.400002 15.6 596.79999 -0.48743877 0.5817039 -0.65117133 0.02131857
-44.666668 16 595.66669 -0.67261714 0.43322772 -0.59991652 0.018241948
19 17 595 0.75905526 0.22185938 -0.61205691 0.011718152
20.799999 15.9 596.09998 0.66843152 0.39428648 -0.63066429 0.014484483
-44 18.5 596 -0.76665604 0.33144918 -0.54989088 0.0092963642
19 18.5 595 0.82479811 0.23042302 -0.5163461 0.0086217364
20 18.5 597 0.78813016 0.38863769 -0.47729614 0.0061942469
-43.5 21 596.5 -0.72887242 0.1443806 -0.66925269 0.010370125
-42 21.5 595 -0.72803152 0.090719983 -0.67951447 0.0079981508
18.5 21 596 0.78496307 0.35706264 -0.50629956 0.006898833
-43 23.5 597 -0.7198596 0.34519595 -0.60219765 0.007820107
-41.666668 23.666666 595.33331 -0.72533762 0.31490946 -0.61214149 0.013142549
16.5 23.5 595.75 0.64750701 0.56852305 -0.50746047 0.027631111
18 23 597 0.72764808 0.4937267 -0.47619563 0.014827861
-41.5 26 596.33331 -0.7140435 0.23683424 -0.65882576 0.011750872
-40 26.5 595 -0.66929018 0.32264736 -0.66929018 0.014199421
14 26.5 595 0.67737752 0.38478166 -0.62697905 0.01152833
15.666667 25.666666 596.5 0.71310639 0.43470147 -0.55001271 0.014186159
-41 28 597 -0.59076941 0.48944661 -0.64143085 0.01047389
-39.5 28.5 596 -0.67046267 0.45903876 -0.58289206 0.011926005
13.5 28.5 596 0.75044215 0.39285091 -0.53151166 0.0097550917
-38.5 31 596.33331 -0.64394879 0.30138862 -0.70320338 0.018657453
-36.75 31.25 595.25 -0.59817815 0.3822844 -0.70430219 0.024335731
12 31 595 0.79200673 0.12654002 -0.59725446 0.014000636
13 31 596.66669 0.78834504 0.17290214 -0.59043801 0.0055543934
-38 33 597 -0.64992279 0.41985145 -0.63350224 0.032327384
-36.5 33.5 595.5 -0.71292752 0.066760972 -0.69805253 0.0091237389
12 33.5 595.5 0.88991117 0.032059714 -0.45500576 0.028961502
13 33.5 597 0.70710683 0 -0.70710683 0
-36.5 36 596.33331 -0.72812122 0.12656188 -0.67366278 0.010600002
-35 36.5 595 -0.69758856 0.16352487 -0.69758856 0.0070997104
12 35.799999 595.59998 0.87318456 0.012091762 -0.4872396 0.027636725
13 36 597 0.70710683 -1.5195105e-09 -0.70710683 0
-36.333332 38.666668 596.33331 -0.73177058 0.080198273 -0.67681617 0.016322719
-35 38.5 595 -0.69758856 0.16352487 -0.69758856 0.0070997104
11.666667 38.666668 595.66669 0.7217924 0.060448106 -0.68946475 0.0053321007
13 38.5 597 0.70710677 6.585445e-10 -0.70710677 0
-36 41 596.66669 -0.72749203 0.22610773 -0.64778906 0.021216124
-34.5 41 595.33331 -0.63440979 0.23840159 -0.73531556 0.037126753
11.285714 41.142857 596 0.72693878 0.24353027 -0.64206928 0.013329447
13 40 597 0.78254342 0.23211023 -0.57771164 0.011979768
-34 43.666668 596 -0.70385313 0.18884157 -0.68478441 0.01423148
10.5 43.5 595.75 0.7410599 0.20912351 -0.63804203 0.0071301213
-33.5 45.75 596 -0.63484365 0.29923382 -0.7123431 0.025494782
-31.75 46.25 595.25 -0.59044963 0.36618179 -0.71922195 0.025081785
8.666667 46.166668 595.33331 0.63730758 0.29270369 -0.71285594 0.012954038
10 46 596.66669 0.7824142 0.26557305 -0.56329298 0.011440475
-33 48.666668 597 -0.54106778 0.25649565 -0.80090922 0.024230478
-31.5 48.5 596 -0.6126405 0.34554923 -0.71082157 0.018858742
-30 49 595 -0.53316081 0.53316081 -0.65687078 0.014216077
7 49 595 0.65454221 0.43584085 -0.6177519 0.022268262
8.333333 48.666668 596.33331 0.60700303 0.39964411 -0.68690026 0.012083751
10 48 597 0.70632756 0.2290519 -0.6698035 0.0096585043
-31.4 50.799999 596.79999 -0.54735339 0.31527025 -0.77524763 0.024434939
-29.125 51.125 595.375 -0.58122802 0.23450132 -0.77921957 0.025953431
6.2857141 51.142857 595.42859 0.7044791 0.20456322 -0.67960501 0.018955709
8 51 597 0.69014716 0.21770109 -0.69014716 0.0094662802
-28.799999 53.400002 596.20001 -0.63389719 0.39392114 -0.66558278 0.018911917
6.1999998 53.599998 596.20001 0.70260096 0.15282351 -0.69497973 0.010850349
-28.5 56 596.66669 -0.69399673 0.039830413 -0.71887553 0.017183078
-27 56 595 -0.7217924 0.060448106 -0.68946475 0.0053321007
6 56 596 0.64604068 -0.06930048 -0.76015061 0.011353199
8 56.5 597 0.48010486 -0.25312126 -0.83989817 0.03886763
-28.5 58.5 596.5 -0.64748299 -0.1346333 -0.75009304 0.039793093
-27 58.5 595.5 -0.7138992 0.060887069 -0.69759643 0.024734963
6.1999998 58.400002 595.59998 0.48870629 -0.39256108 -0.77914178 0.026801754
8.5 58.5 596.5 0.30930114 -0.59249115 -0.74383265 0.02259979
11.4 58.799999 596.79999 -0.063782789 -0.66446769 -0.74459016 0.052210223
13.333333 58.666668 597 0.23004998 -0.64628971 -0.72758961 0.050708473
16 59 597 0.10885055 -0.7029053 -0.7029053 0.0047331383
19 59 597 0 -0.8570751 -0.51519161 0.037638664
20 59 597 0.26454192 -0.7127226 -0.6496492 0.011062114
37 59 597 -0.15659475 -0.47305942 -0.86700231 0.028340917
38.5 59 597 0.26398253 -0.45250744 -0.85179234 0.11384085
-36.5 62 597 -0.22174497 -0.6955536 -0.68339914 0.022215392
-33.875 61.125 596.625 -0.16556305 -0.54460722 -0.82218719 0.020242244
-31.5 61 596.66669 -0.095624417 -0.55558294 -0.82594407 0.023319079
-29 61 595.77777 -0.33436561 -0.47958446 -0.8112942 0.035815675
-27 61 595 -0.64796907 -0.2764467 -0.70972759 0.025336897
6.5 60 595 0.3407771 -0.59863454 -0.72491902 0.027114607
8.5 60 595 0.16352487 -0.69758856 -0.69758856 0.0070997076
11.125 60.5 595.5 0.035525382 -0.69712186 -0.71607196 0.018786835
13.5 60.5 595.5 0.025548775 -0.72149462 -0.69194859 0.010883841
16.200001 60.400002 595.59998 0.068832956 -0.76673913 -0.63825786 0.0077728676
18.5 60.5 595.75 -0.029999921 -0.74733829 -0.66376615 0.013337437
21.125 60.875 595.875 0.19280875 -0.7066859 -0.68074948 0.0085971802
23.4 61.200001 596 0.14858018 -0.72904551 -0.66814417 0.0084351003
26 61.5 596 0.020654365 -0.71114647 -0.70274037 0.0027634529
28.5 61.5 596 0 -0.70710683 -0.70710683 0
31 61.5 596 -0.024898224 -0.80742288 -0.58944744 0.0039294208
33.599998 61.200001 596 -0.11998077 -0.75925213 -0.63964117 0.01031583
36 61 596.11108 0.17126624 -0.58266622 -0.79446077 0.025654562
38.25 60.75 597 0.48732495 0.12449792 -0.86430013 0.043091036
-44 64 596.66669 -0.32503518 -0.59520131 -0.73490649 0.021777615
-41.5 64 596 -0.063643821 -0.63373953 -0.77092391 0.015628828
-39 63.5 596 -0.17402874 -0.75891203 -0.62750828 0.011466224
-36.5 63.5 595.5 -0.045279808 -0.68817019 -0.72413498 0.0050567682
-34.25 63.25 595.25 -0.24959184 -0.66776556 -0.70127964 0.011909787
-31.5 63 595 -0.059375703 -0.67908227 -0.73165685 0.011772981
-29.5 63 595 -0.21577246 -0.46867728 -0.85661185 0.032043684
36 63.5 595.5 0.69575292 0.21082003 -0.68664604 0.038259037
-118.5 67 596 -0.082214788 -0.93155915 -0.35417256 0.043041691
-114 67 597 0.032002352 -0.83377308 -0.55117899 0.0084991958
-106.5 67 597 -0.15327868 -0.778934 -0.6080851 0.055547014
-104 67 597 -0.093963847 -0.70033729 -0.70760041 0.030062133
-102 67 597 0.11926671 -0.83025098 -0.54448038 0.0098316707
-99 67 597 -0.023332356 -0.83864832 -0.5441733 0.01464758
-96 67 597 -0.14735191 -0.77661568 -0.61249948 0.012948992
-93.800003 67 596 -0.14332494 -0.85394239 -0.50024033 0.023634594
-91.400002 66.800003 596 0.064590275 -0.84243262 -0.53491628 0.046604272
-89.25 66.75 597 0.12451991 -0.61765993 -0.7765249 0.021665428
-86.5 67 597 1.4411626e-09 -0.70710683 -0.70710683 0
-84 67 596.66669 -0.087396815 -0.79017466 -0.60661846 0.0059737344
-81.5 67 596 -0.018064255 -0.76522714 -0.64350688 0.0038359207
-79 67 596.5 0.19631013 -0.74609852 -0.63623834 0.028839976
-76.333336 66.666664 597 -0.27612719 -0.65311772 -0.7051177 0.018857999
-74.666664 66.666664 596.66669 0.18269671 -0.64486092 -0.74214303 0.038049344
-56 67 597 -0.42981446 -0.69034028 -0.58197069 0.012898023
-54 66.5 596.5 -0.20540038 -0.69294411 -0.69111443 0.009145
-51.333332 66 596 -0.098840438 -0.71580958 -0.69126487 0.0062822364
-49 66 596 -3.4760739e-10 -0.70710683 -0.70710683 0
-46.42857 66.14286 595.85712 -0.025837542 -0.69653517 -0.71705735 0.0028895817
-44 65.5 595.83331 -0.30786017 -0.64363903 -0.70067888 0.018780563
-41.5 65.5 595 -0.15571418 -0.52716219 -0.83537608 0.033223126
-40 65 595 -0.42003411 -0.54894018 -0.72265905 0.029728996
34 66.5 595.5 0.76330763 0.52509272 -0.37634969 0.003785396
35.333332 65.333336 596.33331 0.73766261 0.54059285 -0.40449122 0.0065433886
-168 69 597 -0.64586997 -0.62046975 -0.44482502 0.04505052
-166 69 596 -0.13761811 -0.8124817 -0.56651103 0.0050039296
-163.66667 68.666664 596.33331 0.021072853 -0.73384047 -0.67899489 0.027193032
-161.5 68.5 596.5 -0.0096220765 -0.77825326 -0.62787682 0.021942284
-159 68.5 596.5 -0.0067649386 -0.81396484 -0.58087474 0.01636814
-156.5 68.5 596.5 0.070886366 -0.81926244 -0.56902039 0.01797938
-154 69 596.33331 0.079861231 -0.89918423 -0.43022075 0.023018546
-151.5 69 597 0.04001892 -0.8979336 -0.43830785 0.032736279
-149 69 597 0 -0.92803586 -0.37249088 0.042134158
-146.5 69 597 0.04001892 -0.8979336 -0.43830785 0.032736279
-144 69 597 -0.031908747 -0.88435173 -0.46572945 0.032659672
-141.5 69 597 0.027819334 -0.86188734 -0.50633615 0.028339412
-138.75 68.75 596.75 -0.27078018 -0.84191865 -0.46674517 0.032821629
-136.5 68.5 596.25 -0.19533068 -0.81414628 -0.54681969 0.022206254
-134 68.333336 596 0.12201598 -0.8420344 -0.52544272 0.031157438
-131.5 69 596.5 0.18298554 -0.87291539 -0.45225549 0.037617765
-128.85715 69 596.57141 -0.041481175 -0.91431016 -0.40288484 0.033835661
-126.33334 68.666664 595.66669 -0.24105887 -0.86489028 -0.44029024 0.027138768
-123.9 68.300003 596 0.00096998847 -0.91944671 -0.39321354 0.015814262
-121.6 68.400002 596 -0.046130795 -0.89667511 -0.44027916 0.012791951
-119.2 68 595.40002 -0.071056455 -0.78701013 -0.61283445 0.014130247
-116.66666 68 595.66669 0.16227107 -0.86821949 -0.46889555 0.020142371
-114 68 595.59998 -0.020002449 -0.94471335 -0.32728678 0.014859265
-111.5 68 595.75 0.054043278 -0.93905729 -0.33948603 0.021437418
-109 68 596 -0.0036687739 -0.88391012 -0.4676424 0.021876274
-106.5 68 595.75 -0.04638207 -0.85107738 -0.52298766 0.040549368
-104 68 595.66669 -0.036789358 -0.88679475 -0.46069694 0.03867203
-101.4 68 595.59998 -0.026471958 -0.9767434 -0.21277118 0.0227798
-99 68 595.5 -0.018922409 -0.97952801 -0.20041648 0.017880822
-96.599998 68 595.40002 0.02134018 -0.98966092 -0.14183052 0.013548794
-95 68 595.5 -0.25313246 -0.89623559 -0.36426064 0.056487635
-88.800003 68 595.59998 0.0651806 -0.96487409 -0.25449857 0.02093076
-86.666664 68 595.66669 -0.011559988 -0.9530831 -0.30248782 0.019884797
-84 68 595 -0.040717665 -0.98342657 -0.17667581 0.023090703
-81.5 68 595 -0.044379793 -0.82879943 -0.55778307 0.021488674
-79 68 595.66669 0.1286073 -0.82166302 -0.55527478 0.044621993
-76.400002 68.400002 595.59998 -0.027189076 -0.76368618 -0.64501482 0.02940698
-73.85714 68.571426 595.71429 0.15408832 -0.8593694 -0.487587 0.028371086
-71.75 68.75 596.25 0.40537307 -0.78886378 -0.46191621 0.02766002
-68.75 68.75 597 -0.15679821 -0.57706958 -0.80150175 0.018905681
-66.5 68.5 596.75 -0.20728078 -0.63101536 -0.74756557 0.032304198
-64 68.5 596.5 -0.036283184 -0.71569884 -0.69746602 0.0074310042
-61.5 68.5 596.25 -0.029878233 -0.86758697 -0.49638709 0.029193711
-59 68.5 596.16669 -0.034595307 -0.88654381 -0.46134943 0.01041562
-56.666668 68.333336 595.66669 -0.39740476 -0.85732341 -0.3272095 0.031023825
-54 68 595 -0.13350464 -0.89363635 -0.42847461 0.038958453
32 69 596 0.68617737 0.63672602 -0.35176784 0.0019436746
33 68 596 0.68951434 0.63507223 -0.34821448 0.0020826666
-168.39999 71.199997 596.20001 -0.77011466 -0.30661312 -0.55938518 0.014888613
-166.66667 70.333336 595 -0.38507301 -0.58161467 -0.71654952 0.027321948
-163.75 70 595.25 0.056308698 -0.71652591 -0.69528401 0.024265189
-161 70 595 0 -0.70710683 -0.70710683 0
-158.75 70 595 4.0069531e-10 -0.70710683 -0.70710683 0
-156.5 70 595 -8.0139062e-10 -0.70710683 -0.70710683 0
-154 70 595 0.06488353 -0.73253864 -0.67762619 0.0042779711
-151.33333 70.333336 595.66669 0.095686868 -0.77445197 -0.62535447 0.0068296413
-149 70.5 595.5 0.016924964 -0.72312397 -0.69051093 0.0017089559
-146.5 70.5 595.5 0 -0.70710683 -0.70710683 0
-144 70.428574 595.57141 3.5615158e-10 -0.70710677 -0.70710677 0
-141.5 70.5 595.5 0 -0.70710683 -0.70710683 0
-139.2 70.400002 595.20001 -0.2305128 -0.72003967 -0.6545279 0.020899534
-137 70 595 -0.25064859 -0.75550234 -0.60530293 0.015281263
-131.5 70 595 0.12601322 -0.72164071 -0.68070215 0.0075570359
-129.5 70 595 -0.065596022 -0.77370453 -0.63014162 0.0037000093
-71 70 595.5 0.45924523 -0.85851312 -0.22814278 0.039242908
-69 70 595.5 0.0031153222 -0.91034287 -0.41384321 0.03631952
-66.5 70 595.5 -0.20431373 -0.85499567 -0.47669515 0.056158423
-65 70 595 -0.44787449 -0.82659161 -0.34081492 0.062621169
-62 70 595 0.055879418 -0.96322477 -0.26282236 0.069050789
30.5 71 596.25 0.72901458 0.55720234 -0.39757168 0.0064107231
-168.5 73 596 -0.87928426 -0.10095368 -0.46547556 0.014308671
28.5 73.5 596.5 0.70080256 0.59388971 -0.39518455 0.007083544
-168 76 596 -0.83967894 0.33495563 -0.4274857 0.010735066
-167 77 595 -0.81649661 0.40824831 -0.40824831 0
26.200001 76 596.20001 0.67825091 0.52548879 -0.51365089 0.0091473935
-166.66667 78.666664 596 -0.79880232 0.30206993 -0.52025819 0.010143536
23.666666 78.666664 595.66669 0.72729719 0.36514243 -0.581128 0.010555143
25 79 597 0.74902564 0.26596129 -0.6068157 0.012552649
-166.5 80.5 596 -0.70937133 0.29223478 -0.64139783 0.018325806
-165 81.5 595.5 -0.70646024 0.32244283 -0.6300354 0.010982536
22 81.5 595 0.76842529 0.29539067 -0.56768566 0.0076165767
23.5 81 596.66669 0.68109387 0.26875919 -0.68108702 0.017257433
-166 84 597 -0.70490617 0.12147274 -0.69882166 0.0095102564
-164.5 83 595.5 -0.68422228 0.33593088 -0.64729464 0.0071235439
21.5 83.5 595.5 0.71859401 0.29041675 -0.63188672 0.013261788
23 83 597 0.71209431 0.37595493 -0.59294152 0.024253096
-166 85 597 -0.65634227 0.24106036 -0.71491593 0.019351019
-163.8 85.599998 596 -0.53261554 0.38036039 -0.75607312 0.013714375
-161.66667 86.666664 595.33331 -0.44312546 0.6449061 -0.62268442 0.0091205528
-160 87 595 -0.5001933 0.73606604 -0.456085 0.0077547119
21.125 86.125 596.25 0.75866777 0.16971636 -0.6289829 0.019557646
-164 88 597 -0.32729727 0.56381524 -0.75828022 0.027973445
-161.5 88.5 597 -0.4203997 0.4403756 -0.79330534 0.01292244
-159.25 88.5 595.5 -0.62870544 0.44215003 -0.63971305 0.023741942
20.5 88.5 595.5 0.73669535 0.1052234 -0.66798794 0.012458956
-159.2 90.800003 596.20001 -0.62385976 0.3480334 -0.6997655 0.017972765
-157 92 595 -0.75183344 0.34670714 -0.56083935 0.019727957
19 91.5 595 0.74517483 0.07400503 -0.66275018 0.0064744959
20.5 91 596.5 0.73186177 0.096905582 -0.6745277 0.0073432275
-158 93.5 596.5 -0.76089644 0.33220464 -0.55738378 0.010461175
-156 94 595 -0.72396439 0.42722994 -0.54161811 0.018371688
18.666666 93.666664 595.33331 0.67818898 0.32954663 -0.65685517 0.013068065
20 93 596 0.75550228 0.25064856 -0.60530287 0.015281263
-158 95 597 -0.77494097 0.34255016 -0.53115529 0.0093046073
-156.66667 96 596.33331 -0.70870018 0.40189961 -0.57984549 0.0087960176
-155 96 595 -0.71714222 0.3482618 -0.60367274 0.01044604
17 97 595 0.71545005 0.29947123 -0.63122755 0.017070111
18.4 95.800003 596 0.71758944 0.34711957 -0.6037991 0.010834232
-156 98 597 -0.73592412 0.52959216 -0.42183876 0.0044273143
-154.66667 98.666664 596 -0.67405254 0.50078672 -0.54301542 0.014732157
16.666666 98.666664 595.66669 0.75934941 0.21427764 -0.61438876 0.01239679
18 98.5 597 0.74209148 0.18058455 -0.64551491 0.015996302
-153.33333 100.33334 596.33331 -0.69789624 0.55564815 -0.45188048 0.0083714873
-152 102 596 -0.81588 0.39080325 -0.42616048 0.015255931
16.5 101.16666 596.16669 0.77859509 0.17204291 -0.60348237 0.010463919
-151.33333 103.33334 595.66669 -0.70636988 0.35015965 -0.6151666 0.030898577
15.75 103.25 595.75 0.80850339 0.2023468 -0.55261028 0.0069708228
-151 105 597 -0.71155757 0.56678289 -0.41526255 0.020064851
-149.2 106 596.20001 -0.66133338 0.46758062 -0.58652061 0.0075695873
14 107 595 0.81115174 0.32238024 -0.487959 0.0093958825
15.4 105.8 596.40002 0.79552525 0.24287868 -0.55511212 0.011455881
-148.33333 108.33334 596.66669 -0.72587621 0.35614547 -0.58844221 0.0090948036
-147 108.5 595 -0.80943334 0.34650624 -0.47407913 0.0072997143
14 108.5 596 0.78829944 0.34157971 -0.5117687 0.0062856223
15 108 597 0.74756724 0.3383384 -0.57155091 0.0084907804
-148 110 597 -0.74540806 0.35304093 -0.56544578 0.005245727
-146.5 111.25 596.25 -0.7235207 0.33130461 -0.6056031 0.01330582
-145 112 595 -0.81481022 0.27889055 -0.50823659 0.0067949942
12 112 595 0.81594098 0.36115825 -0.45144781 0.0043485248
13.4 110.8 596.40002 0.77033144 0.35373154 -0.53053147 0.0070286067
-146 114 597 -0.61610055 0.37413824 -0.6931383 0.012334557
-145 113.5 595.5 -0.7754547 0.33740336 -0.53369367 0.00629941
11.666667 113.66666 595.66669 0.78576887 0.30108029 -0.54029423 0.0080650738
13 113 597 0.75410014 0.28687468 -0.5907926 0.012564223
-143.8 115.8 595.79999 -0.71644455 0.41681078 -0.55944258 0.009528907
11.428572 116.14286 596.14288 0.80786562 0.054684144 -0.5868243 0.014542175
-143 118.5 596.5 -0.60645163 0.43197864 -0.66754097 0.0073447437
-142 118.5 595.5 -0.78851342 0.37637645 -0.48640242 0.015688736
11.333333 118.5 596 0.84028476 0.063763358 -0.53838259 0.026653031
-148.5 120.5 596.5 0.31406918 -0.94775742 0.055824667 0.020283867
-146.5 121 596 0.055274013 -0.90169179 -0.42883188 0.0062509822
-143.75 121.25 596 -0.23345515 -0.77632791 -0.58550298 0.058670316
-141.5 121 595.5 -0.47441036 -0.43023881 -0.76800346 0.076240882
-140 121.5 595 -0.4334352 -0.31617823 -0.84389889 0.1249515
10.916667 120.83334 595.83331 0.77615786 0.10079839 -0.62242961 0.036846649
126 122 597 0.17407767 -0.69631082 -0.69631052 0.098591588
128.5 122 597 0.15853384 -0.84321642 -0.51366633 0.065239474
-138 124 595 0.038325816 0.5154798 -0.85604423 0.049190309
-137 124 595 -0.095760889 0.52414775 -0.84622633 0.070276462
11 123.5 595.83331 0.63044935 -0.16839226 -0.75774503 0.028282864
13 124 597 0.57735032 -0.57735032 -0.57735026 0
97 124 597 -0.37964478 -0.89512622 -0.23370706 0.069600478
98.5 124 597 0.050302722 -0.95000547 -0.30815461 0.060730778
106 124 597 -0.079872087 -0.90480876 -0.41826004 0.034884598
108.5 124 596.5 -0.21699302 -0.85132432 -0.47766191 0.035387758
111.14286 123.57143 596.42859 -0.026860103 -0.79897618 -0.60076249 0.015378758
113.5 123.5 596.5 0.013607298 -0.80222195 -0.59687084 0.015735343
116.14286 123.42857 596.57141 -0.012575957 -0.84471989 -0.53506082 0.023111537
118.5 123.5 596.5 0.0016165421 -0.82415062 -0.56636834 0.018057112
121 123.5 596.5 -0.028831847 -0.80844814 -0.58786076 0.024176197
123.5 123.5 596.5 -0.0062874579 -0.80898899 -0.58779019 0.027211603
126 123.5 596.5 -0.13062593 -0.71094024 -0.69101435 0.066468172
128.5 123.5 596 0.26164445 -0.65337461 -0.71038288 0.041277152
130.33333 123.66666 596.66669 0.44505253 -0.64036334 -0.62598974 0.022192413
-136.5 126.16666 595.33331 0.39841211 0.38601106 -0.83202362 0.065533571
-134.33333 126.66666 596 -0.014616712 0.8240068 -0.56639129 0.050918858
11.5 125.33334 595.5 0.33625636 -0.51854193 -0.78615898 0.049544364
13.5 125.875 596 0.48381928 -0.51667333 -0.70637631 0.034533717
15 127 596.5 0.66929018 -0.66929018 -0.32264736 0.014199421
73.5 127 597 -0.17418525 -0.88682234 -0.42802531 0.03448052
76 127 597 0.096140623 -0.90152144 -0.42191949 0.036016397
82 127 597 -0.31893438 -0.88663721 -0.33489615 0.054757405
83.666664 126.66666 596.66669 -0.39718059 -0.77624506 -0.48958272 0.034522433
86 126.28571 596.14288 -0.20427656 -0.80928117 -0.55075854 0.068064526
88.571426 126.28571 596.28571 -0.066318154 -0.83450985 -0.54698735 0.071013965
91 126.6 595.59998 -0.11499882 -0.81117046 -0.5733915 0.045498859
93.333336 125.83334 596.33331 -0.33272347 -0.8165648 -0.471717 0.072328255
96 125.5 595.66669 -0.16277894 -0.78993839 -0.59118563 0.032422151
98.5 125.5 595.5 0 -0.70710683 -0.70710683 0
101 125.5 596.16669 0.12264381 -0.85358101 -0.50631797 0.039744083
103.5 125.5 595.75 -0.24340871 -0.82150501 -0.51563728 0.048949588
106 125.5 595.5 -0.070844479 -0.75840497 -0.64792198 0.0113338
108.33334 125 595.33331 -0.2919991 -0.75577074 -0.58612895 0.021044917
111 125 595 6.2443067e-10 -0.70710677 -0.70710677 0
113.5 125 595 -9.3664609e-10 -0.70710683 -0.70710683 0
116 125 595 0 -0.70710683 -0.70710683 0
118.5 125 595 0 -0.70710683 -0.70710683 0
