ply
format ascii 1.0
comment VCGLIB generated
element vertex 965
property float x
property float y
property float z
property float nx
property float ny
property float nz
element face 0
property list uchar int vertex_indices
end_header
-57 -55 635 -0.645286 -0.537221 -0.5431387 
-48 -49 574 -0.8643121 0.4527656 -0.2190159 
-40.5 -46 558.25 -0.7146478 0.6261769 -0.3117387 
-57 -51.5 633 -0.741438 -0.3769064 -0.5551679 
-44 -46 567.3333 -0.7970268 0.5054857 -0.3305035 
-59 -50 632.6667 -0.2231996 -0.7928483 -0.5670745 
-56 -49 629.5 -0.6972572 -0.4949846 -0.5184811 
-37.5 -43.5 557.5 -0.6366899 0.7073063 -0.3071544 
-40 -44 562 -0.7299895 0.6020812 -0.3234404 
-65 -47 629 -0.1547903 -0.8622921 -0.4821746 
-79.5 -45.5 627 -0.07356707 -0.8632428 -0.4993994 
-80 -43.33333 624.3333 -0.05773424 -0.7826984 -0.6197177 
-168 -7 603 -0.9045504 0.1811384 -0.3859761 
-165 -5 598 -0.9130104 0.2685089 -0.3071076 
-163 -2 595 -0.9163925 0.2238199 -0.3318577 
-17 -1.6 555.2 -0.01885149 -0.8784276 -0.4775036 
-14.25 0 553 0.01565125 -0.8539506 -0.5201187 
-158.5 2 585 -0.9073524 0.2290296 -0.352501 
-11.5 1 551 -0.08994824 -0.8741646 -0.4772269 
-2.5 1 548 -0.1281592 -0.8486477 -0.513198 
-5 2.5 545.875 -0.134391 -0.8915282 -0.4325698 
-23.25 5.25 542.75 -0.1027337 -0.9072804 -0.4077843 
-19.75 6 540 -0.07610804 -0.8553771 -0.5123843 
-158 8 590 -0.8922644 0.3122804 -0.326106 
-17 7 539 -0.006676453 -0.831715 -0.5551626 
-20 8 537 -0.05292252 -0.8733187 -0.4842662 
-22 9 535 -0.1024309 -0.9264739 -0.3621518 
-20 10 533 -0.06150364 -0.9310222 -0.3597429 
-29 11 531 -0.02111038 -0.8773077 -0.4794638 
-26 12 529 -0.07112334 -0.8474551 -0.5260811 
-23 13 527 -0.08865492 -0.8647741 -0.4942733 
-14.14286 13.57143 524.8571 0.01651342 -0.918747 -0.3945014 
-17 14.5 522 0.003532261 -0.8874149 -0.4609582 
-8 15 520 -0.0615678 -0.9019602 -0.4274077 
-11 16 519 -0.1460125 -0.8828719 -0.446338 
-7.909091 17.63636 515.7273 0.214308 -0.7174755 -0.6627979 
-1.625 20 518.25 0.537347 0.1382101 -0.8319592 
-8.5 19.83333 514 0.5889199 -0.007392973 -0.8081576 
-5 20 515.8889 0.4024011 0.05687243 -0.9136952 
-11.2 22.8 513.4 0.4869384 0.3992347 -0.7768543 
-175.3333 26.33333 604 -0.3480296 -0.5452004 -0.762648 
-145 25 574 -0.9069613 0.3427283 -0.2448642 
-4.875 23.75 518.125 0.3826247 0.4711792 -0.7947254 
-89.14286 23.57143 506.4286 0.03585889 -0.8981062 -0.4383145 
-85 24 504 -0.04410106 -0.9121884 -0.4073911 
-82 25 504 0.1742743 -0.9050301 -0.3880065 
-18 25 511 0.359933 0.462342 -0.8103629 
-14 25.625 513.75 0.3749221 0.5334616 -0.7581901 
-73.75 25.75 501.25 -0.03332889 -0.9298488 -0.3664293 
-173 32 601 -0.7364513 0.04119619 -0.675235 
-4 27 521 0.5134215 0.3470148 -0.7848434 
-17.46154 28.53846 513.6154 0.5001352 0.2803598 -0.8193066 
-2.25 29 522.1667 0.4421248 0.2579661 -0.8590571 
-77.25 27 497.75 0.05175029 -0.943769 -0.3265305 
-173.5 35 602.75 -0.8127517 0.2127751 -0.5423666 
-170.6667 35 599.6667 -0.7152579 0.1204291 -0.6884062 
-95 28.75 495.25 0.001083557 -0.8958121 -0.4444318 
-184 37 619 0.9063674 -0.3288194 0.2652849 
-92 30 492 0.02776371 -0.909807 -0.414102 
-24 31.5 511 0.3138545 0.3180728 -0.8946089 
-20.09091 32.18182 513.5455 0.3919348 0.34994 -0.8508403 
-16.71428 32.14286 515.1429 0.4005367 0.3042018 -0.86431 
-179.3333 38.33333 612 -0.7718104 0.422734 -0.4749787 
-92 31.5 489.25 0.02710587 -0.925165 -0.3785962 
-181 40 617 -0.7858581 0.4987786 -0.3655776 
-14.5 34.5 517 0.3979709 0.3040712 -0.8655403 
-7.8 35.4 521 0.4740961 0.2796643 -0.8348777 
-180 41 615 -0.8111145 0.462891 -0.3575263 
-142 38.5 576.5 -0.8712425 0.03605719 -0.4895268 
-95.2 32.2 485.8 -0.03170724 -0.9310619 -0.3634808 
-23 35 513.5 0.3833948 0.2852975 -0.8784155 
-143 41 578.7143 -0.5825967 -0.3461135 -0.735382 
-175 43 609 -0.7720698 0.4291752 -0.4687398 
-140 41.5 575 -0.8821529 -0.0191023 -0.4705757 
-139.5714 44.42857 573.2857 -0.7960946 -0.2712514 -0.5409771 
-132 44 557 -0.899251 0.2807264 -0.3354702 
-142 47 574 -0.5507843 -0.2981628 -0.779574 
-133 51 562 -0.8567023 0.05100917 -0.5132829 
-134.6 56.2 566.8 -0.7150154 0.3316852 -0.6154169 
-13.5 142.5 483 -0.3673743 0.8410033 -0.397177 
-14 141 480 -0.3950625 0.8381627 -0.3760438 
-35.33333 143 486 -0.51269 0.7350443 -0.4436878 
-17 140.6667 482.3333 -0.3124245 0.8279198 -0.4657678 
-8 137 471.1667 -0.1527373 0.5670164 -0.8094219 
-4 133 466 -0.3925045 -0.09242426 -0.9150945 
-16.33333 136 475 -0.510097 0.5011945 -0.699003 
-46 142 497 -0.5319676 0.7589495 -0.375508 
-7.5 133.6667 468.5 -0.337502 -0.1504583 -0.9292226 
-23 137.1667 479.1667 0.08697732 0.3221743 -0.9426763 
-11 134.0667 471.1333 -0.3679753 0.3096 -0.8767793 
-14.66667 134.0833 473.25 -0.5697777 0.140191 -0.809753 
-59.5 130.8333 497 -0.5594157 0.03895782 -0.8279712 
-52.5 120 493 -0.3360671 -0.4194829 -0.8432634 
-50.375 118.25 494.375 -0.2356215 -0.6846117 -0.6897748 
-53 117 496 -0.1807453 -0.6559539 -0.7328408 
-67.9 118.9 500.4 -0.4551744 0.0369948 -0.8896334 
-70.71429 116.5714 501.7143 -0.4295224 -0.109696 -0.896369 
-61.9375 112.9375 500.5625 -0.157533 -0.1937816 -0.968314 
-71.25 113 503 -0.3082821 -0.06247783 -0.9492412 
-65.14286 109.7143 501 -0.2961109 0.05863026 -0.9533525 
-77 107 504 -0.1838574 -0.1680126 -0.9684876 
-73.8125 103.875 504.4375 -0.2355001 -0.4035113 -0.8841484 
-77.2 103.4 506 -0.2129208 -0.549909 -0.8076292 
-79.90909 101.7273 507.0909 -0.05435181 -0.7148858 -0.6971257 
-13.88889 97.55556 510.2222 -0.07181092 -0.8255949 -0.5596751 
-11 96 511 0.003361618 -0.8182347 -0.5748746 
-8 95.25 513 -0.03989834 -0.8727216 -0.4865852 
-5 94 515.5 0.001085694 -0.9060942 -0.4230747 
-2.25 93 517 0.008407635 -0.8467977 -0.5318487 
-5 91.66666 519 0.02758515 -0.8899733 -0.4551775 
-17 89.66666 522 0.07214235 -0.822472 -0.5642121 
-14.11111 88.22222 524.6667 0.119528 -0.7785813 -0.6160554 
-17.125 86.125 525.625 0.4004617 -0.4148986 -0.8170004 
21.81818 83 530.9091 -0.1146125 -0.8520547 -0.5107513 
28.16667 80.66666 534 -0.1104348 -0.8655007 -0.4885825 
24.8 79.4 536.6 -0.06931042 -0.9366709 -0.3432838 
34.33333 78 537.3333 -0.01413599 -0.9142179 -0.4049762 
24.75 77.5 540.5 -0.02970624 -0.9280007 -0.3713924 
28 77 543.6667 -0.09467684 -0.9196119 -0.3812483 
45.85714 73.28571 546 0.1194924 -0.848775 -0.5150754 
28 71.5 549.375 -0.1035826 -0.7880679 -0.6068112 
30.8 70.4 551.6 -0.05847479 -0.8540511 -0.5168921 
30.76923 68.23077 554.5385 0.01218547 -0.832977 -0.5531735 
64 -8 542 -0.04019624 -0.8273599 -0.560232 
61.5 -9 544 -0.1340275 -0.8470673 -0.5143088 
58.14286 -9.428572 546 -0.1725624 -0.8538415 -0.4910978 
54.85714 -10.57143 549.1429 -0.1029281 -0.863963 -0.4929238 
52.14286 -15.14286 558 -0.1056065 -0.9088463 -0.4035414 
48.8 -15.6 561 -0.1097031 -0.9358866 -0.3347861 
59 -18 562 -0.09810474 -0.873303 -0.4771975 
50 -18 565 -0.1986039 -0.8871831 -0.4164885 
52.2 -19.4 567 -0.224645 -0.8939404 -0.3878211 
70 -23 569.3333 -0.1658393 -0.8687642 -0.466633 
55 -24.5 575.5 -0.160009 -0.8607114 -0.4832939 
129.3333 -24.33333 554.6667 -0.1443702 -0.3339817 -0.9314578 
58 -26 578 -0.009814461 -0.8931181 -0.4497152 
55.66667 -27 580 -0.1588206 -0.8675186 -0.4713677 
94 -33.57143 582.1429 -0.09111805 -0.8735004 -0.4782202 
90.75 -34.75 585 -0.0970867 -0.9050606 -0.4140527 
87.5 -35 587 -0.1371482 -0.9018353 -0.4097359 
63.8 -36.6 597.2 -0.1237396 -0.8918336 -0.4351107 
66.5 -38 599 -0.1840156 -0.8851151 -0.4274453 
25.25 -38 606 0.01628501 -0.7987264 -0.6014741 
70.2 -39.4 600.2 -0.1754258 -0.8663722 -0.4675737 
25 -40.5 608.6667 0.08089461 -0.8174321 -0.5703164 
67.2 -40.2 603.6 -0.2202803 -0.8794258 -0.4220034 
25 -42.5 612 0.1144731 -0.872385 -0.4752268 
15 -62 574 0.9461349 0.2141191 -0.2428616 
14 -61 570.6667 0.9500982 0.2163413 -0.2247442 
79.75 -72.75 649 -0.7971417 0.1772013 -0.5772043 
15 -65 571 0.9572785 0.1838041 -0.223235 
78.33334 -75.33334 650.6667 -0.7586663 0.1545158 -0.6328905 
75 -77 642 -0.5529995 0.8294069 0.07921933 
75 -78 652 -0.7798842 0.6259113 -0.003977597 
72.5 -79.5 648 -0.595136 0.8029301 0.0334139 
15 -81 565 0.9704427 0.01741694 -0.2407027 
14 -76.25 561.5 0.9573835 0.08082465 -0.2772802 
12.25 -73 558 0.9354537 0.1456008 -0.3220665 
80 -63 640 -0.3504221 -0.6857878 -0.6378868 
81 -62 638 -0.386457 -0.7591982 -0.523707 
79.25 -60.25 636 -0.280364 -0.8602626 -0.4258454 
31.25 -51.5 626.75 0.07155783 -0.8824754 -0.4648835 
31 -49.5 623.5 0.1240803 -0.7793567 -0.614172 
28 -49 622 0.08156527 -0.7678066 -0.6354685 
46 -46.5 618.1667 -0.02693231 -0.8647251 -0.5015231 
24 -45 616 0.1124337 -0.8449933 -0.522824 
28 -43.5 615 0.07272081 -0.8570248 -0.5101178 
132 -6.666667 564.8333 0.4706486 0.5458901 -0.6931767 
60.875 -6.5 540.5 -0.07462239 -0.7652264 -0.6394217 
70 -4 539 0.1885162 -0.2177451 -0.9576266 
61.14286 -3.428571 536.4286 0.2329202 -0.6647332 -0.7098436 
60.5 -1 535 0.3951086 0.1302996 -0.9093465 
64.08334 -1 537.1667 0.3723072 0.04610801 -0.9269636 
67.6 -0.8 539 0.4380922 0.154952 -0.8854746 
57.75 1.25 534.75 0.2739601 0.3926639 -0.87793 
121.25 2.75 566 0.05710318 0.8469297 -0.5286297 
133 3 578 0.5480924 0.7963836 -0.2556717 
56 3 536 0.4182792 0.5435195 -0.7277562 
123 4 568 0.1838988 0.8228639 -0.5376582 
54 4.5 535 0.4264805 0.4383182 -0.7911963 
57.77778 4.777778 537.6667 0.4957024 0.3660094 -0.7876016 
51 7 535 0.3283108 0.4439265 -0.8337513 
58.125 8.125 539.375 0.4725968 0.3327228 -0.8160563 
50 8.5 536 0.4426672 0.4643664 -0.7670786 
119 10 603 0.3603912 0.9126663 -0.1927653 
48 10 535 0.4605954 0.5057449 -0.7294341 
51.8 10.2 537.5 0.2783306 0.5390137 -0.794982 
55.1 11.2 539.6 0.309877 0.5824386 -0.751493 
112 11.5 596.5 0.3759748 0.9011388 -0.2158516 
114 11 599 0.3685994 0.9067762 -0.204674 
110 12 595 0.3398448 0.9032665 -0.2619448 
58.66667 11.66667 542 0.3471408 0.5136706 -0.7846247 
104 12 587 0.3731093 0.9091647 -0.184957 
105 12 590 0.2919967 0.9376711 -0.188443 
75.8 13 552.2 0.3734906 0.7785263 -0.5043823 
96.5 13 578.5 0.3319488 0.9210157 -0.2038141 
73.5 15 554.5 0.3629656 0.8720959 -0.3281841 
121 37 626.3333 0.137766 -0.7983494 -0.5862243 
123 37 623 -0.5205788 -0.8430107 -0.1353911 
15.71429 37.85714 540.4286 0.5591299 0.4795042 -0.6763501 
12.875 40.5 540.5 0.4074199 0.49339 -0.768489 
16.09091 41.18182 543.0909 0.5577616 0.4246314 -0.7131551 
19.5 50 548.1667 0.6522036 0.1583727 -0.7413154 
18.2 52.6 547 0.6707121 0.2034625 -0.713266 
21.25 52.75 550 0.5755633 0.3104878 -0.7565212 
21.77778 56 551.8889 0.6588197 0.3450703 -0.6684932 
9.8 55.9 540.5 0.6291463 0.1226536 -0.7675487 
15.875 55.875 546.25 0.5874524 0.3940858 -0.706821 
1.571429 56.14286 536 0.5295538 -0.05701704 -0.846358 
22.5 59.375 554.5 0.621194 0.2274608 -0.7499197 
13.2 59.2 546 0.6452179 0.318404 -0.6944875 
16.125 59.125 548.375 0.5533189 0.2897372 -0.780955 
19.6 59.2 551.4 0.6662284 0.2152869 -0.7139967 
3.583333 58.75 537.1667 0.6223164 0.1154531 -0.7742048 
7 59 539.7778 0.4931276 0.3771916 -0.7839335 
10.22222 59.22222 542.7778 0.665057 0.3829347 -0.6411397 
1 59 534.7778 0.5456463 -0.06997377 -0.8350891 
24 61.75 556 0.565289 0.06577761 -0.8222662 
1 127 473 -0.04577565 -0.8170205 -0.5747887 
10.25 126 474.5 0.1696416 -0.699424 -0.6942822 
34.5 132 503.5 0.3785931 0.8238244 -0.4218775 
7.25 124.5 476.75 -0.02744935 -0.8292043 -0.5582713 
11 123 477.5 -0.1046629 -0.7161659 -0.6900378 
37 125.5 494.5 0.8337406 0.4341462 -0.3411654 
1.230769 122.3846 480.5385 -0.1498021 -0.6310469 -0.7611434 
36 122.5 491.5 0.9247693 0.2091102 -0.3179223 
12.75 119 477.5833 -0.2772006 0.1711185 -0.9454514 
15.75 116 476.875 -0.07636166 -0.4490055 -0.89026 
19 115 479 0.03560063 -0.799081 -0.6001685 
58 125 521.7 0.3152788 -0.02971479 -0.9485338 
39 118 499 0.9080501 0.04466111 -0.416474 
42 119 507.6667 0.9641128 0.1189639 -0.237348 
15.75 113 480.0625 0.01827035 -0.5407135 -0.8410084 
55.06667 122 521.6667 0.1686974 -0.6783187 -0.7151399 
12.75 111 481 -0.1045208 -0.6451092 -0.7569079 
58.5 121 525 0.1130578 -0.7743661 -0.6225554 
41 115.5 502 0.9180565 0.04231096 -0.3941853 
34.625 112.5 485.625 0.7928683 -0.1100404 -0.5993755 
61.2 120 525.6 0.06254511 -0.7055994 -0.7058454 
32 111 485 0.56105 -0.05792728 -0.8257526 
41 113 504 0.9332445 0.01825721 -0.3587776 
16.07692 110.2308 483.0769 0.06282656 -0.8667083 -0.494843 
70.25 118.9167 527.75 0.02975398 -0.737628 -0.6745514 
66.66666 117 529 0.07378077 -0.7872509 -0.6122029 
30.64286 107.1429 483.8571 0.1060717 -0.5305497 -0.8409909 
70 116.5 530.9167 -0.01410981 -0.8365884 -0.5476502 
16.05882 107.1765 485.8235 -0.2231892 -0.7142172 -0.6633856 
13 106 488 -0.007107052 -0.8439959 -0.5363026 
73 115 533 -0.1673355 -0.6320843 -0.7566164 
16.25 105 489.25 -0.05431068 -0.8843523 -0.46365 
19 103.6667 492.1667 -0.09875799 -0.9209601 -0.3769342 
1 103 497.5 -0.08520525 -0.918985 -0.384976 
72 110 539 -0.8445842 0.03738769 -0.5341159 
9.888889 101.8889 498 -0.004433434 -0.9237959 -0.3828595 
71 108 539 -0.903479 0.1735557 -0.3919237 
6.777778 100.7778 501.1111 -0.09331415 -0.9152218 -0.3919969 
67 107.6667 543.5 -0.2388384 -0.5929723 -0.7689864 
4 100 503.5 -0.07354715 -0.8588294 -0.5069546 
1.25 99 505 -0.08081935 -0.8394884 -0.5373337 
69 105 543.5 -0.9045602 0.1366482 -0.4038543 
4.142857 97.85714 506.8571 -0.1081361 -0.8835915 -0.4556015 
19.5 96 507.3333 -0.04595139 -0.8776134 -0.4771616 
61 101.25 543.25 0.7774695 0.2170828 -0.5902681 
66 98 535 -0.8817526 0.3246925 -0.3421803 
60.8 97.8 540 0.7462041 0.466636 -0.474795 
63.75 97.75 543 0.1859747 0.7922648 -0.5811453 
71 89 547 -0.5837984 -0.7865185 -0.2014156 
56 88.8 536.2 0.7432646 -0.2202038 -0.6317184 
67.66666 88.33334 548 0.3967377 -0.427476 -0.8123198 
57 86.5 538 0.7461417 -0.304402 -0.592125 
54.25 86.75 534.75 0.6683249 -0.3914308 -0.6325534 
-79 82.6 510.4 -0.7513406 -0.1686585 -0.6379982 
66 87 547 0.4506559 -0.5345416 -0.7149647 
-82 82.33334 514 -0.6009183 -0.2315798 -0.7650282 
69.25 86.5 549.75 0.2656064 -0.7809786 -0.5652661 
-79.875 80.75 513.125 -0.4347563 -0.6761075 -0.594866 
-78 79 515 -0.3005479 -0.7582343 -0.5785773 
-76.5 78 514 -0.236696 -0.8275576 -0.5090418 
-79.5 78 516.5 -0.3085442 -0.834327 -0.4568358 
-91 80 525.6667 -0.7406569 0.2315909 -0.6307084 
-83 77.42857 519.1429 -0.3046422 -0.8088064 -0.5030164 
-86.09091 76.90909 522.0909 -0.3313507 -0.6937343 -0.6394837 
-90 76.33334 524.3333 -0.6867153 -0.2016034 -0.6984112 
-93 77 527 -0.7467074 -0.02464473 -0.664696 
-95.57143 76.85714 530.7143 -0.779049 0.1194654 -0.6154758 
-86 74.875 524.875 -0.214514 -0.8319031 -0.5117821 
-94.4 74.4 528.6 -0.7103067 -0.1978201 -0.6755233 
-82 72 526 -0.2927008 -0.774803 -0.5603629 
-74.16666 70.33334 527.1667 -0.3831501 -0.6317127 -0.6738955 
-77.5 70 530 -0.2813879 -0.6979771 -0.6585201 
-125 74 557.4445 -0.2683898 -0.4917346 -0.8283502 
-76 68.75 529 -0.6270279 -0.1609479 -0.7621889 
-142.75 72 562 -0.07361969 -0.7867396 -0.6128793 
-134 70 563.3333 -0.1806431 -0.7759381 -0.6043907 
-94 64 518 0.2262427 0.9433863 -0.2425624 
-95 63 515 0.1255419 0.9520102 -0.2791342 
-136 69 565 -0.1859288 -0.8872336 -0.4221932 
-83.25 65 531.25 -0.005007092 0.8034084 -0.5954073 
-91 63 518 0.2763443 0.9543772 -0.113128 
-82.33334 63 528.3333 0.1352664 0.9180627 -0.3726444 
-89.5 61 510.5 0.2128248 0.9598325 -0.1828312 
-73.33334 62.33333 525.6667 -0.6278501 0.5105655 -0.5874752 
-85.5 61 513 0.1940712 0.9533275 -0.2313074 
-134.125 67.875 567 -0.4281543 -0.6769012 -0.5987393 
-76.75 61 522.25 0.07705754 0.9630229 -0.2581646 
-38.83333 58.66667 504.6667 0.6169995 0.1806959 -0.7659377 
-46 59 500 0.7240566 -0.008220833 -0.6896916 
-47.66667 57 498.6667 0.4096071 -0.4595999 -0.7880292 
-146.25 -8 570 -0.02759108 -0.8839697 -0.4667294 
-146 -9.5 572.8333 -0.04379484 -0.8620195 -0.5049797 
-155 -10.4 575.8 -0.2877874 -0.7010587 -0.6524532 
-38 -12.42857 576 0.07536034 -0.8578627 -0.5083231 
-41.2 -13.8 578.6 0.03003439 -0.8135991 -0.58065 
-38 -15 580 0.06071399 -0.8261139 -0.5602227 
-11 -16 582 0.02985419 -0.7079759 -0.7056054 
-1 -18 583 -0.1430248 -0.7611556 -0.6326027 
-5 -19 585 0.1049442 -0.6902667 -0.7159041 
-23.25 -24.25 584.5 -0.2509879 0.6845647 -0.6843804 
-19.85714 -25.28572 582.1429 -0.129957 0.8144239 -0.5655307 
-26 -27 579 -0.2936531 0.9058322 -0.3053459 
-28.5 -29 575.5 -0.407433 0.8756524 -0.2592899 
-26 -30 570 -0.2227634 0.9354777 -0.2743316 
-29 -30.33333 572.3333 -0.3584826 0.8879208 -0.288248 
-86.25 -31.25 606 0.07214564 -0.7684829 -0.6357901 
-32.5 -31.5 575.5 -0.5460963 0.8107148 -0.2109985 
-34.5 -32 579 -0.6155441 0.7569734 -0.2193097 
-85.66666 -34.16667 609.1667 0.01848383 -0.875162 -0.4834768 
-95 -35 611.3333 -0.09577182 -0.9010145 -0.4230847 
-35.5 -33.5 576.5 -0.6308518 0.7522283 -0.1902068 
-50 -37.5 612.1667 -0.4316654 -0.6770493 -0.5960447 
-53 -38 614 -0.1062767 -0.7652281 -0.6349261 
-1 -36 563 0.6104646 0.705683 -0.359645 
-7 -36 557 0.1498688 0.8037656 -0.5757606 
-45 -39 598 -0.810244 0.5595954 -0.1742347 
-71 -39.5 618 -0.02941589 -0.9069089 -0.4202987 
-50.4 -39.8 615 -0.5698612 -0.5439035 -0.6159766 
-68.5 -41 620.5 -0.1248031 -0.8567569 -0.5003918 
-65 -42 621.3333 -0.1266992 -0.8312053 -0.5413365 
-68.2 -43.6 624 -0.1417589 -0.8024303 -0.5796638 
47 -94 657 -0.1727983 -0.9762751 -0.1304903 
34 -92 665 0.1952686 0.9802255 -0.03206452 
36 -92 663 0.226763 0.9533353 -0.1993249 
28 -89 668 0.8432068 0.5373611 -0.01566312 
29 -90 673 0.8872736 0.3800516 -0.261355 
27 -85 665 0.9723353 -0.1025562 -0.2098724 
-95.5 -59 636 0.1345063 0.9865787 -0.09257724 
-93 -59 639.5 0.1860869 0.8497323 -0.4932816 
-56 -58 626 -0.9682143 0.217172 -0.1240859 
-83 -59 647 -0.2061658 0.1590611 -0.9655026 
-73.5 -57 645 0.05295455 -0.7580875 -0.6499994 
-74.25 -54.25 642 0.08178978 -0.8446636 -0.5290121 
-55 -54 625 0.9776604 -0.1998292 0.06518105 
-95 -54 640 -0.006881591 -0.5443944 -0.8388013 
-86 -52.5 638.5 -0.05202651 -0.8111376 -0.5825368 
-89 -51 636.6667 -0.06178774 -0.739408 -0.6704165 
-95 -48 633 0.01812649 -0.8562436 -0.5162543 
-51 -47 610 -0.9256747 0.3631983 -0.1058932 
-77 -47 630 -0.03525876 -0.8637824 -0.5026299 
-68 -45.4 627 -0.1078918 -0.8679721 -0.4847513 
-48 -43 602 -0.8717931 0.4808975 -0.09335055 
-154 -4 570.6667 -0.8627387 -9.867561e-05 -0.50565 
-154.5 -1.5 573 -0.8948587 0.2388931 -0.3770384 
-153 0 570 -0.9185338 0.1984215 -0.3419423 
-29 0 555 0.005912872 -0.8779065 -0.4787956 
-47.25 1 551.25 0.07951511 -0.8302299 -0.5517207 
-151 2 566 -0.8931621 0.2175472 -0.3936174 
-38.25 2.5 549.5 0.07095621 -0.8668476 -0.4934983 
-37.83333 4 546.3333 0.06611938 -0.9205275 -0.3850421 
-147 4.5 558 -0.8916647 0.1269583 -0.4345294 
-35.125 5.5 543.5 -0.03116112 -0.8989782 -0.4368834 
-148 6 561 -0.9209481 0.2263864 -0.3171809 
-148 7 563 -0.9203682 0.2225314 -0.3215621 
-29 7 540.3333 0.0456129 -0.8914946 -0.4507292 
-31.875 8.5 537.125 -0.1361903 -0.8595967 -0.4924894 
-147 11 563 -0.8715886 0.3324693 -0.3602742 
-34 10 536 -0.05511513 -0.9089574 -0.4132297 
-31.66667 10 534 -0.0991306 -0.9345144 -0.3418421 
-149 11 568 -0.9107514 0.2988775 -0.2849633 
-17.16667 10.33333 531 -0.01030971 -0.9415205 -0.336798 
-14 12 528 0.01314096 -0.8767403 -0.4807846 
-34.66667 13.33333 527.6667 -0.09525985 -0.8656742 -0.4914609 
-26.14286 14.28571 525.1429 -0.05832375 -0.9253841 -0.3745165 
-29 15 523 0.01146137 -0.9150399 -0.4032005 
-26.33333 16 521 -0.0815832 -0.8490366 -0.5219972 
-46.66667 17.66667 518.8333 0.01173563 -0.9388447 -0.3441407 
-44.25 18 517 -0.004246731 -0.9452029 -0.3264558 
-41 19 515 -0.08201092 -0.9149579 -0.3951283 
-43.875 20.5 512.875 -0.04789145 -0.8943611 -0.4447748 
-44 22 509.5 -0.02313767 -0.8985428 -0.4382756 
-164.25 26.75 603.25 -0.07013134 -0.7710289 -0.6329266 
-53.14286 23.57143 506.7143 -0.04637482 -0.9030826 -0.4269558 
-167 28.4 602.4 0.008996692 -0.7613543 -0.6482736 
-147 27 584 -0.8915965 0.2729832 -0.3612975 
-50.5 24 505 -0.008987516 -0.8973233 -0.4412825 
-163.8333 29.5 600.1667 -0.06600036 -0.7910982 -0.6081182 
-70.6 25 503.8 -0.02422548 -0.925568 -0.3778055 
-62.14286 25.57143 501.1429 0.09433952 -0.9353627 -0.3408763 
-164 31.5 597.5 -0.03705727 -0.8326305 -0.5525879 
-146 30 583 -0.9106806 0.1995331 -0.3617284 
-65.125 27 497.5 0.0381547 -0.8842681 -0.4654183 
-166.5 33 595 -0.2657304 -0.7176886 -0.6436697 
-26.25 29 510.1667 0.2705308 0.3362761 -0.9020707 
-168 34.5 596 -0.7106773 -0.01099998 -0.7034322 
-164.5 34 593.5 -0.3466636 -0.2890798 -0.8923325 
-61 28 497 0.0930788 -0.8243747 -0.5583392 
-150 34 590 -0.4501485 -0.5415441 -0.7099975 
-147 35 587.3333 -0.7678375 -0.06757078 -0.6370713 
-59.1 29.6 494.8 0.2448582 -0.7375212 -0.6293704 
-32.07143 35.14286 509.6429 0.3459984 0.3230695 -0.8808582 
-89 34 483.25 0.1033131 -0.8443277 -0.5257729 
-87 35.66667 481 0.2703816 -0.2448669 -0.9310929 
-44.25 49.75 507.25 0.2591077 -0.3266962 -0.9089184 
-47 52 506 0.1062575 -0.6229787 -0.7749883 
-43.83333 53 504 0.09950682 -0.7767857 -0.6218541 
-44 55.75 501.25 0.3273789 -0.3626643 -0.8725238 
-40.625 55.875 503.125 0.6145336 -0.1056425 -0.7817852 
-37.25 56.25 506 0.657851 0.02824582 -0.7526183 
-36 144 489 -0.5239928 0.7762601 -0.3505022 
-1 139 472 -0.2998892 0.822598 -0.4831138 
-15 141 482 -0.3588461 0.8283342 -0.430223 
-16 142 484 -0.305082 0.844563 -0.4400435 
-16.5 139.5 480 -0.4021919 0.8246351 -0.3977672 
-10.90909 136.6364 472 -0.3663384 0.4379544 -0.8209702 
-14.3 137 473.9 -0.4771006 0.5179863 -0.7099756 
-1.9 133.6 465.4 -0.2702115 -0.2089929 -0.9398445 
-17.2 137 476.2 -0.5520311 0.5655901 -0.612674 
-20.25 137.75 479.5 -0.1056632 0.6527268 -0.7501886 
-8.5 134.5 470 -0.2878629 0.457719 -0.8412064 
-48 142 500 -0.5377675 0.7340596 -0.414684 
-48 140 497 -0.5172848 0.7597709 -0.3939095 
-17.30769 133.7692 474.6154 -0.5027725 0.2408601 -0.8301845 
-23.75 134 479 -0.3681904 0.1373591 -0.9195479 
-59.06667 128.0667 497 -0.4292188 -0.04702188 -0.9019758 
-49.6 119.2 492.7 -0.2353029 -0.5816122 -0.7786911 
-53.29412 118.9412 494.5294 -0.2566548 -0.4540277 -0.8532217 
-70.81818 118.6364 501.8182 -0.4513403 -0.04793555 -0.8910635 
-49.8 116.3 495.6 -0.3262564 -0.4006788 -0.856162 
-68 116.25 501.25 -0.3287821 -0.2367844 -0.9142404 
-65 113 501.25 -0.2539477 -0.06081203 -0.9653044 
-69 112.5 503 -0.3081711 -0.02103024 -0.9510985 
-62.07692 109.9231 500.3077 -0.2458777 0.1969763 -0.9490756 
-71.5 110.25 503 -0.2947353 0.1133511 -0.9488323 
-73.85714 106.9286 503.5714 -0.1792125 -0.1148398 -0.9770848 
-77 104.4444 504.6667 -0.1849741 -0.457403 -0.8698086 
-83 101.8571 507.2857 -0.1450578 -0.7185885 -0.6801389 
-17 97.66666 510 -0.06063868 -0.8012065 -0.5953076 
-8 96 511 -0.02654439 -0.8312301 -0.5552945 
-11 95.16666 513.1667 0.0111557 -0.9180118 -0.3963961 
-2.25 94 515.5 0.01593216 -0.9036328 -0.4280118 
-5 93 517 0.009896596 -0.8449402 -0.5347693 
-2.25 91.83334 519.1667 0.03298521 -0.9067429 -0.420392 
-14.18182 89.72727 522 0.01644993 -0.8458324 -0.5331951 
-17 88 524.5 0.1912448 -0.6983932 -0.68969 
-14.75 86.75 526 0.1367558 -0.6058598 -0.7837294 
22 84 529 -0.1136287 -0.8497663 -0.5147676 
19 83.66666 531 -0.1041439 -0.843989 -0.5261527 
25.14286 80.85714 533.7143 -0.07812212 -0.8454695 -0.5282786 
28.33333 79 537 -0.1795714 -0.8910772 -0.4168159 
30.8 78 537.4 -0.05243488 -0.9087961 -0.4139326 
28 77.5 540 -0.1672778 -0.9320785 -0.3213221 
25.25 77 544 0.003169666 -0.92223 -0.3866287 
42.90909 73.63636 546.0909 -0.06662516 -0.8619393 -0.5026149 
25 71.5 549.5 -0.07472234 -0.7082725 -0.7019736 
34.2 70.4 551.6 0.06000102 -0.8609996 -0.5050542 
34 68.33334 554.4445 0.02180998 -0.838064 -0.545136 
24.75 65.5 556 0.4589176 -0.2135551 -0.862432 
61.25 -8 542.75 -0.1222426 -0.8192344 -0.5602782 
132 -9 563 0.1290811 0.5818574 -0.802982 
64 -9 544 -0.03265095 -0.8642442 -0.5020119 
55 -9 546 -0.08093769 -0.8548912 -0.5124551 
57.75 -10.75 549 -0.2032002 -0.845914 -0.4930915 
48.5 -11 551 -0.161974 -0.8616571 -0.4809485 
49.25 -15 558 -0.1072786 -0.9097089 -0.4011497 
51.8 -16.6 561 -0.1503215 -0.8902779 -0.429894 
52.25 -18.25 563.75 -0.1978299 -0.870955 -0.4497785 
48.8 -18.6 567 -0.1551751 -0.8998396 -0.407688 
66.83334 -22.66667 570 -0.147792 -0.8707657 -0.4689612 
58 -25 576 -0.02897033 -0.8750103 -0.4832368 
54.75 -26 578.25 -0.1734134 -0.8840235 -0.4340855 
127.3 -24.8 555.4 -0.2329518 -0.4700987 -0.8513171 
58 -27 580 -0.004448011 -0.8961071 -0.4438155 
91.16666 -33.33333 582 -0.09045579 -0.8711792 -0.4825606 
94 -35 585 -0.09232911 -0.8874723 -0.4515179 
85 -35 587.6667 -0.2058792 -0.888317 -0.4104956 
65 -36 595 -0.1573209 -0.8810713 -0.4460533 
61.25 -36.25 597 -0.146297 -0.8642104 -0.4813915 
28.25 -37.75 605.75 0.02578241 -0.8168463 -0.576279 
67 -39 600.6667 -0.2082151 -0.8833619 -0.4199027 
28 -40.5 609.1667 0.02569876 -0.8265976 -0.5622064 
69.8 -40.8 603 -0.2138226 -0.8780157 -0.4282153 
28 -42 612 0.02116965 -0.8761132 -0.4816405 
14 -60 572 0.9514216 0.2099609 -0.2251961 
14 -63 569 0.9502661 0.201813 -0.2372043 
15 -63.33333 573 0.9573532 0.1981129 -0.2102999 
81.66666 -72.66666 648.1667 -0.8177668 0.2299478 -0.5276186 
78.4 -73.2 650.8 -0.6856985 -0.4010869 -0.60741 
16 -66 575.5 0.9751888 0.143203 -0.1688188 
76 -77 646 -0.5918257 0.8046106 0.04841737 
11 -66.5 557 0.9000948 0.1905519 -0.3918152 
15 -79 565 0.9704427 0.01741694 -0.2407027 
13 -76 558.6667 0.9459956 0.05965773 -0.318643 
13 -73 560.3333 0.9497176 0.1412093 -0.2794576 
82.25 -63.25 639.25 -0.3697428 -0.7423708 -0.5587271 
78.8 -61.6 639 -0.1936117 -0.8138574 -0.5478601 
82 -61.5 636.3333 -0.3649583 -0.8307545 -0.4203005 
23 -54.5 630.5 0.7461922 -0.3202072 -0.5836649 
33.8 -51.6 627.2 0.02042988 -0.9197251 -0.3920313 
30 -51 625 0.0623774 -0.8676219 -0.4932964 
33.75 -49.75 623.75 -0.09588061 -0.8263167 -0.5549845 
25 -49 622 0.005144341 -0.7780439 -0.6281889 
43 -46.5 618.5 -0.01658774 -0.860299 -0.5095199 
25 -44 615 0.1164163 -0.8545074 -0.5062255 
64 -6.5 540.5 -0.03771035 -0.7484429 -0.6621263 
67 -4.3 539 0.2213316 -0.3118159 -0.924004 
133 -6 566 0.5183907 0.5592765 -0.646901 
64.18182 -3.636364 537.5455 0.1986821 -0.4602977 -0.8652465 
60.5 -3 535 0.2006199 -0.421558 -0.8843306 
62 -1 536 0.4929972 0.1261179 -0.8608415 
70 -1 539.6667 0.4074543 0.3670415 -0.8362187 
54.92308 2.076923 534.2308 0.3744019 0.3493175 -0.8589532 
120.6 1.4 564.6 0.2188504 0.6046673 -0.7658211 
124.1 1.9 566.6 0.3021095 0.5805827 -0.7560779 
135 1 578 0.5572695 0.7949026 -0.2399594 
57.9 2.8 536.4 0.3457523 0.5810022 -0.7368119 
121.5 4 568 0.01235733 0.9023479 -0.4308314 
55.28571 5.142857 536.4286 0.4146881 0.3662513 -0.8330029 
48.75 7.75 534.625 0.4614198 0.3916392 -0.7960594 
52.125 8.125 536.5 0.287973 0.4360303 -0.8526132 
118 10 600 0.3361693 0.9213454 -0.1952257 
49.09091 10.81818 536.8182 0.4287632 0.4993629 -0.7528604 
57.77778 10.77778 540.5555 0.3481364 0.5287533 -0.7740937 
111 11 593 0.3060166 0.9324995 -0.1918299 
115 11.5 603 0.4049201 0.8824911 -0.2392684 
65 11.8 545 0.4852092 0.3773085 -0.7888032 
107 11 589 0.2762957 0.9330568 -0.2303602 
101 12 582 0.3526915 0.9115621 -0.2113372 
72.83334 13.83333 551.8333 0.382679 0.7560038 -0.5310509 
76.25 13.75 554.75 0.346112 0.8605303 -0.3737566 
72 16 556 0.3997566 0.8551224 -0.3300913 
124 37 626.6667 -0.4198339 -0.8893209 -0.1812401 
121 37.5 624.1667 -0.08337204 -0.9512141 -0.2970536 
13.25 38.75 539.25 0.4163218 0.6219324 -0.6632316 
17 38.5 542 0.6669994 0.4027829 -0.6267996 
15 40 541 0.5004249 0.5288422 -0.6854932 
13.66667 41.66667 542 0.4488476 0.5134474 -0.7313738 
18.5 50 546.5 0.6859378 0.1377657 -0.7144998 
21.875 49.875 549.25 0.4628905 0.2938192 -0.836303 
19.5 53.2 548.5 0.6486115 0.2770409 -0.7089087 
6.5 53.5 538 0.4609879 -0.06661934 -0.8849023 
20 56.25 551 0.674107 0.3158253 -0.6677083 
0.2 56.4 535 0.5056364 -0.07859636 -0.8591592 
3.692308 56.07692 537.1539 0.4268222 0.001865089 -0.9043337 
7.5 56 539.1667 0.533976 0.1081607 -0.8385528 
11 56 542 0.7139199 0.2329732 -0.6603348 
14 56.5 545.5 0.6077552 0.39564 -0.6885512 
23 57 554 0.5904899 0.336401 -0.7335913 
17 57 548 0.6327674 0.328766 -0.7010837 
21.14286 58.57143 552.7143 0.6894313 0.2165916 -0.691211 
15 58 547 0.6103647 0.3671336 -0.701903 
9.333333 58.33333 540.6667 0.639228 0.3304399 -0.6944041 
-116 82.75 545.5 -0.1950094 -0.7790135 -0.5959105 
-119.5 81 547 -0.1026302 -0.7578268 -0.6443334 
-101.8 80 539.4 -0.713976 -0.006975736 -0.7001354 
-116.1429 79.71429 548.7143 -0.2408065 -0.6891079 -0.6834783 
-98.5 77.25 533.75 -0.7153338 0.2290221 -0.6601866 
-101 77 537.4286 -0.7784638 0.2998227 -0.5514529 
-103.4 76.8 540.4 -0.7862508 0.2323193 -0.5725709 
-105 75 542 -0.6883895 0.409979 -0.598362 
-106.75 77 543.75 -0.6504814 0.0418832 -0.7583665 
-109.875 77.125 546.625 -0.6697798 -0.07399014 -0.7388644 
-111 75 548 -0.5875559 0.2662707 -0.7641191 
-113 76.9 549.1 -0.5855765 -0.371842 -0.7203012 
-116.1429 76.57143 551.2857 -0.364549 -0.4450411 -0.8179501 
-100.3333 73.33334 534.3333 -0.5806916 0.4043763 -0.7065955 
-106.5 73 541 -0.5398534 0.6382224 -0.5488448 
-118 74 553 -0.5708457 -0.117561 -0.8125975 
-109.3333 70.33334 540 -0.2835908 0.8312232 -0.4781675 
-113 70 544 -0.3104148 0.8663005 -0.3913645 
-114 69 541 -0.4549047 0.8331349 -0.3145598 
-118 66 543 -0.7797131 0.527913 -0.336683 
-5 -9 570 -0.09428681 -0.9035418 -0.4179978 
-2.2 -10.6 573 -0.1594591 -0.8863259 -0.4347405 
-11 -11 575 -0.07244954 -0.8745937 -0.479413 
-165 -12 594 -0.9261301 0.2031264 -0.3178409 
-166 -14 596 -0.8890346 0.2073315 -0.4082049 
-154.8333 -15.5 582.5 -0.04264187 -0.8343666 -0.5495582 
-152 -17 585 -0.01239372 -0.8191874 -0.573392 
-166 -16 594.3333 -0.8960372 0.1753714 -0.4078753 
-148.5 -18 586 -0.009998467 -0.8686937 -0.4952489 
-152.2 -19.4 588.4 0.03421283 -0.8622985 -0.5052432 
-152 -21 591 0.02098032 -0.8629436 -0.5048645 
-161.2 -22.4 594.4 -0.02333006 -0.8757922 -0.4821242 
-155 -24.5 597 -0.02320688 -0.8829159 -0.4689574 
-146 -25.5 600 0.005944499 -0.8458044 -0.53346 
-146.25 -27.25 603 0.03847793 -0.8576371 -0.5128138 
-142.8 -28.6 605.6 0.003855873 -0.8526313 -0.5224988 
-134 -30 606.6667 -0.1255756 -0.7338775 -0.6675738 
-137.25 -31.75 609 -0.1005951 -0.7735153 -0.6257434 
-133.5 -33 610 -0.06696187 -0.8849979 -0.4607546 
-143 -33.5 612.5 0.02674732 -0.8230767 -0.5673001 
-139.8 -34.6 614.6 -0.008953924 -0.8137314 -0.5811722 
-101 -36.5 615.5 -0.01343948 -0.8227583 -0.5682325 
-116 -37.5 617.6667 0.04150149 -0.8516064 -0.5225362 
-116 -39.5 621 -0.02198095 -0.8526265 -0.5220584 
-113.5 -41 623 -0.04390348 -0.7918407 -0.6091477 
-116 -43 625 0.0138698 -0.7945423 -0.6070505 
-50.25 -76.1875 554.6875 0.1186248 -0.2353882 -0.964635 
-52 -76 553 0.3523998 -0.2706085 -0.8958713 
-52.4 -72.8 555 0.6350096 0.1726231 -0.7529702 
-49 -72.5 553 -0.5375838 -0.1165544 -0.835116 
-35.3 -51.5 545.6 -0.4671356 0.3730466 -0.8016362 
-104 -57 626 0.238249 0.971122 -0.01262956 
-32 -49 546 -0.3223527 0.4959906 -0.8062766 
-108 -56 627 0.3071901 0.9514226 -0.02072212 
-35.66667 -48.33333 548.3333 -0.488223 0.5212466 -0.6999575 
-125.2 -46.6 630.4 0.02410504 -0.5973199 -0.8016408 
-116 -45 628 -0.01641845 -0.8076467 -0.589438 
-119 -44 627 0.00731965 -0.8313417 -0.5557135 
-23 -6 567 -0.08094954 -0.953972 -0.288764 
-20 -6 564.6667 -0.1013581 -0.9521277 -0.2884085 
-19.75 -4.25 561 -0.111122 -0.898819 -0.4240004 
-22.5 -3 559 -0.1328624 -0.8858728 -0.4444963 
-100.8571 23.42857 506.7143 0.06525578 -0.9276783 -0.3676339 
-116.25 25 507 -0.09266338 -0.8855816 -0.4551471 
-118.5 26.25 504.25 -0.5297418 -0.7143896 -0.4571884 
-110.2 27 501 -0.1152638 -0.9130772 -0.3911577 
-120 28.5 506 -0.8499746 -0.0678553 -0.5224354 
-110 28.42857 497.5714 -0.1463881 -0.8664776 -0.4772706 
-107 29.5 495 -0.1009212 -0.8921767 -0.4402677 
-104 30 492.4286 -0.1149723 -0.8951742 -0.4306327 
-103.875 31.75 488.875 -0.06912547 -0.9295503 -0.3621574 
-117 32 500 -0.8537115 -0.06530645 -0.5166351 
-118 34 502 -0.9264205 0.2407522 -0.289454 
-107 33 486 -0.1976678 -0.9076597 -0.3702449 
-116 35 498 -0.9319407 0.1389198 -0.3349445 
-118 43 510 -0.8769928 0.3247681 -0.3541319 
-118 46 513 -0.8767046 0.3440687 -0.3361631 
-116 48 510 -0.8971825 0.3365407 -0.2860143 
-123 51 536 -0.8543922 0.4041926 -0.3265617 
-120 51 527 -0.9025997 0.3418286 -0.2616623 
-121 54 534 -0.8421263 0.4094715 -0.3509367 
-123 56 542 -0.8650242 0.4155267 -0.2811952 
-145 109 525.5 0.5941507 -0.7369906 -0.3222266 
-170 94.75 527.25 -0.5220683 -0.775793 -0.3543869 
-173.25 95.5 530.75 -0.4973526 -0.7339278 -0.4625909 
-169.5 93 531 -0.5538149 -0.7749865 -0.3044421 
-157 88.33334 534 0.8230307 -0.562343 -0.07994311 
-158.4 86.2 537 0.8906477 -0.4546942 4.154129e-05 
33.75 65.5 558.5 0.06462751 -0.7742017 -0.6296309 
31.5 64 560 0.2526541 -0.5904879 -0.766479 
132 -12.5 561.5 0.1131231 0.6523237 -0.7494511 
57.83333 -12.83333 552.1667 -0.123064 -0.9074414 -0.4017529 
54.75 -14 555.25 -0.06280003 -0.8970372 -0.4374705 
124 -25.25 557.75 -0.4887704 -0.7199962 -0.4926551 
120.8571 -25.14286 561.1429 -0.2500496 -0.843248 -0.4758236 
124.3333 -27.66667 561.5 -0.7476527 -0.5301374 -0.3999625 
124.3333 -30.33333 564.6667 -0.7295654 -0.324496 -0.6020273 
121 -31 567.5555 -0.7086666 -0.2330368 -0.6659471 
122 -33 565 -0.72141 -0.0692445 -0.6890377 
103.1429 -34.42857 582 -0.08643226 -0.914754 -0.3946576 
8 -60.75 554.5 0.8335912 0.2620456 -0.4862693 
3 -60.75 547 0.7491148 0.1546945 -0.6441247 
9.4 -64.2 555.2 0.8565576 0.2348233 -0.4595292 
7.428571 -64 551.8571 0.808728 0.2402089 -0.5368974 
4.5 -64 548.1667 0.7341893 0.1459286 -0.6630769 
1 -64 545.1111 0.4231382 0.2000845 -0.883697 
6.4 -67.2 549.4 0.6953124 0.08109448 -0.7141179 
12 -78 556 0.8885407 -0.1039236 -0.4468728 
91 13 570 0.3328863 0.919726 -0.2080647 
93 13 574 0.336798 0.9193027 -0.2035921 
78.5 14 557.5 0.2765745 0.9014521 -0.3330028 
82.5 14 561 0.413712 0.8643611 -0.2858713 
78 16 562 0.2822839 0.9134282 -0.2931974 
87 16 576 0.4147303 0.8804599 -0.2297587 
85.5 17.5 579.5 0.4450799 0.862596 -0.2404829 
75.5 17 564 0.2984402 0.9294608 -0.2168783 
74 18 566 0.3861862 0.8867339 -0.2540931 
70.33334 29.33333 581.6667 0.5914249 0.5358888 -0.602528 
70.66666 35 587.3333 0.6457608 0.3489445 -0.6791398 
64.66666 35.66667 581.3333 0.6715124 0.4648998 -0.5770091 
33.875 62.125 561.875 0.3566852 -0.3282942 -0.874642 
-32.5 146.5 489 -0.2820359 0.8330739 -0.4758611 
-8 142 479 0.02585376 0.948827 -0.3147362 
-11.5 143 482.5 -0.3078714 0.8678007 -0.3900477 
-12 141 479 -0.2762129 0.8792831 -0.3880307 
-2 140.3333 477 -0.1453669 0.9125794 -0.3821878 
-5.5 139 475 0.1750452 0.8637938 -0.472461 
-37.5 142.5 486.5 -0.5043578 0.7441964 -0.4379442 
-41 139.6 486.2 -0.5863959 0.5559499 -0.5891176 
-47 139 493 -0.511736 0.7626504 -0.3955892 
-13 133.75 472 -0.4757402 0.1328893 -0.8694894 
-43.625 136.5 486.25 -0.4555428 -0.2207945 -0.8623981 
-46 135 487 -0.5669448 -0.01585876 -0.8236031 
-46.83333 137 489.3333 -0.6177856 0.5065783 -0.6014311 
-44 133.375 488.25 -0.2217072 -0.4452278 -0.8675357 
-68 135 512 -0.4274031 0.8125646 -0.3963148 
-58.22222 130.6667 495.6667 -0.6008823 -0.03984227 -0.798344 
-61.875 130.875 497.625 -0.5423729 0.4514979 -0.7085063 
-65.28571 130.8571 500.8571 -0.5441399 0.5572383 -0.627214 
-68.33334 131 503.6667 -0.4964291 0.7399891 -0.4538438 
-71.5 131.5 508 -0.4048921 0.7980438 -0.4463053 
-55.90909 128.1818 495.2727 -0.388195 -0.07379045 -0.9186183 
-64.375 128 498.625 -0.5617501 0.069547 -0.8243786 
-71.6 128.2 503.4 -0.5519064 0.3993334 -0.732074 
-50 125 491.6667 -0.4749548 0.094007 -0.8749747 
-54 124.6667 494 -0.5545139 0.08524325 -0.8277971 
-70.71429 126 501.7143 -0.3878111 -0.09660996 -0.9166619 
-52.6 122.3 492.7 -0.5188732 -0.09163529 -0.8499256 
-68.09091 121.8182 501.0909 -0.4368981 0.1148928 -0.8921434 
-53 115.6667 497.5555 -0.2439692 -0.4361063 -0.8661931 
-55.9 113 498.6 -0.4069127 -0.1044097 -0.9074804 
-59 112.75 500 -0.2120092 -0.01653088 -0.9771279 
-57 110.5 500 -0.2758254 0.1206946 -0.9536001 
-59 109 499 -0.1492498 0.2770606 -0.9491901 
-94.16666 106.5 508 -0.3170114 -0.01108849 -0.9483569 
-91.9 103.9 507.4 -0.2372926 -0.3935386 -0.8881552 
-88.5 102 508 -0.1045182 -0.7285581 -0.6769633 
-11 97.25 509.5 -0.01064959 -0.8395766 -0.543137 
-13.75 96 511 -0.0423487 -0.8130661 -0.580629 
-17.25 95.33334 513 -0.108341 -0.8407194 -0.5305216 
-20 94 515.5 -0.009256644 -0.8463675 -0.532519 
-23.25 93 517 0.0337094 -0.8011163 -0.5975588 
-19.75 91.66666 519 0.05932958 -0.7948599 -0.6038855 
-73 88.5 504 -0.7982805 0.4239526 -0.4277994 
-4 91 522 0.1404585 -0.8875485 -0.4387814 
-8.25 89.66666 522 0.09810889 -0.8565676 -0.5066226 
-75 85.5 506 -0.7832955 0.1154889 -0.6108279 
-11 88 525 0.08247016 -0.844784 -0.5287143 
-4.75 86.33334 527.4167 -0.04070435 -0.802464 -0.5953106 
-2.5 85 530 0.01133565 -0.8633113 -0.5045445 
1.25 84 531.5 -9.326178e-07 -0.8320504 -0.5547001 
47 82 533 0.4268963 -0.6661952 -0.6115093 
42.85714 80 534.1429 -0.008547948 -0.8711087 -0.4910159 
46.25 79 536.5 0.2198894 -0.821806 -0.525627 
37 78 537.3333 -0.02012874 -0.9051179 -0.4246839 
46 76.66666 540.3333 0.1596914 -0.8740392 -0.4588619 
43 76 542 -0.001030123 -0.8874457 -0.4609112 
28 76 545 -0.1206137 -0.7544392 -0.6451929 
46.2 74.6 543.4 0.1131187 -0.8281088 -0.5490355 
25.33333 75 546.6667 -0.09687421 -0.7759813 -0.6232724 
27.5 73.33334 548.1667 -0.1226537 -0.6267571 -0.7695009 
43.25 71.5 549.375 -0.02635205 -0.8877231 -0.4596229 
39.85714 70.42857 551.8571 0.005241097 -0.8492292 -0.5279986 
39.83333 68.33334 554.5 0.02431963 -0.8290084 -0.5587071 
55.1 -7.2 543.2 -0.1261384 -0.8355575 -0.5347269 
124 -10 560.4445 0.193467 0.4886509 -0.850759 
120.8 -10.6 558.8 0.322946 0.5153772 -0.7937835 
61 -10.16667 546.1667 -0.1055506 -0.8463898 -0.5219994 
120.5 -14 556 0.3177004 0.5187553 -0.7936999 
123.6 -16.4 556 0.133102 0.4088782 -0.9028302 
66.8 -16.6 558.2 -0.1841249 -0.8505802 -0.4925562 
61 -18 562 -0.1099175 -0.8567465 -0.5038885 
127.0833 -19 555.3333 -0.08489369 0.2993572 -0.950357 
70 -20 563.5 -0.1734486 -0.8851756 -0.4317174 
51.5 -20 569 -0.2385392 -0.8876179 -0.3939971 
69.8 -21.6 566.8 -0.1389903 -0.8909274 -0.4323541 
52.25 -22.25 573.25 -0.2628298 -0.8507301 -0.4551692 
130 -22 554.5 -0.3431265 0.01817275 -0.9391134 
70 -24 571 -0.1655001 -0.864777 -0.4740998 
67 -24.5 573.1667 -0.1683879 -0.8741891 -0.4554547 
64.2 -25.2 575.8 -0.1379524 -0.8947962 -0.4246281 
61 -26 578 -0.03445018 -0.886911 -0.4606541 
64 -27 579 -0.1444562 -0.8749665 -0.4621321 
76.16666 -30.33333 582 -0.1180481 -0.8838692 -0.4525923 
73 -31.5 584.8333 -0.138166 -0.8820771 -0.4503889 
77 -33 586 -0.1053015 -0.8624941 -0.4949905 
79 -34 588 -0.07878217 -0.8908 -0.4475138 
81 -35 590 -0.1254095 -0.8585289 -0.4971926 
55 -36 598 -0.04928564 -0.8915502 -0.4502324 
51.75 -36.75 600 -0.1047729 -0.9065273 -0.4089388 
49 -37.5 603 -0.1348707 -0.8996654 -0.4152254 
46 -38 605 -0.1509719 -0.891762 -0.4265772 
46 -41 609 -0.1467955 -0.776353 -0.6129659 
46 -43 612 -0.01572101 -0.8696948 -0.4933394 
86 -68 633 -0.881272 0.472433 -0.01291416 
78.8 -69.8 648 -0.3171138 -0.4985205 -0.8067937 
13 -61 566.6667 0.9532862 0.1872345 -0.2370414 
13 -64 564.3333 0.9563272 0.1654422 -0.2409714 
12.5 -67 561 0.9402715 0.1506927 -0.3052559 
12 -70 558.3333 0.9351442 0.1120502 -0.3360804 
16 -78.66666 569.6667 0.9805514 0.08225898 -0.1781921 
73 -66 645.3333 -0.1086412 -0.8858094 -0.4511528 
77 -66 643 -0.1856165 -0.7542725 -0.6297774 
87 -65 638 -0.5926758 -0.613595 -0.5217631 
78.8 -64.2 641.6 -0.1614152 -0.6509506 -0.7417604 
85.4 -63.2 636.4 -0.4579374 -0.7515457 -0.4748394 
90 -63 629 -0.8741585 0.02704212 -0.4848873 
40 -52 627.3333 -0.0604152 -0.9023002 -0.4268539 
37.5 -51 625 -0.08600601 -0.8939236 -0.4398903 
40 -50 623 -0.02475544 -0.8194378 -0.5726332 
43 -48 621 0.0102649 -0.7818883 -0.6233341 
28 -47 620 0.09065315 -0.7956724 -0.5989051 
25.2 -45.6 617.6 0.06978642 -0.8723813 -0.483819 
46 -45 616 -0.0197462 -0.8571525 -0.5146841 
43 -44 614 -0.006285989 -0.8823413 -0.4705682 
121 -7 560.8889 0.3777934 0.4102899 -0.8300207 
129.8333 -7 563.1667 0.3743454 0.3921345 -0.8402953 
58 -6 541 -0.1051725 -0.8327408 -0.543582 
49 -4.285714 540.1429 -0.1128923 -0.8948486 -0.4318579 
57.875 -3.5 536.5 -0.02621464 -0.814006 -0.5802647 
122 -3.5 563 0.3246416 0.4484528 -0.8327652 
56 -3 535 -0.07898005 -0.69569 -0.7139871 
58 -1 534.6667 0.08144003 -0.2403758 -0.9672575 
123.5556 -1 565 0.265249 0.4771757 -0.8378224 
63.875 1.875 537.75 0.3948609 0.470477 -0.7891364 
66.84615 2.076923 539.7692 0.4379475 0.4477109 -0.7795878 
70.2 2.6 542 0.415533 0.5276086 -0.7409194 
124.5 4 569.5 0.2755443 0.8621129 -0.425249 
129 4 575 0.4588512 0.8649969 -0.2030667 
67.125 5.125 542.25 0.2649587 0.555786 -0.7879713 
126.5 6 578.5 0.2147643 0.965425 -0.1477533 
116 7 582 0.2945096 0.9404197 -0.1699262 
117 7 584 0.2889516 0.9443581 -0.1571457 
60.66667 7.777778 540.5555 0.485818 0.3006822 -0.8207138 
64 8 542.6667 0.4234172 0.3902198 -0.8175858 
111 10 588 0.2104697 0.9435003 -0.2559489 
61.18182 11.09091 542.5455 0.3750933 0.420982 -0.8258808 
109 11.5 591 0.2437838 0.9421051 -0.2302334 
107 12 593 0.2439779 0.9356939 -0.2548562 
4.4 41.4 533.2 0.5899201 0.5299422 -0.6092254 
10.42857 41.14286 539.2857 0.6053237 0.3293596 -0.7246417 
19 43.875 546.375 0.5634589 0.2285346 -0.7939055 
21.9 44.1 548.6 0.5029943 0.1397757 -0.8529124 
9 43.5 538 0.6398506 0.2800593 -0.7156523 
6.75 46.25 538 0.4473121 0.3214472 -0.8346158 
20 48 548 0.5925081 0.1242692 -0.7959217 
12 58 544 0.7124023 0.3045032 -0.6322663 
3.8 132 465.8 0.08601922 -0.63808 -0.7651501 
7 131 467.875 0.2544729 -0.63741 -0.7272908 
10.6 130.8 470.4 0.6159871 -0.4631926 -0.6371911 
23 132 482 0.8246682 0.1270657 -0.5511594 
16.2 130.4 476 0.4839376 -0.5572686 -0.6747268 
13.8 130.7 473.3 0.5645725 -0.4502186 -0.6917811 
25.5 131 485.5 0.8368048 0.3188345 -0.4450869 
15 128 475 0.6114043 -0.3346361 -0.7170799 
7.166667 128.1111 471.0555 0.1093365 -0.840524 -0.5306269 
27.33333 130.3333 489 0.8665294 0.3624892 -0.3431157 
21.69231 128.2308 480.2308 0.5102637 -0.479376 -0.7140235 
32 129 495 0.3534129 0.8466866 -0.3977701 
27.25 127.25 486.75 0.6950684 0.5983127 -0.3986248 
33 127 492 0.4081681 0.8274155 -0.3857231 
31 125 485.6667 0.2491418 0.8997188 -0.3583778 
34 125.3333 489 0.5088524 0.746976 -0.4278973 
16.66667 122.3333 479 0.2937542 0.1491798 -0.9441683 
37.66667 127.6667 500.6667 0.7801986 0.5105863 -0.361375 
18.75 121 478 0.03845802 0.578064 -0.8150847 
34.33333 122 486 0.9160227 0.2472318 -0.315878 
7.2 119.1333 479.8 -0.2065038 0.1894738 -0.9599249 
54.5 128.25 520 0.3927866 -0.09130848 -0.9150855 
41 124.5 507.5 0.9251447 0.2609041 -0.275747 
41 121.5 505 0.9535856 0.1682247 -0.24975 
10 114 478 -0.08013194 -0.5679952 -0.8191217 
9.666667 115 479 -0.06976172 -0.5591107 -0.8261529 
52 124.75 520 0.1608195 -0.3731733 -0.9137171 
69.9375 125.25 525.75 0.2972569 -0.0386225 -0.9540161 
48 123 520 0.4968551 -0.5185108 -0.6959035 
36 116 488 0.9478182 -0.001129359 -0.3188095 
1.1 113.6 480.3 -0.1815266 -0.6250828 -0.7591572 
67 122 525 0.1492246 -0.095476 -0.9841831 
4.25 112 482.125 -0.1133363 -0.838461 -0.5330461 
48.5 120 523 0.3984304 -0.7374352 -0.545383 
38 112 493 0.9376961 0.1668098 -0.3047959 
51.85714 119.4286 525.8571 0.1464293 -0.6988724 -0.700097 
39 112 496 0.9464666 0.1633008 -0.2784491 
54.83333 118.3333 527.3333 0.01199854 -0.7838461 -0.6208392 
57 117 529 0.05420112 -0.8824851 -0.4672071 
48 116.25 526 0.8320068 -0.1084129 -0.5440692 
55.11111 116.4444 530.7778 0.08916003 -0.9136888 -0.3965139 
3.625 106.5 488.375 -0.3976839 -0.600221 -0.6939614 
49.5 113.3333 528.3333 0.8147453 -0.05346837 -0.5773485 
51.6 113.4 531.6 0.7337477 -0.1726683 -0.657115 
9.75 104 492 0.00445504 -0.934994 -0.3546357 
6.75 103 495.5 -0.02601685 -0.9426384 -0.3328002 
51 109 529 0.8772516 0.3396883 -0.3391778 
18.875 101.25 498.125 -0.0555586 -0.8952635 -0.4420596 
22.14286 100 500.5714 -0.0331807 -0.8709542 -0.4902427 
19 99 501.5 -0.02970212 -0.8599191 -0.5095654 
59 107 542.3333 0.7116391 -0.1092998 -0.693991 
62 106.5 545 0.5090849 -0.3126852 -0.8019105 
15.72727 98.45454 503.9091 -0.1303874 -0.8979012 -0.4204432 
58.5 104 540.25 0.8190677 0.2097641 -0.533973 
13 97.5 506.8333 -0.01803852 -0.8497555 -0.5268685 
10.25 96 508 0.020642 -0.8727096 -0.4878033 
64.15385 104.1538 546.7692 0.2759493 -0.4438963 -0.8525304 
56 101 534.6667 0.8665396 0.3132963 -0.3885289 
57.25 100.75 537.25 0.8306397 0.2875296 -0.4768274 
66.5 101 545.5 -0.7691172 0.5394065 -0.3427819 
57.25 97.75 534.5 0.8290741 0.2969878 -0.473745 
66 96 541 0.7209086 0.5021048 -0.4776835 
66.8 92.8 543.8 -0.4518292 -0.8575468 -0.2458939 
60.4 92.4 538 0.5865702 -0.395702 -0.7066508 
71 88 538 -0.8055305 -0.5859435 0.08826609 
63.25 89.75 543.25 0.5673106 -0.5683406 -0.5959426 
60.25 89.5 540.75 0.5941566 -0.5066189 -0.6247523 
-85.4 82.8 519.2 -0.7803261 0.3614193 -0.51036 
60.33333 86 543 0.7139217 -0.443801 -0.541624 
-85 80 517 -0.7549149 -0.1393658 -0.6408437 
-74.1 74.1 522 -0.1983599 -0.8593193 -0.4714062 
-76.75 73.5 524.25 -0.130734 -0.7969491 -0.5897295 
-89 72 529 -0.07586348 -0.7742471 -0.6283202 
-137 76 557.5 0.06921958 -0.774201 -0.6291434 
-134.125 74.5 558.75 -0.03488756 -0.6415688 -0.7662717 
-85.9 70.6 531.1 -0.08265901 -0.7875125 -0.6107304 
-137 73.2 560 -0.06692278 -0.6541969 -0.7533578 
-130 72 559 -0.2483983 -0.5469943 -0.7994346 
-91.75 66 531.25 0.1951512 0.89347 -0.4045088 
-94 66 527 0.2524249 0.9426105 -0.218557 
-128.4286 70.57143 560.5714 -0.392183 -0.5896213 -0.7060731 
-87 64 526 0.2102048 0.9555876 -0.2065581 
-85 62.5 522 0.1682667 0.9496502 -0.2642932 
-83 61 518.5 0.1896501 0.9362377 -0.2957902 
-139.8 67.6 571 -0.3412357 -0.6619147 -0.6674033 
-66 60 515 -0.7138571 0.4975398 -0.4928106 
-143.3333 67 572.3333 -0.1799751 -0.6282928 -0.7568733 
-125.3333 65 558.3333 -0.8319393 0.1919278 -0.5206156 
-67 58 514 -0.2552067 0.8321264 -0.4923772 
-130.25 65.25 564.75 -0.646118 -0.09471254 -0.7573382 
-70 57 512 0.08172393 0.9433303 -0.3216353 
-29 -12 577 0.1235639 -0.8404567 -0.5276026 
-26.125 -12.5 579.125 0.0821457 -0.8327547 -0.5475142 
-23.5 -14 581 -0.08517513 -0.7510158 -0.6547676 
-20 -16 582.3333 -0.1490369 -0.6756328 -0.7220169 
-23 -17 584 -0.1839786 -0.664256 -0.7245108 
-14 -19 584 0.08811344 -0.1633439 -0.9826265 
-17.5 -21.5 584 -0.03045978 0.3087665 -0.95065 
-15 -23 583 0.1717852 0.4623106 -0.8699188 
-1.714286 -25 590.4286 0.7041644 -0.0306907 -0.7093735 
-4.5 -25 587.6667 0.6309773 0.08574898 -0.7710478 
-8 -25 585.3333 0.4259459 0.5696985 -0.7028611 
-8 -27 582.3333 0.2944271 0.9081323 -0.2976718 
-11.4 -25.8 582.2 0.3420363 0.8543704 -0.391232 
-1.8 -27.8 588.2 0.6630671 0.6094312 -0.4346674 
-77 -32 606 -0.02091532 -0.7608489 -0.6485919 
-74 -33 607 -0.05855362 -0.7849598 -0.6167735 
-31 -32 568 -0.5470325 0.7823246 -0.2978655 
-77.25 -34.25 609.25 -0.05572539 -0.8509783 -0.5222363 
-79.5 -35 611 -0.01169911 -0.8487256 -0.5287042 
-68 -36 610 -0.08762705 -0.8827597 -0.4615809 
-28.25 -34.5 561.25 -0.3644738 0.8403509 -0.4012099 
-31.33333 -34.66667 564.6667 -0.5831908 0.678246 -0.4470695 
-34 -35 568 -0.6678702 0.6810305 -0.3002447 
-41 -36 589 -0.7239865 0.6747712 -0.1432738 
-62 -38 614 0.03267259 -0.8022854 -0.5960459 
-64.875 -37.125 612.125 0.01544525 -0.8720472 -0.4891781 
-25.83333 -35 558.3333 -0.165315 0.8668512 -0.4703616 
-65 -39 615 -0.05382139 -0.8603765 -0.5068093 
-56 -40.6 617.6 -0.1033146 -0.8328325 -0.5437979 
-53 -42 618.3333 -0.3011393 -0.7282591 -0.6155922 
-43.5 -40.5 581 -0.7882327 0.5954609 -0.1552916 
43 -93 668 0.284447 0.9586918 0.0002642386 
-89 -58.33333 644.6667 0.4906901 -0.1113182 -0.8641942 
-89.28571 -55 641.5714 0.1886915 -0.7151446 -0.6730257 
-86 -56 644 0.08622376 -0.6743452 -0.7333649 
-77.25 -52.75 638.75 0.0007006598 -0.883603 -0.4682364 
-73.75 -51.25 635.5 0.04332773 -0.8379976 -0.5439511 
-80 -48.5 633 -0.08406259 -0.8203925 -0.5655879 
-53 -46 621 -0.8811982 -0.1842572 -0.4353609 
-90 -47 632 -0.01723489 -0.8636824 -0.5037416 
-86 -46.5 630 -0.07351086 -0.8632005 -0.4994808 
-59 -46.5 626.8333 -0.07866922 -0.8585525 -0.5066545 
-47 -44 588 -0.8586937 0.5065401 -0.07786056 
-56 -45.33333 624 -0.4583502 -0.680306 -0.5719256 
-151.4 -6.4 567.6 -0.5448985 -0.7119074 -0.4430279 
-146.1429 -5 563.4286 -0.1037027 -0.8824198 -0.4588912 
-157 -4 577 -0.8872535 0.2502221 -0.387518 
