ply
format ascii 1.0
comment VCGLIB generated
element vertex 947
property float x
property float y
property float z
property float nx
property float ny
property float nz
element face 0
property list uchar int vertex_indices
end_header
63.18182 125 482 -0.01145563 0.08724305 -0.9961213 
23.75 124 485 0.02971636 -0.7439147 -0.6676136 
60.06667 122 482.7333 0.08886062 -0.6066882 -0.7899577 
27 122.25 486.25 -0.03863796 -0.408315 -0.9120231 
29.90909 119.4545 487 0.1673971 -0.2256837 -0.959711 
15.1875 110.125 486.0625 0.5358897 -0.3998971 -0.7435756 
18 109.5833 489.0833 0.3486116 -0.7197978 -0.6003009 
15.66667 107 488.5 0.8224576 -0.2299436 -0.5202782 
26.9 97.5 509.8 0.3514249 -0.685201 -0.6379656 
19 95 498 0.9466193 0.1101413 -0.3029535 
-9.181818 92.09091 492.0909 -0.2474106 -0.865941 -0.4346656 
27 94.75 512.5833 0.5250485 -0.6338424 -0.5679505 
-7 91 494 -0.3246689 -0.6181916 -0.7158416 
-26.4 91.8 497 0.5600784 -0.22318 -0.7978113 
-5.6 90 492.8 -0.3634517 -0.6577979 -0.6597005 
-8.9 88.9 495.4 -0.3183005 -0.4974342 -0.8069969 
-23.88889 89.44444 498.2222 0.3461825 0.3097554 -0.8855559 
-17.8 86.6 500 0.1136516 0.3006979 -0.9469235 
-20.5 86.5 498.5 0.510616 0.3157345 -0.7997393 
-17.75 83.75 497.5 0.3303286 0.6823739 -0.652111 
-14.5 81 497 0.246715 0.6485516 -0.7200782 
-135 11.33333 543 -0.03108931 -0.9103315 -0.4127105 
-138 10.2 545.8 -0.01788752 -0.8831903 -0.4686737 
-132.1 7.8 549.2 -0.08416799 -0.8187395 -0.5679625 
-126.1429 5.285714 551.8571 -0.02325274 -0.8373801 -0.5461264 
-129 4 554.6667 -0.0305668 -0.8944082 -0.4462058 
-114.5 1 560 0.02654313 -0.8979921 -0.4392103 
-117.3333 1.666667 558.3333 0.02427444 -0.8662578 -0.4990071 
-117 -0.2 561.2 0.1580183 -0.8494744 -0.5034118 
-120 -2 564 0.04592934 -0.8532878 -0.5194134 
-80 -3 565 -0.02977957 -0.800368 -0.598769 
-77.88889 -4.333333 567.2222 0.02008365 -0.8116626 -0.5837812 
-99 -5 569 -0.07844234 -0.8303537 -0.5516879 
-96 -6 570 -0.01523615 -0.8740349 -0.4856243 
-98.85714 -7 572.7143 -0.06111239 -0.918905 -0.3897163 
-90 -8 575 -0.01541656 -0.8699715 -0.492861 
-99 -9 577 -0.05449853 -0.8511571 -0.5220744 
-96 -10.5 578.6667 -0.1092098 -0.7780725 -0.6186085 
-7 -14 581 0.2219915 -0.5388191 -0.8126462 
-51.5 -27.5 594 -0.8528555 0.3804614 -0.3576124 
71.5 -63 632.5 -0.6697904 0.3813055 -0.637171 
68 -64 629 -0.2375053 0.9703357 -0.04516577 
-11 -55.5 533 0.5131049 -0.1100333 -0.8512439 
-18 -70 537.0833 -0.1917319 -0.5520511 -0.8114669 
-25 -71 542 -0.2677896 -0.814609 -0.514491 
-27.5 -72.25 544 -0.1266948 -0.655201 -0.7447551 
-51 -75 547 -0.2316657 -0.551365 -0.8014535 
-48 -76.16666 548.1667 -0.01240642 -0.6118249 -0.7908959 
-50.75 -78.25 549.75 -0.1980634 -0.6721945 -0.7133901 
-43 -80 551 -0.2505915 -0.6025786 -0.7576959 
-30.2 -87.6 554.8 -0.199261 -0.8033178 -0.5612268 
-26 -93 565 -0.03396381 -0.9390652 -0.3420571 
-27.5 -91 560 -0.1335428 -0.9411302 -0.3105483 
-24.66667 -91 559 -0.01581926 -0.8889772 -0.4576781 
-47.8 -82.4 555 -0.3049265 -0.842549 -0.4439944 
-41 -81 550 -0.1908513 -0.4749622 -0.8590615 
-26.75 -69.25 540.5 -0.2771433 -0.8068199 -0.5217597 
-27 -67.16666 536.8333 -0.2827643 -0.8204445 -0.4969056 
-23.85714 -66.42857 534.4286 -0.1044334 -0.6742153 -0.7311139 
-27.125 -64.125 533.625 -0.1614917 -0.5530523 -0.8173455 
-7 -61 535 0.4093154 -0.09321705 -0.9076186 
-9.181818 -57.90909 533.7273 0.4148939 -0.09341343 -0.9050618 
-5 -58.5 536 0.4772989 -0.2098061 -0.8533271 
-58 -44 580 -0.9180026 0.3870287 -0.08648757 
-131.5 12 541 -0.03489983 -0.8913239 -0.4520218 
-135 13 540 -0.07419696 -0.8476287 -0.5253764 
-125.8571 14.42857 537.5714 0.004739892 -0.8340609 -0.5516521 
-132 16 534.1429 0.005302738 -0.8936636 -0.4487061 
-69 16.5 531.5 0.03800821 -0.9144288 -0.4029582 
-66.5 18 529 0.1254391 -0.7993826 -0.5875819 
-69.16666 19.5 527.5 -0.08020993 -0.8823709 -0.463668 
-71.8 20.6 525.4 -0.166286 -0.8689842 -0.4660639 
-82 22 524 0.002889786 -0.8138071 -0.581128 
-78 23 522 0.05656799 -0.9152936 -0.3987952 
-99 24 519.5 0.006598694 -0.8586676 -0.5124905 
-99.09091 26.09091 515.9091 -0.0007361458 -0.8863404 -0.4630338 
-97 25 518 0.00829298 -0.8600615 -0.510123 
-89.75 27 513.25 -0.01101833 -0.8466806 -0.5319874 
-99.25 28 512 -0.0214441 -0.8167992 -0.5765233 
-96 29.5 510 -0.01150719 -0.9061966 -0.4227 
-57.2 30 507.4 0.006225226 -0.9331881 -0.3593346 
-54 31 506 -0.004266217 -0.7331076 -0.6800992 
-57 32.5 504 -0.01212678 -0.9163728 -0.4001422 
-60 33 502 -0.02637802 -0.929575 -0.3676881 
-69 34 500 -0.0283733 -0.8969477 -0.4412253 
-65.875 35 497.625 0.08609719 -0.8882321 -0.4512551 
-64 36 496 0.1239383 -0.8661298 -0.4842091 
-59.71429 37.42857 494.8571 -0.0527298 -0.8988675 -0.4350365 
-62.75 38.375 491.75 0.008197435 -0.9027309 -0.4301276 
-63.22222 40.22222 488.8889 -0.004218079 -0.8698106 -0.4933676 
-184 46 555 -0.5210432 0.7818261 -0.3424353 
-60 41.5 486.375 -0.03586182 -0.9032332 -0.427649 
-180 48 553 0.4783747 -0.8532747 0.2075573 
-177 48 548 -0.3469368 0.8804097 -0.3232861 
-45.25 42 484 -0.0141961 -0.9146963 -0.4038926 
-179 49 556 0.4633127 -0.8753829 0.1380075 
-174 48 545 -0.3776932 0.8715693 -0.3125935 
-42 43 482 -0.06311522 -0.8827469 -0.4655904 
-45 44 480.5 -0.01512827 -0.9083744 -0.4178841 
-47.75 45 478 -0.01848293 -0.9001015 -0.435288 
-57 46 477.25 0.0004234613 -0.8460289 -0.533137 
-54.33333 47.66667 473.8889 -0.03391621 -0.9010667 -0.4323525 
-72.125 49.625 470.625 -0.1158998 -0.879768 -0.4610591 
-74 51 469 -0.2860067 -0.7492488 -0.5973495 
-65 51 466 -0.07588656 -0.8692659 -0.4884854 
-71.9 55.9 465.5 -0.5728372 0.09285357 -0.8143929 
-158 68 557 -0.7289034 -0.6557868 -0.1965798 
-160 71 555 -0.6061795 -0.7836721 -0.1356631 
-72.33334 65.33334 473.3333 -0.5358213 0.4880863 -0.688961 
-161 74 538 -0.1998685 -0.9719495 -0.1239634 
-76 66 476 -0.4753882 0.5845088 -0.6575375 
-63 65.2 465 -0.6178877 0.4875646 -0.6168432 
-59.90909 64.81818 462.5454 -0.5232797 0.4793944 -0.7045278 
-164 75 534 -0.307486 -0.9209051 -0.2395547 
-73 69 476 -0.5842193 0.550368 -0.5964754 
-60.07692 68.38461 464.8462 -0.5522273 0.4814534 -0.680623 
5.75 140 488 0.03754884 0.9025094 -0.4290302 
2.8 139.4 485.8 0.02960741 0.826584 -0.5620341 
7 138 485 0.04263993 0.7660805 -0.6413288 
72 127.9167 482.9167 0.080102 0.3663865 -0.9270084 
69.11111 125.1111 482 0.1365593 0.1310046 -0.9819314 
74.6 123 481 -0.2288466 -0.1027682 -0.9680228 
18 124 485 0.1081389 -0.6463655 -0.7553263 
78.0625 121.75 482.25 0.06955533 -0.4339269 -0.8982592 
75.25 120 484 -0.01542129 -0.8067966 -0.5906281 
12.36364 118.8182 485 0.3454483 0.04665605 -0.9372773 
31 116 488 0.2675704 -0.0602599 -0.9616521 
27 116.25 486.75 0.1334021 -0.05749635 -0.9893928 
27.57143 112.5714 488 0.09799345 -0.3055279 -0.9471273 
20.75 111 487 0.1383545 -0.6586772 -0.7395961 
24.1 110 488.95 -0.108307 -0.6008999 -0.7919526 
29.75 106.6667 492 0.008616691 -0.9339797 -0.3572223 
26.6 106 494.8 0.003969162 -0.9230837 -0.3845786 
36.125 104.375 495.375 -0.06139378 -0.7995376 -0.5974701 
26.875 104.5 498 -0.02502294 -0.926088 -0.3764769 
30 103 501 -0.07588165 -0.8856332 -0.458144 
27.25 102 502 0.05209174 -0.8537387 -0.5180894 
23.93333 100.8667 503.8 0.3947263 -0.6928715 -0.6034239 
29.875 99 507.5 -0.04231872 -0.8757731 -0.4808645 
20 95 500.6667 0.93392 0.102228 -0.3425534 
-41.5 88 486 -0.2273042 0.9222315 -0.3127649 
-45 88.5 490 -0.2737259 0.9172346 -0.2894043 
-47.5 88.5 492 -0.2382325 0.9068215 -0.3477356 
-48.5 87 489 -0.2847568 0.9152011 -0.2851675 
-51 88.33334 495.6667 -0.2956706 0.8969907 -0.3286132 
-51 85.5 485.5 -0.3375409 0.9007557 -0.2733227 
-54 82 480 -0.3357899 0.8964012 -0.2893269 
-56.5 82 483 -0.3101953 0.9002035 -0.3056348 
-117 11 542.5 -0.003866034 -0.8832321 -0.4689202 
-108 10 545 -0.004001764 -0.8643664 -0.5028467 
-117 9 546 0.004262574 -0.8498713 -0.5269731 
-114.1429 7.571429 548.4286 -0.01610872 -0.8163204 -0.5773747 
-119.8571 5 552 -0.01686406 -0.8854019 -0.4645203 
-123 4 554.5 -0.03182107 -0.8814093 -0.4712803 
-114.3333 3 556 -0.03975967 -0.8527104 -0.5208688 
-134.8333 2.5 557.6667 -0.006898456 -0.8591482 -0.5116804 
-131.75 1 560 0.01789765 -0.8511296 -0.5246505 
-135 0 561.5 0.006889866 -0.8555881 -0.5176115 
-126 -1.5 564 -0.06331736 -0.8160763 -0.5744655 
-57 -5 569 0.08628854 -0.8384166 -0.538156 
-72 -4 567 0.0290984 -0.8033714 -0.5947669 
-54 -6 571 0.05262524 -0.8835704 -0.465332 
-57 -7 573.3333 0.03244384 -0.8979691 -0.4388609 
-59.5 -8 575 0.08987319 -0.8498436 -0.5193156 
-57 -9 577 0.08994614 -0.7702811 -0.6313294 
-54 -10.5 578.5 0 -0.7071068 -0.7071068 
-58 -12 580 0.04215639 -0.7811798 -0.6228811 
-48 -13.57143 582.1429 0.06014314 -0.8212137 -0.5674425 
-51 -22 593.8889 -0.3395844 -0.6507677 -0.6791052 
-52 -24 596 -0.6288666 -0.2904707 -0.7212167 
-64 -54 628 -0.8846744 -0.04346424 -0.4641788 
53.8 -54.6 630 -0.1746946 -0.8562374 -0.4861474 
50 -55 632 -0.1395114 -0.7740167 -0.617604 
48.5 -57 634 -0.1551267 -0.8240154 -0.5449167 
51.5 -58 636 -0.07330902 -0.9248672 -0.3731575 
54 -59 638 -0.1336984 -0.877641 -0.4602946 
51 -60 640 -0.1097429 -0.8221892 -0.5585352 
51.5 -63 643 -0.2390499 -0.7394448 -0.6293461 
45 -63.5 648.1667 -0.3272735 -0.7265684 -0.6041444 
-45 -52 533.8889 -0.5247982 0.2810072 -0.803506 
-51.8 -52.4 539.6 -0.8426095 0.1293439 -0.5227613 
53.5 -64.5 644.25 -0.4270382 -0.2171291 -0.8777776 
66 -64.66666 633.3333 -0.5133925 0.7503129 -0.4164836 
60.5 -64.5 639.5 -0.8041475 0.4366024 -0.403392 
62 -66 633 -0.381724 0.915785 -0.1249983 
60.5 -66 636.5 -0.5028088 0.7799191 -0.3727056 
45.125 -66.875 650.875 -0.6570311 -0.5259248 -0.5401049 
-71 -65 628 0.1912097 -0.8218176 -0.5367072 
57 -67 639.5 -0.5098976 0.8061544 -0.3001991 
54.25 -67.25 642.25 -0.3807425 0.6768461 -0.6300115 
51.33333 -67.16666 645.5 -0.5992044 0.4164069 -0.6837832 
48.28571 -67.28571 648.2857 -0.6876453 0.4303872 -0.5847315 
-43 -56 533 -0.3888252 -0.1411252 -0.9104387 
48 -69 645 -0.4475902 0.848037 -0.2837188 
-51.2 -70.1 545.1 -0.3240264 -0.3600095 -0.8748716 
-48 -73 545.5555 -0.07491258 -0.4509479 -0.889401 
-5.571429 -79.57143 545.8571 0.4057187 -0.6402647 -0.652268 
-17.5 -87 550 -0.03930644 -0.6749247 -0.7368391 
-26.75 -87.25 552.75 -0.1975185 -0.7532309 -0.6273991 
-34 -89 557 -0.2077894 -0.8956031 -0.3933431 
-42 -90 569 0.4088113 0.8970866 0.1676578 
-24 -89 555.75 -0.000986123 -0.8802905 -0.4744341 
-29.5 -93 567 -0.2025919 -0.9335193 -0.295801 
-38 -91 566 0.2842751 0.9459374 0.1561731 
-36 -90.66666 564.3333 -0.1950403 -0.9212745 -0.3364706 
-33.5 -90 561 -0.185855 -0.9493061 -0.2535269 
-30.5 -90 558 -0.1065048 -0.902474 -0.4173697 
-15.125 -85.125 549 0.04053183 -0.6807742 -0.7313712 
-5.666667 -84.33334 551 0.4963355 -0.7169953 -0.4894576 
-14.9 -82 546.1 -0.08087758 -0.6309295 -0.7716131 
-47.5 -84 558.5 -0.3189321 -0.8598748 -0.3986199 
-51 -82.5 558 -0.3505374 -0.8547525 -0.3827817 
-30 -70.16666 543.1667 -0.3393469 -0.6439236 -0.6857157 
-36.25 -67.75 540.5 0.06077455 -0.8778733 -0.4750211 
-31 -65 536 -0.1547895 -0.817235 -0.5551282 
-33 -63.5 533.5 -0.03764404 -0.7501261 -0.6602225 
-48.22222 -58.11111 536.6667 -0.6043487 -0.2914215 -0.7415093 
-114 12 541 0.02691113 -0.8773828 -0.4790357 
-118 13 539 -0.0226111 -0.8673733 -0.497144 
-120 14.5 536.5 -0.1427007 -0.8758475 -0.4610073 
-114 16 533.6667 0.004921203 -0.8905331 -0.4548918 
-87 17.5 530.5 -0.05042472 -0.8210711 -0.5685943 
-87.09091 19.90909 528 -0.03010021 -0.8247563 -0.5646866 
-78.28571 20.57143 525.4286 0.1087218 -0.885103 -0.4525177 
-75 22 524.6667 0.02252921 -0.8431506 -0.5372052 
-72.2 23.4 522 -0.05279922 -0.9249204 -0.3764767 
-57.25 24 519.5 -0.04962242 -0.8728659 -0.4854307 
-55 25 518 -0.1059027 -0.8331985 -0.5427384 
-56.66667 26.5 516 -0.02139611 -0.9317383 -0.3624999 
-60.25 27 513.25 -0.001736203 -0.9095981 -0.4154857 
-57 28 512 0.01053402 -0.7797993 -0.6259409 
-54.14286 29.57143 509.4286 0.01152224 -0.916766 -0.3992586 
-99.25 30 508 -0.04354652 -0.9004875 -0.4326961 
-95.75 31 506.75 0.001614042 -0.8544962 -0.5194551 
-99 32.88889 503.6667 -0.05589043 -0.8675599 -0.4941823 
-91 33 502 0.0949736 -0.9132735 -0.3961207 
-87 34.5 501 0.0904863 -0.8684238 -0.4874962 
-83.85714 36 498.2857 -0.1144286 -0.857102 -0.502277 
-87 37.5 497.1667 -0.08770262 -0.8584884 -0.5052781 
-90 38.25 495.125 0.1136567 -0.8717073 -0.4766639 
-5.888889 38.77778 483.1111 -0.187131 -0.8630397 -0.4691956 
-93 39 492 0.03803644 -0.901859 -0.4303529 
-96 40 491 0.006704163 -0.9096557 -0.4153089 
-93.125 40.5 488.75 0.0212361 -0.9132947 -0.4067456 
-15 40 482 -0.07294382 -0.8507228 -0.5205285 
-12.4 41.2 480.2 -0.02204906 -0.8817395 -0.4712212 
-90.4 42 486.6 0.04228997 -0.8304487 -0.5554876 
-9 42 478 0.03394813 -0.8102353 -0.5851209 
-5.923077 43.61538 477 0.6238095 -0.4579148 -0.6333843 
-8.928572 44.14286 474 0.4508363 -0.6050795 -0.6562205 
-158 49 534 -0.4667359 0.841578 -0.2718529 
-160 52 544 -0.2869492 0.902124 -0.3222303 
-157 51 538 -0.5084769 0.8222558 -0.2556298 
-89.75 46.5 479.5 -0.01299393 -0.8196073 -0.5727785 
-150 53 533 -0.5066201 0.7940489 -0.3358905 
-149 56 538 -0.6034722 0.6909581 -0.3979928 
-78 50 471.1429 -0.2755452 -0.6056549 -0.7464966 
-93.66666 50.66667 479.3333 -0.5988516 0.2795492 -0.7504859 
-98.33334 52 484 -0.4955962 0.5399501 -0.6803222 
-152 62 551.6667 -0.8723603 -0.3016269 -0.384719 
-95.25 55.5 484 -0.5362129 0.4897828 -0.6874508 
-150.1667 65 545.6667 -0.7006779 -0.4838289 -0.5243663 
-153.3333 66 549.3333 -0.6675369 -0.6214476 -0.4101188 
-157 67 555 -0.6987762 -0.6823997 -0.214575 
-86 58 478 -0.5344892 0.4689329 -0.7031524 
-153 67.5 546 -0.5701286 -0.755702 -0.3222853 
-159 69 553 -0.717425 -0.6601213 -0.2225786 
-54.8 59 455 -0.6123082 0.09896503 -0.7844008 
-83 61 478 -0.584437 0.4764026 -0.6568668 
-82 63 479 -0.6219417 0.4240341 -0.6583188 
-170 75 570 -0.601289 -0.7920871 -0.1051172 
-86.4 64.8 483.8 -0.546702 0.4744003 -0.689972 
-83 65 480.6667 -0.6535426 0.3923916 -0.6472332 
-56 61.25 456.75 -0.5339646 0.4292811 -0.7284226 
-80.4 64.8 477.6 -0.5613258 0.4206546 -0.7127153 
-77.5 64 475 -0.5077012 0.4878922 -0.7100708 
-84 67.2 483.2 -0.6067814 0.5855315 -0.5375586 
-77.5 67 477.5 -0.4382585 0.6458002 -0.6251974 
-74 70 478 -0.6139097 0.5563982 -0.559943 
-71.5 70 475 -0.5469353 0.5570666 -0.624931 
-71 73 478 -0.4878964 0.7388087 -0.4648859 
-69 74.66666 479.6667 -0.4478744 0.8023793 -0.3944567 
-57.5 74.25 467.75 -0.5198134 0.6089398 -0.5991547 
65 142 489 0.5809034 0.7014726 -0.4129015 
20.75 141 488 -0.03925749 0.886367 -0.4613159 
63 139.25 483.5 0.5750958 0.4395433 -0.6899758 
23.75 139.75 485.75 -0.124736 0.706012 -0.6971284 
62 136.75 481 0.4442457 -0.01767998 -0.8957306 
57.2 134 483.15 -0.05730857 -0.3911068 -0.9185593 
60.28571 131.1429 483 0.009656779 0.07570913 -0.9970832 
53 127 481 0.03112108 0.1836983 -0.9824899 
50.875 128 482.25 -0.1269496 0.2578523 -0.957808 
50.75 124.5 481 0.03892191 -0.4479929 -0.8931895 
54.16667 124.75 482 -0.08325036 -0.2573439 -0.9627272 
32.5 124 485 -0.09438836 -0.6364313 -0.7655365 
44.88889 122.8889 483.5555 -0.03693607 -0.694102 -0.7189285 
41.91667 121.5 485.6667 -0.1711129 -0.8620192 -0.47712 
39 121 488 -0.1180423 -0.8320251 -0.5420335 
42.25 119 489.1875 -0.2006221 -0.5329544 -0.8220161 
-2.75 112.75 485.625 -0.2906359 -0.3331364 -0.8969676 
17 104.2857 492.4286 0.8884978 -0.1785982 -0.4226989 
18 101.25 494.5 0.9459023 -0.02360345 -0.3235919 
16 98 488.3333 0.9340205 0.1684474 -0.3150099 
16 95 487 0.9286504 0.07133678 -0.3640326 
17 94.75 489.5 0.9757476 0.0793429 -0.204013 
-18 93 493 -0.1547919 -0.8795261 -0.4499705 
39.375 95.875 510 -0.1763491 -0.8605989 -0.4777767 
-21 92.5 495.1667 -0.2208675 -0.8604122 -0.4592476 
41.75 94.5 512.625 -0.1000906 -0.8806163 -0.4631381 
32.875 94 515.5 0.09374738 -0.794417 -0.6000941 
-15 89.1875 498 -0.2246907 -0.5818779 -0.7816215 
-24 86 491.3333 0.6219439 0.7256747 -0.2942482 
-21.5 82.5 486 0.6658192 0.7012184 -0.2549072 
-9.25 83.75 497 -0.360563 0.1145218 -0.9256777 
-5.5 79 493 -0.31877 0.4236038 -0.8479066 
-9 80 495.0833 -0.2965516 0.4874821 -0.8212298 
-144.2 11.6 543.4 -0.04365889 -0.8604394 -0.507679 
-129 10 546 -0.05126964 -0.8625063 -0.5034424 
-138 7 551 -0.05008369 -0.7942251 -0.605556 
-147 7.909091 549.0909 -0.001965819 -0.8223905 -0.56892 
-141 6 552.6667 -0.00885652 -0.828478 -0.5599517 
-138 4 555.2857 -0.07667673 -0.8659207 -0.4942692 
-102.1429 2.428571 558 0.02564347 -0.8500616 -0.5260588 
-104.75 1 560 -0.002849427 -0.8221263 -0.5692981 
-102 0 561.3333 0.0002826061 -0.8370655 -0.5471025 
-111.25 -1 564 -0.03291304 -0.8937212 -0.447414 
-93 -3.5 566.5 0.004606578 -0.819493 -0.5730708 
-87 -6 570 -0.03821063 -0.8790123 -0.4752656 
-84.14286 -7.428571 573 -0.0796186 -0.8902732 -0.4484134 
-83.75 -9.25 575.75 -0.1121042 -0.8475378 -0.5187605 
-87.14286 -10.57143 578.5714 -0.02433532 -0.8253865 -0.5640434 
-84 -12 580 -0.05620363 -0.8368426 -0.544551 
-49 -27 582 -0.7754008 0.6193097 -0.1233258 
-50 -28 584 -0.7887203 0.5980623 -0.1422739 
74.5 -60.875 629.75 -0.6517065 0.2745246 -0.7070467 
-9 -70 536.4445 0.1577073 -0.2979408 -0.9414668 
-7 -72 538 0.4574962 -0.4835919 -0.7462146 
-15.2 -73.6 539.2 -0.1484468 -0.6813102 -0.7167845 
-22 -74 545 -0.467964 -0.5722837 -0.6734248 
-35 -75 547 -0.1866878 -0.05847779 -0.9806774 
-38.9 -76.1 548.1 -0.00610917 -0.3938937 -0.9191357 
-36.09091 -79 549.5455 -0.02774565 -0.3953574 -0.9181083 
-11.5 -89 558.5 0.2457512 -0.8737945 -0.4196303 
-21 -95 572 0.05439796 -0.9408828 -0.3343358 
-15 -90.5 558.5 0.1868732 -0.8926525 -0.4101828 
-37 -86 554 -0.2056741 -0.6983765 -0.6855425 
-39 -84.33334 552.6667 -0.2498413 -0.6713281 -0.6977807 
-29 -84 550 -0.3041762 -0.5944628 -0.7443729 
-36.2 -82.6 551 -0.09710804 -0.5496532 -0.8297298 
-33.14286 -81.71429 550 -0.1070225 -0.4350303 -0.894033 
-15 -67 534.6667 -0.1031432 -0.4346864 -0.8946559 
-11 -67.66666 536 0.2490968 -0.1779483 -0.9519901 
-11.75 -64 533.75 0.2990437 -0.3106881 -0.9022449 
-56 -45 561 -0.9164565 0.3793927 -0.1271566 
-54 -40 563 0.9044908 -0.4235414 0.05009152 
-53 -35 570 -0.9008798 0.4173485 -0.1193141 
-52 -31 581 -0.8156629 0.5716943 -0.08865479 
-147 13 542 0.02020586 -0.8503429 -0.5258408 
-144.1111 13.77778 540 -0.1060593 -0.8371356 -0.5366149 
-141 15 537.3333 -0.06676557 -0.8340322 -0.5476612 
-144.25 16 536.75 -0.0565169 -0.879517 -0.4724995 
-146.875 17.5 533.5 0.002807886 -0.8750108 -0.4840952 
-54 18 531 0.06133949 -0.8339385 -0.5484378 
-54 20.25 527.875 0.1209829 -0.8919156 -0.4357176 
-62.75 20.5 525.5 0.01072248 -0.8645068 -0.5025068 
-93 22.57143 522.4286 0.06099444 -0.8722842 -0.4851802 
-90.5 22 524 0.06526133 -0.8633434 -0.500379 
-83.875 24 519.5 0.0164731 -0.9039552 -0.4273098 
-84.14286 25.57143 516.4286 0.06317126 -0.8848398 -0.4615929 
-81.4 27 513.2 0.002112136 -0.8741783 -0.4856004 
-84 28 512 -0.02440031 -0.7807711 -0.6243405 
-87 29.5 510.5 -0.01343108 -0.7105802 -0.7034881 
-66 30 507.5 -0.06194789 -0.8814628 -0.4681728 
-85 31 509 -0.173313 -0.8946793 -0.4117178 
-69 31 507 -0.04314155 -0.8607624 -0.5071755 
-65.875 32.5 503.5 -0.002233508 -0.9093689 -0.4159847 
-75 33 502 -0.06332875 -0.8639761 -0.4995345 
-54 34.2 500.6 0.08756711 -0.8706046 -0.4841278 
-57.22222 35.55556 498 -0.05871857 -0.8532806 -0.5181355 
-71.5 36 496 -0.1313928 -0.8651435 -0.4840069 
-75.28571 37.57143 494.7143 -0.1189355 -0.9046952 -0.4091221 
-72.1 38.4 492 -0.0958771 -0.8836804 -0.4581665 
-72 40.11111 488.8889 -0.1261149 -0.8638322 -0.4877385 
-75.14286 42 485.7143 -0.01844006 -0.9003726 -0.4347288 
-30.14286 42 483 -0.1040277 -0.869477 -0.4828954 
-33.5 43 482 -0.02588904 -0.8908082 -0.4536413 
-30.22222 43.66667 480 -0.06439299 -0.8999807 -0.4311478 
-39 44.8 477.8 -0.06186253 -0.8731567 -0.4834982 
-75 46 479 -0.01056194 -0.8803995 -0.4741152 
-66.14286 46 477.1429 0.1032473 -0.8964006 -0.4310521 
-68.81818 47.72727 474 -0.08044596 -0.8930776 -0.442652 
-60 48 472 -0.01675434 -0.8809683 -0.4728787 
-63 49.5 470.5 -0.02870812 -0.8846437 -0.4653831 
-60 50.5 467.5 -0.02628963 -0.9420725 -0.3343774 
-57 51 465.25 -0.01656075 -0.9235274 -0.3831748 
-60 52 464 -0.07909667 -0.8682541 -0.4897742 
-62.75 53.375 461.875 -0.239158 -0.7670322 -0.5953698 
-159 66 569 -0.6924548 -0.6880081 -0.2171438 
-74.4 58.2 468.8 -0.4932381 0.4704392 -0.7317125 
-66.5 59.5 464.1667 -0.5444193 0.423704 -0.7239355 
-156 70.33334 543 -0.5139237 -0.7977579 -0.3153805 
-74.66666 61.66667 471.3333 -0.4880891 0.5484384 -0.6789583 
-71.25 61.5 468.75 -0.5590309 0.4982423 -0.6627511 
-68 61 466 -0.5666787 0.4982685 -0.656204 
-65 61 463 -0.5796959 0.3963981 -0.7119137 
-150.1429 71.57143 537.4286 0.08677016 -0.8040106 -0.58825 
-162 73 546 -0.3913979 -0.9092999 -0.1413553 
-160 73 543 -0.4101795 -0.902141 -0.1337699 
-153.5 73 536 -0.05821471 -0.8865521 -0.4589515 
-152 72 535 0.04690692 -0.8263656 -0.561177 
-68.16666 64.33334 468.6667 -0.5231418 0.4994867 -0.6905329 
-150 74.09091 534 0.1180446 -0.8459436 -0.5200433 
-68.875 67.75 471.25 -0.5911637 0.4522114 -0.6678551 
-65.2 67.4 468.6 -0.5509143 0.4852775 -0.6789693 
-9.5 70.875 486.125 0.5377503 0.7129104 -0.4500927 
-6.090909 71.36364 488.8182 -0.003397802 0.7272677 -0.6863456 
-9.5 73.33334 489.3333 0.3924775 0.6869754 -0.6115769 
-12 76 490 0.4616182 0.7296485 -0.5045014 
-9.166667 76.33334 492.8333 0.1922472 0.7432919 -0.6407481 
-15 76.33334 486.3333 0.6013367 0.7378435 -0.3065634 
57 145 493 0.08989938 0.9075685 -0.4101676 
61 144 491 0.1511302 0.903683 -0.4006454 
62.5 142.5 489 0.3388672 0.8293952 -0.4441538 
24 141 488 -0.005744748 0.8607458 -0.5090026 
20.75 140 486 -0.07944372 0.747661 -0.6593116 
63.57143 136.8571 483.1429 0.7589507 -0.06534452 -0.6478611 
60.17647 134.0588 482.7647 -0.04401061 -0.3922528 -0.918804 
57.25 131 483.4167 -0.03125707 0.0837852 -0.9959935 
54 128.0667 482 0.0007949041 0.2018128 -0.9794238 
53.5 125 481 0.1616053 -0.2194542 -0.9621453 
51 125 482 0.03659102 -0.1636837 -0.9858341 
48 122 483.4375 -0.1336533 -0.7148431 -0.6863935 
38.69231 121.8462 486 -0.03214749 -0.9071813 -0.4195101 
42.33333 120 487 -0.2261453 -0.8020004 -0.5528594 
41 121 488 -0.1728708 -0.7986109 -0.5764862 
39.125 119.0625 489.375 -0.04092811 -0.3978836 -0.9165226 
-3.5 115 485 -0.2352235 -0.6683146 -0.7057092 
-0.4 112.2 485.4 -0.3139456 -0.2055607 -0.9269212 
18.375 103.875 495.125 0.6491678 -0.5212548 -0.5539628 
17 100.75 492.25 0.9402143 0.03869249 -0.3383785 
15 97.75 485.25 0.9191513 0.1765867 -0.3521051 
17 97 490 0.9652956 0.09570524 -0.242992 
38.33333 97 509.3333 -0.1888127 -0.8533761 -0.4859002 
-20 93 493 -0.2470567 -0.8491544 -0.4667974 
42 95.66666 510 -0.09692793 -0.8783013 -0.4681793 
-18.25 92.33334 495 -0.07817296 -0.8898785 -0.4494499 
39 94.77778 513.2222 -0.1611288 -0.9153647 -0.3689782 
-15.5 91 497 -0.1927075 -0.7219141 -0.6646081 
36.14286 94 515.7143 0.02792439 -0.8396263 -0.5424463 
-28 88 488 0.5709298 0.7805887 -0.2544023 
-12 88.55556 497.3333 -0.2858794 -0.4968291 -0.8194107 
-23.33333 86.66666 494 0.6253039 0.7292564 -0.2778133 
-9.090909 85.63636 497.0909 -0.4490663 -0.06266663 -0.8912982 
-21.25 83 489.75 0.6129194 0.757675 -0.2241837 
-6.454545 80.09091 494.2727 -0.2992058 0.3975069 -0.867447 
-126 10 545 -0.07744117 -0.8622115 -0.5005938 
-141 7 551 1.585575e-05 -0.8287655 -0.5595961 
-144 8.375 548.625 0.02881326 -0.8279722 -0.5600284 
-138 5.571429 552.4286 -0.05816773 -0.8103355 -0.583072 
-141.1 4.4 554.9 -0.06110689 -0.8810469 -0.4690655 
-105 2.5 557.6667 0.03289041 -0.8623544 -0.5052356 
-102 1 560 0.008022101 -0.7953684 -0.6060733 
-105 0 561.3333 -0.001031396 -0.8533124 -0.521399 
-108 -1.5 564.3333 -0.07343705 -0.8687168 -0.489835 
-111 -2 566 -0.03633064 -0.8488054 -0.5274557 
-90 -3.5 566.5 -0.06607596 -0.8187866 -0.5702829 
-83.8 -6.4 570.4 -0.05816276 -0.8612159 -0.5049003 
-86.9 -7.2 572.8 -0.06063554 -0.9055248 -0.4199382 
-87 -9 576 -0.07450767 -0.8557223 -0.5120429 
-84.33334 -10.5 578.3333 -0.05660183 -0.8266231 -0.5599023 
-87.5 -12 580 -0.03838538 -0.8424569 -0.5373946 
-52 -30 586 -0.8186178 0.5576274 -0.1375372 
-58 -50 561 -0.9596023 0.220072 -0.1753051 
74 -59 629 -0.6962316 -0.1819115 -0.6943845 
-6.333333 -69.66666 537.3333 0.5361639 -0.3896609 -0.7487941 
-9 -72.5 537.5 0.1444675 -0.5094433 -0.8482905 
-11.75 -74 539 -0.03879673 -0.6932311 -0.7196704 
-36.18182 -76.09091 548.0909 -0.1540567 -0.218255 -0.9636552 
-38.75 -78.875 549.625 -0.04306639 -0.3924554 -0.9187622 
-13 -90 559 0.2488686 -0.8716633 -0.4222174 
-15 -89 557 0.2427199 -0.8781608 -0.4122144 
-22 -95 571 0.05439796 -0.9408828 -0.3343358 
-16 -91 560 0.1109119 -0.8648841 -0.4895652 
-39 -85.5 554.5 -0.2952726 -0.775593 -0.5579153 
-35.875 -84.875 552 -0.1568486 -0.6381431 -0.7537718 
-39.125 -82.5 551.375 -0.1216279 -0.5373243 -0.8345593 
-29.9 -81.8 549.3 -0.2984669 -0.4186865 -0.8576824 
-12 -66.77778 535 0.2699978 -0.3279722 -0.905282 
-14.875 -64.125 533 0.1817108 -0.4215183 -0.8884276 
-56 -47 558 -0.9265246 0.3216459 -0.1951826 
-56 -44 568 -0.9279498 0.3630202 -0.08441349 
-55 -42 565 0.9134289 -0.4051117 0.03914348 
-54 -40 567 -0.9148054 0.369339 -0.1634625 
-54 -37 571 -0.9299457 0.3386107 -0.143331 
-147 12 543 0.002471558 -0.8512338 -0.5247809 
-147 14.11111 539.8889 0.01192128 -0.8615222 -0.5075799 
-137.75 14.75 537.75 -0.1010641 -0.8864893 -0.4515783 
-147 16 536.5714 -0.003388805 -0.8862806 -0.4631363 
-143.7778 17 534 -0.08627178 -0.881516 -0.4642054 
-57 18 531 0.03333677 -0.8499936 -0.5257371 
-57 19.57143 527.8571 0.05013777 -0.9214262 -0.3853052 
-53.66667 19 530 0.0939979 -0.8483055 -0.5210972 
-60 20.5 525.1667 -0.01065648 -0.8615078 -0.5076325 
-92 22 524 0.0714756 -0.8585294 -0.5077584 
-89.75 22.75 522 0.01160357 -0.9222831 -0.3863411 
-87 24 519 -0.01219932 -0.9037214 -0.4279473 
-86.85714 25.42857 516.1429 -0.02428435 -0.8905378 -0.4542606 
-78 27 513.5 -0.0007746289 -0.8870652 -0.4616437 
-86.75 28 512 0.01288879 -0.7802306 -0.6253591 
-84.125 29.5 510.25 -0.1389874 -0.7733028 -0.6186157 
-87.25 31 509 -0.008227091 -0.8806419 -0.4737111 
-69 30 507.5 -0.0334367 -0.889919 -0.4548913 
-66.25 31 506 -0.05749613 -0.8419472 -0.5364879 
-69 32.57143 503.8571 -0.03297297 -0.918469 -0.3941161 
-72.25 33 502 -0.02283056 -0.905154 -0.4244702 
-57 34 500 -0.001878644 -0.8310044 -0.5562628 
-54 35.57143 498.1429 0.02628654 -0.9202569 -0.3904308 
-72 37 494.75 -0.07278546 -0.8812954 -0.4669269 
-74.57143 38.42857 492.2857 -0.1138638 -0.8629503 -0.4922924 
-74.8 40.5 488.9 -0.08009012 -0.9062417 -0.4151044 
-72.125 41.75 485.875 -0.1000515 -0.8945407 -0.4356451 
-32.85714 42 483.5714 -0.04900657 -0.8823621 -0.4680123 
-33.11111 43.88889 479.6667 0.01525403 -0.927898 -0.3725218 
-31 43 482 -0.07280659 -0.8848469 -0.4601579 
-36.25 44.5 477.5 -0.002937577 -0.8812435 -0.4726535 
-73 46 479 -0.09828428 -0.8768569 -0.4705978 
-69.11111 46.11111 477.1111 -0.07426035 -0.8708762 -0.4858602 
-65.90909 47.63636 474.0909 -0.01833749 -0.895862 -0.4439537 
-60 49.5 470.5 -0.007315183 -0.8934533 -0.4490966 
-63 50.5 467.75 -0.03984217 -0.9188126 -0.3926781 
-54 51 465 0.003621297 -0.897718 -0.4405557 
-63.14286 52.42857 464.4286 -0.07566444 -0.8514217 -0.5189952 
-60.1 53.3 462 -0.04642189 -0.9111705 -0.409406 
-63.8 55.2 461 -0.4375926 -0.1275262 -0.8900842 
-75.4 59.2 470.4 -0.5050822 0.4677059 -0.7253572 
-72.09091 58.81818 467.9091 -0.5396535 0.4657374 -0.7013294 
-68.91666 59.08333 465.25 -0.5426626 0.4820391 -0.6878631 
-65.57143 58.57143 462.7143 -0.4774618 0.3353907 -0.8121226 
-72.5 62.33333 470.8333 -0.490456 0.5801049 -0.6503317 
-156 71.2 540 -0.3648275 -0.8720219 -0.3263106 
-66 62.08333 464.9167 -0.5830312 0.502826 -0.6381541 
-158.5 72 542.5 -0.4716075 -0.8573944 -0.2060609 
-152.8333 71.5 537.5 -0.07776128 -0.842739 -0.5326765 
-167 74 554 -0.4618481 -0.8819726 -0.09391899 
-164.5 74 545 -0.3345231 -0.9363738 -0.1062939 
-159.5 73 539.5 -0.3674996 -0.9175937 -0.1515447 
-149.75 73 536 0.1688109 -0.7788842 -0.6040218 
-69.375 65.375 470.5 -0.6116738 0.4211901 -0.6696671 
-66.22222 65 467.6667 -0.5449554 0.5119299 -0.6640418 
-152.875 73.625 534.25 -0.01059935 -0.8889741 -0.457835 
-66.3 68.6 470.3 -0.4791692 0.5611838 -0.6748849 
-5.8 70 487 -0.02969503 0.6728677 -0.7391667 
-8.333333 71.66666 488.3333 0.261927 0.6486049 -0.7146369 
-5 73.5 490 -0.2855252 0.5968441 -0.749835 
-5.933333 77.06667 492.6 -0.2470257 0.4463112 -0.8601074 
-14.75 77.25 489.25 0.505007 0.7820066 -0.3652855 
-9.2 77.6 494 -0.104497 0.6155936 -0.7811049 
57 143 488.25 0.07502802 0.8756304 -0.4771187 
60 142 486.75 0.1396694 0.8491462 -0.5093557 
66.5 142.5 492.5 0.7116317 0.5898386 -0.3816685 
60.14286 139.4286 482.7143 0.2946722 0.5214286 -0.8007999 
57 139 481 0.1809854 0.3644799 -0.9134543 
26.85714 139.7143 485.7143 -0.1448165 0.7859095 -0.6011444 
60 136.8571 481 0.11078 -0.1148252 -0.9871894 
57 136 482 -0.07593603 -0.4667844 -0.8811051 
63 131 483.4445 0.2252471 0.3121208 -0.9229542 
47.75 128.1875 482.4375 0.04029497 0.2863969 -0.9572634 
47.88889 124.6667 481 -0.01638552 -0.1528445 -0.9881144 
44.875 124.75 482.125 -0.0208428 -0.1920855 -0.9811568 
54.25 122.3333 483.1667 -0.01747865 -0.6801443 -0.7328699 
33.2 122.0667 485.6 0.03442961 -0.6220137 -0.782249 
35.75 121 488 0.1339676 -0.6931244 -0.7082594 
33 118.75 488.0833 0.212565 -0.1813731 -0.9601667 
-1 108 485 -0.4416936 0.3550017 -0.8239421 
-2.857143 109.9286 486.2143 -0.350121 0.1289592 -0.9277849 
14 104.25 485.5 0.8956227 0.05785426 -0.4410362 
16 101.25 489.75 0.9290809 0.09708848 -0.356907 
18 98 495 0.9609044 0.03021059 -0.2752275 
17 95 492 0.9812073 0.03191007 -0.1903003 
33 97.66666 509.6667 -0.0985636 -0.861497 -0.4981047 
36 96 511 -0.1676379 -0.8766726 -0.4509355 
-24 92.66666 496 0.008796424 -0.7242771 -0.689453 
32.9 95.6 513.2 0.005957988 -0.8829985 -0.469338 
-27 89.75 494.75 0.5704832 0.678266 -0.4631459 
-27 86.66666 485.3333 0.5736335 0.7613794 -0.3020698 
-24.66667 85.33334 488.3333 0.617177 0.759646 -0.2050133 
-22 85 493 0.6458106 0.702185 -0.2997748 
-23 84 487 0.6643606 0.7124006 -0.2260762 
-14.81818 86.09091 499 -0.1606864 0.1973626 -0.9670718 
-20 84 495 0.5930982 0.7215319 -0.3572483 
-19 82 492 0.6102444 0.7353633 -0.2946907 
-11.75 83 497.25 -0.2434061 0.2351249 -0.940994 
-15.66667 79.33334 492 0.5569559 0.7356546 -0.3855029 
-11.88889 79.55556 495.4445 -0.03632883 0.5679719 -0.8222457 
-141 11.5 543.3333 -0.05173308 -0.8791215 -0.4737816 
-132.25 10 546 -0.04278164 -0.8629855 -0.5034142 
-138 8.5 548.625 0.006467039 -0.8519393 -0.5236006 
-176 7 582 -0.2934803 -0.9328534 -0.2089351 
-144.25 6 552 0.07182798 -0.8306469 -0.5521472 
-147 4 555.1667 -0.002559683 -0.943692 -0.3308156 
-108 1 560 -0.004332018 -0.8666084 -0.49897 
-111 1.571429 558.4286 0.04085371 -0.9052185 -0.422978 
-111 0 562 -0.03060296 -0.8903092 -0.4543271 
-101.8571 -1.428571 564 -0.02113513 -0.8554322 -0.5174835 
-96.125 -3.625 566.625 -0.01044372 -0.822841 -0.5681756 
-78 -6.5 570.1667 -0.003577792 -0.8679159 -0.4966984 
-81 -7.5 572.5 -0.01972308 -0.8906132 -0.4543338 
-81 -9.5 576 -0.06135195 -0.8532082 -0.5179496 
-78 -11 578 -0.01932334 -0.8472737 -0.530805 
-81 -12 580 -0.008704327 -0.8735781 -0.4866062 
-8.875 -15.875 581.75 0.5292971 -0.1392065 -0.8369386 
-5.8 -18.4 582.2 0.451521 0.578138 -0.6796215 
-50 -27 587 -0.8071074 0.5706873 -0.1513066 
-58 -50 567 0.9654436 -0.2522565 0.06546275 
69.14286 -57.57143 630 -0.1977497 -0.7966348 -0.5711989 
72.5 -60 631 -0.6028667 -0.1569018 -0.7822618 
69 -61 633.1111 -0.3573034 -0.4509965 -0.8178853 
-11.63636 -70.09091 536.2727 0.1507955 -0.393523 -0.906863 
-14.75 -72.25 537.75 -0.1423978 -0.6131924 -0.7769928 
-5.875 -73.125 539.75 0.5014641 -0.5233015 -0.6889769 
-24 -73.5 545.5 -0.2061771 -0.6624458 -0.7201782 
-32.8 -75.2 546.8 -0.2747625 -0.3892078 -0.8792172 
-30.5 -77 548 -0.1836089 -0.497951 -0.8475451 
-29 -78 547 -0.2435358 -0.3486605 -0.9050559 
-33 -79 549.5555 -0.1466805 -0.3152333 -0.9376101 
-23.5 -95 572 -0.04009639 -0.9506037 -0.3078066 
-30.36364 -85.09091 551.7273 -0.2476295 -0.6671058 -0.702602 
-32.5 -83 551 -0.1836292 -0.5386977 -0.8222439 
-35.75 -81.25 550 -0.01245305 -0.3221837 -0.9465953 
-14 -69 535 0.111966 -0.317739 -0.9415442 
-9 -67 536 0.2032931 -0.2833928 -0.9372089 
-8.909091 -63.81818 534.8182 0.3255207 -0.2500163 -0.9118817 
-5.8 -64.1 536 0.4619412 -0.1596015 -0.8724321 
-57 -47 564 -0.9333721 0.3514588 -0.07275629 
-55 -43 559 -0.9124802 0.3739668 -0.1659177 
-141 13.5 540 -0.07079968 -0.8477348 -0.525674 
-143 15 538 -0.07377589 -0.8481431 -0.524605 
-141 16 536 -0.09592132 -0.9249887 -0.3676887 
-138 16 534 -0.1160254 -0.9128125 -0.3915502 
-63 17.5 531.3333 0.1681383 -0.802526 -0.5724347 
-63.33333 19.66667 528.3333 0.14618 -0.8852699 -0.4415073 
-60.5 19 530 -0.03071035 -0.8305949 -0.5560297 
-54.25 21 524.75 0.03521999 -0.894069 -0.4465426 
-96 22.57143 521.8571 0.05143445 -0.8689821 -0.4921632 
-81 24 519.5 0.006141225 -0.8955755 -0.4448672 
-80.75 26 516 0.01243534 -0.9069949 -0.420958 
-78 25 518 0.004775566 -0.876973 -0.4805158 
-83.85714 27 513.5714 0.006241452 -0.8854143 -0.4647608 
-81 28 512 -0.01777954 -0.8253017 -0.5644121 
-78.25 29.375 509.625 -0.01073042 -0.9002644 -0.4352113 
-75.2 30 507.8 0.01502917 -0.8991381 -0.4374068 
-72 31 506.5 0.03070103 -0.8543751 -0.5187492 
-74.875 32.5 503.625 -0.006511742 -0.8791735 -0.4764574 
-66 33 502 0.0004726219 -0.9200916 -0.391703 
-63 34 500.5 0.04521944 -0.8671415 -0.4960048 
-60.1 35.7 497.9 -0.06834655 -0.8628915 -0.5007464 
-69 36 496 -0.01627215 -0.8275283 -0.5611883 
-66.25 37 494.25 0.02243553 -0.8554092 -0.5174667 
-69.16666 38.33333 492.0833 -0.01799018 -0.8828682 -0.4692761 
-68.85714 40 488.7143 0.004573689 -0.8800977 -0.4747706 
-65.8 41.6 486.2 0.06508895 -0.8974894 -0.4362066 
-177 46 543 -0.4126792 0.8181667 -0.4003738 
-174 46.33333 540.3333 -0.4471013 0.8261565 -0.3428788 
-39.14286 42 483.4286 0.00523249 -0.8975732 -0.4408345 
-36 43 482 -0.005828511 -0.891915 -0.4521657 
-39 44 479.6667 -0.06617919 -0.931162 -0.3585494 
-29.83333 44.66667 477.6667 -0.07864517 -0.8776771 -0.4727556 
-65 46 479 0.08757834 -0.8847969 -0.4576729 
-75 46.5 476.625 0.00418697 -0.9142008 -0.4052398 
-71.875 48 474 -0.04112851 -0.8840145 -0.4656467 
-58 48 472 -0.01350156 -0.8898239 -0.4561045 
-53.875 49.5 470.875 -0.1384737 -0.8899686 -0.4344894 
-57 50.5 467.5 -0.02202291 -0.9507015 -0.3093247 
-60.25 51 466 -0.0615769 -0.9072071 -0.4161533 
-57 52 464 -0.03462655 -0.8894692 -0.4556815 
-53.75 52.875 462.125 0.02014079 -0.8844756 -0.4661515 
-150 70 539.5 0.019875 -0.800073 -0.5995735 
-69.22222 62 468 -0.5241101 0.5069829 -0.6843076 
-166 74 553 -0.4618481 -0.8819726 -0.09391899 
-156 73 536.25 -0.1093207 -0.8864917 -0.4496461 
-158.8 74.4 533.6 -0.05734533 -0.9369435 -0.3447439 
-11.75 74.5 488.75 0.5409435 0.7210335 -0.4330022 
-9 74.66666 491.6667 0.2188637 0.6729239 -0.706592 
-14 75 486 0.6243738 0.7132472 -0.3184898 
-12 76.8 492 0.4144152 0.7586874 -0.5026466 
4 140 488 0.03648711 0.8998835 -0.4346015 
69 142 497 0.7577934 0.5022035 -0.4165823 
5.75 139 485 0.008741191 0.7958943 -0.6053725 
68.64286 128.0714 482.6429 0.03082656 0.3389841 -0.9402869 
68.33334 124.3333 481 0.04250451 -0.2436686 -0.9689267 
77 123 481 0.1796349 -0.007423215 -0.9837053 
71.75 124.75 482 -0.00970271 0.2124232 -0.9771296 
75.13333 121.7333 482.3333 -0.05149225 -0.6196154 -0.7832148 
78 120 484 -0.05742762 -0.7939915 -0.6052104 
12.42857 121.8571 485 0.2589003 -0.1860749 -0.9478116 
29.42857 116.1429 487 0.2775116 -0.1013894 -0.9553573 
26.77778 113.4444 487 0.1478523 -0.3346878 -0.9306577 
30.25 113.25 488 0.1977992 -0.1622679 -0.9667185 
20.875 109.75 489.25 -0.003216505 -0.7514453 -0.6597876 
25 108 490 -0.18319 -0.6381112 -0.7478339 
27 106.6667 492 -0.1024607 -0.9090801 -0.4038256 
30 106 495 -0.03439843 -0.8936477 -0.4474488 
33.42857 104.5714 496 -0.1052035 -0.8106513 -0.5760005 
30.16667 104 498 -0.1292579 -0.9012302 -0.4136139 
27.125 103.5 500.5 -0.0304735 -0.8628306 -0.5045738 
30 102 502 -0.07901051 -0.859211 -0.5054838 
25 100 506 0.2679271 -0.7771785 -0.5693932 
22 100.3333 503.3333 0.6611832 -0.503099 -0.5565323 
27 99 507.5 0.112646 -0.7944114 -0.5968431 
20.2 98 501.2 0.9027802 -0.09336234 -0.419847 
-43 89 489 -0.2281741 0.9283197 -0.2935289 
-45 88 487 -0.2071926 0.9114038 -0.3555482 
-48 89.5 495.5 -0.3308404 0.9081318 -0.2565956 
-47 87 486 -0.2520042 0.9093541 -0.3310122 
-50 88 492 -0.3002812 0.9079409 -0.2923602 
-51 86 488 -0.3113055 0.8965512 -0.3150952 
-54 83.5 483.5 -0.3824364 0.8630652 -0.3299408 
-53.33333 76.33334 466 -0.5011861 0.6620379 -0.5572417 
-59.75 76 471.5 -0.4451829 0.7221272 -0.5294757 
-65.5 76 476.5 -0.4718354 0.7644582 -0.4392894 
-71 76 484 -0.4517884 0.8367972 -0.3092858 
-110.75 10 545 0.01286374 -0.8847359 -0.4659152 
-114.0909 10.72727 543.0909 -0.002789706 -0.8891995 -0.4575112 
-113.75 9 546.5 0.02276001 -0.8443643 -0.5352858 
-117 7.428571 548.5714 0.05523511 -0.8286881 -0.5569786 
-123 5.428571 551.8571 -0.03379467 -0.8778598 -0.4777239 
-120.2 4 554.6 -0.01448934 -0.8806695 -0.4735096 
-117 3 556 -0.007170066 -0.849054 -0.5282573 
-132.1429 2.571429 557.8571 0.004198409 -0.8725334 -0.4885365 
-135 1 560 -0.0103647 -0.8519567 -0.5235096 
-132 0 562 0.007863023 -0.8498567 -0.5269551 
-159 0 582 -0.5679307 -0.7933355 -0.2192568 
-129 -1.428571 563.7143 -0.03195929 -0.8186452 -0.5734097 
-157 -2 585 -0.5878996 -0.7753468 -0.2306764 
-54 -5 570 0.05576357 -0.8556326 -0.514571 
-75 -3.9 566.9 0.03270316 -0.7998127 -0.5993581 
-57 -6 571 0.06110011 -0.8926468 -0.4465966 
-54 -7 573.5 0.04178046 -0.9216672 -0.3857254 
-54.25 -9 577 0.05296611 -0.7718731 -0.6335665 
-57 -10.5 578.5 0.07502947 -0.7221438 -0.6876619 
-54 -12 580 -0.03062033 -0.8015884 -0.5970917 
-51.14286 -13.28571 582 -0.03067542 -0.7811393 -0.6236027 
-49 -22.5 593 -0.8359267 -0.06858178 -0.5445395 
-50.6 -24.8 594.4 -0.8666623 0.1764309 -0.4666569 
51.2 -54.4 629.8 -0.166439 -0.8295013 -0.5331282 
44 -56 635 -0.2046602 -0.8121189 -0.5464221 
54 -58.4 636 -0.1038265 -0.9102046 -0.4009335 
51 -59 638 -0.100446 -0.877781 -0.4684135 
-53 -49 543.25 -0.8684347 0.33578 -0.3647918 
54.25 -60.25 639.5 -0.1268744 -0.8664008 -0.4829623 
57 -61.5 641 -0.2476874 -0.6345801 -0.7320923 
-43 -51.5 533 -0.5234195 0.2232071 -0.8223203 
54.4 -63.6 642.8 -0.3515922 -0.3598907 -0.8642116 
51 -64.16666 644.8333 -0.4775925 -0.5074961 -0.7171842 
47.8 -64.6 647.8 -0.4607988 -0.5435212 -0.7016047 
66.5 -64.5 630 -0.4357101 0.8855662 -0.1610251 
47 -67 650 -0.7798311 0.3440987 -0.5229337 
63 -66 631 -0.3780497 0.9152734 -0.1391152 
59 -66 638 -0.5203089 0.8297611 -0.2019285 
53.5 -66.5 644.5 -0.5870702 -0.1332742 -0.7984902 
-52 -55 539 -0.7925242 -0.009130541 -0.6097723 
57.5 -67 636 -0.414922 0.9074708 -0.06585279 
-45.09091 -55 533.1818 -0.4997988 -0.05963731 -0.864086 
-29 -72.33334 544 -0.2463138 -0.5299024 -0.8115005 
-51.08333 -73 546.25 -0.2616685 -0.4085297 -0.8744331 
-9 -80 545 0.1467011 -0.6497981 -0.7458159 
-24 -87.5 552.5 -0.1592694 -0.8247754 -0.5425669 
-39.5 -90 563.5 -0.3673712 -0.8740319 -0.3179729 
-27.2 -88.6 555.2 -0.111012 -0.8641456 -0.490845 
-29 -89 557 -0.1240152 -0.8566451 -0.5007789 
-29.5 -91 561.5 -0.1761025 -0.9419557 -0.2858451 
-32 -90 559 -0.1171292 -0.946645 -0.30024 
-12.28571 -85.14286 549 0.06548588 -0.8018992 -0.5938596 
-9 -86 551 0.2092314 -0.9061018 -0.367698 
-47.75 -85.5 561 -0.3171846 -0.8634137 -0.3923146 
-12.13333 -81.93333 545.9333 0.05561155 -0.6461206 -0.7612066 
-49 -83 557 -0.3270436 -0.8548831 -0.4027622 
-48 -71 545 -0.1610687 -0.5116265 -0.8439758 
-33 -69 543.6667 -0.2369619 -0.8451827 -0.4790777 
-30 -69 541 -0.2519909 -0.8310798 -0.4957891 
-39 -67.42857 539.8571 0.02867155 -0.80772 -0.5888687 
-29.75 -66.25 537.25 -0.2715972 -0.8150247 -0.5118299 
-33 -65 536 -0.03693162 -0.8524566 -0.5214921 
-29.9 -63.8 533.9 -0.1861445 -0.7158201 -0.6730168 
-47.71429 -60.85714 537.4286 -0.6097046 -0.3798845 -0.6956638 
-50.33333 -58 537.6667 -0.628055 -0.2888667 -0.7225669 
45 -70 646 -0.4564527 0.8844162 -0.09725711 
48 -69.5 642 -0.2811877 0.9411101 -0.1877375 
-47 -57 535 -0.5605408 -0.2781483 -0.7800177 
-116.75 12 540.25 -0.002100314 -0.8739115 -0.4860804 
-114 13 539 0.0263524 -0.8655339 -0.5001567 
-123 14.57143 537.4286 -0.1343462 -0.8339625 -0.5352175 
-117.125 16 533.5 -0.001402234 -0.8866874 -0.4623672 
-84.125 17.5 531.125 0.08406672 -0.8665744 -0.4919164 
-83.85714 19.42857 528.1429 -0.02489081 -0.8899838 -0.4553124 
-81 20.5 525.5 -0.004420053 -0.8441957 -0.5360169 
-72.25 22 524.5 -0.1531148 -0.8033675 -0.575462 
-75.125 23.5 522 0.05559485 -0.9116101 -0.407279 
-54 24 519 -0.08268966 -0.8835538 -0.460972 
-57 25.2 518.4 -0.02397985 -0.8249588 -0.5646839 
-54 26 516 -0.138948 -0.8650693 -0.4820255 
-63 27 513 -0.03394609 -0.8568975 -0.5143681 
-53.75 28 512 -0.01164125 -0.8445231 -0.5353926 
-56.8 29.2 510.6 -0.01040585 -0.8725529 -0.4884087 
-96 30 508 0.01333188 -0.8880498 -0.459554 
-99.16666 31.33333 506.5 -0.02165456 -0.8206988 -0.5709507 
-96.125 32.5 504.5 -0.04367261 -0.8897935 -0.4542691 
-93.25 33 502 -0.005976809 -0.9208057 -0.3899761 
-84 34.57143 500.8571 -0.08876176 -0.8605115 -0.5016387 
-86.875 36 498.5 -0.00198561 -0.7882417 -0.6153626 
-93 37.77778 495.1111 0.007228713 -0.8898804 -0.4561367 
-85 37 497 -0.135123 -0.8550355 -0.5006557 
-90.33334 39 492.6667 0.1345836 -0.8854838 -0.4447535 
-99 40 491 -0.03030265 -0.8720052 -0.4885576 
-9.25 39 483.25 -0.08448486 -0.8904543 -0.4471616 
-90 40.5 489 0.1051945 -0.9182738 -0.3817165 
-12.25 40 482 -0.03159838 -0.8598055 -0.5096432 
-15.18182 41.36364 479.9091 -0.1152685 -0.8356763 -0.5369901 
-93 42 485.75 0.06016914 -0.8441159 -0.5327738 
-6 41.66667 478 0.2425959 -0.6077676 -0.756152 
-89.5 43 485.5 0.03305444 -0.8406985 -0.5404937 
-9 43 476.25 0.06207335 -0.8305398 -0.5534894 
-160 48 535 -0.2944182 0.9044425 -0.3087096 
-170.5 50 548.5 -0.30538 0.9125299 -0.2720886 
-160 49 538 -0.3571339 0.875645 -0.3251174 
-7 44.5 475 0.749918 -0.3249481 -0.5762219 
-174 52 561 0.3602566 -0.9126787 0.1929583 
-156 50.5 534.5 -0.5302837 0.8032559 -0.2712547 
-92.875 46.5 479.5 -0.09985374 -0.7716324 -0.6281821 
-152.5 52.5 533.5 -0.4179682 0.8378438 -0.3511701 
-150 54 536 -0.5158981 0.808436 -0.2833382 
-80.81818 50.27273 471.8182 -0.3165343 -0.4998539 -0.8061961 
-152 60 551 -0.9042786 -0.2857562 -0.3172125 
-95.875 52.875 482.875 -0.5553641 0.5200012 -0.6489757 
-89.85714 52.42857 477.7143 -0.3969645 0.4578964 -0.7954559 
-153 61 554 -0.8723603 -0.3016269 -0.384719 
-83 52.5 472 -0.4843588 -0.09543432 -0.8696486 
-151 64 549 -0.8361335 -0.331045 -0.437367 
-155 65.5 554.5 -0.7784645 -0.5010419 -0.3780873 
-152 65 547 -0.7751938 -0.517089 -0.3628961 
-83.58334 59 477.0833 -0.590654 0.423335 -0.686961 
-151 67 545 -0.4225341 -0.7174928 -0.5537771 
-158 69 554 -0.707903 -0.67004 -0.2234273 
-56.92308 58.92308 456.3077 -0.5027223 0.3015077 -0.8101626 
-84.55556 65.33334 482.6667 -0.5761223 0.5096613 -0.6390058 
-57.25 62.16667 458.5833 -0.5183138 0.4531323 -0.7252737 
-54.1 61.9 455.7 -0.5972156 0.4084254 -0.6903059 
-77.88889 65.44444 476.8889 -0.479393 0.5723363 -0.665292 
-72 71.16666 477 -0.5517397 0.6126165 -0.5659367 
-59.33333 70.33334 465 -0.568238 0.5149933 -0.6417847 
54.25 145 492 0.0338207 0.9127731 -0.4070643 
49 143 488 0.007756992 0.893829 -0.4483409 
45 142 485 -0.09865333 0.8238941 -0.5580915 
48 139 481 -0.1193682 0.4387131 -0.8906639 
44.85714 139.5714 482.5714 -0.2368402 0.5336833 -0.8118429 
45.25 137 481 -0.06936235 0.1340561 -0.9885433 
47.69231 136.6154 482.2308 0.07180459 -0.291834 -0.9537699 
50.88889 134.3333 483.1111 -0.02145991 -0.3387616 -0.9406275 
53.93333 131.2 482.9333 0.03096828 0.1537516 -0.9876241 
57.125 128.1875 482.375 0.03568498 0.2445182 -0.9689879 
57.5 124.5 481 -0.07579428 -0.1442178 -0.986639 
60.25 125 482 -0.01925778 0.04998184 -0.9985644 
27 124 485 -0.03817623 -0.6931581 -0.7197738 
63 122 482.75 0.04480224 -0.6701868 -0.740839 
66.33334 120 484 -0.1678945 -0.7992701 -0.5770431 
23.875 122.25 486.5 -0.006062957 -0.3921483 -0.9198821 
20.75 119.0625 486.25 0.2155383 0.05879733 -0.9747236 
18 115.75 485.1667 0.2703417 -0.02994906 -0.9622986 
15.58333 112.9167 485.1667 0.4034776 -0.2572863 -0.8780715 
18.66667 106 494 0.4555325 -0.6932744 -0.558445 
19 103 497 0.7279271 -0.5580712 -0.398345 
-3 94 485.5 -0.2918774 -0.8676656 -0.4024475 
25 97 509 0.5724478 -0.5499294 -0.6081785 
-8.75 93 489.5 -0.2993404 -0.8698524 -0.3921124 
-11.85714 92.85714 492.2857 -0.1870617 -0.8487303 -0.4946361 
-15 91.72727 495.0909 -0.1464447 -0.8413349 -0.5202976 
-18.25 91 497 -0.1094291 -0.758423 -0.6425107 
27.5 94 515 0.4981252 -0.6666817 -0.5544428 
-11.42857 89.42857 495.8571 -0.3146765 -0.5262256 -0.7899781 
-20.69231 89.07692 498.9231 0.1399199 -0.2921954 -0.9460678 
-8 87 496 -0.4939682 -0.1571248 -0.855165 
-23 87 497 0.6249601 0.6056569 -0.4925492 
-6.25 83.25 495.375 -0.3915969 0.1971696 -0.8987637 
-18.5 79.5 486 0.6924444 0.681028 -0.2381629 
-17 78 488 0.6339489 0.7150173 -0.2947187 
-126 11.125 543.25 -0.02577844 -0.8811762 -0.4720847 
-146.9 10.6 545.4 0.00347279 -0.8341392 -0.5515432 
-126 9 547 -0.09854052 -0.834078 -0.5427741 
-129 7.5 549.5 -0.03116229 -0.8043767 -0.5933017 
-134.8 5.6 552.2 -0.03824523 -0.7883151 -0.614082 
-132 4 554.5 -0.02722853 -0.8836547 -0.4673469 
-120 1.428571 558.5714 -0.05184468 -0.8354721 -0.5470817 
-124 1 560 -0.09941293 -0.8148509 -0.5710825 
-120 -0.5 561 -0.01492158 -0.8557569 -0.5171629 
-114 -2 566 0.09717628 -0.8464212 -0.5235723 
-117 -1.5 563.6667 0.1758668 -0.860108 -0.4788371 
-87.1 -4 567 -0.04201992 -0.8290566 -0.5575835 
-90 -5 569 -0.01408535 -0.8518989 -0.5235168 
-93.25 -6 570 -0.006294269 -0.8713733 -0.4905803 
-90 -7 572.5 -0.009602637 -0.9108346 -0.4126599 
-99 -8 575 -0.04067549 -0.894581 -0.445051 
-90 -9 576 -0.00432514 -0.8487458 -0.5287834 
-93 -10.5 578.5 0.01185344 -0.821638 -0.5698865 
-6.5 -52 534.6667 0.5712996 0.1788787 -0.8010113 
-9.25 -55.0625 533.3125 0.355611 -0.0519421 -0.9331896 
-20.33333 -72.33334 540.3333 -0.4264278 -0.7153443 -0.5535721 
-45.125 -76.125 548.125 0.0419955 -0.6090856 -0.7919919 
-51.2 -79.6 551.8 -0.2342763 -0.8276442 -0.5100193 
-41.90909 -78.90909 549.7273 -0.1580717 -0.4388542 -0.8845452 
-20 -91 559 0.001611112 -0.9047657 -0.4259066 
-39.5 -87 556 -0.3304515 -0.8203527 -0.4667154 
-42 -84.8 554.8 -0.3688782 -0.762694 -0.5312502 
-42 -82.28571 552 -0.278024 -0.6520463 -0.705364 
-45.66667 -82.66666 554.3333 -0.3342354 -0.8219897 -0.4611068 
-28 -68 539 -0.2845377 -0.8006015 -0.5273287 
-18.5 -68 536 -0.1247057 -0.5998545 -0.790331 
-21 -66.5 534.5 -0.01285785 -0.5831965 -0.8122294 
-17.75 -64.5 533.25 -0.02538251 -0.5675896 -0.8229203 
-14.5 -62 533 0.2593603 -0.3382408 -0.9046134 
-11 -58.25 533.25 0.4874625 -0.1055592 -0.8667397 
-129.25 12 541 0.002701435 -0.8896207 -0.4566921 
-126 13 540 -0.005870942 -0.8575093 -0.5144352 
-135 14.57143 537.4286 -0.08812953 -0.8709128 -0.4834709 
-129 16 534 0.04600105 -0.9045881 -0.4237975 
-126 16 536 0.03454991 -0.9103851 -0.412317 
-72.09091 17.09091 530.9091 -0.05295068 -0.8710616 -0.4883114 
-72 19.625 528.25 -0.1304612 -0.8115032 -0.5695986 
-68.85714 20.42857 524.7143 -0.02762165 -0.8460264 -0.5324251 
-83.75 22 524 -0.0283876 -0.833042 -0.5524809 
-86.75 23 522 0.01265169 -0.9188488 -0.394407 
-89.85714 24 519.5714 -0.01400319 -0.8873008 -0.4609786 
-92.75 25 518 0.005990007 -0.8601707 -0.5099712 
-90 26 516 -0.0648171 -0.9006311 -0.4297237 
-99 27 514 -0.006250262 -0.8929062 -0.4501996 
-90.25 28 512 -0.004708601 -0.7983112 -0.6022268 
-93 29.5 510 0.1454033 -0.8418255 -0.5197959 
-90 31 509 0.07355136 -0.8630947 -0.4996578 
-59.75 30 507 0.00702231 -0.8795195 -0.4758112 
-63 31 506 -0.02213302 -0.7934066 -0.6082895 
-60.14286 32.57143 503.8571 0.04636041 -0.8809237 -0.4709823 
-56.75 33 501.25 -0.004487481 -0.8773412 -0.4798461 
-71.75 34 500.25 -0.07685608 -0.8783888 -0.4717271 
-75 36 498.1429 -0.1150263 -0.8714401 -0.4768242 
-54 36 496 -0.02535986 -0.8803397 -0.4736654 
-57 37.33333 494.6667 -0.07790476 -0.8802745 -0.4680254 
-54.18182 38.36364 491.9091 -0.02509129 -0.8892745 -0.4566851 
-53.81818 40.27273 489.0909 -0.04847359 -0.8471215 -0.5291839 
