ply
format ascii 1.0
comment VCGLIB generated
element vertex 966
property float x
property float y
property float z
property float nx
property float ny
property float nz
element face 0
property list uchar int vertex_indices
end_header
-4.428571 69.42857 530.1429 0.4751961 0.5690184 -0.6711235 
-7.5 67 523.5 0.3559742 0.8769501 -0.3228638 
-4 67 526 0.3178268 0.8689637 -0.3793263 
135 71.5 578.5 -0.6071889 -0.7905272 0.07992822 
-2 64 521 0.2641587 0.8985947 -0.3503537 
137 70 580 -0.5746045 -0.8145728 0.07937817 
9 65 531 0.2780662 0.9074226 -0.315061 
1.333333 62.33333 518.3333 0.3097143 0.9023106 -0.2998545 
12.5 63 530 0.3916999 0.8962392 -0.2081499 
128 68.5 589 0.4421125 -0.5307839 -0.7230526 
116 -2.5 627.5 0.8587382 -0.4015713 -0.3182911 
61 -2.571429 548 -0.1380036 -0.8748681 -0.4642852 
57.75 -3.75 550.75 -0.1519434 -0.8712102 -0.4668042 
43 -3.5 553.8333 -0.1353386 -0.8599452 -0.4921156 
57.875 -5.125 554.125 -0.1622083 -0.9106238 -0.3800693 
61 -7 556.5 -0.2264309 -0.8493599 -0.4767775 
52 -7 559 -0.01873287 -0.8806677 -0.4733639 
55.25 -8 561 -0.1153542 -0.8575897 -0.5012318 
52 -9.5 563.5 -0.03127425 -0.8432512 -0.5366092 
61.25 -11.25 563.75 -0.1678509 -0.8301039 -0.5317457 
-181 -15 707 -0.9401773 -0.2261953 -0.2547595 
64 -13 565.3333 -0.173024 -0.8379239 -0.5176352 
67 -14 566.3333 -0.1654423 -0.8373939 -0.520961 
64 -15.16667 569.1667 -0.1852127 -0.8294313 -0.5270104 
55 -17.5 575 -0.1157044 -0.8552272 -0.5051722 
46 -17.5 578 -0.1927393 -0.8533325 -0.4844329 
40 -19 583.3333 -0.1622276 -0.8751807 -0.4557862 
46.5 -20 582 -0.198291 -0.8657874 -0.4594482 
43.4 -20.2 584 -0.2334045 -0.8561548 -0.4610003 
40 -21 586.8571 -0.1473264 -0.8577331 -0.4925331 
38 -22 589 -0.05946363 -0.7953481 -0.6032293 
28.5 -23 592 -0.1953394 -0.8391249 -0.5076533 
49.125 -23.5 587.125 -0.2126523 -0.8405631 -0.4982295 
30.8 -24.6 594 -0.2097751 -0.8525915 -0.4786253 
37.2 -27.4 596.8 -0.1635889 -0.8869308 -0.4319635 
33.5 -28 599 -0.1083543 -0.8632584 -0.4929953 
18.8 -27.8 602.4 -0.15727 -0.7734628 -0.6140208 
34 -30.5 603.1667 -0.1037398 -0.8143815 -0.5709824 
34 -33.5 606.5 -0.0825474 -0.7951215 -0.6008061 
31 -34 608 -0.1389262 -0.8534772 -0.502271 
0.875 -33.125 614.875 0.01473372 -0.5666046 -0.8238581 
34 -35.5 609.5 -0.1375632 -0.8355122 -0.5319735 
37 -37 611.3333 -0.09402289 -0.8261331 -0.5555753 
35 -38 613 -0.1374894 -0.8425863 -0.5207158 
22 -68.75 654.25 0.6608743 -0.4882818 -0.5699353 
-97.75 -72.5 681.5 -0.07220587 -0.7873693 -0.6122384 
25.5 -71.5 660.25 0.2558953 -0.8108184 -0.5263945 
22.5 -71.5 657.5 0.6522329 -0.5832334 -0.4841809 
-98 -74 684 -0.06379458 -0.7706988 -0.633998 
22 -74.5 660.5 0.7873455 -0.4272477 -0.4444621 
6 -66 576 0.7738096 0.2635388 -0.5759913 
3.6 -66.4 573 0.637349 0.2970674 -0.7110115 
-92.5 -81 684.5 0.2261013 0.8712612 -0.4356399 
-97 -80 665 0.2109981 0.9767675 0.03748493 
5 -69 574 0.776353 0.1079625 -0.6209832 
-86.5 -83 681.5 0.3171373 0.9473193 -0.04483446 
-88 -83 679 0.2769155 0.9584715 0.0681923 
-82 -84 684 0.2820752 0.9593624 -0.007576621 
-1.75 -84.25 571.375 0.3187066 -0.4961611 -0.80762 
-5.125 -83.875 569.625 0.1350853 -0.6897154 -0.7113681 
0.3333333 -86.33334 573 0.3557496 -0.3761846 -0.8555276 
6.25 -86.75 577.25 0.6669288 -0.305217 -0.6797416 
-16 -89 576 -0.4052756 -0.4944866 -0.768918 
-26.125 -89.875 577 -0.2780513 -0.1416128 -0.9500701 
-20.5 -92 576 0.1788045 -0.3258207 -0.9283695 
-23.25 -93.5 577.5 -0.08005282 -0.4981186 -0.8634058 
-20 -102 583.6667 0.1770163 -0.6524767 -0.7368443 
-20.2 -105.4 586.8 0.1275004 -0.8127425 -0.568501 
-32 -99 581 0.1586836 -0.3538395 -0.9217468 
-29.33333 -96.33334 580.1667 -0.07729593 -0.4064764 -0.9103857 
-32.5 -95.5 579 0.2236291 -0.4616579 -0.8584067 
-2.125 -80.875 569 0.5353936 -0.3468409 -0.7701007 
10 -83 583.5 0.9794974 0.02116534 -0.2003422 
9 -81 580 0.9653721 0.05633561 -0.2547215 
0 -78 570 0.5983057 -0.1476108 -0.787554 
-3 -77 567 0.5664409 -0.1927726 -0.8012387 
9 -79 579 0.8753549 0.03893641 -0.4819105 
-98 -70 679 -0.06476786 -0.8175656 -0.5721813 
21.8 -65.8 651 0.4599547 -0.5933073 -0.6606271 
25 -66.5 653.8333 0.1834204 -0.7608985 -0.622407 
-95 -68 674.6667 0.04645664 -0.8430309 -0.5358552 
-89.2 -65.8 671.8 -0.03091633 -0.821549 -0.569299 
-79.75 -63.25 666.25 -0.04078952 -0.8669922 -0.4966496 
-80.25 -60.75 662.75 -0.01838828 -0.8544838 -0.5191525 
57 -1 547 -0.2230897 -0.8277029 -0.5149165 
116 -1 629 0.8564088 -0.4162299 -0.3054775 
118 -0.5 633.5 0.8006774 -0.4971549 -0.3342944 
55.33333 0.6666667 545.1667 -0.295441 -0.7750023 -0.5586467 
106 0 596 0.9467064 -0.117277 -0.2999884 
120 0 637 0.8187119 -0.4683271 -0.3322357 
135.5 1 652 0.09367606 -0.9093555 -0.4053363 
138 1 653 -0.004196938 -0.9568616 -0.290514 
61 2 541.25 -0.1007779 -0.8372884 -0.5373938 
119 2 631 0.7370538 -0.6295551 -0.2457887 
121 5 629 0.6323555 -0.7412241 -0.2251966 
150 7 647 0.1545337 -0.9614623 -0.2273975 
16 8 544 -0.03914133 -0.7443168 -0.6666787 
19 9 541.8333 -0.1428301 -0.8604712 -0.4890693 
52 8.5 532.5 -0.07518413 -0.8937113 -0.442298 
55.125 9.375 530 -0.1062095 -0.8965983 -0.4299199 
49 11.75 527.25 -0.08856861 -0.8163717 -0.570695 
-180 18 678 -0.5774185 -0.7975853 -0.1744869 
40 14.5 526.5 -0.1263572 -0.8741163 -0.468993 
43 14.9 524.2 -0.1901468 -0.8534793 -0.4851982 
151 16 632 0.6038511 0.5292102 -0.5960707 
151.5 17.5 635.5 0.6543738 0.4649341 -0.5963482 
46.33333 15.66667 521.3333 -0.2516204 -0.8497365 -0.4632872 
148 18.5 632.5 0.51157 0.5764807 -0.6371548 
49 16 519 -0.2045946 -0.7847555 -0.5850641 
45.77778 17.88889 517.8889 -0.2356433 -0.8716534 -0.4297587 
139.3333 20.66667 626.5 0.4108365 -0.3347278 -0.8480393 
145.6667 21 632.3333 0.6833056 0.2034602 -0.7012115 
145.1429 30.14286 629.5714 0.2625839 -0.5529573 -0.7907515 
142.5 30 627 0.6842061 -0.2559825 -0.6828873 
-32 28 515 -0.09010378 -0.8690876 -0.4863826 
-32.11111 29.88889 512.1111 -0.01766569 -0.8948452 -0.446027 
-28 29 514 0.04404702 -0.8447406 -0.5333603 
113 32.5 568.5 0.9244638 -0.09191906 -0.3700236 
-22.85714 31 509 -0.186898 -0.884603 -0.4272549 
112.25 35.75 565.75 0.8645995 0.2116984 -0.4556879 
114 35 570 0.8634646 0.07931734 -0.4981341 
46.11111 32.66667 503.6667 0.1781356 0.4956602 -0.8500522 
54.875 32.875 506.625 0.3208832 0.5118269 -0.7969111 
114.3333 39 572.3333 0.8327157 0.3765702 -0.4059303 
51.83333 35.16667 506.8333 0.2573008 0.6050954 -0.7534294 
54.8 35.93333 508.8 0.3143567 0.5401004 -0.7806865 
112.6667 42 572.3333 0.7742605 0.4527393 -0.4422076 
114 41.5 574.5 0.7949783 0.4074106 -0.4494733 
58 37 511 0.3003763 0.5896744 -0.7497054 
144.5 45 609.5 0.6603455 -0.2006482 -0.7236602 
55.5 39.125 511.25 0.3607223 0.5135402 -0.7785602 
114.3333 45 577.6667 0.8263808 0.3479326 -0.4427614 
136 46 606 0.09200451 -0.7550445 -0.6491864 
119 46 586 0.8363864 0.2357233 -0.494866 
139.3333 47.66667 605.5 0.4983738 -0.3247566 -0.8038387 
142 48 608 0.6432118 -0.07433943 -0.7620709 
145.6 48 611.6 0.7176652 0.07103423 -0.6927559 
51.85714 42 511.7857 0.2901125 0.5860692 -0.7565432 
135.8 48.4 603.4 0.2462595 -0.714139 -0.655257 
113 48 577.3333 0.7924577 0.2807271 -0.5414824 
115.5 48 580.75 0.8712255 0.137384 -0.4712662 
117 48 584.6667 0.8309772 0.1972178 -0.520175 
55.25 43 514 0.3106119 0.6418306 -0.7011232 
141 51 606.3333 0.8016414 -0.06815382 -0.5939075 
40.1 44.8 510 0.183073 0.5817065 -0.7925289 
49 44.5 512.6667 0.3159002 0.6318197 -0.7078213 
116 51 583.6667 0.8806157 0.1159647 -0.4594215 
45.5 47 513 0.2613067 0.7405082 -0.6191659 
48.66667 47.33333 515.1667 0.3232834 0.78683 -0.5257247 
39 50 516 0.2432922 0.884636 -0.3977789 
51 126 495 0.4415714 0.7070197 -0.5523928 
54 125 498 0.6854893 0.5198476 -0.5097675 
58 124 502.6667 0.3080485 0.7172735 -0.625 
60.5 122.6667 500 -0.0368173 0.8161336 -0.5766892 
61.16667 119.75 496.75 -0.03936008 0.4233305 -0.90512 
-14.5 126 524.5 -0.6134799 0.7228844 -0.3179318 
58.46154 116.8462 496.6154 0.4914589 -0.04042012 -0.8699623 
36.875 115 491.5 -0.2041241 -0.8911967 -0.4050946 
40 114.8 494 0.05198652 -0.9851759 -0.1634807 
-11 120.6667 521 -0.1697214 -0.7855311 -0.5950929 
-24 121 532 -0.5556996 0.7767975 -0.2962828 
46.5 113 499 -0.1875579 -0.6665216 -0.721506 
42.91667 114.0833 497 -0.01718711 -0.8862699 -0.4628502 
-19.83333 119.8333 524.1667 -0.4345546 0.2139643 -0.8748609 
-27 122 539 -0.5262673 0.8026724 -0.2806415 
-17 118 525 0.0009283899 -0.682428 -0.7309523 
-26 119.5 530.5 -0.4100762 0.8463947 -0.3397847 
-29 121 540 -0.5680738 0.7641044 -0.305674 
48.66667 111 499.2667 -0.2549746 -0.4276125 -0.8672575 
-20.1 116.6 526.5 0.0806981 0.1289698 -0.9883596 
45 110 502 -0.3318236 -0.5320943 -0.7789537 
42.75 107.9375 503.5625 -0.358571 -0.02330853 -0.9332114 
40.3 105.2 503.6 -0.1279938 -0.1279793 -0.9834831 
19 103 510 0.2101783 -0.5730464 -0.792113 
21.83333 102.6667 512 0.1221463 -0.7435684 -0.6574088 
25 101.5 515 -0.08131564 -0.9445906 -0.3180197 
7.166667 98.33334 517.1667 0.2244238 -0.6970014 -0.6810455 
9.5 97 518.5 0.2231718 -0.6849822 -0.6935372 
12.92857 96.07143 521.0714 0.2612393 -0.6489081 -0.7146134 
9.9 93.1 521.2 0.5001889 -0.0686074 -0.8631942 
119 99 611 0.8346459 0.4214848 -0.3545656 
2 82 518 0.00260797 -0.8643579 -0.5028705 
-2.25 83.33334 518 -0.1214133 -0.8491421 -0.51402 
120 95 607 0.7215276 0.5813892 -0.3760114 
-2.222222 81.33334 520.8889 -0.04042144 -0.8929118 -0.4484135 
121 92 604 0.7382844 0.5752982 -0.352091 
-5 80.5 523.5 -0.04695846 -0.857567 -0.5122246 
121 89 599 0.7194584 0.5903249 -0.3659181 
125 88 606 0.6304892 0.6764293 -0.3806927 
122 86 596 0.6435416 0.6987006 -0.3125245 
131 87 612 0.3156843 0.9089853 -0.2721934 
132.5 86 609.5 0.1396604 0.9623099 -0.2333553 
130.6667 84 603.3333 0.05965259 0.9516396 -0.3013697 
-205 73 565.5 -0.4015655 -0.7834521 -0.4742868 
-203.25 71.25 568.5 -0.2867663 -0.8877214 -0.3601608 
-208 72 575 -0.6218452 -0.708362 -0.3339639 
-202 65 586 -0.4798667 -0.8348914 -0.2696004 
-198 62 589 -0.4105061 -0.8054786 -0.4274214 
-92 -17 591.3333 -0.03500645 -0.8366977 -0.5465451 
-89 -18.5 594 -0.07737184 -0.8530242 -0.5161039 
-82.85714 -21.42857 597.2857 0.03080008 -0.8674311 -0.4966031 
-87 -22 599 -0.1465001 -0.8678342 -0.4747648 
-98 -23.83333 602.8333 0.03717256 -0.8209721 -0.5697571 
-98 -26.5 606 -0.06063668 -0.8434221 -0.5338188 
-101.25 -27.75 609.25 -0.07534135 -0.858986 -0.5064255 
-86 -29 610 0.06110311 -0.8909823 -0.4499077 
-83.2 -29.4 611.8 0.08822559 -0.9176058 -0.3875769 
-80 -31 615 -0.0360015 -0.8465248 -0.5311307 
-76.5 -32 616 -0.1158034 -0.828889 -0.5472958 
-80.14286 -33.28571 618.2857 -0.08981437 -0.824523 -0.5586548 
-80 -35.5 621.5 -0.08307693 -0.7896031 -0.6079682 
-76 -37 623 -0.02513197 -0.7499387 -0.6610297 
-80 -38 624 -0.07786755 -0.8097036 -0.5816501 
-59 -39.5 626.8333 0.04415938 -0.848361 -0.5275733 
-44.5 -41.5 615.5 -0.6200858 0.7617385 -0.1877447 
-53.25 -42.75 629.5 -0.6125761 -0.6135671 -0.498283 
33.5 -73 662 -0.3074136 -0.7147139 -0.6282364 
33 -76 665 -0.6128784 -0.4001245 -0.6813813 
36 -75 662 -0.6298212 -0.36354 -0.6864139 
-41.5 -89 570 0.09081557 -0.7327776 -0.674381 
-53.5 -90.5 580.5 -0.6469477 -0.6637915 -0.3752859 
-35.18182 -90.09091 575.0909 0.571872 -0.3800154 -0.7270149 
-38 -90 572.5555 0.4838023 -0.4548288 -0.7477072 
-38 -102.3333 584 -0.3071221 -0.8068715 -0.504613 
-38 -104.3333 586.6667 -0.3493934 -0.8464161 -0.4018758 
-46.8 -95.8 581.4 -0.5135334 -0.7334298 -0.4453809 
-37.75 -93.375 574.75 0.2878176 -0.4559006 -0.8422088 
-58 -84 582 -0.8946377 -0.1704033 -0.4130207 
-59 -81.5 585 -0.9669821 -0.01307787 -0.2545085 
-59 -78 587 -0.939092 0.2858427 -0.1907887 
-85 -82 660 0.2158621 0.9748082 0.05614784 
-62 -62.5 654.5 -0.9391388 -0.1069889 -0.3264533 
-65.25 -60.5 660.25 -0.4188334 -0.6973868 -0.5815758 
-68 -56 654.6667 -0.1397135 -0.8064711 -0.5745298 
-67.75 -54.25 651.25 -0.08018357 -0.8986633 -0.431248 
-71 -53 649 -0.04201133 -0.8681425 -0.4945337 
-65 -51 645 -0.1613436 -0.8428086 -0.5134608 
-62 -50 642 -0.1617164 -0.8491738 -0.5027441 
-55 -50 636 -0.952898 0.001286968 -0.3032884 
-62.25 -48.25 639 -0.1160503 -0.8652576 -0.4877107 
-104 8.571428 550.4286 -0.1419158 -0.8093152 -0.5699726 
-100.75 10 548 -0.06137017 -0.8742502 -0.4815812 
-104 11 547 -0.1672528 -0.8640206 -0.4748631 
-95.14286 11.14286 545.1429 0.1054946 -0.9203823 -0.3765201 
-98 12.66667 542.3333 -0.05693124 -0.8322936 -0.5514038 
-105 15 545 -0.9346771 -0.1243653 -0.3330345 
-101 14 541 -0.1238333 -0.7554867 -0.6433547 
-104 18 541.25 -0.897533 -0.1227424 -0.4235196 
-182 26.5 648 -0.2509937 -0.8541533 -0.4554386 
-179 27.5 645 -0.1553188 -0.8302806 -0.5352665 
-182 29 644.3333 -0.1641089 -0.8393423 -0.5182402 
-185 30.75 641.75 -0.1985606 -0.8898627 -0.4107531 
-49.66667 28 515.6667 -0.02030367 -0.8863979 -0.4624787 
-47 29 514 -0.009851411 -0.8205982 -0.5714207 
-50 30.5 512 -0.02275157 -0.8911293 -0.4531788 
-149 37 625 -0.1337191 -0.7967585 -0.5893175 
-53.25 31 509.75 -0.01535613 -0.8939208 -0.4479617 
-146 38 623 -0.2033554 -0.7138157 -0.6701594 
-142.875 39.125 620.625 -0.2661326 -0.7290385 -0.6306159 
-147 41 620 -0.1990189 -0.7804627 -0.5926799 
-149 42.5 618.1667 -0.1060501 -0.8207964 -0.5612901 
-82.85714 42.28571 491 -0.1975183 -0.8480944 -0.4916527 
-215 53.5 611.5 -0.5576584 -0.7674586 -0.3162666 
-217 55 610 -0.6741194 -0.6538502 -0.3435737 
-203 54.5 600.6667 0.01328736 -0.742703 -0.6694893 
-197.3333 56.5 596.5 -0.1854845 -0.8726819 -0.4516878 
-194 56.5 594.1667 -0.09374736 -0.8772298 -0.4708284 
-191.25 58 592 -0.0007217621 -0.8150053 -0.5794531 
-193.8 59.4 589.8 -0.1642003 -0.8646682 -0.4747497 
23 152 519 0.2112619 0.8819638 -0.4213174 
58 142 519 -0.2083638 -0.9664016 0.1505075 
52.2 126.2 496.8 0.5434063 0.6668803 -0.5098827 
58 125.8889 503.2222 0.5047719 0.4008714 -0.7645308 
61.25 124 502.75 0.08826745 0.8167199 -0.5702432 
52.5 123.25 494 0.669907 0.5271417 -0.5228254 
54.5 123 497 0.7584246 0.4035585 -0.5117937 
57.85714 122.7143 500.5714 0.3868288 0.6239328 -0.6790225 
-15 127 528 -0.6270891 0.7300401 -0.271663 
58.33333 119.6667 496.7778 0.3947512 0.4521841 -0.7998133 
57 116.5 495 0.714406 0.0183906 -0.6994899 
61 116.9167 497.4167 0.06032334 -0.08962888 -0.9941468 
33.85714 115 491.5714 -0.2141985 -0.4663622 -0.8582688 
-16.33333 122 522 -0.5621052 -0.4612044 -0.6865336 
43.25 114.75 494.75 0.07429158 -0.9719163 -0.2232925 
-13.9 120.8 521.1 -0.2281744 -0.7493459 -0.6216246 
-21 121 527 -0.6823729 0.4004531 -0.6115592 
39.9 114.2 497.2 0.04013509 -0.9615991 -0.2715077 
-23 121 529 -0.5541529 0.7603835 -0.3387206 
-25 123 537 -0.5561371 0.7633231 -0.3287086 
48 113 499 -0.2503999 -0.6551208 -0.712823 
-17.1 119.8 523.6 -0.3742901 -0.3870275 -0.8426841 
-26 121 534 -0.4530271 0.8420075 -0.292899 
-28 120 535 -0.4411592 0.8551317 -0.272265 
-20.16667 117.6667 525 -0.02199092 -0.3720504 -0.927952 
-33 115 521 0.01584697 0.9485121 -0.3163442 
46 111.25 500 -0.1669868 -0.5636712 -0.8089439 
-17 116.6667 526.8889 0.08981791 -0.7683824 -0.6336572 
-28 114 517 0.2736531 0.8880112 -0.369527 
-23 114.75 523.5 0.3779919 0.5729843 -0.7271941 
-16 115 529 -0.01398388 0.3064565 -0.951782 
40.75 107.75 504 -0.4366035 -0.1026567 -0.8937779 
42.9 104.9 503.4 -0.1470145 -0.3874903 -0.9100758 
17 103 510 -0.2089274 -0.4166663 -0.8847252 
25.11111 102.5556 511.8889 -0.1176573 -0.9036171 -0.4118653 
22 101.5 515 0.1035729 -0.9318197 -0.3478287 
5 98 517 0.2899233 -0.6308333 -0.719718 
10.22222 95.55556 520.5555 0.3985398 -0.4835438 -0.7793275 
12 94 522 0.3847315 -0.2956102 -0.874412 
120 100 613 0.8580993 0.3233078 -0.3989205 
1 83.125 518 -0.1033143 -0.8207615 -0.5618512 
1.222222 81.33334 520.8889 -0.02681329 -0.9433016 -0.3308522 
-8.25 80.5 523.5 0.04904985 -0.7669011 -0.6398881 
120 90 598 0.760857 0.5484436 -0.3468517 
123.5 89.5 605 0.7041962 0.5951181 -0.3872239 
122 88 600 0.7278698 0.5987223 -0.3342711 
134 87 613 -0.1017074 0.8857262 -0.452929 
126.5 86.5 605.5 0.5287887 0.7788005 -0.3374202 
132 85 602 0.05894718 0.9420413 -0.3302778 
130 86.5 609 0.3065527 0.8712451 -0.3833503 
129 85 606 0.2313916 0.9227098 -0.3083253 
121 84 591 0.6586742 0.6653234 -0.3514158 
-202.8 72.6 565.8 -0.1094433 -0.8527703 -0.5106907 
-206.5 72.5 569 -0.645233 -0.7060186 -0.2919113 
-202 70 570 -0.2748019 -0.9107828 -0.3081535 
-205 67 586 -0.5361238 -0.8022649 -0.2625688 
-203 66 584 -0.4812562 -0.8336513 -0.2709573 
-202 64 588 -0.4527815 -0.8482924 -0.2745704 
-200 62.4 590.4 -0.4298508 -0.7730411 -0.4665146 
-89 -17 591 -0.02508154 -0.8155271 -0.5781751 
-92 -18.42857 593.8571 -0.09053858 -0.8580258 -0.5055634 
-86 -21.16667 597.1667 -0.1044356 -0.8448595 -0.5246959 
-94.875 -23.875 602.875 0.0008896916 -0.7983562 -0.6021848 
-95.25 -26.75 606.25 -0.02391676 -0.8279071 -0.5603551 
-104 -27.5 609 -0.09291398 -0.8635606 -0.4956109 
-86.25 -30 612 0.1096454 -0.8865824 -0.4493879 
-77 -31 614.3333 -0.1218782 -0.8489981 -0.5141478 
-79.5 -32 616 -0.08938404 -0.8332604 -0.5456077 
-77.33334 -33.16667 617.8333 -0.09339571 -0.8231906 -0.5600309 
-73 -35 619 -0.01562251 -0.8596737 -0.5106047 
-77 -35.5 621 -0.09619916 -0.8050658 -0.5853331 
-77 -38.5 624.5 -0.04207195 -0.8334986 -0.5509176 
-62 -40 626.3333 0.1276075 -0.8646421 -0.4859118 
-45 -41 619 -0.6094719 0.6366262 -0.4724947 
-52.8 -41.4 627.6 -0.5455394 -0.6247625 -0.5586221 
-55.66667 -41.66667 629.8333 -0.2224484 -0.7915576 -0.5691689 
-52 -44.5 630.5 -0.7762685 -0.2802719 -0.5646724 
34.33333 -74.83334 663.1667 -0.5139323 -0.4350271 -0.739341 
25 -78 668.7143 0.5436618 -0.6821072 -0.4890417 
27.5 -82 674.5 -0.1259572 -0.7995786 -0.5872043 
25 -81 671.8 0.415305 -0.7614976 -0.4976377 
23 -81 668.5 0.8601649 -0.3468705 -0.3738946 
22 -83 667 0.9046977 -0.3150426 -0.286828 
-55 -90 581 -0.7365024 -0.5855734 -0.3386267 
-43 -89 570 -0.29456 -0.6726821 -0.6787733 
-53 -90 578 -0.6303826 -0.6197221 -0.4675064 
-52 -92 581 -0.5929416 -0.7267464 -0.3467851 
-38.5 -92 573 0.3220969 -0.5003239 -0.8036975 
-35 -103 584.3333 -0.003979479 -0.830954 -0.5563269 
-35 -105 586.3333 -0.2089225 -0.8796452 -0.4272888 
-46 -95 578 -0.3811415 -0.7238369 -0.5751446 
-35.5 -92.75 575.75 0.5692831 -0.3372277 -0.7497962 
-59.66667 -81 586.6667 -0.9497441 0.05993867 -0.3072352 
-58 -77.5 583 -0.9391651 0.175707 -0.2951202 
27 -87.5 680 -0.2569222 -0.1110462 -0.9600311 
-85 -82 656 0.2351596 0.962693 0.1338736 
-61 -63 651 -0.9591859 0.2015157 -0.1983781 
-68.2 -59.6 660 -0.07890288 -0.8657469 -0.4942232 
-55 -56 615 -0.8852032 0.4504179 -0.1163579 
-65 -59 657.6667 -0.3020838 -0.839224 -0.4521596 
-62 -59 655 -0.6320473 -0.4380366 -0.6392497 
-64.8 -56.4 654 -0.2478909 -0.7604135 -0.6002677 
-54 -54 615 -0.8549221 0.511041 -0.08913696 
-68.5 -55 653 -0.10818 -0.8801436 -0.4622168 
-65.2 -54.6 651 -0.1889686 -0.8742506 -0.4471877 
-74 -53 649 -0.03364601 -0.8496337 -0.5262989 
-68 -50.5 645 -0.1235769 -0.8454076 -0.5196294 
-59 -50.5 642 -0.4207533 -0.7161533 -0.5568582 
-55 -50 634 -0.9573368 0.07907547 -0.2779446 
-62 -49 641 -0.1353952 -0.8543605 -0.5017332 
-59 -48.5 639 -0.2713071 -0.8148117 -0.5123225 
-55.75 -47.75 636.25 -0.7273186 -0.4550615 -0.513738 
-54 -47.5 633.5 -0.8276623 -0.2216327 -0.5156105 
-101 8.5 550.5 0.006875923 -0.8019803 -0.597311 
-104 10 548 -0.1596345 -0.8171969 -0.5538105 
-101.5 11 547 -0.05953085 -0.8934669 -0.4451664 
-98 11.125 545.375 -0.04878896 -0.9103676 -0.4109142 
-95 12.5 542.3333 0.02586174 -0.8644586 -0.5020385 
-103.75 14.75 541.5 -0.6849 -0.4832821 -0.5452985 
-105 17 546 -0.9587328 -0.04584093 -0.280589 
-179 26 648 -0.1648858 -0.8757644 -0.4537064 
-191 29 656 -0.517211 -0.8443789 -0.1397042 
-182 28 645.5 -0.2583331 -0.8467326 -0.4650893 
-194 30 660 -0.5018873 -0.8374515 -0.2162967 
-188 31 643 -0.2831412 -0.8911583 -0.3544969 
-171 32 638 -0.10218 -0.7912769 -0.6028601 
-47 28 515.5 0.0005530373 -0.8736974 -0.4864695 
-49.75 29 514 0.009198355 -0.8226324 -0.5684991 
-47.125 30.5 512 0.007830423 -0.8988172 -0.4382537 
-151.5 37 625 -0.09724972 -0.8610829 -0.4990779 
-144 38 623 -0.3575846 -0.6614965 -0.6592084 
-56 31 510 -0.1396224 -0.8527109 -0.5033783 
-146.2 39.4 621.4 -0.1800094 -0.781094 -0.5979036 
-152 42.5 618.5 0.007835698 -0.8273342 -0.5616553 
-214 52 613 -0.5385247 -0.8105517 -0.230211 
-85 43 492 -0.7493129 -0.3586785 -0.5566688 
-214 54 608 -0.5509325 -0.7673205 -0.3281656 
-205.6667 54.5 600.6667 -0.09861413 -0.7386488 -0.6668382 
-200.1429 56.57143 597 -0.1663548 -0.8510218 -0.4980843 
-190.8571 56.42857 593.7143 -0.03207323 -0.8379986 -0.5447291 
-193.5 58 592 -0.1493596 -0.7951581 -0.5877204 
-191 59.57143 589.5714 -0.01284032 -0.8703352 -0.4922925 
50 140 518 0.01120125 -0.9712679 0.2377249 
45 127 499 -0.3742268 0.1654041 -0.9124668 
43.33333 125.3333 497.6667 -0.5124199 0.5947382 -0.6194451 
42.83333 122.8333 494.1667 -0.442771 0.7993428 -0.4062082 
39.75 122.5 497 -0.4323518 0.7989474 -0.4180371 
-16 127 532 -0.5862623 0.7475067 -0.3122981 
48 116 493 -0.2268567 -0.9165593 -0.3293252 
-21 124 533 -0.5757818 0.7664378 -0.2846902 
52.14286 113 493.7143 -0.3023729 -0.8254687 -0.4766258 
54.84615 111.0769 494.4615 -0.0173111 -0.3345175 -0.9422305 
51.8 111.3 497.3 -0.4670863 -0.6754358 -0.5706286 
-26 116 522 0.2492476 0.8032344 -0.5410084 
57.5 109 495 -0.04399099 -0.5402721 -0.8403397 
61 108 497 0.0784066 -0.3961666 -0.9148248 
-11.125 114.25 527.125 -0.2843326 0.3289364 -0.9005309 
58 106 498 -0.2327539 -0.7518978 -0.6168268 
52.125 108.25 500.375 -0.2178743 -0.428606 -0.8768282 
-11 111.6667 523.3333 -0.3525563 0.8568732 -0.3761283 
-14.33333 112 526.6667 -0.02772354 0.6840644 -0.7288947 
-20.25 111.25 521 0.5948738 0.692194 -0.4086473 
55.1 105.4 500.2 -0.2978407 -0.7995663 -0.5215216 
-14 107.6667 518.3333 -0.206154 0.8661228 -0.4553371 
51.83333 104.1667 502.8333 -0.07948982 -0.8995269 -0.4295728 
48 104 505 -0.03726946 -0.9071994 -0.4190469 
30.5 102.6667 509.6667 -0.1268485 -0.8184675 -0.5603753 
34.25 101.75 512.25 -0.1294406 -0.9478518 -0.2912425 
37 101 514 -0.05533432 -0.9207205 -0.3862797 
34 100 516 -0.2729668 -0.7983869 -0.5367193 
2 93.5 517 0.6084083 0.2161377 -0.7636255 
7.75 90.25 520 0.5825809 0.211702 -0.7847177 
4.666667 90.5 517 0.5040466 0.3140013 -0.8045745 
7 87 517.875 0.5713022 0.2134921 -0.7924865 
13.66667 87.16666 523 0.5518919 0.2211791 -0.8040493 
134 98 610 0.5050988 -0.1340979 -0.8525802 
12.75 84 521 0.6212381 0.1834338 -0.7618499 
9.5 83.75 518.75 0.5483059 -0.2916875 -0.7837597 
10.125 81.125 520.875 0.1559289 -0.7607746 -0.6300066 
7.25 80.5 523.5 -0.03744988 -0.8644696 -0.5012882 
123.5 84.5 596 0.5759315 0.7727843 -0.2666593 
127 84 600.5 0.4111907 0.8421261 -0.3489211 
128 82 597 0.1742245 0.9472892 -0.2688662 
-206 69 581 -0.5252118 -0.8192216 -0.2302795 
-203.3333 68.33334 577.6667 -0.5073027 -0.8352103 -0.2122914 
-84 53 491 -0.9499302 0.2305454 -0.2109064 
-83 52 487 -0.9404609 0.2204679 -0.2587028 
-97 -19 596 0.04759688 -0.7966201 -0.6026036 
-100.8571 -18.28572 594.2857 -0.05513192 -0.8441563 -0.5332547 
-95 -20.5 597.3333 -0.03640833 -0.8272846 -0.5606021 
-98 -22 600 0.04736256 -0.8588851 -0.5099738 
-102 -23 601 -0.004771072 -0.8554634 -0.5178412 
-86 -24 602.3333 -0.1041906 -0.8057747 -0.582985 
-82.75 -26 604 0.08660295 -0.7780776 -0.6221698 
-86 -27 606 -0.009384049 -0.8900563 -0.455754 
-89 -28 608 -0.03408575 -0.879228 -0.4751804 
-95 -29.4 611.6 -0.0786334 -0.8771332 -0.4737661 
-65 -32.5 615.1667 0.090787 -0.8648205 -0.4938049 
-68 -34 618 -0.002704464 -0.8890529 -0.4577966 
-59 -35 619 -0.1237697 -0.8726981 -0.4723127 
-68 -35.5 621 1.892069e-05 -0.8487784 -0.5287488 
-65 -37 623 -0.004312024 -0.7482281 -0.6634275 
-68 -39 625 -0.019229 -0.7116765 -0.7022442 
-71 -40 626 -0.06041285 -0.7738516 -0.6304792 
-47.66667 -41.33333 623.3333 -0.760179 0.2796368 -0.5864566 
-49 -43 621 -0.7575802 0.5779486 -0.3033938 
-50 -44 624 -0.8668877 0.4045157 -0.2913295 
-77 -46 638 -0.01976522 -0.8349745 -0.5499336 
-56 -65 589 -0.920715 0.3372759 -0.1962875 
24.5 -74 664 0.4422793 -0.7242332 -0.5290326 
-57 -68 594 -0.9441391 0.3114963 -0.1075709 
31.25 -77.25 666.75 -0.498159 -0.5246885 -0.6903186 
32 -83.5 672 -0.8379494 -0.4028355 -0.368191 
25.2 -84.6 677.4 0.3947445 -0.6887788 -0.6080794 
-47 -90.33334 574.6667 -0.359007 -0.7131077 -0.6021557 
-41 -100 583 -0.423 -0.7734281 -0.4721015 
-38.5 -100 580.5 -0.3363201 -0.7619768 -0.5534258 
-35.66667 -99.33334 579 0.04751244 -0.592412 -0.804233 
-38.33333 -96.66666 577.5 -0.07424502 -0.5745305 -0.8151088 
23 -88 677 0.8895835 -0.006175265 -0.4567309 
-60 -64 640 -0.9540532 0.2565798 -0.1547559 
-57 -58 629 -0.9200025 0.3737189 -0.1180244 
-77 -59.4 660.2 0.01021403 -0.881166 -0.4726968 
-71.5 -58 657 -0.04737047 -0.8050231 -0.5913492 
-59 -56.5 645 -0.9731209 0.02692492 -0.2287159 
-80 -56 655 -0.03812553 -0.8035623 -0.5939984 
-77 -55 653 -0.006229839 -0.8982381 -0.439465 
-60 -55 648 -0.8764971 -0.283006 -0.3894361 
-80 -53.5 650.5 -0.08298911 -0.8750822 -0.476806 
-80 -52 648 -0.1207801 -0.752763 -0.6471167 
-51 -49 616 -0.8435698 0.5307746 -0.0816603 
-77 -50 645.6667 -0.0508416 -0.8122934 -0.581029 
-80 -49 644 -0.04590792 -0.8752282 -0.481527 
-71 -48.5 642 -0.1233593 -0.865234 -0.4859555 
-74 -47 640 -0.05564319 -0.8924456 -0.4477104 
141 0 662 0.1655459 -0.9751324 -0.1473479 
-110.3333 2.5 562.6667 -0.3602519 -0.7591981 -0.5420673 
-107.2 3.4 560 -0.1231851 -0.8688693 -0.4794701 
-110.6667 5.5 560 -0.6466988 -0.479728 -0.5929939 
-92 8 551 -9.643484e-05 -0.798946 -0.6014028 
-89.2 9.6 548.4 0.03850088 -0.8293559 -0.5573926 
-91.75 11 547 -0.0071489 -0.8093578 -0.5872724 
-83 12 545.1429 0.01525158 -0.9203229 -0.3908622 
-85.75 13 542 0.03139978 -0.8931655 -0.4486306 
-179.3333 23.33333 653.3333 -0.3089716 -0.8895272 -0.3365681 
-185 24 660 -0.5240108 -0.8340688 -0.1724587 
-181.5 25 651 -0.3170752 -0.8649361 -0.3890358 
-185 26.5 651.5 -0.4318211 -0.8323111 -0.3475468 
-131.3333 29.66667 611.8333 -0.5944958 -0.3921559 -0.7019889 
-191 31 647 -0.4046872 -0.8742994 -0.2680089 
-149 32.33333 632.3333 -0.5454371 -0.4304688 -0.7191628 
-146.6 32.8 629.8 -0.533089 -0.5728141 -0.6226557 
-143.6 32.8 626.8 -0.7021 -0.3479397 -0.6212839 
-140.4 33.2 623.6 -0.6306164 -0.2168916 -0.7451719 
-138 33 620 -0.7261453 -0.09484101 -0.6809687 
-135 33.5 617 -0.7750789 0.04182655 -0.6304786 
-146.4 35.2 626.6 -0.3954802 -0.7413265 -0.5422458 
-35 29 514.6 -0.1341068 -0.8653468 -0.4828978 
-139.875 36.125 621 -0.6728413 -0.379955 -0.6347589 
-133.5 35.75 615.25 -0.7789291 -0.0008564871 -0.6271115 
-37.875 30.5 512 0.01654704 -0.8941979 -0.447366 
-41.25 31 509.5 -0.02425978 -0.8506624 -0.5251525 
-139.75 39.75 618.75 -0.2385229 -0.7031731 -0.6698167 
-138 41 617 -0.3291407 -0.6149712 -0.716573 
-139.75 42.5 615.75 -0.1312716 -0.7254311 -0.6756608 
-143 44 614.6667 -0.09883472 -0.8008454 -0.5906591 
-209 49 613 -0.3970551 -0.8851326 -0.2426678 
-203 50 609 0.03255758 -0.8410879 -0.5399178 
-210 53 606 -0.4509472 -0.8363798 -0.3116336 
-208 52 604 -0.320062 -0.8788415 -0.3538332 
-212.25 54.5 603 -0.5547178 -0.679997 -0.4794709 
-184 56 596 0.07728792 -0.8923239 -0.44473 
-182 56.25 593.75 -0.08448628 -0.9118547 -0.4017251 
-179 57.5 591.5 0.04854663 -0.8288963 -0.5572917 
-82.8 48 484.8 -0.8353992 -0.1990511 -0.5123346 
-181.75 59 589.5 -0.0624623 -0.8825251 -0.4660987 
62 137 519 0.7154339 0.5963923 -0.3639652 
49 125 493.75 0.06578027 0.8006384 -0.595526 
46 126.2857 497.1429 -0.3506524 0.6606766 -0.663739 
45.5 124 493.5 -0.3590535 0.8365336 -0.4138746 
43 126.5 500 -0.5990391 -0.1629804 -0.7839577 
60.66667 126.5 505.6667 0.470415 0.6016816 -0.6455145 
39.66667 126.4444 502.3333 -0.5955521 0.1540296 -0.7884114 
39.75 123.75 499.5 -0.4426509 0.7441642 -0.5002798 
36.63636 116.6364 490.2727 -0.2359597 -0.7761058 -0.584793 
58.625 114.125 496.875 0.5190759 0.09829316 -0.8490575 
-25.5 119 527.5 -0.3882668 0.7636233 -0.5158763 
61 111.1667 496.6667 0.2551274 0.1398298 -0.9567432 
57.63636 110.6364 494.9091 0.251199 -0.2996746 -0.9203772 
-25.6 116.4 524 0.2075144 0.8337972 -0.511586 
-29.25 116 522 0.03830091 0.8679613 -0.4951527 
51.85714 110.4286 499 -0.3619745 -0.5642235 -0.742042 
-19.85714 114.4286 526.5714 0.5905798 0.2811088 -0.7564346 
-10.5 110.5 520.5 -0.3071579 0.8642674 -0.3983666 
-17 112 526 0.3299702 0.7275488 -0.6014919 
-19.33333 111.6667 523.6667 0.5428112 0.6872424 -0.4827566 
-19 109 520 0.5167519 0.7569224 -0.4000448 
57.81818 105.1818 500 -0.2327374 -0.8273725 -0.5111635 
61.25 104 502 -0.05233197 -0.9308462 -0.3616444 
-17 107.3333 518 0.1752892 0.8847606 -0.4318247 
39.75 104.25 505.5 -0.1044915 -0.8341095 -0.5416114 
37 103 507 -0.02683497 -0.8497853 -0.5264456 
34.125 102.5 509.125 -0.1791298 -0.9190723 -0.3510251 
31.16667 102.3333 511.6667 -0.06281895 -0.9525928 -0.2976923 
27.85714 101.4286 514.8571 0.003456911 -0.9661341 -0.2580175 
10 90 521 0.577344 0.2457509 -0.7786401 
9 87 518.6667 0.5318935 0.2015945 -0.8224651 
12.625 86.75 521.625 0.6666943 0.1817075 -0.7228424 
117 96 601 0.7746503 0.5541972 -0.3046021 
14 84.5 523 0.513109 0.1799081 -0.8392569 
7.071429 83.85714 517.7143 0.3810588 -0.1579035 -0.910967 
4 82 518 0.03512111 -0.8107799 -0.5842966 
7.25 81.5 520.875 0.07236326 -0.8701211 -0.4874966 
9.75 80.25 523.75 0.01262916 -0.8651338 -0.5013821 
125 83 594 0.5423034 0.7461876 -0.3861491 
129.5 82 596.5 0.1742245 0.9472892 -0.2688662 
127 82 595 0.2409421 0.9023541 -0.357357 
124.25 81 590.25 0.4577741 0.7991723 -0.389572 
-206 68 584.5 -0.5034321 -0.8226953 -0.2640617 
-95 -17 592 -0.0450051 -0.847535 -0.528828 
-98.2 -18.4 594.4 0.04615302 -0.8494118 -0.5257086 
-104 -20 597.3333 -0.1626833 -0.7918246 -0.5886833 
-101 -22 599.3333 -0.04850763 -0.8406641 -0.5393802 
-89 -23.5 602.5 -0.11316 -0.780872 -0.6143564 
-89 -26.5 605.5 -0.1006318 -0.8061594 -0.5830783 
-86 -28 608 -0.005401523 -0.8796402 -0.4756092 
-100 -29 610 -0.05104588 -0.8453871 -0.5317096 
-103.8571 -29.57143 612.1429 -0.08474953 -0.8452327 -0.5276357 
-60 -31 614 -0.1367277 -0.7967162 -0.5886841 
-62 -32 615.3333 0.007422542 -0.8048584 -0.5934206 
-59.25 -33.75 617.25 -0.1412694 -0.8224219 -0.5510583 
-59 -36 621 -0.04809514 -0.9066649 -0.4191011 
-62 -37 623 -0.008939113 -0.7617949 -0.6477566 
-79.66666 -39.33333 627 -0.08771058 -0.9120579 -0.4005712 
-48 -44 618 -0.666989 0.5961929 -0.4468555 
-75 -46 638 -0.04093647 -0.8353541 -0.5481859 
36 -77 662 -0.8530033 0.3577537 -0.3799969 
33.5 -78 665.5 -0.6828687 -0.2859903 -0.6722351 
30.8 -78.6 668.4 -0.6087624 -0.516809 -0.6019276 
30.33333 -81.66666 671.3333 -0.6596764 -0.5450234 -0.5174713 
33 -82 664 -0.881383 0.45263 -0.1352413 
-41 -98.83334 581 -0.4297811 -0.7393541 -0.5183086 
-44.66667 -96.66666 580.3333 -0.4142198 -0.7755429 -0.4763982 
-41 -95.83334 577.5 -0.233912 -0.6893275 -0.6856477 
29 -87 663 -0.7620214 0.6463572 -0.03931777 
31 -86 667 -0.808602 0.5883078 0.007537488 
32 -84 662 -0.8302904 0.5556073 -0.04380035 
-61 -64 646 -0.965787 0.2319022 -0.1160903 
-60 -61 645 -0.9526064 0.2399997 -0.186926 
-74 -59.5 660 -0.08885896 -0.8710889 -0.4830199 
-58 -57 641 -0.9419499 0.257388 -0.2155965 
-80 -58 657 -0.002509824 -0.8175853 -0.575802 
-71 -56 655 -0.04289168 -0.7726866 -0.633337 
-74.5 -55 653 -0.003348258 -0.8996238 -0.4366532 
-71 -54 651 -0.01586612 -0.9023877 -0.4306331 
-56 -53 635 -0.9582888 0.2492958 -0.1397646 
-68 -53 648.5 -0.07152781 -0.8647867 -0.4970188 
-52 -50 619 -0.8440327 0.5203741 -0.129691 
-72 -52 647 -0.06195745 -0.8314815 -0.5520868 
-73.5 -50 645 -0.1085736 -0.8035011 -0.5853185 
-79.5 -48 642 -0.03193717 -0.8895422 -0.4557355 
-51 -47 623 -0.9093533 0.3959135 -0.1277859 
-49 -46 614 -0.795908 0.5897312 -0.1369216 
-77 -47 640 0.003775362 -0.9017056 -0.4323341 
138 -1 664 0.1582302 -0.9793184 -0.1260904 
-110 1 564 -0.2741165 -0.7470703 -0.6055958 
-106 4 558 -0.1687538 -0.8013793 -0.5738584 
-109.3333 6 557.3333 -0.4828559 -0.6864507 -0.5437239 
-106.8 6.6 554 -0.442555 -0.7188795 -0.5360573 
-83 8.428572 551.5714 -0.00741176 -0.8066329 -0.5910063 
-86 10 548.5 0.05458314 -0.8469066 -0.5289328 
-83.25 11 547 0.02009405 -0.8844794 -0.4661463 
-92 12 545 0.08508549 -0.9240526 -0.3726759 
-89 13 542 0.01366535 -0.9067389 -0.4214711 
-179 21 660 -0.3770275 -0.8890497 -0.259694 
-183 23 659 -0.4464872 -0.8814616 -0.1538658 
-188 27 656 -0.5485266 -0.8138669 -0.1916752 
-103 27 549 -0.9473653 0.2531143 -0.1960413 
-148.75 33.75 630.25 -0.4705615 -0.6675388 -0.5770302 
-136 33 618 -0.7330676 0.00670482 -0.6801228 
-41.2 28 515.4 0.08538891 -0.8680776 -0.4890298 
-152 35 630 -0.1805708 -0.8385835 -0.5139765 
-149 35.83333 627.1667 -0.2594323 -0.8560885 -0.4469981 
-44 29 514 0.01688863 -0.8135611 -0.5812342 
-41.14286 30.57143 511.4286 0.005865891 -0.9056697 -0.4239434 
-140.25 38.25 620.25 -0.4096085 -0.5187744 -0.7503959 
-133.5 39.25 614.75 -0.737138 -0.2095387 -0.6424338 
-37.75 31 510 0.002681937 -0.9295183 -0.3687662 
-152 44.5 615 0.03481324 -0.8645302 -0.5013738 
-206.25 48.25 612.25 -0.223885 -0.8995167 -0.3751604 
-203 49 610 0.0236201 -0.8026854 -0.5959347 
-209 50 611 -0.3590526 -0.836852 -0.4132312 
-203 51.5 606 0.0158872 -0.9210389 -0.3891465 
-212 52 610 -0.4906013 -0.8057761 -0.3317158 
-206 52 604 -0.07168621 -0.9209846 -0.3829473 
-202.75 53 602.25 0.02112122 -0.803377 -0.5950961 
-83.66666 44 490.3333 -0.55339 -0.6182697 -0.5581238 
-185.125 56.375 593.875 0.01729815 -0.8673361 -0.4974223 
-182.3333 56 596 -0.007426091 -0.9162754 -0.4004799 
-84 47.33333 488.3333 -0.9648974 -0.07092369 -0.2528694 
-188 58 592 -0.01049817 -0.7987097 -0.6016251 
-185.2 59.4 589.6 -0.0959703 -0.8568786 -0.5065066 
-83 50.5 485 -0.8775434 -0.02470712 -0.4788603 
42.5 124 496.5 -0.4558614 0.7893335 -0.4112702 
40 122 495 -0.4265691 0.7914236 -0.4378213 
32 116 492 -0.2530649 0.6346978 -0.7301485 
-17.5 125.5 530.5 -0.6058876 0.7350925 -0.3042027 
46 116 493.6667 0.05768644 -0.9535365 -0.2957034 
-19 124 529 -0.5577404 0.7624902 -0.3279242 
55.33333 113.6667 493.7778 0.4001987 -0.3169254 -0.8598832 
52.5 112 495 -0.4636614 -0.6438724 -0.6086432 
51 113 497 -0.536527 -0.7339659 -0.4164527 
-31 116 523 -0.009065911 0.9385511 -0.3450212 
54.2 110.2 496.6 -0.4202548 -0.6985732 -0.5791212 
39.5 110 505 -0.2385733 -0.6017613 -0.7622113 
58.14286 107.7143 496.5714 0.05174706 -0.4887259 -0.8709015 
-10 113 525 -0.4479749 0.606946 -0.6564565 
54.77778 107.4444 499.2222 -0.3505037 -0.6104566 -0.7102746 
-12 112 526 -0.3404835 0.7102593 -0.616119 
-14.33333 114.2667 527.8666 -0.1913178 0.03532414 -0.9808924 
61 106 498 0.01993433 -0.6870689 -0.7263188 
-20.5 110 518 0.5939376 0.7351829 -0.3267172 
-11.5 109 518.5 -0.3783252 0.8313147 -0.4071682 
-14.2 110.8 524.4 -0.1503721 0.8851766 -0.4402847 
-18 110 522 0.2543798 0.8446947 -0.4709372 
52.36364 105.3636 500.5454 -0.2273801 -0.5303728 -0.8167025 
-14.33333 109 521 -0.169943 0.8722306 -0.458621 
54.875 104 503.5 0.08139879 -0.8998889 -0.4284556 
46.25 104 505 -0.04915797 -0.8633059 -0.5022813 
28.25 102.75 510 -0.05853632 -0.848175 -0.5264718 
36.75 101.5 512.25 -0.04602929 -0.9557304 -0.2906212 
33.66667 101.3333 515 -0.2365254 -0.912711 -0.3331882 
36.8 99.8 515.2 -0.04985028 -0.8934329 -0.4464221 
2 95.5 517 0.5952824 -0.1965422 -0.7791085 
6.625 89.875 518.125 0.5900788 0.2330334 -0.7729828 
13.09091 90.09091 523.2727 0.5336366 0.1785433 -0.8266525 
11 84 520 0.5618211 -0.05195775 -0.8256255 
13 81.5 521.5 0.4799541 -0.2757581 -0.8328274 
4 80.5 523.5 -0.006440954 -0.8725957 -0.4884008 
123.5 92.5 610 0.7181535 0.6153418 -0.324977 
125 85 600 0.5838379 0.7330321 -0.3489947 
131 83 595 0.01950312 0.9681836 -0.24948 
127 83 598 0.439355 0.8540095 -0.2786306 
129 81 589 -0.07055447 0.9250476 -0.3732414 
-206 70 578 -0.5240839 -0.8278468 -0.2000145 
-82 55 489 -0.936689 0.2623292 -0.231942 
-100.5 -17 592 -0.1173815 -0.8351341 -0.5373757 
-104 -17.5 594 -0.1287117 -0.824428 -0.551137 
-95.5 -19 596 -0.06369571 -0.8178648 -0.5718741 
-98 -20.5 597.3333 0.07020856 -0.8169523 -0.5724157 
-95.25 -22 600 0.0106167 -0.8551335 -0.5182992 
-83 -24 602.3333 0.07769326 -0.790206 -0.6078967 
-86 -26 604 -0.05593382 -0.7620155 -0.6451387 
-83 -27 606.3333 0.06665084 -0.897188 -0.4365905 
-92 -28 608.6667 -0.04564557 -0.8636084 -0.5020927 
-98 -29.5 612 0.03454656 -0.8865291 -0.4613813 
-68 -32.5 615 -0.03969699 -0.8669003 -0.4968983 
-65 -34 618.3333 0.03358477 -0.8712932 -0.4896122 
-65 -35.5 621 0.005682844 -0.8481413 -0.5297398 
-68 -37 623 -0.01598321 -0.7455911 -0.6662121 
-65 -39 624.6667 0.02128214 -0.7261664 -0.6871896 
-74 -40 627 -0.1000115 -0.8699587 -0.4828763 
-47.5 -41.5 621 -0.7089647 0.5450479 -0.4475398 
-49.5 -42 624.3333 -0.835319 0.3535681 -0.4209892 
-50 -44 622 -0.8390318 0.4786388 -0.2587097 
-80 -46 638 0.01463456 -0.7857598 -0.6183586 
-56 -65 594 -0.9165635 0.3792917 -0.1266851 
25 -73 662.3333 0.3288172 -0.7980616 -0.5049523 
25.25 -75.75 665.5 0.6069487 -0.5930872 -0.5290188 
-57 -68 590 -0.9681596 0.1955757 -0.1562602 
-94 -80 659 0.2324197 0.9693668 0.07942992 
24 -83 675 0.4805005 -0.6743183 -0.5607265 
-46.25 -89.25 572.5 -0.4335294 -0.6577291 -0.6159908 
-49.85714 -89.85714 575 -0.4131274 -0.6513647 -0.6364352 
-47 -92 576 -0.3229865 -0.6828592 -0.6552733 
-45 -94 577 -0.287184 -0.6952808 -0.6588703 
-37.75 -99.25 579 -0.1644287 -0.6800948 -0.7144468 
-34.25 -99.25 580 0.3775848 -0.4516715 -0.8083456 
-44.25 -99 583.75 -0.4020327 -0.7814931 -0.4771146 
-34.88889 -96.11111 577.7778 0.3947561 -0.4418849 -0.8055466 
24.25 -86.75 678.75 0.7262685 -0.2173143 -0.6521568 
23 -86.5 675.5 0.908207 -0.2378697 -0.3443516 
30 -86 673 -0.9366826 0.04489836 -0.3472893 
31.5 -84 669.5 -0.979861 0.1513321 -0.1302728 
-59 -61 638 -0.9438038 0.2890748 -0.1602188 
-80 -59.25 659.5 0.01163614 -0.8773203 -0.4797641 
-74 -58 657 -0.03678884 -0.8131154 -0.5809389 
-77.5 -56 655 0.02943498 -0.8370137 -0.5463896 
-60 -56 649 -0.8501074 -0.30046 -0.4324825 
-80.5 -55 653 -0.04486204 -0.8650489 -0.4996779 
-77.2 -54 651 -0.02969575 -0.8953705 -0.4443309 
-59.33333 -54 645.6667 -0.6904262 -0.533569 -0.4884831 
-55 -53 631 -0.8673237 0.4325357 -0.2462977 
-62 -54 648 -0.3534729 -0.7766902 -0.5213533 
-54 -52 624 -0.8737556 0.4724929 -0.1153326 
-77 -51.66667 647.6667 -0.02653138 -0.7347813 -0.6777851 
-80 -50 646 -0.07588217 -0.8111824 -0.5798492 
-52 -49 622 -0.8917072 0.4290869 -0.1440237 
-76.5 -49 644 -0.02190501 -0.8614746 -0.507328 
-50 -47 618 -0.8565637 0.4783005 -0.1937197 
-74 -48 642 -0.07676107 -0.8788106 -0.470956 
-71 -47 639.6667 -0.08489873 -0.8566067 -0.5089374 
-107 2 562 -0.06651218 -0.8557475 -0.5131009 
-109.5 3.5 560.25 -0.3661836 -0.762583 -0.5332699 
-88.66666 8.333333 551 0.09543103 -0.8331679 -0.5447238 
-92.14286 9.571428 548.4286 -0.02573123 -0.8113281 -0.5840246 
-89 11 547 0.01882354 -0.8339978 -0.5514466 
-86.14286 12 544.8571 -0.00277573 -0.9087597 -0.4173108 
-83 13 542 0.03771195 -0.8999585 -0.4343415 
-182.5 24 654.5 -0.3740574 -0.8841971 -0.2797797 
-178.75 24.5 650.75 -0.1823081 -0.8738291 -0.4507621 
-186 25 657 -0.5562746 -0.8102409 -0.184576 
-186 26 654 -0.5449873 -0.8168581 -0.1890288 
-188 28 652 -0.4815706 -0.8451608 -0.2319331 
-130.3333 27.66667 612.6667 -0.3393921 -0.6147967 -0.7119256 
-152 33 633 -0.314078 -0.6719409 -0.6707089 
-130 31 610 -0.7615871 -0.218353 -0.6101698 
-139 33 622 -0.7647625 -0.2085267 -0.6096351 
-133.5 32.75 615 -0.792407 0.1114396 -0.599727 
-145.3333 34 627.3333 -0.557128 -0.5652988 -0.6083139 
-38.14286 29 515.2857 -0.008453291 -0.8733692 -0.4869854 
-34.33333 28 515 -0.1572882 -0.8537762 -0.496313 
-141 35 623 -0.570788 -0.4561057 -0.6827654 
-138 35.5 620 -0.6866908 -0.261905 -0.6781309 
-135 36.5 617 -0.7114645 -0.07269288 -0.6989521 
-35 30.5 512 -0.08061838 -0.9045365 -0.4187056 
-132 37 614 -0.7972726 0.04554031 -0.6018991 
-136.875 39.125 618 -0.4319951 -0.4363224 -0.7893054 
-44 31 510 -0.01734415 -0.8569105 -0.5151734 
-140.25 41.25 617.25 -0.1921433 -0.6956106 -0.6922477 
-137 42.14286 615.4286 -0.2037282 -0.6826545 -0.7017676 
-146 44 615 -0.110306 -0.8428952 -0.5266502 
-205.3333 50 608.3333 -0.1181112 -0.8593056 -0.497638 
-208.6667 51.66667 606 -0.333096 -0.8709542 -0.3612281 
-211.5 53.5 605.5 -0.4269621 -0.8561198 -0.2911398 
-209 53.6 602.6 -0.3123051 -0.8559543 -0.4120774 
-82.25 45.75 485.25 -0.6688158 -0.5371721 -0.5139372 
-178.8571 56.14286 594.2857 -0.02174702 -0.9139055 -0.405344 
-182.2 57.6 591.4 -0.05822461 -0.8105263 -0.5828011 
-178.75 59.25 589.75 0.06815014 -0.8712813 -0.4860293 
49.25 127 496 -0.06732678 0.8274316 -0.557516 
46.5 125 494.5 -0.3468398 0.828989 -0.4387248 
62 127 508 0.4887837 0.6646289 -0.5651186 
59 126.3333 505 0.5386272 0.4239863 -0.7280909 
40.75 125.75 501 -0.6032252 0.2583337 -0.7545748 
40 121 494 -0.4283346 0.8072808 -0.405989 
37.66667 116.3333 489 -0.3133163 -0.4806931 -0.8190038 
34 116.3333 491.3333 -0.2141982 -0.4663634 -0.8582683 
-20 126 536 -0.5622698 0.7812662 -0.2710642 
61 114 497.8889 0.1202507 0.08533232 -0.9890693 
57.2 113.8 495 0.5523546 0.05104367 -0.8320451 
-22.75 119.5 526.5 -0.4576097 0.5283726 -0.7151334 
-26.5 117.5 526.5 -0.2984059 0.8548316 -0.4245195 
58.8 111.2 496 0.4735383 0.02070503 -0.8805299 
-32 116 522 -0.009238738 0.9390043 -0.3437814 
-22.9 116.9 525 0.001637579 0.6738682 -0.7388499 
-16 116 529 -0.03271005 -0.714595 -0.6987733 
55.5 108.3 497.1 -0.3959506 -0.6511366 -0.6474907 
-20.25 113.5 524.5 0.6450098 0.4663022 -0.6054127 
-17.11111 114.1111 527.6667 0.3047555 0.4532432 -0.8376722 
39.66667 108.3333 505 -0.4091697 -0.09471957 -0.9075287 
-13 110 521 -0.2735361 0.8561574 -0.4383748 
-17 110.5 524 0.167307 0.8672303 -0.4689563 
60.81818 104.9091 499.5454 -0.03857486 -0.8706301 -0.4904234 
-16.5 109 520.5 -0.03043783 0.8692003 -0.4935223 
-19 108.5 517.5 0.4880545 0.8033965 -0.3411113 
57.83333 104 503 -0.1555448 -0.9155101 -0.3710083 
42.75 104 505 -0.06957672 -0.8497842 -0.5225188 
34.5 103 507 -0.1925619 -0.7695033 -0.6089208 
37 102.5 508.5 -0.1044186 -0.8405914 -0.5315099 
27.83333 102.1667 511.6667 -0.07943325 -0.9162082 -0.3927506 
31.14286 101.5714 514.8571 0.02351415 -0.9378032 -0.3463701 
28 100 516 -0.002313327 -0.8627703 -0.5055908 
12 89 522 0.5931653 0.1704408 -0.7868323 
10.5 87 520.1667 0.5949425 0.2208619 -0.7728282 
4.25 83.25 517 0.07629775 -0.7003381 -0.7097219 
6.5 82 518 0.1828086 -0.8147299 -0.5502692 
4 81.5 521 0.0266057 -0.9669737 -0.2534839 
13.125 80.5 523.625 0.1615198 -0.8464579 -0.5073661 
122 91 605 0.7194805 0.5819529 -0.3790497 
123.5 86.5 600.5 0.6488759 0.6675637 -0.3651286 
127.25 80 590.25 0.1330476 0.9220265 -0.3635459 
-98 -17 592 -0.01912968 -0.8513553 -0.5242406 
-95.25 -18.25 594.25 -0.0587721 -0.8635638 -0.5008028 
-104 -19 596.3333 -0.1356326 -0.8127897 -0.5665482 
-101 -20.5 597 -0.1051639 -0.7981629 -0.5931918 
-104 -21.5 599.6667 -0.1562238 -0.7987893 -0.5809732 
-92 -23.5 602.5 -0.01463638 -0.7903178 -0.6125222 
-92 -26.5 606 -0.06092806 -0.8194313 -0.56993 
-83 -28 608 0.07646773 -0.9049965 -0.4184902 
-100.8 -29.6 611.8 0.003902132 -0.877546 -0.4794767 
-62 -31 614 0.06099323 -0.8138266 -0.577898 
-58.8 -32.4 615.2 -0.1621932 -0.7833455 -0.6000527 
-62 -33.5 617.6667 -0.04173747 -0.8567879 -0.5139772 
-62.2 -35.6 621 -0.05741328 -0.8457135 -0.5305398 
-59 -37 623 -0.02021176 -0.7935391 -0.6081836 
-62 -38.75 624.75 0.08903603 -0.7630621 -0.6401632 
-77.33334 -39.66667 627 -0.1112036 -0.8960914 -0.4297138 
-80.5 -40 629 -0.104167 -0.8943536 -0.4350641 
-46.5 -42.5 618 -0.6456422 0.6666341 -0.372485 
28 -77.5 669.1667 -0.05810764 -0.7957162 -0.6028757 
35 -78.5 663 -0.9274228 0.2735848 -0.2550261 
33.33333 -80.33334 665.6667 -0.8509558 -0.02169057 -0.5247893 
31.66667 -81 669.3333 -0.7962958 -0.3663573 -0.4813475 
28.14286 -80.71429 672 -0.2983501 -0.7611064 -0.5759378 
25.5 -82 674.5 0.2999406 -0.8323822 -0.4660209 
-57 -73 589 -0.9595919 0.2484723 -0.1320793 
32 -83 667 -0.9476309 0.2496553 -0.1991681 
-52 -89 576 -0.5793458 -0.6019908 -0.5495138 
-34.33333 -93.66666 577.3333 0.5167553 -0.3400023 -0.785724 
-43 -98 581 -0.4049489 -0.778144 -0.4801128 
-40 -98 579 -0.3184704 -0.6981609 -0.6412083 
-43.8 -95.8 578.2 -0.2574387 -0.7275581 -0.6359124 
-58 -76 585 -0.9535463 0.2844056 -0.09931143 
30 -86 664 -0.808602 0.5883078 0.007537488 
25.66667 -86.66666 680 -0.2074673 -0.5072397 -0.83646 
-60 -59.5 648.5 -0.9695385 0.02448861 -0.2437118 
-71 -59.5 659.6667 -0.02669403 -0.8699182 -0.4924732 
-76.75 -57.5 657.25 -0.002113377 -0.8219935 -0.5694931 
-57 -55 632 -0.9217356 0.3617566 -0.1397696 
-74.5 -56 655 -0.0279449 -0.8170922 -0.5758294 
-73.75 -54.25 651.25 0.0001670679 -0.8944247 -0.4472185 
-71 -55 653 -0.009215446 -0.8965473 -0.4428523 
-53 -52 616 -0.8557441 0.5122188 -0.07303521 
-65 -53 647.6667 -0.1805802 -0.8356526 -0.518725 
-74 -51.33333 647 -0.1095902 -0.7714946 -0.6267265 
-70.75 -50.25 645 -0.1119531 -0.8124871 -0.5721287 
-74 -49 644 -0.09478621 -0.8516044 -0.5155439 
-77 -48 642.3333 -0 -0.8848289 -0.4659161 
-80 -47 640 -0.02086827 -0.9107397 -0.4124534 
-49 -45 619 -0.8141932 0.4854237 -0.3185174 
136 -1 662 0.1692328 -0.9760798 -0.1364866 
139 -1 665 0.1582302 -0.9793184 -0.1260904 
-107 1 564 -0.06854019 -0.8213246 -0.5663288 
-107.125 5.125 556.875 -0.2253156 -0.8593401 -0.4590941 
-86 8.5 551 0.09238087 -0.8367395 -0.5397526 
-83 10 549 0.006560874 -0.8619933 -0.5068772 
-86 11 547 0.04899128 -0.8685601 -0.4931565 
-89.14286 12 545.1429 -0.002991983 -0.8927167 -0.4506085 
-92 13 542 0.02754501 -0.8925352 -0.4501359 
-82 14 541 0.05241483 -0.8362259 -0.5458745 
-178.3333 21.66667 657 -0.3769089 -0.8696314 -0.3188746 
-181 22 660 -0.4059045 -0.8825326 -0.2374402 
-181 23 657 -0.3648586 -0.8907894 -0.2708737 
-104 20 545 -0.938612 0.06677879 -0.3384496 
-184 25 654 -0.4382548 -0.8586498 -0.2658067 
-188 27 659 -0.5448211 -0.8252322 -0.1488686 
-103 23 542 -0.9508998 0.1411928 -0.2754163 
-44.125 28 515.5 0.01640259 -0.8706087 -0.4917025 
-149.5 35 629 -0.2880979 -0.8023055 -0.5227863 
-40.75 29 514.5 0.06736162 -0.8548736 -0.5144448 
-152 36.33333 627.3333 -0.1458055 -0.8950076 -0.4215474 
-136.25 36.25 618.25 -0.6838047 -0.05963017 -0.7272245 
-43.85714 30.42857 512 -0.01597768 -0.9025026 -0.430388 
-135 38.5 617 -0.6211411 -0.2582789 -0.7399162 
-35 31 509 -0.08067721 -0.8751162 -0.4771402 
-134.1667 41.83333 614.6667 -0.4213904 -0.5230689 -0.74083 
-149 44.5 615 -0.121952 -0.8618999 -0.4921954 
-202.75 47.75 612 -0.09367044 -0.8769156 -0.4714285 
-205.5 49 610 -0.1782678 -0.8559899 -0.4852854 
-211 50.5 612 -0.4402316 -0.8625799 -0.2493033 
-209.3333 51 608.6667 -0.3810095 -0.8449215 -0.3754191 
-206 51.5 606 -0.02374404 -0.9213223 -0.3880741 
-212 53 608 -0.4570133 -0.8185806 -0.3479432 
-203 52 604 0.01874086 -0.9304976 -0.3658184 
-206 53 602 -0.05348248 -0.7922612 -0.6078337 
-83 44.75 488.25 -0.53229 -0.6192936 -0.5771852 
-187.9 56.3 594 -0.04852275 -0.8250644 -0.5629516 
-185 58 592 -0.07215079 -0.8088092 -0.5836283 
-188 59.5 589.8333 -0.02238943 -0.863726 -0.5034642 
-84 49 490 -0.9367626 0.009106743 -0.3498472 
79 102.875 500.375 -0.03827116 -0.8521308 -0.5219275 
76 101.6667 503 -0.1641401 -0.7869821 -0.5947413 
72.66666 101 505 -0.192324 -0.7152565 -0.6718779 
70.4 99.6 506.6 -0.3185953 -0.8213795 -0.4731099 
64.25 100 513 -0.09108078 -0.938746 -0.3323556 
72 98 509 -0.7763925 -0.5767517 -0.2541108 
66.66666 99.33334 515 -0.1272695 -0.9564104 -0.2628339 
72 96.5 512 -0.840486 -0.5294762 -0.1150578 
73.5 93.5 514.5 -0.8227582 -0.5574095 0.1111921 
84 90 507 0.8032351 -0.2015718 -0.5605196 
83 89 509 0.739951 -0.6339604 -0.2248707 
81.5 87.5 505.5 0.71846 -0.5818516 -0.3811352 
76.5 90 515.5 -0.7828115 -0.5973144 0.1744184 
77 88 513 -0.7805999 -0.6001559 0.1745761 
79 87 515 -0.353643 -0.9349593 -0.02806805 
-199.8571 77.42857 562.7143 -0.1012602 0.5789993 -0.8090156 
-197 75 562.5555 -0.05239894 -0.308296 -0.9498463 
-194 73 564 0.0385164 -0.8570243 -0.5138345 
-92 -2 567 0.06330143 -0.8145773 -0.5765908 
-89 -3 569 0.04431611 -0.824465 -0.5641752 
-101 -5 572 0.02105576 -0.8089651 -0.5874795 
-124 -6 597 -0.9272648 0.2362864 -0.2904285 
-104 -6.5 575 -0.005262692 -0.9224927 -0.3859786 
-123 -7 594 -0.9260246 0.1680552 -0.337988 
-85.85714 -8.428572 578.4286 -0.03926505 -0.8626335 -0.5043032 
-123 -9 591.6667 -0.9404604 0.02223045 -0.3391756 
