ply
format ascii 1.0
comment VCGLIB generated
element vertex 953
property float x
property float y
property float z
property float nx
property float ny
property float nz
element face 0
property list uchar int vertex_indices
end_header
-31.07692 57.92308 552.5385 -0.1472717 -0.5418572 -0.8274672 
-85 -10.5 573.8333 -0.07049593 -0.8254158 -0.5601063 
-82.5 -12 576 -0.09763712 -0.8532012 -0.5123621 
-79 -13 577 -0.03880427 -0.8690647 -0.4931741 
-70 -14.5 579.5 0.03149206 -0.8000771 -0.5990701 
-73 -16 581 -0.03285258 -0.8376306 -0.5452483 
-42.8 -17.4 586 -0.1139526 -0.8699273 -0.4798346 
-70 -17.5 583.3333 -0.001814154 -0.8633204 -0.504653 
-37.125 -19.5 589.375 0.06950534 -0.8426332 -0.5339835 
-40 -21 592 0.07642458 -0.8477224 -0.5249058 
-43.2 -22.2 592.6 0.01886369 -0.755765 -0.6545712 
-40 -23.16667 595 0.1845978 -0.8240204 -0.5356435 
-40.25 -25.25 598.25 0.1919471 -0.8295462 -0.5244136 
-33.5 -27 603 0.04200325 -0.7480071 -0.6623603 
-43 -27 600 0.02030088 -0.8243757 -0.565679 
-40 -28 602 0.1575897 -0.7881355 -0.5949856 
-33.5 -30 606 0.07402073 -0.8537714 -0.5153595 
-37.14286 -29.14286 604.1429 0.1269218 -0.7493674 -0.6498765 
-22 -31.5 610 0.03505953 -0.8264468 -0.5619222 
-42.75 -31.75 607 0.06243602 -0.9029491 -0.4251877 
-21.75 -34.25 613.25 -0.1003149 -0.7855892 -0.6105626 
-31 -36 615 0.01458687 -0.877102 -0.4800828 
14.6 -37.8 615.6 0.7188775 0.1428139 -0.6803082 
-27 -63 574.5 -0.5964179 0.6484517 -0.473071 
-29 -64 576 -0.6254204 0.6499648 -0.4317351 
-40 -72 642 -0.9915719 0.08298214 -0.09949496 
-30.33333 -65.66666 574.3333 -0.6732984 0.609781 -0.4181345 
-16 -65 564.6667 -0.3838376 0.5541857 -0.7386115 
-11 -67 561 -0.1034223 0.7911088 -0.6028688 
6 -85 566 -0.1994676 -0.6021025 -0.7731011 
-22.66667 -83 564.1667 -0.4313896 -0.08572781 -0.8980834 
14 -87 567 0.2038817 -0.6533869 -0.7290527 
11.2 -88.6 568.6 -0.03591345 -0.7588198 -0.6503097 
14.25 -89.75 570.25 0.08854517 -0.7229659 -0.6851861 
9 -101.5 577.5 -0.4521558 0.5043224 -0.7356725 
4.857143 -97.71429 578 0.02397097 -0.3208387 -0.9468305 
2 -95.18182 577.4545 0.132462 -0.1730183 -0.9759706 
-0.875 -92.5 576.25 0.3294016 -0.3983371 -0.8560504 
-30.25 -82.75 568.5 -0.7477242 -0.1087001 -0.6550518 
-21.57143 -79.85714 563 -0.5305907 -0.0676203 -0.8449267 
-29 -80 567 -0.6923659 -0.0064549 -0.7215177 
-25 -80 564.6667 -0.3785965 -0.007845934 -0.9255286 
-32 -80 570.3333 -0.7867613 0.01744224 -0.617011 
-27.5 -77 566 -0.6282936 0.07660691 -0.7741954 
-46 -64 655.6667 -0.1918317 -0.8338878 -0.5175246 
-49 -63 654.6667 -0.0547672 -0.8261482 -0.5607851 
-45.75 -61.5 651.75 -0.2130956 -0.7871254 -0.5788125 
-103.25 -7.75 570.75 -0.05602412 -0.8799822 -0.4716913 
-100 -7 569 -0.01404993 -0.8523786 -0.5227363 
-96.75 -6 567.75 -0.0003948152 -0.9182857 -0.3959183 
-100 -4.833333 564.6667 -0.2151796 -0.8041093 -0.5541713 
-103.5 -2.75 564 -0.295624 -0.510578 -0.8074135 
-100.1 -2.1 561.8 -0.2994894 -0.5620291 -0.7709925 
-61 -2.5 559 0.07744489 -0.8161651 -0.5726053 
-59 -1 557 0.05891401 -0.7976802 -0.6001962 
-79 0.5714286 555.5714 -0.1049948 -0.8181387 -0.565354 
-69.75 1.75 553.25 -0.006317693 -0.8320925 -0.5546011 
-73 3 552 -0.02724737 -0.8414752 -0.5396082 
-70 3.875 549.75 -0.06332791 -0.9046105 -0.4215084 
-67.2 4.6 547.4 -0.04535795 -0.8633568 -0.5025512 
-60.85714 7.285714 543.7143 -0.01005997 -0.8149567 -0.5794345 
-57 6 546 0.04477549 -0.8106489 -0.5838181 
-67.14286 9.714286 541 -0.2802533 -0.6425363 -0.7131656 
-64 10.5 537.8333 -0.207017 -0.7121519 -0.6708083 
-115 13 579.8889 -0.4443876 -0.03090271 -0.8953015 
-108.4 12.8 574.6 -0.6781569 0.1527773 -0.7188619 
-50 11 536 -0.06632272 -0.8473569 -0.5268659 
-63.8 13.4 535.8 -0.4242457 -0.163026 -0.8907514 
-109.5 16 576.3333 -0.561868 -0.1405889 -0.8151927 
-106 16 573.8889 -0.4228135 0.05296741 -0.9046675 
-112 18 576 -0.1117033 -0.5770127 -0.8090604 
-115 19.66667 575 -0.1443227 -0.2097028 -0.9670552 
-57.57143 18.71428 535 -0.6176848 0.4846213 -0.6193606 
-112 22 574 -0.2583716 -0.03894202 -0.9652604 
-115.6667 22.66667 576 -0.3721763 0.3859623 -0.8441078 
-173 25 631 -0.9536151 -0.07528422 -0.2914627 
-117.75 24.25 577.75 -0.3310432 0.484314 -0.8098459 
-125 25.5 582 -0.4785066 0.3707859 -0.7959582 
-126.6 27.6 583.8 -0.4184635 0.3675346 -0.830546 
-123 27 581 -0.4485972 0.3741719 -0.8116379 
-164 30 609 -0.8760316 0.162422 -0.454079 
-3.75 26 512 0.01349844 -0.8903145 -0.4551462 
-120 30 581 -0.3137975 0.4166098 -0.8532101 
-7.25 27 510 0.01349437 -0.9375696 -0.347536 
-118.6667 31.66667 582 -0.3678971 0.4032676 -0.8378705 
-3.75 27.5 508.25 0.05914583 -0.9143851 -0.4005018 
-120.7143 33.85714 583.7143 -0.4545582 0.2329683 -0.8597108 
-1.5 29 506 0.08741464 -0.8869854 -0.4534488 
-56 32 549 -0.4912315 0.7139741 -0.4989315 
-3.75 30 504 0.03634212 -0.9069399 -0.4196896 
-44 32 537 -0.5338233 0.6639802 -0.5236058 
-7 30.5 502.125 -0.04690159 -0.8871189 -0.4591517 
-55.25 34.75 553 -0.5028541 0.7218029 -0.4755402 
14.22222 31.88889 499.1111 -0.09948095 -0.8339491 -0.5428006 
-52.5 35 549.5 -0.5635208 0.726549 -0.3931551 
-44 35 540 -0.5145831 0.6536735 -0.554901 
12 33 498 0.04142277 -0.8628311 -0.5037923 
14.11111 33.88889 496.1111 -0.04301601 -0.8890322 -0.4558196 
-139.1667 40.66667 583 -0.1779097 -0.9007453 -0.39624 
5.4 35 493.8 -0.05159307 -0.8186237 -0.5720084 
-136.5 41 581 -0.1143372 -0.7967036 -0.5934561 
-133 42 580 -0.02179309 -0.8001256 -0.5994366 
-165.3333 46 592.3333 -0.8823467 0.04919653 -0.4680212 
-136 44 578 -0.405901 -0.2468527 -0.8799478 
-31.66667 43 537.3333 -0.593689 0.7312015 -0.3359727 
-157.3333 49.33333 585.1667 -0.3579635 0.363589 -0.8600379 
-148 49 582.3333 -0.2844184 0.1590984 -0.9454067 
-30.5 45.5 541.5 -0.4920492 0.832602 -0.2542866 
-28.5 45.5 538 -0.4366491 0.8263342 -0.3556817 
-167 51 597 -0.7849876 0.3341055 -0.5216972 
-154.1429 52 585.5714 -0.3741723 0.7029279 -0.6048864 
-150.6667 51.66667 583.3333 -0.320286 0.4469285 -0.8352675 
-157.25 52.75 588.75 -0.3393235 0.7810211 -0.5242763 
-160 53 591 -0.3813268 0.7283455 -0.5693003 
-142.3333 55 583.8889 -0.3571254 0.1734475 -0.9178113 
-30 54 551 -0.4439949 0.2851704 -0.8494388 
-20 53 546 -0.5165695 0.6193507 -0.5912366 
-15 54 541 -0.3455377 0.8224717 -0.4518229 
-144.3333 58.66667 583.6667 -0.4290228 -0.4599193 -0.7774405 
41.25 103 558 0.01187023 0.9339952 -0.3570883 
44 101 552.6667 -0.03049287 0.9319476 -0.3613086 
62 99.5 546.75 -0.23624 0.8548989 -0.461886 
41.5 100 549 0.009169323 0.87032 -0.4924015 
59 97.5 546 -0.1412332 0.5336825 -0.8338082 
62.125 97.25 544.125 -0.3916403 0.7690235 -0.5051937 
31.5 93 536 0.1161717 0.807492 -0.5783259 
50 93 540.3333 -0.05286374 0.8933498 -0.4462417 
50 91 537 -0.1140323 0.9333247 -0.3404433 
28.8 91.8 534.8 0.06087676 0.7833794 -0.6185554 
32 90 532.6667 0.05512455 0.8399265 -0.5398934 
35 89 531 0.06703638 0.8587362 -0.5080141 
32.25 88 529 0.002892355 0.7533335 -0.6576324 
31.9 84.7 526.3 -0.3028442 0.6271353 -0.7176257 
28.66667 85.33334 528.5 -0.3348334 0.5115705 -0.7913168 
-9.8 82.4 541.5 -0.2925732 -0.3687077 -0.8823013 
-19.16667 82 543.3333 -0.03138212 -0.6079693 -0.7933401 
-16 79 543.75 -0.1504609 0.03005286 -0.9881591 
2.333333 76.2 535.8666 -0.2574542 0.3096066 -0.9153476 
-13.66667 76.66666 543 -0.2071557 0.4275773 -0.8799229 
-15.5 75 542 -0.22691 0.3940359 -0.8906445 
-0.875 72.875 535.875 -0.3682635 0.2254425 -0.9019744 
-19 72.5 542 -0.3585628 0.3132421 -0.8793816 
-139 75.44444 561.8889 -0.29401 -0.8105576 -0.5065122 
14.33333 70.88889 530 -0.01521261 -0.08672514 -0.9961162 
6 70.5 533 -0.4670556 -0.2542898 -0.8468741 
-135.6 74 562.6 -0.1828542 -0.8038518 -0.566027 
-148.6667 75.33334 576.3333 -0.6166622 -0.5527012 -0.5605792 
-21 70 542 -0.4183048 0.1848172 -0.8893052 
9 68 533 -0.4127732 -0.6110862 -0.6754199 
7.75 69 534.25 -0.3412808 -0.7085073 -0.6176932 
-138.7143 73.28571 565.1429 -0.3262839 -0.7719768 -0.5455187 
-30 70 545 -0.394361 0.1168486 -0.9114964 
5.25 67.75 536 -0.1550952 -0.6284037 -0.7622692 
-24 66 542 -0.0931897 -0.05618838 -0.9940616 
-27.75 67 544.0833 -0.2915229 0.09407948 -0.9519262 
-31.75 67.25 546 -0.2359275 0.17018 -0.9567534 
11 64.66666 532.3333 -0.8939795 0.3060824 -0.3272829 
8.5 61.5 526 -0.4495691 0.8440088 -0.292467 
-25.1 63.8 543.1 -0.243119 -0.4447351 -0.8620347 
-130 66 573 -0.008193407 -0.7329371 -0.6802471 
5 60 528 -0.4921129 0.8525664 -0.1759417 
-22.5 62 545 0.04564855 -0.8467064 -0.5300986 
-138.3333 65 575 -0.215534 -0.6267145 -0.7488486 
-24.8 61 547.4 -0.02300608 -0.9327524 -0.3597828 
-17 60 549 -0.5018578 -0.1106639 -0.8578416 
-135.8 63 576.8 0.04307803 -0.7792805 -0.6251929 
-138 62 577 -0.2670237 -0.8014598 -0.5351266 
-129.7778 61 580 -0.1303988 -0.5657613 -0.814193 
-114.6667 -8.5 573.5 -0.1392123 -0.8160605 -0.5609503 
-115 -10.5 576.5 -0.02714346 -0.8310475 -0.5555387 
-107 -12 579 -0.1047016 -0.8535397 -0.5103995 
-46 -13 576.6667 0.1184045 -0.8594901 -0.4972497 
-55 -15 579 0.04635102 -0.8577859 -0.5119131 
-52.5 -16 581 0.09591617 -0.8769568 -0.4709001 
-55 -17 583 0.01019948 -0.8957986 -0.4443431 
-58 -18 585 -0 -0.8944272 -0.4472136 
-67 -19.5 586.5 0.02750503 -0.8288467 -0.5587993 
-63.8 -20.6 589.2 0.06991509 -0.8623234 -0.5015081 
-57.8 -22.4 592 -0.06261569 -0.863325 -0.5007488 
-60.75 -23.75 594.75 0.02263909 -0.8149176 -0.5791345 
-75 -25 596 -0.08122443 -0.8734058 -0.4801718 
-58 -27 600 0.008299945 -0.8774956 -0.4795128 
-61.2 -26.4 598.4 0.009584829 -0.8598652 -0.5104312 
-61.2 -28.4 601.4 0.06438439 -0.8400822 -0.5386248 
-64 -29.5 604 -0.08832377 -0.8324645 -0.5469933 
-58.25 -32.25 607.25 0.003275022 -0.8090121 -0.587783 
-13.25 -37.25 609 -0.4089982 0.2837376 -0.8673024 
-19.75 -38 615.25 -0.7872831 -0.05797353 -0.6138602 
-28.5 -44.5 624.75 -0.671223 0.07355149 -0.7375974 
8 -61.5 570.5 0.0750224 0.6075205 -0.7907532 
4.857143 -62.57143 569 0.1333253 0.5933298 -0.7938414 
8 -64.66666 567.6667 0.02474342 0.6873006 -0.7259517 
-38 -71 618 -0.9741935 0.2080944 -0.08742908 
11 -66 566 0.09568105 0.6461461 -0.7571925 
8 -68 564.8889 0.1726853 0.4906744 -0.8540599 
6 -69 563 0.134372 0.5241724 -0.8409444 
7.8 -70.9 562.7 0.2384744 0.3566511 -0.9032884 
-4.125 -82.875 562.25 0.4612407 -0.579352 -0.6720182 
-10 -87 564 0.2045736 -0.821637 -0.5320361 
-13 -86 562.2222 0.07523391 -0.6151307 -0.7848275 
-13.14286 -88.71429 565 0.2626617 -0.7761919 -0.5731795 
-23 -99 566 0.4783997 0.8341317 -0.2745143 
-25.5 -98.5 563 0.6601309 0.7473815 -0.07515357 
-23 -100 563 0.4947056 0.8678316 -0.04620259 
-13 -98 574.2222 0.4451062 -0.2484312 -0.8603269 
-9.444445 -98.11111 576 0.4272367 -0.2491356 -0.8691377 
-13 -94.5 571.5 0.3875938 -0.6362395 -0.667061 
-13.25 -91.25 568.5 0.3144071 -0.733288 -0.6028574 
-10 -91.83334 571.1667 0.4960609 -0.684948 -0.5336383 
2 -77 562.1111 0.1071019 -0.1679269 -0.9799641 
-1 -74 561.2222 0.2922939 -0.1306842 -0.9473574 
-36 -62 610 0.9507903 -0.309463 0.01518081 
-34 -60 603 -0.9284803 0.3401009 -0.1491831 
-76.2 -61.6 654.8 -0.05593364 -0.7951174 -0.6038706 
-34 -57 607 -0.9257603 0.3524601 -0.1368937 
-32 -52 620 -0.7804025 0.6183846 -0.09258755 
-29 -49 618 -0.7480488 0.6583111 -0.08396139 
-30 -48 625 -0.8140497 0.2408823 -0.5284873 
-27.33333 -46.33333 621.6667 -0.805032 0.2966303 -0.5137452 
-117 -7 572 -0.3393619 -0.4655991 -0.8173439 
-40 -1.5 559 0.08032214 -0.8382571 -0.5393267 
-43.66667 -1 557 0.1044183 -0.8038902 -0.5855402 
-46 0.5 555.3333 -0.001765554 -0.7089395 -0.7052672 
-159.5 1.5 610.5 -0.8482974 -0.3641238 -0.3844546 
-110 2 570 -0.5650879 0.5371105 -0.6262491 
-55 2 554 0.05871787 -0.8042816 -0.5913404 
-120.7143 3.857143 580.1429 -0.6123596 0.366299 -0.7006003 
-108 3 569 -0.6035215 0.5654433 -0.5621706 
-52 3 552 0.00301907 -0.8919183 -0.4521865 
-169 4 629 -0.9096677 0.2598063 -0.3240454 
-55.125 4 549.75 0.05987727 -0.9249663 -0.3753026 
-164 5 610 -0.6110318 -0.7459973 -0.2648175 
-34 5 548 0.1044819 -0.8461578 -0.5225902 
-43.25 6.25 546.75 -0.06784381 -0.8551275 -0.5139595 
-40 7.5 544.3333 -0.06631411 -0.7912398 -0.6078997 
-34.11111 9.666667 541.3333 0.01462188 -0.8788315 -0.4769081 
-37 11 538 -0.00139329 -0.9035964 -0.4283826 
-37.3 12.8 535.2 -0.0003783969 -0.844901 -0.5349227 
-96.71429 15.85714 568.5714 -0.5695204 0.3965178 -0.7200142 
-74 14 546 -0.6348633 0.4525436 -0.6262211 
-71 14 543 -0.6113555 0.3415138 -0.7138717 
-34 14 533 0.007031695 -0.8183702 -0.5746484 
-72.33334 15.33333 545 -0.6012944 0.5370811 -0.5915986 
-36.75 15 532 0.03247159 -0.9176791 -0.3959931 
-40.125 15.5 528.5 -0.0226701 -0.9086373 -0.4169703 
-102.8 19.1 571.8 -0.3144605 -0.2843405 -0.9056849 
-43 17 527 -0.1279033 -0.7955085 -0.5922897 
-33.75 18 525 0.01379274 -0.8381549 -0.5452579 
-100.4 21.6 570 -0.2441363 -0.3659337 -0.8980479 
-90.71429 25 566 -0.368923 0.09231669 -0.924864 
-70.6 25.6 555.4 -0.5316011 0.5195279 -0.6689477 
-61.66667 25.66667 546.3333 -0.6726593 0.4994875 -0.5459319 
-58.66667 25.66667 543 -0.5042605 0.6284826 -0.5922254 
-50 25 534.3333 -0.6906809 0.4402334 -0.5737198 
-103.1429 28.28572 573.5714 -0.3629999 0.5088151 -0.7806013 
-87.66666 27.5 565.8333 -0.2407081 0.3378308 -0.9099066 
-74 26 559 -0.6209213 0.3496732 -0.7015594 
-46.66667 25.66667 531.3333 -0.596383 0.5814829 -0.553358 
-72 27 557 -0.5806785 0.44894 -0.6791653 
-25 25.5 511.5 -0.1339055 -0.6427084 -0.7543177 
-38 26 522 -0.6485021 0.5863418 -0.4854363 
-70.5 29 558 -0.4191867 0.6566731 -0.6269473 
-58.25 28.75 546.5 -0.4179398 0.72405 -0.5487058 
-46.66667 28.66667 534.3333 -0.3226586 0.684693 -0.6535189 
-36.25 27.25 520.25 -0.6087916 0.5631894 -0.5587401 
-22.14286 27 510 -0.09268848 -0.7459176 -0.6595573 
-88 30.9 567.9 -0.3324488 0.3518698 -0.8750231 
-84.5 30.66667 565.5 -0.4136868 0.3021349 -0.8588235 
-91.5 31.5 570.25 -0.3817875 0.3793401 -0.8428164 
-97 33.75 573.5 -0.4095441 0.3536072 -0.8409729 
-90 33 569 -0.3875844 0.3689319 -0.8447884 
-81.8 33.4 565.8 -0.2793802 0.4120916 -0.8672527 
-89 34.5 570 -0.4702235 0.3412521 -0.8139023 
-150.8571 37.28571 588.7143 -0.1396685 -0.8119088 -0.5668305 
-149 38 587 0.02078368 -0.8421933 -0.5387749 
-151.1429 39.42857 585.5714 -0.1297318 -0.828576 -0.5446389 
-153.8 41 583.8 -0.2911139 -0.6376061 -0.71324 
-24.88889 39.77778 520.4445 -0.4897583 0.5630201 -0.6656916 
-159 45 584 -0.2780537 -0.05938035 -0.9587284 
-21 48 533 -0.4159815 0.8343127 -0.3617755 
-20 47 531 -0.3653149 0.8606166 -0.3548014 
-13 49 522 -0.5278907 0.7995592 -0.2864203 
-10.5 50 520 -0.4932203 0.8442856 -0.2095606 
-9.5 51.5 524 -0.474947 0.8593121 -0.1897577 
18 112 582 0.1432889 0.953354 -0.2656773 
46.5 115 603.5 0.08302528 0.974815 -0.2069842 
44.5 115 600.5 0.06348093 0.9731291 -0.221337 
41.5 114 597.5 0.08651209 0.948922 -0.3034184 
21 111 579 0.1673615 0.9540207 -0.2486655 
53 113 596 0.06403928 0.9512497 -0.3017 
26 109 576.3333 0.09757086 0.954429 -0.2820376 
23 109 574 0.1230372 0.9268701 -0.3546458 
31 108 572 0.03897442 0.956108 -0.2904111 
41 105 566 0.01104771 0.9663885 -0.2568485 
-135.7143 81.85714 549.7143 -0.1255853 -0.8863334 -0.445692 
-139 81 552.3333 -0.2902981 -0.8148548 -0.5017358 
-136.1429 80 553.4286 -0.1572794 -0.8478346 -0.5063987 
-133.25 78.25 555.25 -0.1129932 -0.776061 -0.620453 
-136 77 557 -0.1142047 -0.8714194 -0.4770593 
-139 77 559.25 -0.3480149 -0.8365152 -0.4232352 
-43 -9 571.3333 0.1218002 -0.8591149 -0.4970778 
-45 -12 576 0.1425078 -0.8478144 -0.5107859 
-49 -11.42857 573.8571 0.03868997 -0.8504235 -0.5246742 
-106 -13.5 580.5 -0.1504547 -0.8064809 -0.5717971 
-109 -14.5 583.1667 -0.1724597 -0.8159769 -0.5517603 
-105.5 -16 584 -0.1253592 -0.8604625 -0.4938515 
-103 -17 586 -0.02618518 -0.8773452 -0.4791448 
-101 -18 588 -0.03631713 -0.8515469 -0.5230191 
-97 -19 589 -0.05263619 -0.8661297 -0.49704 
-100 -20.5 591.5 -0.02827675 -0.8547428 -0.5182809 
-100 -22.5 595 -0.01924048 -0.8364976 -0.5476328 
-100 -25 599 -0.01170755 -0.8829698 -0.4692838 
-103 -26 602 -0.05004398 -0.8899364 -0.4533308 
-93.66666 -30 606 0.002287379 -0.8200251 -0.5723231 
-97.2 -28.4 604 -0.09329545 -0.763642 -0.6388637 
-103.5 -31 608 -0.05260527 -0.8005891 -0.5969002 
-142.5 -37 617 0.4408993 -0.5114163 -0.7376051 
-136 -38.5 621.5 0.1930221 -0.7914023 -0.5800216 
-148.6667 -37.33333 610.3333 0.860342 0.3388413 -0.3807864 
-144.5 -40.25 616 0.6951889 0.4654053 -0.5478233 
-133.5 -43 626 0.4586419 -0.1596757 -0.8741575 
-136 -40.83333 624.6667 0.2412902 -0.5758348 -0.7811487 
-139.125 -41 622.25 0.7211945 -0.03635142 -0.6917782 
-141.6667 -40.66667 618.8333 0.7283504 0.4896057 -0.4793661 
-25 -98 559.5 0.6802707 0.7312297 0.05034897 
-6.375 -80.25 558.25 0.3900994 -0.3773914 -0.8398798 
-85 -62 655 0.01409514 -0.8100957 -0.5861282 
-133.3333 -47 622.3333 0.6240408 0.7784677 0.06753603 
-40 -7 569 0.1235415 -0.8456364 -0.5192656 
-36.8 -6 567.6 0.03252553 -0.8904778 -0.4538627 
-40.125 -5.5 564.875 0.08968052 -0.9097068 -0.4054517 
-43.2 -4.4 562.4 0.122811 -0.8301566 -0.5438359 
-40 -3 561 0.0776239 -0.8242031 -0.560949 
-78 30 563 -0.4193479 0.3484736 -0.8382801 
-79 34 565.1111 -0.3342694 0.3773886 -0.8636214 
-75.33334 33.33333 563 -0.360024 0.4130563 -0.836521 
49.75 103 556.25 -0.01993928 0.9474828 -0.3191845 
48 101 551 -0.0963935 0.8762109 -0.4721894 
56.25 99 546 -0.1298368 0.6162068 -0.7768086 
17.5 96 536 0.1373764 0.7653021 -0.6288406 
56.5 96 545 -0.1444943 0.5529528 -0.8205879 
53 97 546.4445 -0.167322 0.5024015 -0.8482901 
47.33333 94.66666 543.5 0.1761791 0.7810072 -0.5991567 
44.16667 93.83334 541 0.1823328 0.8309281 -0.525655 
42 93 539 0.1228081 0.7739351 -0.6212429 
43.75 91 537 0.0403607 0.8723475 -0.4872173 
35 91.42857 535.1429 0.1405716 0.8551486 -0.4989595 
37 90 533 0.09970108 0.8713059 -0.4805056 
28.5 89 531 -0.002861439 0.7187651 -0.6952471 
38.25 88 530 0.06232047 0.7994657 -0.5974703 
35.5 86 528 0.03111554 0.7573369 -0.6522828 
37.75 85 526 -0.05472929 0.8708431 -0.4885049 
-12.81818 81.90909 543 -0.176629 -0.4019169 -0.8984793 
-10.75 79 543 -0.3063395 0.2172132 -0.9268088 
-10 76.08334 541.0833 -0.3430083 0.4117455 -0.8442813 
-19.16667 76 543.6667 -0.4124863 0.3312587 -0.8486004 
-149 78.5 573.5 -0.6379569 -0.5804222 -0.5060841 
-151 78 576 0.0618004 -0.6837687 -0.7270771 
-133.5 75 561 -0.03989914 -0.8126512 -0.581383 
9 71 530 -0.5000139 -0.2206865 -0.8374268 
-9.4 72.8 539 -0.3746147 0.2601971 -0.8899221 
-12.75 73 540.9167 -0.3168094 0.2260763 -0.9211521 
-130 74 562.5 0.002762865 -0.804832 -0.5934962 
11 69.5 531.5 -0.08873852 -0.6524139 -0.7526497 
-151.1429 75.42857 579.2857 -0.2295038 -0.7288414 -0.6450723 
-132.75 72 565 -0.02777587 -0.8324995 -0.5533291 
-25 70 543.8889 -0.2440557 0.2089105 -0.9469917 
-146 72 576 -0.7233521 -0.323955 -0.6097662 
-149 72.5 580 -0.7342077 -0.4331214 -0.5228239 
-151 72.4 582.4 -0.4908354 -0.6002702 -0.6314716 
14.36364 67.27273 532.3636 -0.5434963 0.5018873 -0.6728454 
11 67 534.5555 -0.2874386 -0.07317257 -0.9549999 
-22.66667 67.66666 543 -0.2221081 0.1992172 -0.954453 
14 64.66666 529.3333 -0.4749143 0.8050054 -0.3555597 
-141.6667 70.33334 571.1667 -0.4008172 -0.6884168 -0.6045064 
-22 65 542 0.06619626 -0.1202097 -0.9905391 
8.222222 64.11111 535.3333 -0.5307925 0.6572686 -0.5350302 
7.5 62 532 -0.4437757 0.8243859 -0.3513561 
4 62 535 -0.5270677 0.727266 -0.4396406 
-31 64.25 545 -0.1763687 -0.2382312 -0.9550602 
-136 66.5 573.1667 -0.1600114 -0.6982986 -0.697693 
-31 61.5 546.6667 -0.01485669 -0.785646 -0.6184978 
-133.2 64.6 574.4 -0.04092848 -0.7768384 -0.6283685 
-130.125 63.25 577.125 -0.0761167 -0.8401653 -0.5369623 
-140 63 579 -0.3666411 -0.7673036 -0.5261364 
-136 61 580 0.02847556 -0.76662 -0.6414694 
-140 60 582 -0.1767983 -0.5834732 -0.7926547 
-109 -9 574 -0.04942114 -0.8560917 -0.5144556 
-105 -10 575 -0.08883198 -0.8310142 -0.5491123 
-109.1429 -10.57143 576.5714 -0.03464381 -0.8654366 -0.4998193 
-166 -11 609.6667 -0.7988293 0.4210171 -0.42967 
-111 -12 579 0.01512492 -0.8679382 -0.4964418 
-52.14286 -13.42857 577.2857 0.1103554 -0.8443415 -0.5243178 
-49 -14.5 579.5 0.07135458 -0.8673077 -0.4926317 
-49 -16.42857 583 0.1811653 -0.8819305 -0.4351754 
-64 -18 585 0.02438472 -0.8417395 -0.5393329 
-61 -19 587 0.02400863 -0.8387536 -0.5439817 
-57.85714 -20.42857 588.5714 -0.02500066 -0.8317331 -0.5546125 
-64 -22.5 592.5 -0.0007618902 -0.8485638 -0.5290926 
-66.8 -23.6 594.6 -0.004944295 -0.8709913 -0.4912735 
-70.5 -25 596 0.09030624 -0.8895277 -0.4478676 
-67 -25.5 598 -0.02007019 -0.8905714 -0.4544005 
-64 -27 600 -0.0972231 -0.8392277 -0.5350183 
-66.5 -28 602 -0.1213585 -0.8412367 -0.526871 
-58 -29.5 604 0.0009243093 -0.8035779 -0.5951988 
-64 -32 607 -0.01324787 -0.8201767 -0.5719568 
-17 -40 609 -0.5954172 0.7415038 -0.3092743 
-19.66667 -40.33333 613 -0.82739 0.3566315 -0.4338661 
-27.8 -40.4 621.4 -0.1789255 -0.6280026 -0.7573628 
-25.6 -43.6 622.2 -0.7547619 0.0290715 -0.6553544 
-31.5 -45 627 -0.3704648 -0.6636572 -0.6498576 
14.125 -61.875 570.875 0.3391154 0.6589711 -0.671385 
11 -63 569 0.03999971 0.6321429 -0.7738187 
14 -65.1 568 0.3197329 0.6604578 -0.6793868 
4.5 -65.66666 565.8333 0.08374286 0.6843094 -0.7243672 
13.875 -68.125 565.5 0.2863603 0.3359379 -0.8972979 
11.1 -70.8 564 0.2846688 0.3111484 -0.9067251 
-0.8571429 -83.28571 564.5714 0.2525942 -0.5734081 -0.7793583 
-18.875 -85.875 562.5 -0.3330086 -0.3798606 -0.8630244 
-15 -88 563 -0.01857826 -0.6154688 -0.7879422 
-10 -89 567.6667 0.3226475 -0.7417994 -0.587905 
-18.9 -89.1 564.9 -0.1978158 -0.6091763 -0.7679668 
-21.66667 -97.66666 570 0.4900251 0.03460606 -0.8710212 
-24.66667 -97.33334 567.8333 0.537772 0.6567561 -0.5286518 
-15.5 -100.75 573.5 0.6452436 0.3117293 -0.6974852 
-12 -103 574 0.379394 0.7952533 -0.4728978 
-9 -103 576 0.2131738 0.7192579 -0.6612299 
-19 -95.8 570.2 0.2406438 -0.4357401 -0.8673069 
-19.11111 -92.33334 568 0.07270891 -0.6247638 -0.7774211 
-15 -93 570 0.2698955 -0.65695 -0.7039695 
-1 -79.75 562.25 0.2397253 -0.3705167 -0.8973568 
-3 -77 561 0.5353467 -0.140997 -0.8327807 
-36 -62 615 -0.9466907 0.3155189 -0.06499657 
-33.5 -59 597.5 -0.9126297 0.406273 -0.04526914 
-70 -62.5 655 -0.1169622 -0.8214373 -0.5581762 
-31.5 -52.5 613 -0.7778229 0.6282194 -0.01822116 
-29 -50 612 -0.7298577 0.680699 -0.0629013 
-32 -48 630 -0.7893432 -0.1233008 -0.6014434 
-165.5 -8 612.5 -0.8196625 0.3532238 -0.4509839 
-165 -3 620 -0.7365901 0.6277174 -0.2518054 
-117 -3 572 -0.6817712 0.2798582 -0.6759197 
-164 -1 623 -0.910372 0.2860793 -0.2989675 
-116 -1 573 -0.5968904 0.4854375 -0.6388053 
-34 -1 559 0.1232169 -0.857893 -0.498836 
-162.3333 1 618.3333 -0.9529362 0.05225672 -0.2986333 
-127.2857 1.142857 583.5714 -0.4986692 0.4534959 -0.7386952 
-123.4 0.8 580.4 -0.599091 0.4400059 -0.6689431 
-120.4 0.8 577.6 -0.6030086 0.4218009 -0.6771003 
-117 1 575 -0.6188231 0.370648 -0.692588 
-114 0.5 572 -0.6016952 0.4073718 -0.6870307 
-111 0.5 568.5 -0.6258216 0.4439729 -0.6412765 
-108 0 566 -0.5665947 0.1524262 -0.8097757 
-52.125 0.5 555.5 0.00686395 -0.764271 -0.6448587 
-49 2 554 -0.01573084 -0.8195988 -0.5727219 
-163.5 3.5 615.5 -0.8242051 -0.4317638 -0.3664234 
-124.125 4.125 582.75 -0.5791765 0.4181908 -0.699765 
-117.875 3.875 577.125 -0.5967592 0.4194207 -0.6840795 
-111.6667 3.666667 571.6667 -0.5036886 0.4402012 -0.7433174 
-105.3333 3.333333 565.6667 -0.6312369 0.4893582 -0.6017214 
-46 3 552 0.02886315 -0.8883058 -0.4583447 
-48.85714 4 550.1429 -0.004152244 -0.8941179 -0.4478123 
-121.6667 7.5 583 -0.631451 0.3913977 -0.669386 
-117.8889 7.111111 579.5555 -0.5296179 0.418826 -0.7376244 
-108.5 6.25 571.75 -0.4855043 0.5095568 -0.7103785 
-105.25 6.25 568.5 -0.5938089 0.5325974 -0.6031012 
-40 5 547.3333 -0.1206273 -0.8447987 -0.5213102 
-37 6 546 0.08656816 -0.798137 -0.5962242 
-34.25 7.75 544.25 0.04544917 -0.8126004 -0.5810465 
-105.875 9.875 571.125 -0.6249219 0.2820401 -0.7279602 
-40.1 10 541 0.02098438 -0.8810052 -0.4726412 
-119 10.5 582 -0.5691128 0.2007659 -0.797373 
-42.8 11 538 0.02811069 -0.8989624 -0.4371229 
-103 13 570.7778 -0.4961143 0.4084408 -0.7661898 
-100 13 568.7143 -0.4900175 0.4619884 -0.7392223 
-96.33334 12.66667 565.6667 -0.5911236 0.513264 -0.6222001 
-93.33334 12.33333 562.6667 -0.5731864 0.558918 -0.5992228 
-78 12 548 -0.5660535 0.4838776 -0.6674173 
-43.14286 12.57143 535.4286 0.005217812 -0.8551228 -0.5183992 
-100 16 571.1111 -0.4429712 0.3731692 -0.8151817 
-93.57143 15.85714 565.4286 -0.5369252 0.5066195 -0.6745726 
-40 14 533 0.03991909 -0.8534316 -0.5196739 
-75 15 548 -0.6361421 0.5481122 -0.5430435 
-69 15 542 -0.5674513 0.5458777 -0.616455 
-42.75 15 531 -0.008538877 -0.9371884 -0.348719 
-34.25 16 529.375 0.03412663 -0.9340166 -0.3555959 
-97.33334 19 570.3333 -0.4291461 -0.09821822 -0.8978791 
-94 19 568.1111 -0.5155804 0.3364582 -0.7880182 
-72 18 548 -0.5506464 0.6078033 -0.5721571 
-69 18 545 -0.4843235 0.6717896 -0.5604725 
-37 17 526.6667 0.08910004 -0.8743491 -0.4770483 
-40.5 18 525 -0.04918858 -0.8261685 -0.5612719 
-97 22 569 -0.2302438 -0.1942727 -0.9535439 
-67.33334 22.33333 550 -0.4482264 0.6602428 -0.6026379 
-45 21 524 -0.6838233 -0.07577186 -0.7257026 
-84.9 25 564.9 -0.2849439 -0.0009561069 -0.9585437 
-81 25.66667 563 -0.5654259 0.1828119 -0.8042845 
-45 24 526 -0.6774426 0.5758036 -0.4577354 
-42.33333 24.33333 523.6667 -0.5392966 0.6528099 -0.531976 
-39.75 24.25 520.75 -0.4662489 0.4887193 -0.7374045 
-91 28.3 567.6 -0.3722937 0.3961578 -0.8393191 
-82.27273 27.63636 564 -0.3203813 0.2333789 -0.9180905 
-75 27.5 560 -0.6043094 0.3777027 -0.7015346 
-51 27 536 -0.6763631 0.3697863 -0.6370174 
-100 31.125 573.5 -0.3685847 0.372339 -0.8517682 
-33.5 27.5 517.75 -0.5718439 0.3999556 -0.7162612 
-27.55556 27.44444 511.4445 -0.5383814 -0.001590014 -0.8426998 
-72.33334 30.33333 559.6667 -0.4519291 0.5345769 -0.7141342 
-104 32 576 -0.4043142 0.3553436 -0.8427698 
-48.5 30 536 -0.3718881 0.6329229 -0.6790493 
-102 33 575 -0.3699149 0.416608 -0.8304221 
-36 30 523 -0.4894697 0.7075616 -0.5096823 
-33 30 521 -0.4981049 0.6883603 -0.5273061 
-85.125 34.125 567.625 -0.3556108 0.3748781 -0.8561584 
-69 33 560 -0.3476667 0.5256848 -0.7763913 
-24.66667 30.66667 511.3333 -0.5800261 0.5416167 -0.6084579 
-21.7 30.7 508.1 -0.6678359 0.1191812 -0.7347047 
-145 37.1 588.9 0.01000006 -0.7248983 -0.6887833 
-101 35 576 -0.3961232 0.3312844 -0.856351 
-21.75 33.25 511.5 -0.5152993 0.7163468 -0.4704401 
-9.428572 33.57143 500 -0.4968966 -0.1347454 -0.8572849 
-145 39.5 585.8333 0.08726848 -0.8340311 -0.5447718 
-30.33333 36.33333 523.6667 -0.6674222 0.5822862 -0.4642096 
-27.5 36.25 520.5 -0.647473 0.4878311 -0.5854908 
-24.6 36.6 518 -0.5660928 0.4356671 -0.6998094 
-21 36 515 -0.5779683 0.5823008 -0.5717328 
-157 43.6 584 -0.3142848 -0.09773118 -0.9442848 
-27 40 523.3333 -0.7644475 0.4671588 -0.4442778 
-154.0909 46.09091 583 -0.2458082 0.0762108 -0.9663179 
-24.75 42.25 523.25 -0.3982027 0.7763344 -0.4886098 
-21 42 521 -0.5781659 0.5838059 -0.5699956 
-19 46.33333 526 -0.5635261 0.7872874 -0.2502337 
-12.5 48 517 -0.5638179 0.7715898 -0.2945482 
-10 48.25 514 -0.4569428 0.7663118 -0.4516299 
59 104 559 -0.08398611 0.9516292 -0.2955475 
54 102 554 -0.03356623 0.9376428 -0.3459759 
59 100 549 -0.07204559 0.8484444 -0.5243583 
44.5 99 548 0.06383789 0.7726642 -0.631597 
41 98 546.25 0.07271897 0.82999 -0.5530178 
43.8 96.4 544.6 0.1427793 0.7809214 -0.6080921 
56 94 541 -0.1847536 0.9116634 -0.367064 
26 93 535.6667 0.1426526 0.7959459 -0.58832 
55.5 92 537.5 -0.2170769 0.925548 -0.3102235 
54 93 539 -0.1331314 0.9013701 -0.4120777 
23 92 534 0.2194715 0.6905875 -0.6891454 
16 90.5 530 0.1944324 0.176722 -0.9648655 
26 90.5 532.6667 0.08732829 0.7767901 -0.6236754 
26.42857 87.42857 530 -0.2814428 0.3007149 -0.9112412 
17 88 531.3333 0.0117748 -0.4532177 -0.8913221 
20.25 85 532.0625 -0.2819087 0.04337941 -0.9584601 
13.8 82.6 534 -0.391399 0.1716657 -0.9040674 
-25 82 544.3333 -0.03237795 -0.4987707 -0.866129 
14.25 79.125 532.3125 -0.265095 0.3961343 -0.8790917 
-22 80 545 -0.1777906 -0.4236309 -0.8882159 
-147.5 82.5 564.5 -0.7608339 -0.5252928 -0.3810503 
-25.14286 78.71429 546.2857 -0.1286738 -0.31859 -0.9391184 
15 75.5 530 -0.2855897 0.3167941 -0.9044778 
7.666667 76.33334 534.1667 -0.5075775 0.2889309 -0.8117167 
-28.25 76 547 -0.1203163 0.1311703 -0.9840317 
11.5 72 530 -0.06955141 0.04594306 -0.9965199 
8.2 73 532 -0.5080466 0.2171447 -0.8335087 
4.714286 73.14286 534.2857 -0.4598693 0.1740088 -0.8707705 
-147.5 77 572 -0.7474266 -0.5436034 -0.3819017 
-142.25 75.5 564.5 -0.5193705 -0.7469105 -0.4151856 
-27.85714 72.42857 545 -0.1655028 0.3714503 -0.9135828 
-31 73.22222 546.4445 -0.2828116 0.2943793 -0.9128847 
2.25 69.875 534.5625 -0.1153012 -0.243135 -0.9631153 
0 68 536 -0.1857998 -0.6286277 -0.7551859 
-16.09091 69.81818 540.9091 -0.215666 0.1241463 -0.9685431 
-132.7778 70.55556 568.2222 -0.001010815 -0.8668789 -0.4985178 
-19 67 541.3333 -0.14826 -0.07509352 -0.9860933 
-131 69 570 -0.09264708 -0.7393239 -0.6669459 
15 62 515 -0.4216841 0.8862023 -0.191906 
-147 69.5 578 -0.7221621 -0.289874 -0.6280566 
-10 64.5 541.5 -0.03167942 -0.7517506 -0.6586862 
-133 67.33334 571.6667 -0.05603996 -0.727158 -0.6841788 
11 60 516.5 -0.4342303 0.8712456 -0.2288563 
9 60 520 -0.5031092 0.8481324 -0.1659895 
-19.33333 63.55556 543.4445 0.01872223 -0.6656709 -0.7460105 
-19 61.5 547 -0.005735039 -0.84052 -0.5417503 
-141.625 64.125 577 -0.4024216 -0.672228 -0.6214228 
-4.5 59 540.5 -0.5318177 0.7117223 -0.4589351 
-21.83333 60.33333 549.3333 -0.02057198 -0.6703382 -0.7417706 
-147.8333 64 582.5 -0.6341843 -0.4457823 -0.6317345 
-6.5 57 538 -0.414089 0.8559916 -0.3095299 
-10 54 533 -0.4376988 0.850266 -0.2923485 
-120.9 -7.5 574 -0.4047405 -0.3006363 -0.8635988 
-128 -8 579 -0.5648203 0.05194909 -0.8235772 
-121 -10.42857 577 -0.1390532 -0.7458098 -0.6514845 
-124 -12 580 -0.03421494 -0.7760557 -0.6297357 
-40.25 -13 578 0.05919393 -0.8580957 -0.5100666 
-37.2 -13.4 579.8 0.1350589 -0.8717112 -0.4710401 
-34 -14.5 582.5 0.06307828 -0.8466328 -0.5284262 
-37.5 -16 584 0.1296984 -0.818566 -0.5595785 
-76 -18 585.6667 -0.1044329 -0.8141038 -0.571252 
-73 -19.5 586.5 -0.09298233 -0.8172783 -0.568692 
-70 -21 589 0.007820847 -0.8829189 -0.4694605 
-76 -22.25 592.25 -0.08756904 -0.8624611 -0.4984902 
-79 -23.5 594.5 -0.05520948 -0.8563001 -0.5135193 
-57.5 -25 596 -0.04783805 -0.8735778 -0.4843279 
-79 -25.5 598 -0.08315111 -0.8757861 -0.4754837 
-76 -27 600 -0.08331628 -0.8310053 -0.5499896 
-79 -28 602 -0.1001113 -0.8207595 -0.5624336 
-69.75 -28.75 603.75 0.04439631 -0.8317435 -0.553382 
-76 -32 607 0.0104798 -0.8661636 -0.4996507 
11 -32.28571 609.8571 0.1104519 -0.6319231 -0.7671203 
14 -34 611 0.03997382 -0.6875447 -0.725041 
12 -35.5 612 0.6531879 -0.2227967 -0.7236761 
-25 -37 617 -0.001484032 -0.7354245 -0.677605 
-22.5 -38.5 618.5 -0.4831019 -0.4379581 -0.7581591 
-21.33333 -41 616.6667 -0.8299804 0.3655872 -0.4212822 
-24.33333 -40.66667 620 -0.5253611 -0.1918069 -0.8289788 
-22.5 -43.5 614 -0.6639147 0.7104603 -0.2333739 
-32 -62 585 -0.8135362 0.465766 -0.3481681 
3 -61 570 0.2759386 0.5054268 -0.8175584 
-1 -62 567.6667 0.2797148 0.4013217 -0.8721815 
-4.2 -63 565.6 0.1722534 0.5969654 -0.7835568 
2 -64.5 567.1667 0.2048272 0.6563788 -0.7260941 
-6.5 -64 564.5 0.2298236 0.6796361 -0.6966176 
-4.5 -66 563 0.2742723 0.6589444 -0.7004049 
2.125 -67.875 564.125 0.2083067 0.5345668 -0.8190524 
-1.222222 -68.55556 562.2222 0.3698363 0.5325607 -0.7613147 
2.090909 -70.81818 562.3636 0.2550345 0.3419138 -0.9044625 
10.625 -83 564.125 -0.1171639 -0.3637941 -0.9240814 
-27.25 -85.25 566 -0.5612224 -0.2420764 -0.7914723 
-32 -89.5 565.5 0.8533575 0.4852934 -0.1904506 
-15 -103 570 0.472978 0.8266419 -0.3048855 
-19.5 -101 565.5 0.4912031 0.8402817 -0.2294475 
-28 -94.83334 568 0.4415098 0.7636439 -0.4710809 
-10 -94.77778 574.1111 0.4552404 -0.4590017 -0.7629375 
-30.25 -92 568 0.7908248 0.4303822 -0.4351635 
-28.1 -92.2 570 0.1105102 0.3440264 -0.9324341 
11.33333 -79.88889 563 -0.1788356 -0.234639 -0.9554906 
14.66667 -80 564.4445 0.550384 -0.1573957 -0.8199416 
8 -77 563 0.09883134 -0.1945972 -0.9758916 
4.75 -74 562 0.09684027 0.03657522 -0.9946277 
-37 -61 628 -0.9629239 0.2662513 -0.04344805 
-58 -63 655 0.01878929 -0.8709293 -0.4910491 
-61 -62 653 -0.08618262 -0.7624542 -0.641277 
-27.5 -47.5 616.5 -0.7374572 0.6628007 -0.1298161 
-25 -46 612 -0.6456374 0.7578596 -0.09381471 
-111.8 -7.4 571.2 -0.02365561 -0.8205056 -0.5711489 
-108.5 -6 570 -0.08381735 -0.8451792 -0.52787 
-106 -5.857143 568.2857 -0.1506192 -0.8604872 -0.4866987 
-126 -6 578 -0.5987865 0.1516813 -0.7864143 
-123 -6 575 -0.5867876 0.003851498 -0.8097317 
-164 -4 614 -0.6506184 0.6412161 -0.406863 
-160.5 -2.5 612 -0.6600782 0.6647907 -0.3497858 
-123.5 -2.5 578 -0.5698931 0.4693419 -0.6744925 
-109.6 -1.8 567 -0.5904253 0.0474204 -0.805698 
-45.875 -2.5 558.875 0.0448848 -0.8433214 -0.5355319 
-48 -1 557 -0.0723488 -0.7697842 -0.6341909 
-40 0.5 555.8333 0.04390563 -0.7965588 -0.6029647 
-37 2 554 0.01742491 -0.7711726 -0.6363876 
-33.75 3.25 552.75 0.06101322 -0.8678332 -0.4930954 
-37 4 550.1667 0.05294841 -0.9360044 -0.347983 
-115.2222 7.222222 577.2222 -0.5742701 0.4887793 -0.6567409 
-111.9 6.6 574.4 -0.4177063 0.5543877 -0.7198443 
-52 5 548 0.0327028 -0.8688523 -0.4939899 
-49 6 546.6667 0.005851254 -0.856258 -0.5165153 
-46 7.5 544.3333 0.0621607 -0.8405754 -0.5381163 
-112 10 576.7778 -0.551525 0.3833867 -0.7408339 
-52 9.5 541.1667 -0.0224568 -0.8618101 -0.5067338 
-54.85714 11 538.5714 0.0275143 -0.8594572 -0.5104668 
-58.25 12 537 0.08726122 -0.702011 -0.7067999 
-55 13.5 534.6667 -0.08373351 -0.7606966 -0.6436841 
-51 14 533 -0.04522657 -0.7763005 -0.6287385 
-55.07143 15.85714 532 -0.5003764 -0.4959499 -0.709688 
-46.33333 15.66667 529.3333 -0.08280762 -0.9052609 -0.416708 
-86 17 561 -0.5328394 0.6065173 -0.5901009 
-80 17 555 -0.5434916 0.5460595 -0.6375234 
-74 17 549 -0.6075423 0.5962204 -0.5247986 
-68 17 543 -0.5574383 0.6123407 -0.5606259 
-90.8 18.4 565.8 -0.3841076 0.4602862 -0.8003737 
-87 18 563 -0.5463367 0.6167935 -0.566641 
-78 18 554 -0.5304885 0.5282601 -0.6629655 
-75 18 551 -0.6367009 0.5534762 -0.5369135 
-62 17 537 -0.4756199 0.4989989 -0.724421 
-54 18.5 530 -0.7213684 0.2205917 -0.6564807 
-37.22222 19.33333 522.6667 0.03064168 -0.903065 -0.4284095 
-87.71429 22.14286 566 -0.3626947 -0.02430082 -0.9315911 
-75 21 554 -0.5236518 0.6512535 -0.5492339 
-51.5 21 529.5 -0.5369494 0.6470652 -0.5412874 
-33.5 20 521 0.03173365 -0.8816388 -0.4708568 
-73 23 555 -0.4897823 0.6764199 -0.5500632 
-62 22.5 543.5 -0.6318257 0.5717503 -0.5233525 
-36.75 22 519.3333 -0.3099502 -0.490853 -0.8142446 
-103 25 571 -0.4786646 0.2471833 -0.8424848 
-99.66666 24.66667 569 -0.3285942 0.172672 -0.9285527 
-49.66667 22.66667 531.6667 -0.5489662 0.6928425 -0.4675526 
-99.85714 27.71428 571.1429 -0.3396966 0.5494484 -0.7633563 
-18.57143 25.57143 511.4286 0.02271464 -0.8010742 -0.598134 
-43 28.44444 531.8889 -0.6362596 0.547518 -0.5435052 
-96.71429 30.85714 571.7143 -0.3816589 0.4192147 -0.823769 
-93 30 569 -0.3599271 0.5185517 -0.7756008 
-67.5 29 555.5 -0.4660688 0.7199146 -0.5142984 
-61.5 29 549 -0.4815939 0.6632127 -0.5729015 
-16 27 510 0.03476591 -0.9031894 -0.4278321 
-19 28 507.7778 -0.3480304 -0.5819697 -0.7349736 
-124.5 32 585 -0.3811004 0.4428965 -0.811545 
-38 29 525 -0.7047837 0.4623882 -0.5380307 
-127 34 586.5555 -0.3298002 0.07170612 -0.9413236 
-39 30.5 526.5 -0.7183934 0.4154456 -0.557957 
-10 29 505 -0.02128821 -0.8590157 -0.5115064 
-93.71429 33.85714 571.4286 -0.4597151 0.2660854 -0.8472666 
-18.57143 30.42857 505.8571 -0.5192036 -0.2265432 -0.8240788 
-60.83333 34.16667 556.1667 -0.4562562 0.6761196 -0.5785263 
-133.5 36 588 -0.1823234 -0.5476404 -0.8166078 
-130 37 586.2222 -0.1670823 -0.4243906 -0.8899304 
-39.33333 33.33333 529.6667 -0.5421427 0.6775472 -0.4970021 
-15 31.5 503 -0.6060815 -0.06017679 -0.7931229 
-15.77778 33.88889 505 -0.6985846 0.4372086 -0.5664171 
-133.6667 39 585 -0.04530746 -0.7616606 -0.6463903 
-37.5 35 531.5 -0.4100608 0.7757381 -0.4796673 
-31.5 40 531.75 -0.6383616 0.6165884 -0.4607747 
-20 40.5 519.5 -0.5634192 0.61788 -0.5484371 
-27.5 42 526 -0.6763416 0.65752 -0.3320083 
-18 42 518 -0.7145374 0.4823469 -0.5067325 
-15.66667 42.83333 514.1667 -0.6770878 0.5712959 -0.4638676 
-24.5 45.5 532.5 -0.5303233 0.8167666 -0.2272655 
-15.8 45.2 517.4 -0.6903912 0.6108061 -0.3876544 
-19 49.5 535 -0.3865597 0.8702801 -0.3052608 
-14 47 519 -0.6548729 0.7121992 -0.2528123 
-151.25 55 588.75 -0.4877529 0.7346257 -0.4716166 
-147.75 54.875 585.875 -0.4507624 0.5709987 -0.6861295 
-16.5 49.5 532.5 -0.4756633 0.8383198 -0.2663915 
-16 51 536 -0.4278484 0.8437932 -0.3239735 
-148.75 57.75 588.75 -0.8104554 0.2262814 -0.540332 
-9.5 53 530 -0.405253 0.8802085 -0.2469879 
47 103 557 -0.0368117 0.9404643 -0.3378933 
50 101 551 -0.03038868 0.9197246 -0.3913864 
46.33333 101 552 -0.05685103 0.9036897 -0.4243971 
53 99 547 -0.1256948 0.7242821 -0.6779501 
61.5 96 541.5 -0.2901502 0.8573101 -0.4252437 
56.1 97.2 546 -0.1318968 0.4386682 -0.888917 
50 94.5 543.8333 0.05466966 0.8498473 -0.524186 
41 94.5 541.1667 0.201452 0.8273232 -0.5243601 
43.5 93 539 0.1054514 0.8192554 -0.5636494 
41 91.66666 537.6667 0.08274736 0.8220288 -0.5634017 
38.2 90.6 535 0.1309522 0.8845203 -0.4477448 
34.75 90 533 0.0553028 0.8472576 -0.5282956 
32.25 89 531 -0.006241316 0.8557843 -0.5172951 
35 88 529.6667 0.08668844 0.7986017 -0.5955842 
38 86 528 -0.03205325 0.8034384 -0.5945244 
34.6 85 526 -0.03364814 0.8869227 -0.4606909 
-11 81.5 543 -0.315452 -0.3620538 -0.8771585 
3 78 536 -0.2687661 0.3959194 -0.8780732 
-12.8 78.93333 543.4667 -0.2372347 0.1766556 -0.9552552 
-12.4 75.9 541.7 -0.2573313 0.4289753 -0.8658873 
-16.14286 76.28571 543 -0.2358517 0.3580531 -0.9034224 
-19.25 74 543 -0.3436292 0.3799948 -0.8587915 
-151.2222 79.33334 574.1111 0.2417848 -0.7157875 -0.6551248 
-130.25 75 561 0.007479049 -0.8059292 -0.5919647 
-10.75 73.25 540 -0.4066042 0.2693969 -0.8729824 
14.14286 69.42857 531.2857 -0.2316062 -0.6462724 -0.727111 
-133 73.7 562.5 -0.02233337 -0.798345 -0.6017861 
11 68 533 0.02285666 -0.2590768 -0.9655863 
-130 72.5 564.5 -0.006217215 -0.7871292 -0.6167569 
-22.09091 70.18182 543 -0.3947502 0.2092298 -0.894648 
-139.3333 72 567.6667 -0.3495928 -0.7552596 -0.5544077 
-145.5 72.75 574 -0.7921204 -0.4370977 -0.4260175 
-151.25 73.75 580.75 -0.07561827 -0.7713884 -0.6318558 
13.33333 67.66666 534 -0.2365794 -0.3391401 -0.9105022 
-25.125 67.125 543 -0.309404 0.2206494 -0.9249774 
14 64 525.6667 -0.4823651 0.8595417 -0.1688551 
-24.5 65 542 -0.09318965 -0.05618844 -0.9940616 
11 62 525 -0.4684185 0.850548 -0.2390654 
11 63.33333 528.6667 -0.4154292 0.8711917 -0.2616173 
9 63 531.5 -0.5094388 0.8148422 -0.2765943 
5.25 63.25 535.5 -0.2699465 0.5912467 -0.7599712 
-27.75 64.0625 544.0625 -0.4035627 -0.442852 -0.8006368 
-139 67 573.7778 -0.2536883 -0.7156283 -0.6507829 
5 60.66667 531.6667 -0.4096896 0.8682299 -0.2798772 
-28.125 61.5 546.75 -0.07050578 -0.8618424 -0.5022515 
-129.75 64.75 574.25 -0.003692061 -0.8045954 -0.593812 
-132.875 63.125 577.25 0.09041394 -0.8378719 -0.538327 
-138.75 61.125 579.875 -0.234094 -0.8369676 -0.4946568 
-106 -9 573.6667 -0.07128791 -0.8576127 -0.5093315 
-167 -11 613 -0.8853659 0.3510179 -0.3048176 
-106.1429 -11 576.7143 -0.09947754 -0.8455625 -0.5245268 
-115 -12 579 -0.01578054 -0.8434543 -0.5369691 
-55 -13.57143 576.7143 0.0662609 -0.8581955 -0.5090285 
-45.85714 -14.57143 580 0.06503024 -0.8864188 -0.4582933 
-46 -16 583.3333 0.06710054 -0.9001574 -0.4303654 
-67 -18 585 0.02457416 -0.8417074 -0.5393745 
-58 -19 587 -0.01513634 -0.8305854 -0.5566855 
-61 -20.57143 589.1429 0.01810623 -0.8457059 -0.533342 
-67 -22.2 591.8 0.03026597 -0.8728489 -0.4870511 
-64 -24 594.3333 -0.02706037 -0.8383708 -0.5444283 
-73 -25 596 -0.06905731 -0.8690189 -0.4899361 
-64.25 -25.75 597.75 -0.08744667 -0.8544465 -0.5121274 
-67.33334 -27 601 -0.09744822 -0.8329919 -0.5446361 
-64 -28 600.6667 -0.0941304 -0.8435177 -0.5287886 
-60.75 -29.75 604 0.01762251 -0.8100128 -0.5861474 
-67.25 -31.75 606.75 -0.07149123 -0.8328347 -0.5488856 
-16.125 -37.875 610 -0.6537164 0.465476 -0.5966465 
-18.4 -38 613 -0.8606278 0.1196362 -0.4949819 
-31 -41 622 -0.118137 -0.7586184 -0.6407353 
-18.8 -41.2 610.2 -0.6938835 0.6398616 -0.3303073 
-37 -66 616 -0.9754574 0.2053981 -0.07933723 
11 -61.5 570.5 0.05423334 0.6783513 -0.7327334 
13 -63 569 0.2443048 0.6985688 -0.6725452 
15 -64 570 0.5105971 0.5561386 -0.6557442 
11 -64.66666 567.7778 0.04149494 0.7032148 -0.7097656 
8 -66 566 0.06847452 0.6465962 -0.759753 
11 -68 565.2222 0.06104312 0.3876564 -0.9197806 
14.07692 -71.15385 564.6154 0.2983834 0.2713657 -0.9150563 
10.5 -72 563 0.216624 0.2804984 -0.9350907 
-16.25 -86 562.25 -0.05580426 -0.5413316 -0.8389553 
-20 -87 564 -0.2125725 -0.5577973 -0.8022937 
-12.5 -90 567 0.2981174 -0.7348293 -0.6092225 
-16.3 -89 564.6 -0.04376414 -0.666487 -0.744231 
-15.5 -98.66666 573.1667 0.4492579 -0.1177834 -0.885604 
-22.2 -98.8 568.2 0.5445759 0.6902395 -0.4764521 
-10.2 -103 574.4 0.3709811 0.8184262 -0.4388072 
-27 -97 563 0.7108173 0.7031047 0.01955744 
-16.14286 -94.85714 570.7143 0.2908085 -0.5698631 -0.7685613 
-19.14286 -94.42857 569 0.1452755 -0.5785158 -0.8026298 
-16.125 -91.875 567.875 0.2561044 -0.6708882 -0.6959307 
2 -82.33334 564.3333 0.1578719 -0.5542201 -0.8172616 
-1.5 -82 563 0.2899256 -0.5110399 -0.8091856 
2 -79.55556 562.6667 0.1218068 -0.3573387 -0.9259979 
-33 -58 601 -0.9124447 0.3930144 -0.1139493 
-72.5 -62 655 -0.09041309 -0.8219429 -0.5623481 
-30 -51 613 -0.7460824 0.6568975 -0.1088423 
-28 -49 611 -0.7071068 0.7071068 -1.350418e-08 
-31 -46.71429 627.7143 -0.6780303 -0.3972247 -0.6184556 
-165 -8 610 -0.7387117 0.4357411 -0.5142322 
-118.2 -5.2 571.5 -0.6251538 -0.05124924 -0.7788173 
-166.5 -4.5 618.5 -0.7004938 0.6531006 -0.2876948 
-36.875 -1.5 559.25 0.09374794 -0.8449829 -0.5265124 
-124.6667 1 582 -0.5730869 0.3943686 -0.7183626 
-118.75 1.25 576.75 -0.5996706 0.3975626 -0.6945065 
-112.2857 1.142857 571.2857 -0.6147946 0.4392015 -0.6550799 
-106 0.875 565 -0.6164712 0.2314458 -0.7525929 
-55 0.5 555.6667 0.05321245 -0.7882475 -0.6130534 
-46 2 554 -0.001476516 -0.7886583 -0.6148301 
-126.5 3 584 -0.5391604 0.4573581 -0.7071985 
-49 3 552 -0.004301151 -0.8941344 -0.447778 
-46.14286 4 549.8571 0.0390634 -0.8771755 -0.4785785 
-164 6 609 -0.6050524 -0.7514839 -0.2630279 
-120.25 7.25 580.75 -0.6160235 0.3651236 -0.697997 
-106.5 6.833333 570.6667 -0.6513461 0.431365 -0.6242376 
-33.8 6.4 546.6 0.09971865 -0.8127721 -0.5739841 
-36.75 7.5 544.25 0.07118171 -0.7885485 -0.6108391 
-120.875 10 583.375 -0.6695454 0.2187232 -0.7098374 
-117.8333 10 580.6667 -0.5762236 0.2946818 -0.7623182 
-43 9.625 541.375 -0.0003459648 -0.8679008 -0.4967374 
-40 11 538.2 0.01680462 -0.9006059 -0.4343118 
-94.4 13.2 564.4 -0.5879589 0.5120983 -0.6261468 
-75.75 12.875 546.625 -0.6054663 0.4708017 -0.6416825 
-70 12.77778 541.2222 -0.5876501 -0.09177563 -0.8038934 
-40 12.5 535.5 0.006317245 -0.8591306 -0.5117174 
-101 14 570 -0.4549112 0.5006011 -0.736515 
-102.6667 15.66667 572 -0.4827801 0.2012163 -0.8523118 
-43 14 533 0.01556469 -0.871693 -0.4898052 
-40 15 531.3333 0.02551724 -0.9379411 -0.3458546 
-37 15.66667 528.6667 0.07910055 -0.9317974 -0.3542552 
-96 18.33333 569 -0.5426185 0.06402373 -0.8375357 
-69.77778 19.22222 547.1111 -0.4048964 0.6946873 -0.5945321 
-34 17 527 0.03393482 -0.887975 -0.458638 
-43 18 525.3333 -0.1466489 -0.7574864 -0.6361671 
-94 22 568.2222 -0.3382299 -0.07514913 -0.9380583 
-45.33333 20 524 -0.5359525 -0.3685874 -0.7595382 
-92 25 567 -0.4944582 0.08820999 -0.8647138 
-82.25 25 564 -0.5114127 0.1511432 -0.845939 
-75.66666 24.77778 559.3333 -0.5198584 0.5024814 -0.6908399 
-69.75 24.25 553.75 -0.4892276 0.5948338 -0.6378315 
-63.33333 24.33333 547.6667 -0.6664126 0.50761 -0.546101 
-57.57143 24.71428 541.4286 -0.5317664 0.5812869 -0.6158978 
-51.5 24.75 535.5 -0.6941358 0.4176467 -0.5862993 
-46 24.66667 529 -0.5525261 0.7100586 -0.4364993 
-34.23077 24.76923 517.1539 -0.4574749 -0.1811857 -0.8705679 
-85.07692 27.92308 565.2308 -0.3186144 0.1915348 -0.9283315 
-40 25.33333 522.8333 -0.6122888 0.6031677 -0.5111667 
-88.5 28.83333 567.1667 -0.3098885 0.4938217 -0.812471 
-81 28 563 -0.3435777 0.2211258 -0.91272 
-27.33333 25.66667 512 -0.4908536 -0.4624633 -0.7383702 
-102.6667 30.77778 574.4445 -0.3632113 0.3696184 -0.8552542 
-69.875 30.875 559.375 -0.3611018 0.558611 -0.7466989 
-85.66666 31.66667 567.3333 -0.4670012 0.2991132 -0.8321306 
-57.33333 30.33333 547.6667 -0.4635474 0.6981566 -0.54562 
-46 30 535.3333 -0.3093942 0.7197534 -0.6214743 
-103 34.22222 576.1111 -0.360505 0.3700979 -0.8561914 
-99.90909 33.81818 574.7273 -0.3581736 0.3865003 -0.8498995 
-33.8 30.8 522.8 -0.4696196 0.7399364 -0.4816135 
-82.25 34.75 567 -0.3113128 0.4699237 -0.8259879 
-22.66667 31.83333 510.6667 -0.5745022 0.5655705 -0.5916733 
-151.5 36 591 -0.07915889 -0.7893349 -0.6088384 
-142 37 589 -0.1507592 -0.6640146 -0.7323635 
-9 32 500 -0.2795615 -0.5556194 -0.7830277 
-142 39.5 586 -0.08645584 -0.8255963 -0.5575985 
-28.33333 37.16667 522.8333 -0.7575 0.4987177 -0.4212772 
-22.125 37.125 517.125 -0.4913092 0.5898502 -0.6408525 
-154 43.125 582.875 -0.3343984 -0.2412843 -0.9110212 
-157.2 45.6 584 -0.3286192 0.1704378 -0.9289566 
-21.875 42.875 522.875 -0.3927636 0.7926912 -0.4662376 
-19 47 529 -0.4385919 0.8465955 -0.3015181 
-15.5 48.5 524 -0.5238498 0.8113509 -0.259405 
-10 49.5 517 -0.399453 0.8601346 -0.3171842 
37.5 103 557 0.03699733 0.9380296 -0.3445745 
38 101 552 0.02645906 0.9029041 -0.4290271 
35 101 551 0.07686557 0.9022153 -0.4243811 
21 100 546 0.1271387 0.9493467 -0.2873614 
17.66667 99.33334 543.3333 0.1833329 0.8936582 -0.4095902 
23.16667 97 540.8333 0.2300239 0.8127558 -0.5352728 
32.5 95 540 0.05618379 0.7873619 -0.6139258 
29.25 94.5 538.5 0.04785678 0.8509236 -0.523105 
69 87 512 -0.476908 0.6734071 -0.5648731 
62.2 87.6 516.6 -0.345465 0.8530771 -0.3910414 
56.5 88 522.5 -0.2364976 0.9396059 -0.2474058 
50 90 532.3333 -0.1314059 0.9444538 -0.3012299 
46.5 90 534 -0.1024542 0.9495761 -0.2963248 
49 88 528 -0.18898 0.9265831 -0.3251623 
40.75 89 532 0.03289547 0.8826531 -0.4688725 
58.5 85.75 516.5 -0.3241912 0.7852927 -0.5274612 
47 87 526 -0.22321 0.916719 -0.3313661 
65.28571 84.42857 511.8571 -0.3122646 0.5062871 -0.8038434 
61.91667 85 513.75 -0.3035203 0.6117805 -0.7304795 
-4 82.25 540.8125 -0.1050689 0.1313403 -0.9857537 
-3.6 78.4 538.8 -0.4181138 0.3468243 -0.8395795 
-7 79 541.1111 -0.4180722 0.2017008 -0.8857384 
-1.333333 76.33334 537.1667 -0.3634718 0.3140394 -0.877079 
-153 75 577 0.1314774 -0.8558249 -0.5002773 
8 66 537 -0.4324403 -0.213124 -0.8761128 
4 59 526 -0.4343003 0.8715378 -0.2276071 
2.5 57.5 523.5 -0.4657391 0.8635734 -0.1932054 
1 56 520 -0.4264551 0.879464 -0.2113742 
0 56 524 -0.4900193 0.8448263 -0.2148248 
-19.33333 58.33333 549.5 -0.370545 -0.120662 -0.9209436 
-4 53 522 -0.3776 0.889225 -0.258258 
-88 -8.5 571.1667 -0.05194194 -0.8454676 -0.5314949 
-97 -9 573.3333 -0.01688048 -0.8758803 -0.482233 
-93.75 -10.25 574.75 -0.06535877 -0.806265 -0.5879328 
-97 -11.57143 576.5714 -0.03937897 -0.7916967 -0.6096439 
-64.2 -13.6 577 -0.1509444 -0.8589685 -0.4892739 
-58 -16 581 0 -0.8944272 -0.4472136 
-61 -17 583 -0 -0.8944272 -0.4472136 
-51.75 -18 585.25 0.08958662 -0.8884501 -0.4501452 
-46 -19.4 589.6 0.07165703 -0.7848206 -0.6155663 
-52.2 -22.4 592.2 0.1200639 -0.8340071 -0.5385322 
-34 -24 598 0.03934225 -0.8461964 -0.531417 
-55 -24 594 0.006772836 -0.8398516 -0.5427737 
-55.25 -26 598 0.03323068 -0.9060959 -0.4217654 
-52 -27 600 0.03278024 -0.8090754 -0.58679 
-55 -28 601.3333 -0.04033914 -0.8393119 -0.5421516 
-46 -29 603.6667 -0.03362075 -0.7350159 -0.6772159 
-54.5 -31 605 -0.06476747 -0.816557 -0.57362 
-52 -32 607 0.0281707 -0.8692132 -0.4936345 
-22.75 -61.75 570.5 -0.562906 0.5594038 -0.6084442 
-25.33333 -64.66666 570.5 -0.5618045 0.556508 -0.6121067 
-22.09091 -65 567.6364 -0.3906912 0.5065844 -0.7685914 
-28.33333 -67.66666 570.6667 -0.627138 0.5087363 -0.5898181 
-21.875 -68.125 565.25 -0.3601308 0.4312691 -0.827232 
