ply
format ascii 1.0
comment VCGLIB generated
element vertex 980
property float x
property float y
property float z
property float nx
property float ny
property float nz
element face 0
property list uchar int vertex_indices
end_header
55.14286 -25.42857 590.8571 -0.1065641 -0.8739952 -0.4741062 
58 -24.5 587.8333 -0.1439132 -0.8685141 -0.4743125 
73 -24 585.6667 -0.0317058 -0.896847 -0.4412033 
57.75 -22.75 585 -0.09522384 -0.8552828 -0.5093364 
55 -21 582.6667 -0.09178285 -0.8774228 -0.4708557 
65 -21 580 -0.1752453 -0.8350302 -0.5215492 
60.8 -19.4 579.4 -0.04213235 -0.8685704 -0.4937716 
90.75 -18.25 573 -0.03028489 -0.8335222 -0.5516554 
64 -18 576 -0.02800587 -0.8538095 -0.5198317 
55 -17 575 -0.1202153 -0.8654229 -0.4864066 
97.14286 -15.71429 570.4286 0.08819003 -0.4767494 -0.8746042 
101 -17 572 -0.04738936 -0.4651467 -0.8839642 
99.75 -13.75 570.75 0.2761479 0.1623743 -0.9472998 
61 -10 563.3333 0.2445725 -0.5065807 -0.8267772 
64 -6.75 563.1667 0.2355991 0.14736 -0.9606134 
100.3333 -6.666667 575.1667 0.3192361 0.427473 -0.8457867 
90.875 -3.75 575.125 0.224024 0.5751831 -0.7867513 
56 -3 563 0.2757543 0.6113288 -0.7417795 
57.71429 -1.142857 564.7143 0.3681092 0.5165803 -0.7730721 
93.5 -2 577 0.18627 0.6543913 -0.7328544 
100.25 -0.25 582 0.2239895 0.8990346 -0.3762521 
142 -0.3333333 625 0.3063325 0.913359 -0.2682086 
65 0 569 0.3993135 0.5795959 -0.7103643 
91 0 578.3333 0.2090653 0.7628649 -0.6118243 
124 0 605 0.2429897 0.9515563 -0.1884056 
148 0 631.3333 0.3050546 0.847651 -0.4340847 
67 1.428571 570.1429 0.2815107 0.5983239 -0.7501734 
70.14286 2.285714 572.5714 0.2857024 0.6301108 -0.7220351 
84.5 1 577 0.262935 0.7386652 -0.6206763 
87.8 1.4 579.2 0.2616129 0.7837846 -0.563241 
97.5 2 587.5 0.2129716 0.9459831 -0.2444567 
99.5 2.5 591 0.2120322 0.9497715 -0.2301661 
122 2 612 0.2240977 0.9550134 -0.1942413 
123.5 2.5 616 0.2585977 0.9315841 -0.2554964 
133.3333 2.666667 624.3333 0.3403431 0.7855326 -0.5168221 
111 3 604 0.1910488 0.9652038 -0.1785555 
136.5 3 627.5 0.4454668 0.7294224 -0.5191363 
66.8 4.4 573.6 0.1431483 0.792358 -0.593024 
82 4.333333 582 0.2252606 0.9182271 -0.3257556 
95 4 593 0.2204316 0.9490013 -0.2254033 
106.5 4 605 0.2285924 0.953289 -0.1974477 
118.1667 5.333333 619.5 0.4101934 0.6367359 -0.6529232 
148 5 636.4286 0.2536755 0.4786534 -0.8405592 
133.2 5.6 627.6 0.446456 0.522054 -0.7267302 
79 6 585 0.2629822 0.9258746 -0.2712872 
90.5 6 596.5 0.2513156 0.9422647 -0.2213095 
102.5 6 609 0.2519928 0.9358013 -0.2465273 
123.25 7.75 623 0.4520859 0.348762 -0.8209649 
127.1667 8 625.3333 0.4426795 0.4324467 -0.7855092 
130.2857 8.142858 627.5714 0.4576845 0.461817 -0.7597697 
134 9 630 0.4862023 0.4695024 -0.7370039 
120.7143 10.85714 622.5714 0.6222278 0.2738865 -0.7333612 
127.6 11.2 627.4 0.4662412 0.4863217 -0.7389928 
135.75 10.25 632 0.3059229 0.6184333 -0.7238449 
153 10 648 0.5381401 0.7952588 -0.2792291 
114 11.5 617 0.39286 0.0707308 -0.9168742 
148.5 11.5 643.5 0.5288405 0.7436315 -0.4090721 
134 12 633 0.4412779 0.6988235 -0.5629561 
149 15 652 0.5117921 0.8306865 -0.2191547 
31.25 14.75 569.5 0.3827641 0.7917836 -0.4759941 
34.5 15 572.5 0.4106197 0.8112863 -0.4161804 
31 17 573 0.3745024 0.8274386 -0.4184417 
144 18 653 0.4419538 0.8595785 -0.2565182 
139 19 649.3333 0.3014968 0.8651479 -0.4007728 
141 19 652 0.4041396 0.866199 -0.2938886 
22.375 23 575.25 0.5006777 0.3313535 -0.7997042 
132.5 26 650 0.2592064 -0.4328856 -0.8633783 
135 25 652 0.6815166 0.2595837 -0.684216 
132 29 652 0.4655673 -0.1554562 -0.8712522 
-26 143.5 554.5 -0.9821756 0.1497981 -0.1135408 
-20.16667 107.3333 525.1667 -0.1899749 -0.7782969 -0.5984676 
-17.5 106 527 -0.1614406 -0.7567369 -0.6334716 
-139 122 614 -0.1418338 -0.9866335 -0.0802343 
-142 122 617 -0.1145906 -0.9915197 0.06130016 
-145 123 619 -0.01948448 -0.9961261 0.08575085 
-14.41667 104 527.6667 -0.1607372 -0.7887626 -0.5933104 
-17 103 530 -0.1943594 -0.802907 -0.563529 
-8.1 101.1 531.8 -0.004987721 -0.04868513 -0.9988018 
-74.33334 107.3333 566.5 -0.7252759 0.05690524 -0.6861025 
-17.11111 100.1111 534.3333 -0.2427376 -0.6833162 -0.688591 
-8 97 528.6667 -0.3605342 0.7465357 -0.5591956 
-10.7 98 531.4 -0.4321276 0.4526765 -0.7799678 
-73.875 103.875 564.375 -0.6166583 0.1951198 -0.7626669 
-14.14286 98.42857 533.2857 -0.3514621 0.2789582 -0.8936759 
-17.75 98 536 -0.4717705 -0.1014087 -0.8758703 
-76.875 103.625 566.875 -0.5963243 0.3181251 -0.7370167 
-71.33334 100.1667 563.5 -0.5012153 -0.226093 -0.8352634 
-122.2 106.8 615.4 -0.5814532 -0.3960414 -0.7106782 
-2.5 91 527 -0.2145392 -0.5486593 -0.8080507 
-68.75 95.25 560.25 -0.6171517 0.4444174 -0.6493204 
-121 103 613 -0.7468378 0.3092454 -0.5887279 
-124 104 617 -0.8217818 0.01516072 -0.5696007 
5 87 528 -0.1240121 -0.8667407 -0.4830959 
1.25 88.33334 528 -0.1185059 -0.8002104 -0.5878944 
-82.4 94.8 570.8 -0.5643627 0.2468063 -0.7877699 
-68.75 92.25 557.75 -0.7043445 0.4193531 -0.5727495 
1.25 86.5 531 0.06504272 -0.9175954 -0.3921583 
-71.28571 92.14286 560.2857 -0.6557878 0.2690785 -0.7053646 
-2 85.5 534 -0.00564388 -0.9241605 -0.3819628 
-68.25 89.25 555.25 -0.7002835 0.5100191 -0.4994833 
-69 87 553 -0.7036611 0.646554 -0.2946679 
-73.5 89 561.6667 -0.5949972 0.2398 -0.7671208 
-125 94.33334 600.6667 -0.559779 0.6609734 -0.4997616 
-35 83.5 534.8333 -0.01750306 -0.502922 -0.8641546 
-81 89 566 -0.6244241 0.3554247 -0.6955342 
-70.5 85.5 554 -0.6939884 0.6400384 -0.3297438 
-88.4 88.8 571 -0.4988982 0.464901 -0.7314148 
-137 94.5 612 -0.4294157 0.8197143 -0.3790391 
-31.75 82.5 536.5 0.03055911 -0.8040591 -0.5937634 
-73.5 85.5 559 -0.5239868 0.6914023 -0.497394 
-76.75 85.75 561.75 -0.3638785 0.6814811 -0.6349614 
-80 86.5 563.8333 -0.3083651 0.5917585 -0.7448039 
-83.25 86.75 566.25 -0.4560387 0.6099885 -0.6480299 
-87 87 569 -0.4190928 0.6534184 -0.6304013 
-35.125 80.125 537.75 0.3227173 -0.4458053 -0.8349319 
-25.875 80.125 539.875 -0.02835303 -0.7572787 -0.6524761 
-19.875 78 543.25 0.1554985 -0.7830814 -0.6021658 
-38 77.14286 536.7857 0.6038271 0.2359961 -0.7613794 
-41.3 76.7 534.2 0.5584239 0.2984455 -0.774011 
-25 74.5 545 0.5610953 0.07305424 -0.8245211 
-38.6 73.8 534.6 0.6316444 0.2418074 -0.7365831 
-32.07143 61.57143 539.8571 0.2562331 -0.6370378 -0.726999 
88 58 584 -0.8971545 -0.4411224 -0.02290896 
88.66666 56.33333 581.6667 -0.7315431 -0.6815419 0.01858361 
90 52.5 594.5 -0.8283857 0.3734741 -0.4174857 
100 49 587.6667 -0.0169621 -0.8866768 -0.4620785 
85 47.5 594.6667 -0.1861525 -0.2635353 -0.9465181 
87 46 596 -0.268692 -0.743772 -0.6120523 
85 45 598 -0.190308 -0.7997047 -0.5694342 
19.2 -36.4 613 -0.1289054 -0.8948652 -0.4273168 
22 -38 615.6667 -0.06983304 -0.8760639 -0.4771116 
27.8 -39.6 619.2 -0.03449106 -0.8914816 -0.4517422 
25 -41 622 -0.02400807 -0.8435376 -0.5365331 
37 -44 624 0.02481669 -0.7612894 -0.6479372 
40.5 -45 625 -0.06324791 -0.815217 -0.5756919 
37 -46.5 628.1667 -0.07134804 -0.8707927 -0.4864459 
33.5 -47 630 -0.08572558 -0.8754371 -0.475669 
48.8 -48.6 631 -0.05701697 -0.8750854 -0.4805982 
51.5 -50 633 -0.1101373 -0.7619042 -0.6382569 
49 -52 635 -0.0297467 -0.7820278 -0.6225334 
33.8 -51.6 636.8 -0.08508819 -0.8658771 -0.4929674 
31 -53 640 -0.06147479 -0.8631237 -0.501237 
40 -54.4 640.2 -0.1548756 -0.8784111 -0.4521145 
31.25 -55 643 -0.06900087 -0.7737225 -0.629756 
34 -57 644 -0.07347079 -0.7317923 -0.677556 
31 -57.5 645.6667 -0.1222082 -0.8147969 -0.5667198 
79 -62 649 -0.01980013 -0.8320065 -0.5544125 
83 -63 650 -0.09845831 -0.8007799 -0.590811 
79 -64 651.6667 -0.004947163 -0.7798296 -0.6259724 
88 -66 653 -0.03590859 -0.8565084 -0.5148826 
79 -66.5 654.5 0.0303017 -0.819024 -0.5729585 
82 -68 657.6667 0.09808343 -0.8296003 -0.5496753 
78 -70 659 0.07616368 -0.8218048 -0.5646556 
100 -71 661 -0.1200317 -0.844743 -0.5215377 
6 -68 630 0.7889132 0.5998005 -0.1336235 
24 -94 665 0.9431185 0.3109723 -0.1175742 
23 -97 652 0.9246447 0.375265 -0.06487266 
30.5 -106 693 0.7801125 0.6116151 -0.1317252 
21 -88 660 0.9376364 0.322008 -0.1309535 
46 -91 693.3333 -0.1071926 -0.766816 -0.632853 
15.5 -82 637.5 0.8737702 0.3878964 -0.2933634 
43.5 -90 692 -0.03832003 -0.8803342 -0.4728036 
20 -85 662 0.9191265 0.3598235 -0.160417 
42.5 -87 688 -0.05522424 -0.7897033 -0.6109983 
15.5 -79.5 640 0.8369189 0.4681439 -0.2835634 
43 -85 685 -0.106348 -0.7918335 -0.6014065 
14 -79 636 0.9213669 0.3555618 -0.1570317 
67 -83 681.3333 -0.05646012 -0.864863 -0.4988229 
69.5 -82 679 -0.03428236 -0.8284515 -0.5590105 
15 -76 644 0.8426541 0.507731 -0.1792857 
76.5 -80 676 -0.04897087 -0.8605007 -0.5070902 
73 -79 674 -0.0893723 -0.8185392 -0.5674558 
70 -77 672 -0.01880921 -0.8033311 -0.5952356 
12 -73 643 0.7762744 0.5923476 -0.2156902 
85 -76 670 -0.04092399 -0.9021035 -0.4295747 
11 -72 641 0.8345748 0.5456314 -0.0759684 
88 -75 668 -0.05327207 -0.8102925 -0.5835994 
81.8 -72.4 663.8 0.03873738 -0.8225694 -0.5673438 
85 -73.66666 666 0.07764957 -0.8062009 -0.5865242 
8 -69 635 0.7695013 0.6091625 -0.1918043 
14 -27 598 -0.2481024 -0.8570898 -0.4514891 
16 -26 596 -0.1449527 -0.8752297 -0.4614778 
12.75 -24.75 594 -0.1701302 -0.9001474 -0.4009867 
27.75 -22.75 587.75 -0.1253275 -0.874051 -0.469391 
10 -19.5 585 -0.08079156 -0.8811212 -0.4659379 
7 -18 582.5 -0.1476222 -0.8784301 -0.4544977 
6.75 -15.75 578.75 -0.1833471 -0.8531286 -0.4884214 
49 -15.5 573 0.008208236 -0.8847412 -0.4660102 
10 -15 576 -0.1629001 -0.8517199 -0.498033 
6.75 -14 575.75 -0.1821936 -0.8631886 -0.470862 
49 -14 570.6667 0.01189613 -0.8929874 -0.4499246 
46 -12.5 567 -0.04517005 -0.8784721 -0.4756536 
10 -11 570 -0.129841 -0.8427961 -0.5223371 
13 -10 567.2 -0.1121733 -0.8622268 -0.4939455 
16 -9 565 -0.03813265 -0.8425247 -0.5373064 
13 -8 563.6667 -0.15352 -0.8444669 -0.5131349 
22 -7.4 561 -0.0736856 -0.9078531 -0.4127627 
19 -6 559 -0.07167816 -0.8608816 -0.5037312 
157 -6 614 0.3790269 0.8961427 -0.2307965 
19 -4.5 555.3333 -0.04283025 -0.91519 -0.4007405 
155 -5 611 0.3890501 0.9101478 -0.1423762 
21.75 -3 553 0.04742948 -0.6579494 -0.7515669 
19 -1 551.4445 0.1314615 -0.2167302 -0.9673396 
16 2 551.1111 0.2699007 0.2674016 -0.9250135 
12.9 5 552.3 0.4185868 0.5460125 -0.7257105 
16.2 5.6 554.4 0.1731123 0.6445892 -0.7446724 
10 7.5 552.6667 0.2452724 0.6701306 -0.7005473 
7.5 9 554 0.3587181 0.5938929 -0.7201476 
16.5 9 557 0.2736267 0.5939644 -0.7565281 
6 10 553 0.4579228 0.5032671 -0.7328226 
9.875 10.875 555.5 0.2677788 0.5227579 -0.8093323 
13.25 11.25 557 0.2647597 0.5545924 -0.7888787 
123.75 13.75 625.75 0.5301019 0.5709742 -0.6268816 
60 13 592 0.2111002 0.8879107 -0.4087192 
58 14.5 594 0.3646457 0.8141347 -0.4519051 
120 16 625 0.5995898 0.6375026 -0.4838209 
123 16 629 0.5265982 0.7567278 -0.3873726 
54.66667 16.66667 594.3333 0.4824148 0.6691447 -0.5652623 
57.875 16.875 597 0.4306565 0.594269 -0.679249 
117 19 626 0.6598394 0.5965607 -0.4568671 
120.5 20.5 634 0.7050459 0.5858135 -0.3996661 
116 21 627 0.7579738 0.5140728 -0.4015032 
115 22 626 0.7498815 0.3632257 -0.552942 
120 25.5 639 0.9312075 -0.05193026 -0.3607713 
113 25.5 624.5 0.8654513 -0.2784885 -0.416459 
67 26.28572 596.7143 0.1456577 -0.6282887 -0.7642232 
120.5 29 637 0.5551434 -0.7381524 -0.3833366 
66.875 29.125 594.875 0.3061137 -0.284103 -0.9086143 
70 29 596.7778 0.4686996 0.02875274 -0.8828896 
123.5 30 639.5 0.4867103 -0.7976289 -0.356232 
72 31 598 0.5430261 0.1399503 -0.8279714 
113 37 611 0.4329865 -0.7599152 -0.4848212 
-68 116 547 0.1148157 -0.993377 -0.00442894 
-4.75 107 528.6667 0.1915508 -0.468944 -0.8622064 
-2 106 530 0.01842213 -0.6557277 -0.7547727 
-4.75 103.75 531.375 0.07644586 -0.3982828 -0.9140716 
1.5 100.6667 528.1667 -0.497356 0.7354119 -0.4602244 
-68 107 560.3333 -0.5731534 -0.01656161 -0.8192807 
-139 119.25 622.75 -0.7266347 -0.3887623 -0.5664502 
-80.75 107.5 572.5 -0.729426 0.04184711 -0.6827786 
-67 103 559 -0.5589971 -0.1827005 -0.808791 
-70.77778 103.8889 561.4445 -0.5347689 0.06788965 -0.8422667 
-79.83334 104 570.1667 -0.6280157 0.3742613 -0.6822938 
-83.14286 104.1429 572.7143 -0.5803032 0.4002453 -0.7092615 
-14 95.33334 530.3333 -0.4345885 0.5765105 -0.691931 
-79.4 101.2 567.8 -0.6615114 -0.06769642 -0.7468734 
-85.875 100.875 572.875 -0.4937183 0.1552599 -0.8556498 
-116 107 609 -0.6242025 -0.4263881 -0.6546484 
-13.9 91.8 528.2 -0.3466032 -0.186954 -0.9191923 
-17.33333 92.33334 530.1667 -0.4568943 0.2274628 -0.8599467 
-75 96 566 -0.544709 0.2492007 -0.8007442 
-88.4 98.4 573.8 -0.5854944 -0.0663527 -0.8079565 
-115.5 103 606 -0.5452418 0.7353953 -0.4023744 
-128 106.4 621.6 -0.6652748 -0.3442593 -0.6624916 
-10.81818 88.90909 528.5455 -0.2327222 -0.5435189 -0.8064909 
-116 101 603.3333 -0.3897488 0.8028946 -0.4510612 
-77 93 566 -0.4409042 0.5574338 -0.7034707 
-116 99 600 -0.4295543 0.8231958 -0.371257 
-122 100 608 -0.4436131 0.8070605 -0.3896931 
-7 87 529 -0.07256695 -0.729563 -0.6800529 
-119 98.5 602 -0.4105804 0.8070431 -0.4243881 
-122 99 606 -0.4652295 0.8004827 -0.3778744 
-128 101.5 617 -0.5062847 0.7446221 -0.4349872 
-10.75 86.5 530.5 -0.1870209 -0.7585345 -0.6242184 
-74.6 92.2 563.2 -0.6415287 0.2275627 -0.7325682 
-125 98.5 608 -0.4611909 0.8170339 -0.3460615 
-128.5 99 613 -0.3736533 0.8081748 -0.4552326 
-134 101 623 -0.4505996 0.8058577 -0.3841268 
-134 99 619 -0.4164732 0.8343031 -0.3612318 
-14 85 533.3333 0.04611688 -0.8994941 -0.4344926 
-137 98.5 622 -0.4462548 0.8127856 -0.3744812 
-23 84 534 0.0883152 -0.7889488 -0.6080791 
-131 94.33334 606.3333 -0.4564576 0.769232 -0.4471339 
-20.14286 83.28571 537.5714 0.1070647 -0.8672249 -0.4862697 
-130.8 88.4 600.4 -0.4883494 0.7275676 -0.4818302 
-137.3333 89.33334 606 -0.6012993 0.5440747 -0.5851682 
-35 77 539.1111 0.5417597 0.1576134 -0.8256236 
-31.91667 74 539.5 0.5014564 0.2934515 -0.8138967 
-29 71 540.6667 0.5401891 0.2150258 -0.8136091 
-32.57143 71.14286 537.8571 0.5295927 0.1729161 -0.8304406 
-19.875 71.125 548.375 0.6022861 0.0983954 -0.7921931 
-22.71428 71 545.7143 0.655807 0.1799341 -0.7331718 
-26.25 70.9375 542.875 0.5901397 0.2423803 -0.7700564 
-41 68 531.3333 0.5077783 -0.2383353 -0.8278632 
-34.66667 68.33334 536.1667 0.4522088 0.2740585 -0.8487633 
-27 68 541 0.6097012 0.1458714 -0.7790931 
-20.63636 67.90909 546.2727 0.6402693 0.1699203 -0.749121 
-41 65.5 534 0.2654829 -0.7999871 -0.5380889 
-38.11111 64.22222 536.6667 -0.0607796 -0.7450593 -0.6642232 
-23 62 543.2222 0.368594 -0.07407732 -0.9266343 
90.75 58 575.25 -0.2505733 -0.8573475 -0.4496314 
94 56.66667 576.3333 -0.1989038 -0.8245484 -0.5296765 
87.6 58.6 596.8 -0.4078033 -0.7476213 -0.5241745 
90.85714 55.71429 578.7143 -0.2730175 -0.8847346 -0.3777646 
92 54 582.5 -0.3885145 -0.8361958 -0.3870828 
78.66666 56 591.6667 0.6854686 -0.5700634 -0.4529465 
100 53.57143 579 0.1970732 -0.8358739 -0.512325 
78 54 595 0.6693897 -0.5760026 -0.4691891 
93.75 52.25 584.25 -0.3113254 -0.7985874 -0.5151065 
82 52 596.3333 0.06477678 0.7712703 -0.633203 
81.85714 49.71429 595 -0.03764529 0.3642062 -0.9305572 
94.25 47.75 591.25 -0.2287072 -0.7871912 -0.572733 
97 46 593.6667 -0.08970761 -0.8213036 -0.5633941 
100 44.5 594.3333 -0.1817058 -0.8564798 -0.4831412 
97.14286 44 596.7143 -0.08627454 -0.8977703 -0.4319319 
108.75 41.75 600.5 0.2611464 -0.7903582 -0.554199 
111.5 40.75 603.75 0.3034067 -0.7712509 -0.5595682 
109.5 39 604 0.2844499 -0.7064254 -0.6481138 
9.8 -36.6 616.2 -0.09638402 -0.9136325 -0.3949505 
13 -38 618.3333 -0.08031482 -0.8781264 -0.4716394 
16 -39 619.6667 -0.1287048 -0.8756726 -0.465438 
13 -40.66667 622.6667 -0.1085626 -0.8260119 -0.553099 
51.8 -45.6 625.2 -0.0886573 -0.8882837 -0.4506572 
49 -47 628 -0.06479609 -0.8706388 -0.4876367 
37 -48 631 -0.08289147 -0.8852522 -0.4576654 
39 -49 633 -0.125313 -0.7488061 -0.6508349 
37 -51 635 -0.1140026 -0.7737859 -0.6231042 
45.5 -53 637 -0.0244107 -0.8267145 -0.5620918 
52 -54.5 640 -0.01918748 -0.8998508 -0.4357757 
43 -56 642.6667 -0.0774067 -0.8174982 -0.5707057 
46 -58 644 -0.07633359 -0.8173711 -0.5710322 
43 -58.5 646 -0.06245359 -0.8487927 -0.5250244 
91 -62 648 -0.0243001 -0.8928726 -0.4496533 
93.66666 -63 648.6667 -0.07040168 -0.8951983 -0.4400723 
91 -64 651 -0.01277736 -0.8057625 -0.592101 
99.5 -67 653 -0.02076587 -0.8184336 -0.5742258 
91 -67 655.3333 -0.02381879 -0.9145441 -0.4037843 
7 -66 644 0.7506854 0.6321329 -0.1920401 
94 -68 657 -0.0663393 -0.8642844 -0.4986096 
91 -70 659 -0.02871856 -0.7915674 -0.6104067 
9 -68 646 0.8058564 0.584157 -0.09672663 
87.8 -70.6 661 -0.02740247 -0.9205012 -0.3897775 
22 -92 659 0.9515949 0.2863888 -0.1115739 
22 -93 655 0.9608789 0.2642422 -0.08299302 
25 -97 666 0.962511 0.2595223 -0.07887234 
26 -100 669 0.9627429 0.2591682 -0.07718787 
30 -105 683 0.8343846 0.5511702 -0.00373212 
30.5 -93.5 695 0.463695 -0.5565215 -0.6893989 
20 -87 652 0.9380475 0.3362311 -0.08375954 
19 -85 648 0.9347678 0.3437783 -0.08958571 
30.75 -90.25 691.75 0.2147702 -0.7430092 -0.6338858 
34 -91 693.3333 0.08169456 -0.7701671 -0.632589 
14 -81 628 0.9119793 0.3899542 -0.1273957 
12.66667 -79 625 0.9003415 0.4035835 -0.1628054 
18 -83 647 0.9295766 0.3561555 -0.09508178 
30.75 -87.25 688.5 0.2588692 -0.716915 -0.6473174 
40 -89 690.3333 -0.1113572 -0.7321504 -0.6719788 
30.8 -85.4 685.4 0.2731109 -0.7113216 -0.6476358 
34 -86 687.5 0.1124645 -0.8506945 -0.5134887 
11 -76 624 0.8584493 0.4693996 -0.2067094 
12.5 -76 633 0.8662925 0.461667 -0.1907904 
55 -83 681 -0.06118378 -0.8856437 -0.4603171 
58 -82 679 0.01105498 -0.8368345 -0.5473444 
64 -79.6 676.2 0.03519854 -0.8222659 -0.568014 
9.5 -72.5 628 0.8199818 0.5614528 -0.1113582 
60.5 -78 673 -0.101611 -0.7690794 -0.6310245 
96.83334 -76.5 670.1667 -0.04807488 -0.8380827 -0.5434209 
58 -76 672 -0.0716463 -0.7696807 -0.6343961 
100 -75 666.6667 -0.1135399 -0.8119243 -0.5726147 
94.25 -72.25 664.25 -0.09774635 -0.8610781 -0.4989891 
9.5 -69.5 642.5 0.7864375 0.5943564 -0.168097 
25 -27.5 597 -0.04366695 -0.8688332 -0.4931756 
25 -25.5 594 -0.04987979 -0.8811246 -0.4702461 
22 -24 591 -0.1123209 -0.855153 -0.5060607 
9 -23 593 -0.1821057 -0.8965718 -0.4037284 
13 -23 591 -0.07292879 -0.8600321 -0.5050012 
16 -21.6 588.2 -0.04846414 -0.9072084 -0.4178807 
19 -21 586 -0.1008493 -0.9132547 -0.3947092 
23 -20 584 -0.06809017 -0.8819532 -0.4663927 
19 -18.5 581.6667 -0.1316138 -0.8545498 -0.5024168 
28 -18 579 -0.05658866 -0.8564905 -0.5130516 
19 -17 579 -0.09712407 -0.8811138 -0.4628233 
21.85714 -15.57143 575.8571 -0.08286084 -0.8734878 -0.4797429 
37 -15 574 -0.02484381 -0.8539172 -0.5198157 
39.5 -14 572 -0.09822474 -0.8821725 -0.4605688 
37 -13 570 -0.03749911 -0.9023429 -0.4293848 
35 -12 568 -0.086721 -0.8524112 -0.5156302 
25 -10.6 567 -0.06451182 -0.8707191 -0.4875309 
27.75 -9.5 564.125 -0.06676363 -0.8769659 -0.4758922 
26 -8 563 -0.06482514 -0.8815429 -0.4676322 
10 -6 562 -0.1108499 -0.8310755 -0.5450009 
15.75 -5 557.75 0.001286995 -0.8848711 -0.4658342 
7 -3.5 555.5 -0.03573865 -0.8979994 -0.4385429 
150 -4 602 0.3366549 0.904918 -0.2603596 
7 -1.5 552 0.008723156 -0.7938243 -0.6080846 
25.14286 2.285714 554.2857 0.368993 0.4364188 -0.820599 
18.75 7.25 555.75 0.1730033 0.630594 -0.7565851 
27.33333 7.333333 559 0.2369186 0.5837188 -0.7766222 
25 9 560 0.2511649 0.6395528 -0.7265593 
27.75 10.25 561.75 0.2611549 0.6611893 -0.7032971 
66.75 13.25 597.25 0.3565992 0.8686285 -0.343979 
54 13 586 0.320377 0.8866209 -0.3335598 
125 21 642 0.5682268 0.7372088 -0.36557 
124.5 23.25 645.75 0.7394691 0.3989552 -0.5422363 
122 24 642 0.7200916 0.3790299 -0.5812094 
117 25.5 631 0.8917047 -0.08957705 -0.4436649 
55 26 597.4445 0.4106472 -0.4201187 -0.8092399 
118.5 29 633.5 0.8832683 -0.3774197 -0.2781934 
55 28.5 594 0.05205918 -0.7674509 -0.6389906 
120.5 31 634.5 0.4900258 -0.8036932 -0.3375674 
55 31 590.3333 0.1108586 -0.7885724 -0.604867 
63.55556 32 593.2222 0.3259481 -0.1594412 -0.9318457 
118 32.33333 624.6667 0.6810675 -0.693934 -0.2336723 
123 33 632 0.3940329 -0.849404 -0.3510712 
57 33 589 0.512592 -0.2620557 -0.8176652 
58.5 35.125 590.5 0.6465387 0.007955315 -0.7628397 
62 35 593 0.4506415 0.03477981 -0.8920273 
55 35 588 0.4986072 -0.001473566 -0.8668268 
106 37.5 605.5 -0.001487911 -0.8342317 -0.551412 
88 154 533.75 -0.2319214 0.4841473 -0.8436907 
84.9 152.1 533.9 -0.1981992 0.409434 -0.8905509 
85.4 148.8 532 -0.09270918 0.4217669 -0.9019521 
82 149 533 -0.08074736 0.5159321 -0.8528153 
88 146 530.8889 -0.1813537 0.5037186 -0.8446174 
90.8 143.2 530.2 0.01408789 0.1554222 -0.9877477 
64 139 526 0.1019128 0.3737864 -0.9218988 
91 139.4 527.6 0.3768199 0.5631704 -0.7354222 
55 137 524.8889 0.03706619 0.4289543 -0.9025654 
57.75 135 524 0.05995793 0.4296451 -0.901005 
55 133 523 0.01847356 0.5078089 -0.8612717 
64.14286 126 527.8571 -0.07326094 -0.8949297 -0.4401519 
61.1 125.1 530.4 -0.1130738 -0.8895771 -0.4425685 
58 124 533 8.210322e-05 -0.8405364 -0.5417551 
54.85714 123 534.5714 0.0213073 -0.7634109 -0.6455616 
58.14286 121.4286 536.1429 0.06663644 -0.5598468 -0.8259124 
73.2 119.6 538 -0.06035133 -0.6385406 -0.7672182 
59 118 539 0.2763778 -0.6715657 -0.6874699 
55 116.5 539.8333 -0.1732448 -0.8749531 -0.4521541 
58 115.5 542.5 -0.0008493513 -0.8341744 -0.5515001 
61.25 114 544 0.003766751 -0.8145526 -0.5800775 
57.75 113.25 546.625 0.008246056 -0.8100257 -0.5863364 
55 112 548 -0.01174313 -0.6520128 -0.7581171 
23 106 517 -0.2821334 0.8679565 -0.4087202 
57.9 110.2 548.5 -0.1924416 0.4646273 -0.8643424 
18.75 103.5 516.5 -0.4317327 0.7942774 -0.4274698 
50 107.5 548 0.6114216 0.5193675 -0.5970102 
46 107 539.75 0.7843151 0.4937443 -0.3755882 
51.5 106 545 0.0256928 0.9151512 -0.4022913 
24 96 513 0.1044675 -0.8442953 -0.5255969 
10.5 96 517 -0.2752437 -0.7546301 -0.5956294 
7 95.5 519.625 -0.2143569 -0.7139115 -0.6666194 
15.5 94 521 -0.1882291 -0.6483917 -0.7376707 
13 91.875 522.3125 -0.1896573 -0.579514 -0.7925866 
7.181818 89.54546 525.3636 -0.1035082 -0.6744786 -0.7310025 
51 85 530 -0.02389606 -0.8872617 -0.460647 
48.88889 85.77778 527.7778 0.08844215 -0.883617 -0.4597814 
16.33333 84 535 -0.008220111 -0.8295984 -0.5583 
13 83 537 -0.006624907 -0.8740964 -0.4857074 
23 82 540 0.05819342 -0.880168 -0.4710815 
19 81 539.6667 -0.007517823 -0.850534 -0.5258663 
22 79.5 543 -0.02165975 -0.9106252 -0.4126652 
24 79 545 -0.08558659 -0.8722985 -0.4814255 
22 77.5 546.5 -0.007088598 -0.8307669 -0.5565755 
19.125 76.5 548.5 -0.008796807 -0.7925541 -0.6097382 
22 75 550 0.004932492 -0.7759242 -0.6308069 
93 71.5 553 0.6393347 -0.4943305 -0.5889724 
96.33334 70.33334 560 0.8163279 -0.3893156 -0.426664 
93.25 68.25 555.5 0.472534 -0.6631957 -0.5804164 
93 66 559 0.2413132 -0.8415943 -0.4832048 
91.2 65 561 -0.01807753 -0.8925021 -0.4506809 
88.125 64.5 563.5 -0.05950335 -0.8675875 -0.4937119 
85 63 565 -0.08861541 -0.8945742 -0.438046 
78.75 63 569.25 -0.002187913 -0.9864675 -0.1639421 
88 62.5 567.1667 -0.1105486 -0.9616722 -0.2509297 
82 62 573 -0.04098593 -0.9914588 -0.1238126 
73 62 576 0.03567654 -0.9918326 -0.1224552 
-89.66666 59 554.6667 -0.8147597 0.4651246 -0.3461584 
70.5 61 584.5 0.05315112 -0.9258595 -0.3741114 
-90 56 551.5 -0.7918699 0.4897703 -0.3647837 
-137 55.5 599.5 -0.2208432 -0.8429725 -0.4905362 
-127.8571 53.42857 600.5714 -0.1410866 -0.8310086 -0.53807 
-131 52.5 602.8333 -0.1639832 -0.8312628 -0.531142 
-134.5 52 605 -0.2145387 -0.7475294 -0.6286278 
-128 51 604 -0.2004621 -0.7201857 -0.6641893 
-137 50.66667 607 -0.3059873 -0.7448233 -0.5929672 
-134 49 608 -0.2777097 -0.7560045 -0.5927348 
-121.6667 47 599.6667 -0.7752758 0.08682591 -0.6256267 
-124 47 604 -0.7731413 -0.08906832 -0.6279486 
-134 46.5 611.8333 -0.4845794 -0.7527303 -0.4456229 
-137.6667 47 616 -0.5292515 -0.7776175 -0.339417 
-134.5 44.5 616 -0.6286865 -0.5840213 -0.5134904 
-136 42 622 -0.729815 -0.5264672 -0.436122 
-134.5 41.5 619.5 -0.8347222 -0.3332941 -0.4383537 
-19.75 -36.25 619.25 0.01760299 -0.8535433 -0.5207245 
-22.75 -37.25 621.25 -0.1429182 -0.727635 -0.6709111 
-21 -40 623 0.01908831 -0.7579351 -0.6520507 
-14 -41 627 0.01907168 -0.9043719 -0.426319 
-17.25 -40.25 625 0.1098185 -0.8940854 -0.4342248 
-10.75 -42.25 628.75 -0.05491691 -0.8143653 -0.5777485 
-14 -43.4 630.8 -0.0508866 -0.7492591 -0.6603191 
1 -48 635 0.05972673 -0.7210379 -0.6903167 
-14.5 -46 633.3333 -0.02265492 -0.3835337 -0.9232489 
-7.4 -54.8 636 0.4152911 0.02093419 -0.9094477 
-70 -59 648 0.1187325 -0.8331277 -0.540186 
-3 -59 635 0.5201873 0.7744856 -0.3599683 
-5.333333 -59 631.3333 0.4249281 0.8791882 -0.2155558 
-55 -62 654 0.05143803 -0.8075006 -0.5876198 
-65 -60.5 651.5 0.05069218 -0.8029743 -0.5938541 
-30 -61 639 -0.7636943 0.6339033 -0.1222195 
-59 -63.5 655.1667 0.1379827 -0.7970618 -0.5879229 
-56 -64.5 657.5 0.09277488 -0.7987403 -0.5944802 
-32 -64 635 -0.7123437 0.6763263 -0.1874813 
-44 -68 660.3333 -0.4398714 -0.6138076 -0.6555558 
-65.2 -66.4 658.4 0.01396302 -0.7054383 -0.7086338 
-46.5 -69 662 -0.05959555 -0.7402148 -0.6697242 
0 -65 619 0.5378193 0.8050467 -0.2503004 
-2.25 -64.75 616.25 0.4346714 0.8298535 -0.3498629 
-5.25 -64.75 613.5 0.3700559 0.8637569 -0.3420274 
-8 -65 609.6667 0.2435734 0.8953255 -0.3729131 
-34 -67 629 -0.7928424 0.5981235 -0.1168293 
-44.2 -70.6 663.4 -0.5329372 -0.5096269 -0.675469 
-53 -71 666 -0.06068402 -0.7338159 -0.6766325 
37.5 -109 706.5 0.3749044 0.7939879 -0.4785705 
46 -109.5 709.25 0.4794582 0.6911521 -0.5407668 
34 -108 696 0.5312339 0.844089 -0.07283115 
-52 -86 640 -0.0592055 0.9982427 -0.002490998 
-48 -87 643 -0.3856444 0.918018 0.0923118 
2 -81 599 0.5931361 0.5441798 -0.5933447 
3 -80 601 0.5596152 0.537518 -0.6307973 
-45 -82 652 -0.8946052 0.4309812 -0.1180538 
-2.666667 -73.66666 600.6667 0.4761748 0.7210139 -0.5033851 
2 -75 605 0.5961522 0.6114277 -0.5203448 
5 -75 608 0.7019938 0.4521911 -0.5502071 
-43 -79 648 -0.9115585 0.4035279 -0.07890715 
3 -74 606 0.5559441 0.6262456 -0.5465737 
-4.333333 -72 602.6667 0.4321789 0.769136 -0.4707987 
-70.5 -79.5 675.5 0.07380405 -0.7892978 -0.6095589 
-40 -76 637 -0.8831935 0.4382676 -0.1670056 
-11.2 -70.6 600.4 0.1592502 0.7665585 -0.6221153 
1.5 -72 608 0.4652008 0.6905439 -0.5538387 
-68 -78.5 673.5 -0.02655976 -0.7997563 -0.599737 
-8.142858 -70 602.8571 0.2955513 0.7877028 -0.5405309 
-76 -77 672 0.006648227 -0.7806537 -0.6249284 
1.2 -69.8 612.2 0.5916302 0.7252831 -0.3520484 
3.75 -70 615.75 0.6860393 0.6504049 -0.3260729 
-55.75 -75.25 670.25 -0.007631117 -0.8216981 -0.5698718 
-43 -75 659 -0.9485452 0.2901488 -0.12679 
-38 -72 636 -0.8326164 0.5264548 -0.1720323 
-35 -70 625 -0.7558619 0.5675007 -0.3265207 
-37 -71 633 -0.8329972 0.5313364 -0.1542639 
-12 -68 604 0.1634238 0.7964491 -0.582204 
-58 -74 669 0.0201728 -0.8461199 -0.5326109 
-14 -66.5 605.5 0.03174556 0.8085508 -0.5875694 
0.8 -67.2 615.6 0.59919 0.7003608 -0.3878995 
-65 -72 665 0.07786072 -0.7656674 -0.638507 
-55.5 -73 667 0.0312114 -0.7329962 -0.6795164 
-32.66667 -67 625.3333 -0.7083434 0.6264364 -0.3253106 
-34.8 -24.6 597.2 0.05328687 -0.8900995 -0.4526405 
-32 -24 595 0.04683758 -0.892942 -0.4477286 
-29 -22.5 593.5 0.1870477 -0.846956 -0.4976734 
-25.5 -23 596 0.2173586 -0.8404076 -0.4964578 
-166 -22 637.3333 -0.7992708 0.1019592 -0.5922589 
-23 -20 592 0.1326544 -0.9023409 -0.4101019 
-41 -18.5 585 -0.009428198 -0.8722219 -0.4890196 
-20 -19 588.6667 -0.05425951 -0.9404365 -0.3356117 
-166.6667 -19 640 -0.9044022 0.1870187 -0.3835112 
-165 -20 636 -0.8415637 0.01755268 -0.5398726 
-34.75 -16.75 582 0.03899715 -0.8978267 -0.4386188 
-38 -15.5 579 -0.04759412 -0.8723842 -0.4864984 
-167 -17 643 -0.9170972 0.2252374 -0.3289391 
-139.75 -15.25 622.25 -0.5050932 -0.6036652 -0.6168219 
-41.5 -14 578 -0.03350742 -0.86507 -0.5005307 
-38 -13.42857 575.5714 -0.07515571 -0.8827658 -0.4637631 
-143 -14 622 -0.07641684 -0.8431923 -0.5321533 
-140 -12.66667 619.5 -0.2056544 -0.758709 -0.6181157 
1.25 -12.25 573.25 -0.02140864 -0.8773768 -0.4793242 
-167 -13 645 -0.9294307 0.2219198 -0.2948053 
-40.85714 -9.714286 569.7143 -0.1109178 -0.8214889 -0.559333 
-32 -9 568 0.08121099 -0.8313274 -0.5498178 
-35 -8 566 0.0002731757 -0.8409972 -0.5410395 
-32.125 -6.375 564 -0.01243075 -0.8862922 -0.4629596 
-28.33333 -6 562 -0.001422577 -0.9127861 -0.4084356 
-20 -5 561 -0.08779987 -0.9134866 -0.3972824 
-23 -3 558 -0.03547734 -0.8692515 -0.4930958 
-161.25 -0.75 640.25 -0.8465663 0.09553934 -0.523639 
-29 -1.5 554.5 0.04864858 -0.8235874 -0.5650993 
-159 0 637 -0.807847 0.1977797 -0.5552176 
-26 0 553 0.02425436 -0.8517754 -0.5233454 
-157 1.5 635 -0.7490299 0.3238223 -0.5780082 
-35 1 551 0.02664023 -0.827438 -0.5609248 
-152.5 2.5 628.5 -0.8257381 0.3422347 -0.448366 
-50 2.5 549.5 0.08756252 -0.8555884 -0.5101974 
-50.14286 4 545.8571 -0.01362882 -0.8978366 -0.440118 
-47 5.5 542.8333 -0.04901038 -0.8782765 -0.4756347 
-53.33333 7.5 540 -0.007407418 -0.8381354 -0.5454119 
-154 11 634.3333 -0.7541965 0.16174 -0.636418 
-56 9 538 0.04635455 -0.8387536 -0.5425344 
-151 11.5 631.5 -0.8018621 0.2182113 -0.5562382 
-58 10 536 0.02598233 -0.9377258 -0.3464032 
-56.125 10.5 533.5 -0.01409176 -0.909234 -0.4160469 
-64.75 11.75 532 0.00894266 -0.7098932 -0.7042526 
-32.14286 17.42857 539.9286 0.2887803 0.6155711 -0.7332653 
-40 20.66667 539 0.4968987 0.450616 -0.7416448 
-161 25 655 -0.8558995 0.3943376 -0.3345655 
-38.14286 22.71428 540.8571 0.393253 0.4149419 -0.8204727 
-31.25 23.25 545 0.4546597 0.3692929 -0.8104982 
-156 27 649 -0.6963648 0.5445821 -0.4674468 
-162 29 658 -0.6079584 -0.6548778 -0.4489118 
-29.42857 25.85714 546.7143 0.5544981 0.2026073 -0.8071445 
-26 26 548.6667 0.274177 0.2913265 -0.9164911 
-158 32 651.5714 -0.5028938 -0.2908856 -0.8139309 
-28.77778 28.88889 548.1111 0.4405499 -0.2436544 -0.8640303 
-158.3333 35 649 -0.1849888 -0.7032997 -0.6864027 
-167.5 37 648 -0.1393829 -0.8064014 -0.5747079 
-21 32 550 0.532683 -0.02463427 -0.8459563 
-131.4 37.8 612.2 -0.8300281 0.1964236 -0.5219877 
-126 38 605 -0.7956753 0.1655899 -0.5826499 
-30 34.33333 544 0.4908542 -0.1054406 -0.8648378 
-22.81818 34.90909 549.0909 0.5472063 0.3242749 -0.7716288 
-28 131 551 -0.9529635 0.2698113 -0.1380672 
-32 132 572 0.5769104 -0.8098422 0.1064436 
-44.5 119.5 548.5 -0.350764 0.8391186 -0.4157459 
-45 117 545 -0.3161674 0.7465697 -0.5853819 
-47 118 547 -0.3727164 0.8048384 -0.4618632 
-45 114 542 -0.652922 0.2365859 -0.7195276 
-9 108 526 0.5025936 -0.3778043 -0.7776012 
-52 112.75 547 -0.6628546 0.1152087 -0.7398315 
-43 110 541 -0.5077899 -0.240404 -0.8272578 
-28.9 107.1 528.4 -0.5565889 -0.1771503 -0.8116813 
-46.9 110.1 543.5 -0.5080469 -0.3172605 -0.8007709 
-11.5 105 526 0.2778721 -0.590235 -0.7578983 
-26 105 529 -0.1499798 -0.7895216 -0.595115 
-49.93333 109.8667 545.8 -0.599333 -0.2228737 -0.7688481 
-53.125 109.875 548.375 -0.6708724 -0.09892782 -0.7349446 
-28.875 104.5 531.25 -0.1632541 -0.9226626 -0.349345 
-40.71429 106.8571 540.4286 -0.5124645 0.1954793 -0.8361626 
-141 121 625 -0.6179385 -0.550684 -0.5611588 
-144 121 627 -0.6230554 -0.5858503 -0.5182484 
-146 121.3333 630.3333 -0.5440548 -0.6340995 -0.5494745 
-19.5 102 532 -0.2219069 -0.7774593 -0.5884849 
-149.5 121.25 633.75 -0.5882769 -0.560031 -0.5833486 
-153 121 636 -0.3082431 -0.6123181 -0.7280472 
-158 119 628 0.7906622 -0.5701201 0.223196 
-26 100.5 536.5 -0.1665744 -0.7404638 -0.651127 
-151.3333 119 635 -0.5287991 -0.1869281 -0.8279066 
-159 116 626 0.7921722 -0.5795029 0.1914149 
-28 99 538 -0.2154274 -0.8093665 -0.5463671 
-35.125 100.5 539.75 -0.1566718 -0.7371479 -0.6573181 
-160 115 628 0.9552445 -0.2771657 0.1033786 
-32 98.57143 540.5714 -0.1220769 -0.8003377 -0.5869897 
1.428571 95.21429 522.2143 -0.3481076 -0.4116178 -0.8422541 
4 93 523 -0.1298029 -0.6671799 -0.7334999 
-34.81818 97.63636 543.1818 -0.2119921 -0.7099628 -0.6715744 
-38.5 97 545 -0.1228084 -0.6868629 -0.7163361 
-160 112 632 0.9881874 0.1461166 0.04621284 
-160 110 634 0.9348716 0.331629 -0.1266382 
1.2 92.2 524.7333 -0.1820457 -0.5349057 -0.8250669 
-28.5 94 541 -0.448641 0.4953076 -0.743903 
-159 109 631 0.9025136 0.4306227 0.005779073 
-1 90 526 -0.1987886 -0.6039506 -0.7718335 
-62.6 95.2 554.4 -0.4707138 0.5642071 -0.6783059 
-62.25 92.75 551.75 -0.3725908 0.6945469 -0.6154516 
-65.33334 92.33334 554 -0.6018685 0.551833 -0.5772648 
-37.5 88 537.5 -0.3999226 0.8092001 -0.4304151 
-89.125 95.125 575.625 -0.5418065 0.06898287 -0.8376676 
-37.66667 85.66666 534.8333 -0.2127432 0.2896135 -0.9332012 
-41.25 85.75 537 -0.3414849 0.7323487 -0.5891125 
3.5 84 537.3333 0.09328234 -0.8511773 -0.5165225 
-17.14286 82 539.7143 0.09329231 -0.7479795 -0.6571326 
-14 81 541 0.03199572 -0.7362879 -0.6759117 
-74.5 83.5 555 -0.3793136 0.8178137 -0.4327841 
-75 81 552 -0.3472642 0.8248218 -0.44618 
-76 82 553 -0.3105033 0.7774231 -0.5469926 
-89.33334 83.33334 564.3333 -0.2566264 0.9152356 -0.310623 
-16.71428 79.28571 542.8571 0.1651601 -0.755552 -0.633927 
-17 77 545.4445 0.08997783 -0.8148314 -0.5726725 
-13.75 75 547 -0.06361095 -0.8077354 -0.5861034 
-17 74 548.8889 0.02789169 -0.4800537 -0.8767956 
-85.25 71.25 555.75 -0.748051 -0.07555576 -0.6593261 
-84 66 552 -0.7747382 0.5381231 -0.3319705 
-88.33334 65 557.6667 -0.8329046 0.3412952 -0.4356463 
88.2 60 573.2 -0.4614936 -0.8459519 -0.2671874 
75 58 586 0.204266 0.2987179 -0.9322248 
56 58 588 0.1908371 -0.516512 -0.8347434 
72.75 56.75 586 0.04971251 0.3494299 -0.9356428 
58 56.28571 587.1429 0.1540981 0.5044096 -0.8496027 
64 53 590 0.1504311 -0.8694336 -0.4705909 
60.9 53.2 587.9 0.3355023 -0.6209612 -0.7084105 
60.33333 50.33333 592 0.4237268 -0.3774703 -0.8233904 
73 47.5 595 -0.03448358 -0.1314572 -0.9907219 
76 46 596.5714 0.04519897 -0.7261163 -0.6860847 
73 45 598 0.03962678 -0.7322376 -0.6798955 
52 -36.5 609.3333 -0.1500331 -0.8498068 -0.5052905 
30.75 -36.75 612.5 -0.1181523 -0.8975302 -0.4248289 
31 -39 617 -0.07460358 -0.9135583 -0.3998068 
40 -40.4 618.8 -0.0999943 -0.9072319 -0.4085724 
36 -41 621 0.0369495 -0.8049162 -0.592237 
34 -43 622.3333 0.003731817 -0.6995552 -0.7145689 
25 -43.5 625 -0.07627977 -0.8561184 -0.5111191 
25 -45 628.3333 -0.08846407 -0.9126089 -0.3991481 
22 -46 631 -0.001290061 -0.8740757 -0.485788 
19 -47 633 -0.01188846 -0.8477301 -0.5302947 
16 -48.66667 634.6667 -0.03906035 -0.7129791 -0.7000965 
19 -50 636 -0.01978608 -0.8064777 -0.5909334 
22 -51 637.6667 -0.05673163 -0.8575277 -0.5113001 
19 -52 640 -0.0296961 -0.8966697 -0.4417032 
19 -54 644 -0.07891712 -0.7366235 -0.6716829 
22 -56 645 -0.08245843 -0.748571 -0.6579074 
19.5 -57 647 -0.1078891 -0.8773073 -0.4676451 
67 -62 648.6667 -0.09069309 -0.8672696 -0.4895082 
70.5 -63 650 0.03239513 -0.7116507 -0.7017862 
67 -64.2 652.2 -0.1054781 -0.8475087 -0.5201955 
67 -66 655.6667 -0.08561724 -0.8828247 -0.4618337 
69.5 -67.5 658 -0.05083812 -0.7961028 -0.6030223 
67 -69 659 -0.03536483 -0.8238662 -0.5656799 
64 -69.5 661 -0.06535392 -0.8793354 -0.471697 
61 -71 664 -0.00175232 -0.8603083 -0.5097711 
25 -94 676 0.9751839 0.2039556 -0.08613049 
29 -97 695 0.8922077 -0.1317115 -0.4319926 
29 -103 687 0.9331654 0.3546727 -0.05839309 
33 -108 688 0.5391254 0.8417944 -0.02694424 
9 -82.5 606.5 0.7779731 0.5002237 -0.3801764 
24 -91 673 0.9653945 0.2314208 -0.120241 
6.666667 -79.33334 606.3333 0.7289373 0.5436912 -0.4159932 
9 -80 609 0.7901003 0.5051904 -0.347166 
23 -87 673 0.9537694 0.2738881 -0.1237301 
23 -85.5 676.5 0.9562629 0.1913166 -0.2212671 
24 -85.5 680 0.9067854 -0.07734875 -0.4144363 
27 -84 683 0.2180154 -0.7183733 -0.6606127 
82.2 -81.8 678.8 -0.04604847 -0.8316348 -0.5534105 
88 -80 676 -0.007875876 -0.87863 -0.4774382 
85 -79 673.3333 0.02911766 -0.7664041 -0.6416985 
82 -77 672 -0.02562634 -0.7869551 -0.616478 
6.5 -70.5 623 0.745374 0.6264614 -0.2279556 
73 -76 670 -0.0182635 -0.8901227 -0.4553548 
76 -75 668 -0.02049961 -0.878181 -0.477889 
73 -74 666.5 -0.04458696 -0.7228679 -0.6895462 
70 -72 665 -0.03988825 -0.7837614 -0.6197798 
49 -28.57143 597.1429 -0.08145536 -0.8710283 -0.4844324 
52 -27 594 -0.1316194 -0.8608931 -0.4914666 
49 -26 593 -0.0460954 -0.9160918 -0.3983103 
46 -25 590.3333 -0.08008357 -0.925872 -0.3692529 
43.5 -24 589 -0.136503 -0.9046165 -0.4037772 
40 -23 588 -0.01800844 -0.8861553 -0.4630384 
43 -22 584.6667 -0.1246869 -0.8933952 -0.4316228 
46 -21 582 0.00748456 -0.8522045 -0.5231553 
43 -20 581 -0.098074 -0.8260946 -0.5549318 
52 -18.5 578.5 -0.06809912 -0.8614908 -0.5031861 
46 -17 576 0.01084145 -0.8541539 -0.5199073 
16.2 -13.4 573 -0.05383386 -0.882389 -0.4674309 
13 -12 570.6667 -0.07211966 -0.8616801 -0.5023009 
51.85714 -10.28571 564 -0.01655853 -0.8205123 -0.5713891 
34.14286 -7.571429 560.4286 -0.06415416 -0.873176 -0.4831644 
31 -6.5 558 0.05095223 -0.861262 -0.5056003 
31.0625 -4.25 554.75 0.2131972 -0.4736704 -0.8545077 
33.875 -1.125 554.875 0.2638966 0.2026554 -0.9430214 
150 -2 626 0.112606 0.9749225 -0.1919536 
153 -2 627 -0.07590225 0.9815239 -0.1756411 
37.2 -0.4 557.4 0.1125799 0.4641017 -0.8785986 
157 -1 630 -0.04555387 0.9944941 -0.09437308 
43 2 560.3333 0.2259297 0.550082 -0.8039687 
45 4 562 0.3543034 0.5960058 -0.7205874 
151.25 8 639.5 0.2217461 0.800511 -0.5567862 
153 7 637.5 0.4294997 0.395227 -0.8119887 
34 9 563 0.2465624 0.695127 -0.6752818 
30.875 10.875 564 0.2880075 0.7205108 -0.6308058 
34.2 11.6 566.4 0.2674615 0.7723698 -0.5761157 
38 12 569 0.3142517 0.8413942 -0.4396611 
117.6667 13.66667 620 0.5357038 0.3141451 -0.7837948 
129.75 13.25 631.25 0.4189511 0.7537366 -0.5063212 
144.5 13 640 0.5184201 0.7419189 -0.4252024 
128 15 633 0.4430895 0.7919267 -0.4201473 
139 16.33333 643 0.181549 0.9374205 -0.2971243 
114.75 16.75 619.75 0.5347759 0.4536563 -0.712889 
117.3333 16.33333 622 0.6229288 0.5791268 -0.5259011 
141 17 647 0.2792068 0.920792 -0.2723704 
106 26 618.7778 0.147729 -0.0265575 -0.9886713 
126 27 647 0.3445355 -0.675198 -0.6522294 
129 28 647 0.1979587 -0.822565 -0.5331034 
103.6667 28.33333 618 0.3410737 -0.3263587 -0.881566 
126.6667 29.33333 643.3333 0.31153 -0.8478846 -0.4289998 
111 30 617 0.4008056 -0.7293603 -0.5544262 
103 31.5 615.5 -0.05722052 -0.7044853 -0.7074082 
106 32.5 613.5 -0.122741 -0.8115105 -0.5713014 
102.75 34.25 611.75 -0.09082777 -0.8357719 -0.5415125 
67 38 596.8889 0.5836257 0.2742197 -0.7643197 
-67.5 116 549 0.1094083 -0.9934624 -0.03259337 
-2 107.5 528.5 -0.01473386 -0.49146 -0.8707755 
-4.75 106 530 0.2346121 -0.6431223 -0.7289382 
-2 103.75 531.75 -0.03925871 -0.2352246 -0.9711478 
3.75 101.75 527.5 -0.4231678 0.7140971 -0.5576687 
1 101.75 530.5 -0.3776231 0.5783357 -0.723138 
-70 107 562 -0.6355189 0.08041705 -0.767886 
0 99 527 -0.4593399 0.7428944 -0.4869445 
-139 117 623 -0.7357451 -0.2748688 -0.618972 
-79.33334 107 570.6667 -0.6951346 0.04183016 -0.7176616 
-82.2 107 573.6 -0.6928238 0.1224512 -0.7106342 
-68.22222 104.1111 560.3333 -0.5586939 0.01574344 -0.8292245 
-115 108 607 -0.4996932 -0.5174978 -0.6946242 
-118 108 610 -0.5773503 -0.5773503 -0.5773503 
-14 94 529 -0.4293353 0.5435581 -0.7212599 
-16.16667 94.66666 531.3333 -0.5036171 0.5824564 -0.6380552 
-88 100 574 -0.587171 0.2521369 -0.7691926 
-127.5 108 620 -0.6027697 -0.4798419 -0.6375111 
-130 108 622.5 -0.632523 -0.5053977 -0.5869308 
-16.16667 91.66666 529 -0.5175382 0.1663294 -0.8393383 
-115.75 104 609.75 -0.6278058 0.5685433 -0.5316187 
-86 98 572.9 -0.3912176 -0.04165703 -0.9193549 
-74 95 564.2857 -0.6085904 0.3870677 -0.6926733 
-115 100 600 -0.4263202 0.8032627 -0.415957 
-128 104.2 622 -0.5869617 0.1154276 -0.8013442 
-8.076923 88.84615 527.9231 -0.1202655 -0.5640069 -0.8169655 
-10.75 88 530 -0.2430262 -0.6873564 -0.6844557 
-77 95 566.875 -0.5619898 0.320089 -0.7626994 
-119 100 604 -0.4291288 0.7818895 -0.4522136 
-121 100 606 -0.4702567 0.8145095 -0.3397543 
-127 100 614 -0.4035708 0.8371484 -0.3692061 
-8.2 86.4 530.6 -0.09183528 -0.8628247 -0.4970914 
-76.85714 91.71429 564.1429 -0.3614696 0.4357786 -0.8242795 
-119 97.5 600 -0.4334431 0.7968849 -0.4208345 
-125 97.5 606 -0.4499489 0.825124 -0.3416377 
-17.16667 85.33334 533.3333 -0.07499908 -0.8328127 -0.5484508 
-130.6667 97.66666 612.3333 -0.3523185 0.8226782 -0.4461751 
-20 84 535 0.06793725 -0.8971679 -0.4364338 
-129 95.5 606 -0.4616411 0.8241267 -0.3281808 
-131 95.5 609 -0.4051463 0.808318 -0.4271751 
-137 97.5 618.5 -0.4179406 0.8392739 -0.3477715 
-23.18182 82.72727 536.9091 0.1545969 -0.8401428 -0.5198654 
-133.3333 91.33334 603.6667 -0.4809217 0.5240206 -0.7029344 
-128.6667 89.66666 600 -0.6302148 0.5492797 -0.5487452 
-131 89.66666 602 -0.4943896 0.407269 -0.7679265 
-132 87 599 -0.4751689 0.7417124 -0.4733682 
-32.15385 76.92308 540.6154 0.4496269 0.06418021 -0.8909077 
-34 75 539 0.4768482 0.3133434 -0.8212379 
-41.44444 71 531.4445 0.5143797 0.1934003 -0.8354698 
-35 70.91666 536.8333 0.4714087 0.2107782 -0.8563565 
-21 70.75 546.75 0.6334125 0.1831717 -0.7518222 
-32.375 67.875 537.375 0.6108576 0.1158009 -0.7832262 
-35.66667 67.33334 535 0.517438 0.09228773 -0.8507297 
-22.5 68 545 0.5967961 0.1581908 -0.7866449 
-26 68 542.4445 0.6157677 0.1201277 -0.7787166 
-29 68 540.0833 0.4945385 0.1166327 -0.8612946 
-19 68.25 548 0.543254 0.1607099 -0.8240434 
-37.57143 65.57143 534.7143 0.1668019 -0.5920351 -0.7884615 
-41 64.16666 536.8333 0.008736412 -0.818109 -0.5749967 
-23.375 64.625 543.5 0.5289186 0.2322217 -0.8162832 
-38 63 537.6667 -0.06231893 -0.7486722 -0.6600049 
-21 61.5 544 0.5885605 0.06684697 -0.8056848 
93 58 575 -0.1657719 -0.8322083 -0.529102 
91.5 57 577 -0.2414898 -0.7969184 -0.5537181 
88.33334 59.33333 594.3333 -0.700406 -0.659551 -0.2728075 
85 59.5 597.3333 -0.09101438 -0.7994217 -0.5938362 
79.14286 58.85714 591.2857 0.5166032 -0.3777834 -0.7683755 
88.5 57 597.5 -0.8116608 -0.3105481 -0.4947389 
94 55.22222 578.8889 -0.2789511 -0.8440666 -0.4579714 
97.28571 53.71429 578.8571 -0.1023664 -0.8346859 -0.5411289 
94 53.5 582 -0.3115593 -0.8448703 -0.434885 
91.2 53.2 585.2 -0.6169571 -0.6953409 -0.3685986 
79.25 52.875 597.375 0.216642 0.3229277 -0.9212947 
94.25 50.75 585.75 -0.3401793 -0.7996671 -0.4947833 
82.5 51 596 -0.1866588 0.6404794 -0.7449461 
79 50 595 0.02129361 0.1981967 -0.9799309 
91 48 592 -0.3429741 -0.5835463 -0.7360995 
99.5 46 593 -0.1673515 -0.8110875 -0.5604735 
97 45 594.6667 -0.09457696 -0.8203303 -0.5640154 
100.3333 43.5 597.1667 -0.161092 -0.8855534 -0.4357117 
111.5 42 601 0.3224189 -0.7559679 -0.5697005 
108.6667 40.33333 603 0.2309888 -0.7466724 -0.6237984 
11 -36 614 -0.1071668 -0.8922222 -0.4386968 
7.25 -36.25 615.75 -0.1332691 -0.8980333 -0.419256 
15.5 -38 618 -0.1241927 -0.8832781 -0.4521016 
13 -39 620 -0.06550809 -0.8482874 -0.5254685 
16 -40 621.3333 -0.103805 -0.7994417 -0.5917073 
49 -45.5 625 -0.08675934 -0.8435344 -0.5300214 
52 -47 627.3333 -0.08731777 -0.8494332 -0.5204217 
40.2 -48.4 631.4 -0.1166413 -0.824984 -0.5529885 
37 -49 633 -0.07056966 -0.7699078 -0.6342412 
40 -51 634 -0.1181246 -0.755725 -0.6441478 
42.75 -52.75 636.75 -0.07007848 -0.8391615 -0.5393488 
49 -54.5 640 0.06049966 -0.8886489 -0.45458 
46 -56 642 -0.01723185 -0.7677028 -0.6405743 
46 -59 647 -0.03017952 -0.8954006 -0.4442376 
90.5 -63 649 -0.01108426 -0.8786916 -0.4772613 
94 -64 651 -0.01374451 -0.8153745 -0.5787708 
97.25 -66.25 652.5 -0.1261339 -0.7728475 -0.6219301 
93.5 -67 655 -0.05505602 -0.9130536 -0.4041065 
91 -68 657.5 -0.02556545 -0.7846215 -0.6194478 
8 -67 645 0.7704173 0.6159426 -0.1645354 
94 -69.66666 659 0.0132255 -0.7810827 -0.6242874 
85 -70.6 660.8 -0.03881868 -0.8463569 -0.5311999 
25 -96.5 670 0.9624846 0.2628214 -0.06744166 
23 -95 659 0.9190484 0.35296 -0.1754117 
26 -101 666 0.9292243 0.3659254 -0.05138851 
27 -103 660 0.8871018 0.4520406 -0.09332536 
31 -107 678 0.8025861 0.5816438 -0.1324617 
28 -105 664 0.9027007 0.4287212 -0.03646408 
20 -88 649 0.9513617 0.298415 -0.07654752 
14 -82.5 624.5 0.9050411 0.3756872 -0.1993987 
30.5 -91.5 693.5 0.3197944 -0.6794972 -0.6603144 
34 -93 695 0.1516329 -0.7162955 -0.6811228 
19 -85 651 0.9339038 0.348266 -0.08083613 
34.5 -90 692 0.09740864 -0.8128725 -0.5742385 
36.75 -88.5 690.5 -0.03150978 -0.6918786 -0.721326 
34 -87 689 0.1146565 -0.7050462 -0.6998312 
13 -79 628 0.8936063 0.4357721 -0.1075661 
32 -86 687 0.1867005 -0.7535824 -0.6302829 
33.5 -85 686 0.0880814 -0.7623854 -0.6411007 
57.5 -83 681 0.003302511 -0.8810214 -0.4730648 
11 -75 628 0.8594787 0.497643 -0.1168247 
12 -76 631 0.8757617 0.4537019 -0.1649122 
55 -82 679 -0.09345706 -0.7938657 -0.6008686 
9.5 -73 625.5 0.8171955 0.5462421 -0.1838785 
60.8 -79.4 675.8 0.007600792 -0.7952869 -0.6061857 
100 -76.5 669.6667 -0.1238106 -0.8572705 -0.4997582 
55 -76 672 -0.005662843 -0.7829099 -0.6221094 
97 -75 667 -0.08307493 -0.8121418 -0.5775156 
10.5 -70 646 0.7872988 0.6100407 -0.08950361 
90.5 -72 664 -0.01352403 -0.9164768 -0.3998592 
28 -27.5 597 -0.06189279 -0.8802463 -0.4704633 
28 -26 594.6667 -0.08039981 -0.8821041 -0.4641426 
19 -24 592 -0.1047141 -0.8130818 -0.5726542 
7 -23 593 -0.06878341 -0.8961635 -0.4383605 
16 -23 591 -0.03321977 -0.8525463 -0.5215949 
13 -21.5 588 -0.07437313 -0.8961359 -0.4375033 
22 -21 585 -0.06314291 -0.8931645 -0.4452754 
19 -20 584.3333 -0.1279776 -0.8448389 -0.5194892 
21.8 -19.4 582.2 -0.1004523 -0.8620347 -0.4967954 
25 -18 579.3333 -0.07159936 -0.856214 -0.5116357 
22 -17 578.5 -0.08360279 -0.8723351 -0.4817074 
19.14286 -15.42857 575.7143 -0.09872839 -0.8641368 -0.4934778 
40 -15 573.6667 -0.1183076 -0.862797 -0.4915128 
37 -14 572 -0.02370725 -0.8957444 -0.4439368 
40.25 -13.25 570 -0.07154509 -0.9106796 -0.4068711 
28.25 -11 568 -0.01622022 -0.8576332 -0.5140061 
25 -9.25 564.25 -0.08929054 -0.8631718 -0.4969524 
7 -6 562 -0.01494335 -0.844404 -0.5354984 
13.125 -5 557.875 -0.134556 -0.8962088 -0.4227346 
154 -6 606 0.6864555 0.6607841 -0.3035508 
10 -3.5 555 -0.01883816 -0.8616107 -0.5072201 
10 -1.5 552 0.02658712 -0.7563444 -0.6536331 
24.5 1 553 0.3022517 0.3606694 -0.8823613 
27.85714 1.714286 555.1429 0.3220578 0.5103992 -0.7973528 
24.6 4.4 555.8 0.3705893 0.6066527 -0.7033038 
21 7 556 0.3177639 0.6194363 -0.7178612 
24.75 7.75 558.875 0.2733596 0.5934823 -0.7570028 
28.33333 8.333333 560.3333 0.2385208 0.6051359 -0.7595514 
24.9 10.8 561.4 0.3046432 0.5646024 -0.7670833 
46.5 12 575.5 0.2648379 0.8916939 -0.3670733 
53 12 581 0.3087553 0.9140439 -0.2630475 
123.5 22.5 643 0.7180126 0.5480576 -0.4290581 
118 26 634.6667 0.9165118 -0.0101553 -0.3998788 
57.85714 26.28572 597.5714 0.2900394 -0.645336 -0.7066956 
116 27 630 0.8735924 -0.2024271 -0.4425602 
118 29 631 0.8340077 -0.3934479 -0.3868202 
58.14286 28.71428 594.1429 0.1773082 -0.7545217 -0.6318693 
118.5 32 628.5 0.6378503 -0.728092 -0.2510562 
121 32 631 0.5460907 -0.7620732 -0.347893 
123 32 633 0.4720103 -0.7963325 -0.3782337 
58 31.875 590.5 0.4573347 -0.3956481 -0.7964343 
62 31 593 0.3520656 -0.1607298 -0.9220715 
55 32.44444 588.3333 0.3020586 -0.5600619 -0.7714216 
63.66667 35 593.3333 0.4701462 0.03323146 -0.8819627 
57 35 589 0.611105 -0.02076961 -0.7912771 
103 37.5 606 -0.08739325 -0.8290046 -0.5523712 
-27 140.5 558 -0.9797071 0.1730094 -0.1012019 
-27 137.5 555 -0.9782511 0.1655541 -0.1249666 
-27 135 551 -0.9731261 0.1993971 -0.11518 
-28 133 555 -0.9520006 0.2671782 -0.1493671 
-31 133 570 -0.8650103 0.4756311 -0.159788 
-25.71428 107 525.8571 -0.3695469 -0.4475505 -0.8143302 
-10 106.5 527 0.501375 -0.4397511 -0.7451458 
-139 122 620 -0.2425439 -0.9301915 -0.2755291 
-143 123 623 -0.2557787 -0.9476383 -0.191204 
-149 121.5 617 -0.1751837 0.9560353 -0.2351746 
-8.142858 104.7143 528.5714 0.3395814 -0.6218479 -0.7056839 
-10.66667 103 530 0.05163572 -0.7377087 -0.6731417 
-14 102 531.3333 -0.01619422 -0.78287 -0.6219745 
-12 100.5 533 -0.3246128 -0.0704404 -0.9432204 
-71.42857 107 563.4286 -0.6971737 0.06752337 -0.7137153 
-158 116 620 -0.8602765 0.4125786 -0.2995054 
-77.5 107 569.5 -0.608911 -0.01239824 -0.7931417 
-76 101 565 -0.5580208 -0.1284094 -0.8198316 
-75 100 566 -0.5545267 -0.230384 -0.7996395 
-119.125 106.875 612.25 -0.5199691 -0.2099274 -0.8279872 
-73.4 98 565 -0.5289746 0.01394933 -0.848523 
-125.3333 106.6667 619 -0.7739896 -0.2685088 -0.5734484 
-76.75 98 567.5 -0.6834371 -0.1220805 -0.7197292 
-126 104 621 -0.6731226 0.1581959 -0.7224126 
-73 94 562 -0.5743476 0.4734714 -0.6677947 
-4.75 88.75 528 0.009314229 -0.5818955 -0.8132102 
