ply
format ascii 1.0
comment VCGLIB generated
element vertex 973
property float x
property float y
property float z
property float nx
property float ny
property float nz
element face 0
property list uchar int vertex_indices
end_header
-49.14286 33.42857 497.5714 0.2768389 0.4945885 -0.8238582 
-45.9 34.2 499.7 0.3597494 0.482439 -0.7986445 
-42.5 35 502 0.3476897 0.4729689 -0.8095754 
-52.71429 36.14286 498 0.4037406 0.483488 -0.7766806 
-68 36 489 0.4684414 0.3956868 -0.7899333 
-36.75 37.75 505.25 0.2950275 0.5276526 -0.7965813 
121.8 48.8 649 0.4071225 0.3683642 -0.8357986 
-54 38 499 0.4321722 0.4722854 -0.7682276 
-34.66667 39.33333 507 0.236789 0.4928305 -0.8372868 
-55.5 39 498 0.4328525 0.5131025 -0.7411913 
-51.81818 39.90909 500.8182 0.331408 0.4695129 -0.8183682 
51 123.5 571.5 0.8353141 0.2852525 -0.4699804 
50.5 121.25 569 0.8458955 0.2590848 -0.4661931 
48 118.5 562.5 0.8464072 0.4124893 -0.3368197 
50 117.75 566 0.8175388 0.4161519 -0.3980553 
50 115.25 563 0.8237678 0.4288013 -0.3708586 
48 113 556 0.8353571 0.3531052 -0.421302 
50.66667 111.6667 560.3333 0.7957092 0.4862836 -0.3610752 
45 109.5 550 0.6892087 0.4323561 -0.5814289 
50 109 556.6667 0.6637323 0.562527 -0.4929734 
50.5 107 553.5 0.6844257 0.6646138 -0.2997499 
38.5 101 535.5 0.185441 0.8359357 -0.5165493 
34.8 100.6 532.4 0.2849703 0.8579195 -0.4275116 
32.14286 99.57143 530 -0.02164064 0.7544233 -0.6560314 
32.18182 97 527.7273 -0.09683393 0.3443668 -0.9338281 
29 97 529.1111 -0.3513679 0.290637 -0.8899837 
53 99 551 0.8944162 0.2355427 -0.3801834 
55 99 554 0.9093595 0.211763 -0.3580807 
35 94.5 528 -0.0760709 -0.1678115 -0.9828798 
38.125 93 529.5 -0.00358973 -0.7864057 -0.6176999 
35 92 531 0.006032388 -0.8508664 -0.5253474 
32 90.66666 533 0.04476312 -0.8756821 -0.4808089 
50 91.25 538 0.8429686 -0.04359185 -0.5361937 
46.5 88.5 534 0.212997 -0.7119076 -0.6691935 
49.25 88.75 536.5 0.7385249 -0.3669595 -0.5656164 
29.14286 87 538.4286 -0.001060979 -0.8344732 -0.5510475 
31.75 86 540 -0.09430837 -0.8154473 -0.5710969 
28.88889 84.77778 542.2222 -0.009781689 -0.7817445 -0.6235222 
38 83 543 0.001021119 -0.7509325 -0.6603782 
63 86 568 0.8952332 0.2430927 -0.3734484 
29 81.75 545 0.004493865 -0.6311419 -0.7756544 
62.5 82 565.5 0.7796966 0.4789069 -0.4033874 
63 80 562 0.7001148 0.6320035 -0.3322811 
64 79 561 0.3914912 0.8862998 -0.247401 
28.75 78.75 548.25 0.1860108 -0.7363262 -0.6505565 
67.5 78 556.5 -0.0456585 0.8941382 -0.4454574 
-136.375 75.75 577 -0.3116946 -0.2357494 -0.920472 
-163.5 76.5 598.5 -0.4934942 0.7410574 -0.4552993 
-138.8571 73.42857 578.8571 -0.3640853 -0.3488686 -0.8635581 
-129.6667 70.33334 578.8333 -0.2232304 -0.3314974 -0.9166667 
-138.7778 70.22222 581.4445 -0.3152433 -0.4885376 -0.8136047 
-136 66.9 581.8 -0.3099965 -0.3699819 -0.8757943 
-139.1667 66.66666 583 -0.3747684 -0.3026242 -0.8763374 
-121 64 581 -0.1128943 -0.6328086 -0.766034 
-120.6667 61.66667 584.3333 -0.2079789 -0.7252389 -0.6563333 
-136.1111 61.22222 586.7778 0.06785103 -0.8265214 -0.558801 
-132.5 59 588 -0.2659495 -0.5368768 -0.8006461 
-130.25 57.25 589 -0.1558942 -0.5466264 -0.8227372 
-133 55.5 590.5 -0.008703803 -0.7579395 -0.6522668 
-135.8 54.4 592.6 0.02974887 -0.83984 -0.5420183 
-145 53 594 0.02614196 -0.7418416 -0.6700655 
-141.8571 51.57143 595.4286 0.01068578 -0.7136558 -0.700415 
-145.5 50 597 0.02720379 -0.8143796 -0.5796946 
-136 48.83333 599.5 0.04904056 -0.9127877 -0.4054797 
-139 48 602 -0.04874593 -0.8809323 -0.4707253 
-99.75 -11.25 575 0.04678546 -0.9000567 -0.4332541 
-94.5 -13 579 0.1557796 -0.8614604 -0.4833412 
-103 -14.66667 580.5 0.1604359 -0.8483362 -0.5045652 
-102.8 -16.8 584.4 0.1220113 -0.9084648 -0.3997562 
-106.25 -18 586.25 0.06241623 -0.8939167 -0.4438662 
-165.5 -22 642.5 -0.4707069 -0.6122663 -0.6352677 
-168.4 -22.8 645.2 -0.5706611 -0.4549967 -0.683611 
116 -36 720 0.070057 -0.9906709 -0.1168902 
108 -38 731 0 1 -0 
95.5 -41 747.5 0.0837483 -0.9932308 -0.08049048 
-172 -49 668 -0.8909386 -0.05458426 -0.4508314 
-170 -52 663 -0.9326195 0.1424712 -0.3315461 
-176 -65 657 0.9966825 -0.03720755 0.07238591 
-177 -63 664 0.1251415 -0.9880537 -0.08994218 
-168.5 -59 657.5 -0.7250984 -0.1400675 -0.6742502 
-165.75 -59 654.25 -0.3716942 -0.790828 -0.4862453 
-179 -59 667 0.8302446 0.5526601 0.07253178 
-162.6667 -11 639 -0.808235 0.3104051 -0.5004047 
-160 -10.5 635.5 -0.8165063 0.2666578 -0.5120656 
-152 -8 623.3333 -0.8473153 0.1469786 -0.5103471 
-161 -7.5 638.5 -0.8311649 0.2903508 -0.4741955 
-153 1 630.3333 -0.8062795 0.1823641 -0.5627226 
-154 4 632.6667 -0.7812458 -0.09230822 -0.6173607 
-140 32 619 -0.7234269 0.009793871 -0.6903315 
-139.4 34.2 617.2 -0.6187813 -0.253276 -0.7436136 
-134 33 610 -0.8081487 0.1983005 -0.5545923 
-135 36 612 -0.7868514 0.1067542 -0.6078391 
-136.125 39.875 613.625 -0.4890134 -0.3373777 -0.8043894 
-128 38 602 -0.8158564 0.3390037 -0.4684603 
-126 39 600 -0.8560231 0.2851569 -0.431173 
-139 44 608 -0.03657656 -0.8514572 -0.5231471 
-139.1429 45.71429 605.2857 -0.06611858 -0.840466 -0.5378153 
-129.8 46.6 602.4 -0.2605508 -0.7359844 -0.6248522 
38.66667 124.3333 545 0.8310378 0.4335205 -0.348477 
37.42857 118 539 0.8739501 0.08538458 -0.4784566 
36 114 538 0.5803915 -0.1882161 -0.7922881 
38.5 115 541.5 0.864592 0.006841714 -0.5024279 
34.5 113 537 0.1719103 -0.6979591 -0.6951978 
53.5 118.5 572 0.7940217 0.3604665 -0.4894828 
40 112.25 543 0.802171 0.01563011 -0.5968898 
55.33333 115 572.6667 0.8275991 0.3043477 -0.4716484 
53 114.75 569.25 0.8169734 0.387079 -0.4274625 
43.6 105.8 545.2 0.3381336 0.7246755 -0.6004258 
31.75 103.25 536.25 0.004868002 0.8708645 -0.4914991 
47.5 102 539 0.5766293 0.7787082 -0.2472091 
53.5 106 560.5 0.8591996 0.3846068 -0.337422 
54 103.5 557 0.8888324 0.3804349 -0.2554335 
55 103 560 0.8912404 0.3375706 -0.3028807 
54 93 549 0.9430742 0.2337394 -0.2365945 
53.5 91 545 0.9376959 0.1730079 -0.3013215 
55 90 549 0.9233363 0.2513334 -0.2903131 
35 78 550.3333 -0.1242588 -0.6111158 -0.7817271 
-141.75 75.75 580 -0.4942433 -0.06101784 -0.8671796 
-145.125 72.875 581.625 -0.462752 -0.3002655 -0.8340871 
-159.6667 72.66666 590.5 -0.5224326 0.3441172 -0.7801587 
-158 70.5 589 -0.5388025 0.06491333 -0.8399274 
-150.7143 70.14286 585 -0.3481832 -0.2667762 -0.8986651 
-153.6667 70 586.6667 -0.4193757 -0.07886058 -0.904381 
-164 68 592 -0.4474074 0.1657124 -0.8788436 
-147.6667 67.33334 585 -0.2961449 -0.1907708 -0.9358978 
-156.875 67 588 -0.3937007 -0.02511416 -0.9188956 
-148.2222 63.44444 586.3333 -0.2817267 -0.4452386 -0.8499369 
-150.8 61.6 588 -0.06781543 -0.5515216 -0.8313994 
-148.3333 60 589 -0.1070853 -0.4529665 -0.885073 
-142 59 588 -0.07802828 -0.5298651 -0.8444848 
-145 58 589.3333 -0.1533521 -0.5327784 -0.8322442 
-142 55.5 590.5 -0.0584233 -0.7218248 -0.6896056 
-151.1429 54.14286 592.4286 0.002508057 -0.7128022 -0.7013606 
-130 53 594 -0.08926935 -0.7546242 -0.6500562 
-117 50 583 -0.934476 0.07252343 -0.3485615 
-133 51.5 595.6667 -0.01176345 -0.7079846 -0.7061298 
-129 50 597 -0.1286814 -0.7782245 -0.6146606 
-151 48.5 598.6667 0.136328 -0.8233371 -0.5509361 
-147.75 48.25 601.5 0.2077756 -0.9258817 -0.3155508 
-85 -12 580 0.08532962 -0.8799304 -0.4673772 
-88 -11.57143 578.1429 0.07036534 -0.8759401 -0.4772606 
-88 -13 581 0.07427365 -0.8816385 -0.4660439 
-70.25 -14.25 587 0.06273454 -0.8844624 -0.4623752 
-91 -15 583.3333 0.176571 -0.8391534 -0.5144359 
-70 -16 590 0.01176905 -0.877017 -0.4803151 
-79 -17.5 593 0.08844866 -0.9074132 -0.4108263 
-171 -19.5 648.5 -0.7759203 0.2557679 -0.5766546 
-182 -20 668 -0.8102434 0.155019 -0.5652209 
-174 -21 652 -0.7456664 0.3136896 -0.5878609 
-182 -22.5 666 -0.831055 0.3422852 -0.4383928 
-173 -24 650 -0.7042626 0.02531407 -0.7094881 
-186 -26 669 -0.7595943 0.5308236 -0.375823 
-184 -26 665 -0.7419615 0.5711869 -0.3510539 
-166.2 -25.8 647.6 -0.2383112 -0.7780986 -0.58118 
-169 -27 650 -0.1823026 -0.7487537 -0.6372862 
-166 -28.6 651 -0.2890916 -0.6579986 -0.6953158 
-175.2 -29.2 653 -0.2355346 -0.3085437 -0.9215879 
-182 -31.5 656 -0.7140467 0.2301529 -0.6611861 
-177.8571 -32.14286 654 0.06719042 -0.2211956 -0.9729121 
85.5 -37 720 0.09581831 -0.9160838 -0.3893707 
110 -40 748 0 1 -0 
95 -39 735 0.06637552 -0.9860565 -0.1526 
-174 -36 659 0.2671479 -0.7291514 -0.6300557 
-177.6 -35.4 656.4 0.408502 -0.7069597 -0.5773509 
-180.4 -34.8 655 -0.2578355 -0.2038177 -0.9444465 
-167 -37 659 -0.7009444 -0.2331281 -0.6740388 
-169.5 -39 662.5 -0.4474887 -0.6514882 -0.6126312 
-174.3333 -41.33333 666.3333 -0.1084725 -0.8222576 -0.5586824 
-174 -63 646 0.551896 -0.8338898 0.006206152 
-91 -10.42857 575.1429 0.148386 -0.8854316 -0.4404458 
-87 -9 574 0.1345455 -0.891215 -0.4331667 
-155 12 632 -0.7761915 0.2552783 -0.5765066 
-156 15 634 -0.7797205 0.289054 -0.5554131 
-153 15.5 629.5 -0.8385009 0.204891 -0.5049119 
-161 19 644 -0.7835163 0.06050682 -0.6184183 
-151.5 19.25 629.25 -0.7927856 0.3207926 -0.5182501 
-163.4 22.2 645.2 -0.431394 -0.4313476 -0.7923626 
-160.25 22.25 642.25 -0.7110719 -0.2835088 -0.6434279 
-157.5 22 639.3333 -0.7334492 -0.1369421 -0.6658073 
-154.6667 22 635.6667 -0.8117839 0.05787543 -0.5810831 
-152 22 632 -0.7832399 0.2211111 -0.5810724 
-149 22.5 628 -0.7919459 0.3328516 -0.5118903 
-159.3333 25.66667 639.6667 -0.5231886 -0.5276769 -0.6692017 
-147.25 24.75 626 -0.8251219 0.2492234 -0.5070123 
-162.75 27.75 638.75 -0.1579367 -0.8274142 -0.5389265 
-159.6667 28.66667 636.6667 -0.2085004 -0.7520443 -0.6252655 
-128 31 593 -0.8840995 0.3551534 -0.3037009 
-128 34 597 -0.8738059 0.4330477 -0.2212074 
-142.5 36 619 -0.3630574 -0.5639325 -0.7417341 
-144.8 37.6 617.4 -0.1283211 -0.7371866 -0.6633925 
-142 39 616 -0.1062118 -0.6317261 -0.767881 
-150 41 615 -0.4009898 -0.7598395 -0.5117139 
-157 43 611.4 0.1658896 -0.9667903 -0.1944147 
-154 43 614.3333 -0.02473903 -0.9818524 -0.1880265 
-147.75 44 608 0.0235834 -0.8752788 -0.4830432 
-118 42 579 -0.932439 0.2801015 -0.2282559 
-148 45.83333 605.3333 0.09825893 -0.8574465 -0.5051047 
-148 105 602 0.1813261 0.6206663 -0.7628198 
-150.5 104 601 0.1873204 0.5559705 -0.8098196 
-148 102 600 0.1782366 0.510709 -0.8410755 
-130 99.5 602.5 -0.04436454 0.6491938 -0.7593282 
-133.2 97.6 601.2 0.04381004 0.644649 -0.7632224 
-151 97 596.7778 0.2263426 0.3320943 -0.9156869 
-130 96.83334 598.8333 -0.2861589 0.7106742 -0.6426938 
-139 94.5 598.3333 0.117784 0.6407801 -0.7586355 
-143 93.5 597 0.1022677 0.4504947 -0.8869023 
-145 91.1 596 0.08023227 0.370576 -0.9253303 
-160 89 596.5 0.0784198 -0.8630565 -0.4989828 
-141.3333 82 584 -0.5319968 0.7143299 -0.4546561 
35 76 551 -0.1122439 -0.2997576 -0.9473895 
-154 82 596 -0.5364231 0.6761417 -0.505057 
-141.8 79.2 580.4 -0.5115244 0.4415982 -0.7371117 
-145.25 79 583.75 -0.5034872 0.6191461 -0.6026266 
-154 79 592.6667 -0.488205 0.6984422 -0.5232918 
-157 79.66666 596 -0.4939694 0.733525 -0.4668354 
37.83333 73.33334 551.3333 -0.03840709 -0.5504709 -0.8339705 
36 72 553 0.1404392 -0.5609747 -0.8158334 
32.4 69.6 553 0.4514578 -0.1502789 -0.8795466 
29 70 551.3333 0.4137439 0.007391522 -0.9103633 
31 66.5 552 0.5195286 0.03599097 -0.8536947 
38 67 556.5555 0.39054 -0.2556249 -0.8843837 
44 64.2 560.2667 0.2978843 -0.1656537 -0.9401191 
40.33333 63.83333 557.8333 0.576667 -0.01697 -0.8168031 
42 61 559 0.642578 0.2261945 -0.7320722 
40 54.75 554.75 0.6396801 0.3088989 -0.7038402 
46.625 54.75 560.375 0.5768316 0.3042654 -0.7580817 
40.33333 48.33333 548.6667 0.5578073 0.6075084 -0.5654951 
52.33333 48.33333 560.6667 0.5598618 0.631031 -0.5369866 
65 49 572.2222 0.5633113 0.284314 -0.7757873 
-52 -11.5 581 -0.0686584 -0.844988 -0.5303596 
-45.8 -14.4 584 -0.2320081 -0.8468166 -0.4786168 
-66.8 -14.4 587.4 -0.05791357 -0.8568892 -0.5122371 
-67 -16 589.3333 -0.08756182 -0.8550085 -0.5111685 
-58 -18 592 -0.07654911 -0.8824669 -0.4641041 
-187 -25 673 -0.8902485 0.3079127 -0.33563 
32.4 -49.4 626.2 -0.5160953 -0.7573298 -0.4001217 
28 -61 637 -0.9306389 0.2708828 -0.2460363 
-48.75 -10.25 578.75 -0.1681362 -0.8211652 -0.5453604 
-49 -7.833333 574.6667 -0.1835676 -0.8588213 -0.4782562 
-63 -6 574 0.2281619 -0.8789611 -0.4187714 
37.81818 9.909091 524.0909 -0.06078658 -0.7027636 -0.7088218 
86.5 13 563 0.8744172 -0.2848038 -0.3927866 
29 12 523 -0.04495421 -0.7020213 -0.7107358 
32 13.66667 521.3333 0.1121841 -0.4462948 -0.8878264 
29.25 16 520.25 0.143303 0.05742636 -0.9880114 
80.33334 19 551 0.8641099 0.3012502 -0.4031905 
84 19 559.3333 0.8506049 0.1991583 -0.4866285 
88.5 19 565.8333 0.8249425 0.1703665 -0.5389297 
82.25 21.75 557.25 0.8235829 0.4160307 -0.3855253 
85 21 561 0.7847431 0.3256726 -0.5273668 
80.66666 22.66667 554.3333 0.7033012 0.6198883 -0.348003 
79.75 24.75 556.75 0.6503215 0.6592289 -0.3774905 
90 26 571 0.6890575 0.4656844 -0.5552819 
88 27.5 569.5 0.6391719 0.4838075 -0.5978207 
77 27.33333 557.3333 0.5047505 0.7876218 -0.353382 
79.5 27 560.5 0.5491031 0.7366763 -0.3947073 
47 30 536.3333 0.3041968 0.7975505 -0.5209389 
65 31.33333 554 0.3790702 0.7175919 -0.5842669 
71.25 31.75 559.75 0.4955878 0.6583071 -0.5665902 
65.28571 37.14286 559.8571 0.5549802 0.488069 -0.6736362 
38.22222 37 538.8889 0.6104296 0.5410598 -0.5784722 
38.57143 40.28571 541.4286 0.5875953 0.4491774 -0.6730315 
35.125 40.125 539 0.5155081 0.5106875 -0.6880768 
71 43 572.1667 0.4908376 0.6366825 -0.5947386 
59 42.83333 560.1667 0.5349873 0.6713049 -0.51297 
65 42.5 566 0.4719333 0.7643972 -0.4392903 
46 42.5 549 0.5945805 0.4249889 -0.6825383 
52.66667 42.66667 554 0.5698431 0.5366793 -0.6222975 
-150.75 105 601.75 0.1873204 0.5559705 -0.8098197 
-147.8571 103.5714 601.1429 0.1774234 0.6187446 -0.7652948 
-151.25 103 600 0.1639268 0.5441019 -0.8228495 
-135 101 604 0.2545874 0.5516836 -0.7942484 
-132.6667 99.88889 602.6667 0.04538926 0.6836726 -0.7283761 
-130.5 98 601 -0.2099008 0.7745352 -0.5966884 
-148.6 96.8 597 0.2484785 0.3543915 -0.9014794 
-133 96.33334 599.3333 -0.1226979 0.7220708 -0.6808518 
-136.25 94.75 598.75 -0.09145597 0.6396143 -0.7632362 
-145.3333 93.66666 597 0.1234771 0.4248261 -0.8968145 
-141.9 91 596.2 -0.06883023 0.5518101 -0.8311245 
-162.5 89 596 -0.02493288 -0.8942665 -0.4468395 
-141 81 582 -0.5257024 0.6617192 -0.5345698 
-144 81 585 -0.4969337 0.7279125 -0.4724408 
-143 80 583 -0.5141145 0.7038102 -0.4902422 
37.75 76 550.25 -0.08375996 -0.3892622 -0.9173109 
-144.3333 78.33334 581.6667 -0.467739 0.4561878 -0.7570422 
-157 78.5 594 -0.4725535 0.6843452 -0.555306 
38.25 72 553 0.02233609 -0.7444979 -0.6672512 
34.90909 73.09091 552 -0.004073219 -0.4496664 -0.8931873 
31.5 70.5 552 0.4069126 -0.1158822 -0.906087 
38.2 69.4 556 0.2364794 -0.5849149 -0.7758557 
29 67 551.1667 0.5353068 0.1438337 -0.8323211 
32.33333 67 553.3333 0.5293956 0.02878604 -0.8478866 
41.66667 64 559 0.5728332 -0.06895806 -0.8167661 
44.18182 61.09091 560.2727 0.5154859 0.07395962 -0.8537003 
40.71429 61 557.7143 0.571281 0.2136125 -0.7924694 
46 57.5 561 0.6055294 0.138515 -0.7836758 
40 57 555 0.5868754 0.2922431 -0.7550969 
64.5 52 572.5 0.5977179 0.1127254 -0.7937419 
-55.125 -11.125 581 -0.1038164 -0.8019722 -0.5882709 
-46 -13 581.75 -0.200494 -0.8531932 -0.481522 
-48.8 -13.4 584.2 -0.1580854 -0.8529279 -0.4975168 
-64 -14.5 587.1667 -0.06846409 -0.8369565 -0.5429701 
-68 -15 589 -0.06947405 -0.8334396 -0.5482259 
-63.8 -16.4 589.8 -0.05069747 -0.8686452 -0.4928339 
-61 -18 593 -0.08187909 -0.8615111 -0.5010934 
34.33333 -47.66667 622.6667 -0.514207 -0.586678 -0.6256198 
30 -49 627 -0.2967992 -0.8637701 -0.4071995 
28 -59.33333 641.3333 -0.8977988 -0.04923895 -0.4376446 
33 -54 626 -0.9055825 0.2970666 -0.3027735 
34 -52.5 628 -0.9424545 0.1200561 -0.3120355 
-46 -10.5 577.6667 -0.1774561 -0.8163037 -0.5496888 
-49.5 -9 577 -0.1758432 -0.8390718 -0.5148181 
-46.2 -8.6 574.8 -0.1575548 -0.8628688 -0.4802435 
76 5 537 0.6445419 -0.6305134 -0.4324566 
35.25 10.375 523.625 0.02940149 -0.6853139 -0.727654 
31.75 12 523 -0.03749857 -0.663315 -0.7474003 
87 13 566 0.9098068 -0.3552143 -0.2146496 
29.25 13.66667 521 0.10694 -0.4883822 -0.8660524 
87 15.75 562.75 0.8993332 -0.1130243 -0.4224042 
32 16 521.3333 0.2833813 0.242779 -0.927768 
83 19 556.6667 0.8761461 0.2716211 -0.3982335 
79.75 21.75 551.25 0.7530279 0.4995921 -0.4282018 
88.25 21.75 566.5 0.7643699 0.2603324 -0.5898861 
84 22.5 560.5 0.7826288 0.3996057 -0.4772919 
88.75 25 568.75 0.6786255 0.3660304 -0.6367804 
91.4 24.8 572 0.7842143 0.4258509 -0.4512861 
80.66666 25.66667 559.6667 0.5926015 0.7071962 -0.3856127 
78 26 556 0.5567086 0.7184231 -0.4170659 
89.16666 28 571.8333 0.7599739 0.4398017 -0.4785544 
77 28.5 560.5 0.5096425 0.734443 -0.4481719 
65 30 552 0.2654961 0.86061 -0.4345827 
68 30.25 554 0.3155605 0.8597991 -0.4014564 
71 30.5 557.5 0.4737646 0.7360587 -0.4834922 
73.66666 30.83333 560.3333 0.4614551 0.7246888 -0.5117474 
70.33334 33.33333 560.3333 0.5153429 0.6333599 -0.5773014 
68 36 560.75 0.4880357 0.5579785 -0.671179 
64 36.5 558 0.5684726 0.4579426 -0.6834674 
35.66667 38 538 0.4990679 0.5799851 -0.6438546 
39 38 541 0.5989389 0.4303328 -0.6753413 
64.66666 39.33333 560.3333 0.5164471 0.5984645 -0.6124725 
37.5 39.33333 539.8333 0.5420909 0.4444428 -0.7131677 
63 41 562 0.4268324 0.752365 -0.5017578 
70 42 570 0.5101656 0.6535248 -0.5591391 
58 42 558 0.5412328 0.6209524 -0.5669967 
61 42 561 0.5085704 0.691346 -0.513222 
64 42 564 0.4551411 0.7574422 -0.4681112 
67 42 567 0.477607 0.7440016 -0.4672827 
70 45 573 0.5089125 0.5796315 -0.6364239 
-163 106 598.4445 0.3048764 0.5700756 -0.7629313 
-160 104 598 0.2292309 0.601153 -0.765551 
-127 101 604 -0.1184978 0.6870952 -0.7168393 
-121 100 598.6667 -0.3563142 0.8177055 -0.4521038 
-159.75 100 595.6667 0.2284383 0.3502285 -0.908381 
-164 99 594 0.2696383 0.4333931 -0.8599218 
-160.6 96.8 594 0.2881386 0.353886 -0.8897983 
-154.1 94.1 595.3 0.2591904 0.2746483 -0.9259529 
-157 93.5 594 0.2713684 -0.07014047 -0.9599164 
-156.875 90.875 595 0.1678273 -0.4776343 -0.8623801 
-141 87 591 -0.4470764 0.7210903 -0.5292935 
-148.0909 87.81818 595.4545 -0.3570353 0.1658771 -0.9192446 
-141 84 588 -0.479969 0.7260767 -0.4923845 
-144.5 84.5 590.5 -0.4758274 0.7619433 -0.4393525 
-147.5 84.5 594 -0.436696 0.5701782 -0.6958401 
-150.3333 84.33334 595.6667 -0.4435302 0.4908855 -0.7498749 
-148 82 590.25 -0.5181061 0.7195082 -0.4624652 
55.90909 76.36364 549 0.3838213 -0.187172 -0.9042388 
46.75 76 550.5 -0.2496288 -0.4972566 -0.830916 
-151 79.66666 590 -0.5179501 0.7349149 -0.4377532 
50 73.5 551.5 -0.134874 -0.814781 -0.5638626 
-148.4 79 586.4 -0.4553852 0.6300409 -0.6290253 
47.2 73 554 -0.03003161 -0.8067563 -0.5901209 
43 71 555 0.2055551 -0.7707753 -0.6030361 
46.90909 70.36364 557.1818 0.08265807 -0.7431363 -0.6640152 
47 66.75 560 0.2437389 -0.4604475 -0.8535687 
47.66667 63.33333 562 0.4226097 -0.2835849 -0.8608024 
35 61 553.6667 0.5158052 0.2250334 -0.8266227 
29.5 59 550 0.5824838 0.3599255 -0.7288115 
50.09091 60.81818 563.5455 0.4425198 -0.2064768 -0.8726647 
33 56 550 0.5076164 0.593493 -0.6245732 
33 53 547 0.5249004 0.6155983 -0.587808 
30 53 544 0.5675713 0.5707343 -0.5934015 
33 50 544 0.5408741 0.5469065 -0.6390215 
34 48 543 0.5630908 0.4649565 -0.6831868 
39 47 547 0.5542872 0.4761982 -0.6826427 
58.4 48.8 566.2 0.5554848 0.495207 -0.667987 
35.66667 46.66667 544 0.5685711 0.4417647 -0.6939532 
29.6 46 538.4 0.5694551 0.4569557 -0.6833098 
32.5 46.33333 541.1667 0.5752356 0.4242329 -0.6993786 
38.66667 43.66667 544.3333 0.5237224 0.5077911 -0.6840051 
-67 -12 583 -0.02283098 -0.7921923 -0.6098443 
-58 -13.5 584.5 -0.08026477 -0.8314934 -0.5497056 
-55 -15 586.6667 -0.001537864 -0.8429069 -0.5380572 
-52 -16 588 -0.003588894 -0.8306853 -0.5567306 
-55 -17 590 -0.02738385 -0.8873914 -0.4602028 
-47 -18 592 -0.16795 -0.8515066 -0.4967185 
29.5 -59.5 633.5 -0.9099232 0.3770176 -0.1729092 
31 -56 634 -0.8915323 -0.06064408 -0.4488792 
-63.85714 -10.57143 581.5714 -0.03418482 -0.7152287 -0.698054 
-66 -9 580 0.0976648 -0.8134137 -0.5734282 
-58.09091 -8.272727 578.0909 -0.07946696 -0.7874479 -0.6112371 
-61 -7 576 0.07189622 -0.8322716 -0.5496861 
76 3 545 0.5360261 -0.8170913 -0.2122214 
80 5 547 0.785512 -0.5368565 -0.3078247 
49 9.8 525 0.3316346 -0.3343465 -0.882174 
84 11 557 0.9665343 -0.07617213 -0.2449681 
41.14286 13.14286 523 0.3192195 0.1119891 -0.9410406 
84 13.5 555 0.9359728 0.1216583 -0.3303852 
89.5 13.5 571.5 0.7914817 -0.5223295 -0.3173777 
89.66666 16 568.6667 0.8176965 -0.3383922 -0.4656859 
91.66666 16 572.3333 0.8734828 -0.3464082 -0.3420954 
43.75 15.25 525 0.2873801 0.5304032 -0.7975495 
35 19.25 524 0.2866334 0.4598038 -0.840489 
85 24 564 0.6729638 0.5683902 -0.4733416 
29 24.5 524.8333 0.300081 0.471634 -0.8291638 
84 26 565 0.5790492 0.5684348 -0.5844519 
85 27.5 567 0.5469648 0.5081226 -0.6653128 
82 27 564 0.5740188 0.5880377 -0.5698369 
29.14286 31.28572 529.2857 0.4832615 0.2633116 -0.8349403 
37.85714 30.71428 533 0.367857 0.6282429 -0.6855598 
44.4 31.6 538.2 0.3250129 0.7741276 -0.5432247 
31.33333 33.33333 531 0.4284069 0.468566 -0.7726018 
34.875 33.625 533.5 0.5093638 0.5358559 -0.673355 
37.625 34 536.125 0.5239185 0.5121695 -0.680582 
41 34.16667 539 0.5226526 0.6236508 -0.5812864 
44.33333 34.33333 542 0.4712907 0.6349145 -0.6121836 
50.66667 34.66667 547 0.4400175 0.5928404 -0.6744812 
47.2 34.6 544.6 0.4673564 0.6317065 -0.618486 
54 35 550 0.496664 0.5700606 -0.654489 
58.88889 36.88889 554.6667 0.4977558 0.5098791 -0.7016143 
71.5 37.5 565 0.5056357 0.5939299 -0.6257634 
31.85714 36.57143 533.5714 0.4280777 0.5520857 -0.7155074 
44.33333 37.33333 544.5 0.5358449 0.4867972 -0.6898541 
41.6 40.4 544.2 0.5808746 0.4075074 -0.7046435 
28.77778 39.77778 533.4445 0.5171098 0.4839586 -0.7059615 
31.875 39.875 536.375 0.48887 0.5051042 -0.7112496 
44.66667 40.66667 547 0.5678235 0.4254582 -0.7046714 
32 43.22222 538.7778 0.5762523 0.4455573 -0.6851364 
-159.8571 105.5714 599.1429 0.2838314 0.6017423 -0.7465561 
-118 101 598 -0.4634939 0.8010201 -0.3788669 
-122 101 601 -0.3624707 0.8171771 -0.4481481 
-162.7143 100.1429 595.2857 0.2299309 0.4072567 -0.8838969 
-159.2 97.4 595.2 0.3097255 0.3275876 -0.8926122 
-162.9 96.9 593.6 0.289541 0.386343 -0.8757311 
-157 95 595 0.2141942 0.343877 -0.914259 
-164 93 591 0.2176356 0.0438328 -0.9750454 
-155 93.5 594 0.1653448 0.1182107 -0.9791258 
-158 92 594 0.1919529 -0.2233209 -0.9556578 
-154.25 91 595 0.02276767 -0.3434724 -0.9388868 
-150.9 88.2 596.1 -0.4402879 -0.2993672 -0.8464786 
-142 85.66666 590 -0.4484389 0.7037929 -0.5509791 
-148.25 85.25 595.5 -0.3428593 0.4667822 -0.8152068 
-150 81 591 -0.5388455 0.742056 -0.3987462 
52.8 76.33334 549 -0.01854546 -0.4086162 -0.9125178 
49.71429 75.85714 550 -0.1345385 -0.555769 -0.8203781 
46.6 73.8 552 -0.0619718 -0.7458223 -0.6632562 
-151 78.33334 587.3333 -0.5645485 0.5710213 -0.5960032 
49.85714 72.42857 554.2857 -0.09879046 -0.8406051 -0.5325632 
40.6 70.6 554.8 0.1673855 -0.7344638 -0.6576816 
50.07143 70.35714 557.1429 -0.02922433 -0.7756631 -0.6304702 
48 69 559 0.1069899 -0.6599574 -0.743646 
49.9 66.9 560.1 0.1187501 -0.637378 -0.761346 
35 64 554.4445 0.5274699 0.1545679 -0.8353947 
50 64 562.4445 0.2787081 -0.4094661 -0.8687113 
47.125 60.75 562.25 0.5132183 -0.01646726 -0.8581001 
37.33333 60.5 555 0.5459999 0.2344488 -0.8043121 
39 59 556 0.537767 0.3431751 -0.7700893 
32.125 58.125 551.125 0.5448048 0.4066508 -0.7333641 
32 52 545 0.5531285 0.584536 -0.5936047 
56.66667 53 568 0.5280058 0.3760778 -0.7614298 
58 51 567 0.5121376 0.4469469 -0.7334533 
37.875 45.875 545 0.5462375 0.4674652 -0.6950547 
31.375 46 539.5 0.6050364 0.4523662 -0.6552067 
62.25 46.75 568.75 0.5828555 0.5364228 -0.6103525 
57 46.5 562.5 0.555225 0.6143014 -0.5606772 
-64.25 -12 583 -0.05616975 -0.7862371 -0.6153666 
-61 -13 584 -0.04005266 -0.8194528 -0.5717455 
-52 -14.66667 586.5 0.02076555 -0.8196884 -0.5724332 
-55 -16 588 -0.01466117 -0.8386632 -0.5444531 
-52 -17.5 590.5 -0.03955603 -0.853681 -0.5192919 
30 -59 630 -0.8677016 0.4965923 -0.02213796 
31.5 -56 631 -0.9473345 0.2188796 -0.2337711 
28.5 -54 635.5 -0.5062739 -0.7348542 -0.4513049 
-67 -10.5 581.6667 0.03793207 -0.7471883 -0.6635292 
-64 -9 580 -0.04196071 -0.8392084 -0.5421886 
-61 -8.333333 578 -0.05289028 -0.8169141 -0.5743292 
-57.5 -7 576 -0.1096327 -0.8167056 -0.5665445 
-56 -6 574 -0.1978126 -0.8464056 -0.4944367 
77.5 3.5 548 0.6319941 -0.7449658 -0.2135639 
79 4 546 0.6416174 -0.743575 -0.1882108 
83 6 556 -0.9146286 0.4033847 -0.02711618 
47 10 524.6667 0.1505069 -0.4869458 -0.8603671 
82 13 551.25 0.9253609 0.02948183 -0.3779394 
43.75 13.25 523.8333 0.1684657 0.1261517 -0.9776017 
88 14 568 0.8670676 -0.391263 -0.3083943 
83 16 554 0.9051442 0.1826745 -0.3838541 
41 16 524.4445 0.3171803 0.4312709 -0.8446313 
37.75 19.25 524.5 0.1806985 0.459229 -0.8697453 
34.5 21 525 0.2405158 0.5789451 -0.7790859 
83.25 25.25 563 0.7093071 0.5598239 -0.4283465 
86 25 566.1429 0.6145564 0.4856326 -0.6216764 
31 24 525 0.3239601 0.4488018 -0.8328426 
83 28.14286 565.8571 0.5523866 0.5901508 -0.5887199 
28.5 30 528 0.464549 0.2979552 -0.8339167 
32 31 530.1111 0.3447703 0.4198315 -0.8395683 
35.16667 31.66667 532.3333 0.4180779 0.5466253 -0.7255423 
38.5 32 535 0.4470773 0.6702077 -0.5924048 
49.625 33.875 544.875 0.4397173 0.728793 -0.5248901 
56.14286 34.28571 550.7143 0.5168431 0.5772461 -0.6321868 
28.90909 34 529.8182 0.5318 0.393057 -0.75013 
43.33333 33.33333 539.6667 0.3881795 0.7201235 -0.5750992 
63 34.5 556 0.5029906 0.5403495 -0.6745539 
35.66667 34.66667 535 0.5379964 0.4760444 -0.6956592 
70.66666 36.5 563.1667 0.5316635 0.5595201 -0.6358233 
73.66666 36.66667 566.3333 0.5675407 0.5760175 -0.5883039 
42 35 541 0.495814 0.6015198 -0.6263723 
61 36 555 0.5249537 0.4638393 -0.7136362 
29.4 37.4 532.6 0.5238916 0.4940063 -0.6938986 
70.8 39.4 566.2 0.4797468 0.6955785 -0.5348024 
32.66667 37.66667 535.3333 0.5095685 0.592621 -0.6238111 
58 39 555 0.5339699 0.5230882 -0.6642702 
43.66667 39.66667 545.3333 0.5739703 0.4441154 -0.6879824 
57 41 556 0.5291708 0.5972421 -0.6027274 
69 41 568 0.458656 0.7714514 -0.4410186 
29.66667 40.66667 535.3333 0.5743709 0.4865118 -0.6583346 
-142 105 603 0.1975412 0.4472284 -0.8723326 
-145 103 601.8 0.2867507 0.5481896 -0.7856604 
-134 101 604 0.1550922 0.5638615 -0.8111761 
-136 100 602.1111 0.2065203 0.4894721 -0.847211 
-140 99 600 0.2564089 0.4274422 -0.8669184 
-138 97.5 601 0.1631988 0.5307595 -0.8316613 
-135.4 96.4 599.4 -0.01029303 0.70954 -0.70459 
-133 95 598 -0.1871989 0.6664297 -0.7216842 
-148 94 596.8889 0.2623024 0.346108 -0.9007812 
-151 91 595 -0.0413961 -0.07819682 -0.9960781 
-153.75 89 596.25 -0.07180704 -0.6655642 -0.7428783 
28.83333 76 550.4167 0.2002973 -0.345264 -0.9168826 
32 72.91666 551.75 0.2475737 -0.2397428 -0.9387389 
38 70.375 554.5 0.2312272 -0.5830982 -0.7788007 
35 67.16666 554.6667 0.5012996 -0.02969405 -0.8647641 
50.5 66 562 0.21957 -0.5848244 -0.7808773 
46 61.5 561 0.508883 -0.02380886 -0.8605064 
44.11111 58.22222 559.7778 0.5696427 0.1935627 -0.7987745 
41.125 58.125 556.75 0.6318291 0.2873405 -0.7198803 
43.2 55 557.8 0.6435364 0.2732778 -0.7149686 
40 45 546 0.5100631 0.5194694 -0.6855562 
52.4 45.8 557.2 0.5923476 0.6250321 -0.5083889 
43.66667 45.16667 548.5 0.5346775 0.4909813 -0.6877916 
42 44 547 0.4917356 0.5134966 -0.7032193 
64.8 45.4 569.4 0.5090564 0.6573406 -0.5556663 
55.6 45.8 560.8 0.5019349 0.6575199 -0.5618976 
-46 -12 580 -0.19295 -0.8296931 -0.5238127 
-52.2 -13.4 584.4 0.01779081 -0.8481783 -0.5294121 
-61 -14.5 587 -0.104987 -0.8515207 -0.5137026 
-57.33333 -16 588 -0.09401963 -0.8425848 -0.5302935 
-61 -16.5 590 -0.09349638 -0.8622155 -0.4978383 
-186 -20 673 -0.7005697 -0.1216526 -0.7031377 
-64.25 -17.75 593 -0.05562956 -0.8590083 -0.5089305 
-185 -24 671 -0.796074 0.4036562 -0.4509192 
-187 -22.75 675 -0.74326 -0.1067222 -0.6604355 
32.2 -47.4 623 -0.3314281 -0.7240762 -0.6048712 
29 -48 625.6667 -0.2201978 -0.8538411 -0.4716654 
35 -50 623.6667 -0.9110488 0.0482807 -0.409462 
29.16667 -49.83333 629.8333 -0.3648527 -0.8055408 -0.4668904 
29 -58.5 638.5 -0.8570678 0.0374956 -0.5138375 
29.75 -55.75 636.25 -0.6621833 -0.5217152 -0.537891 
32.4 -52.6 630.2 -0.9226126 -0.2263026 -0.312367 
29.25 -53 633.5 -0.4554153 -0.6537032 -0.6043751 
34 -52 625 -0.964802 0.02308918 -0.261962 
-54 -10 579 -0.08813332 -0.8079942 -0.5825616 
-52 -9 577.3333 -0.110027 -0.8263565 -0.5522943 
-54.8 -7.4 575.6 -0.1816878 -0.8153278 -0.5497546 
-58.25 -5.75 574.75 -0.1127083 -0.8193558 -0.562097 
31.75 10.5 524 -0.05705637 -0.7625844 -0.6443676 
87 12 568 0.875867 -0.3972104 -0.2740088 
37.5 13.66667 522 0.2677251 0.3526663 -0.8966324 
34.83333 15.5 522 0.225971 0.3505419 -0.9088771 
38 16.22222 523.7778 0.3363596 0.3386922 -0.8787206 
40.4 18.8 525 0.2965177 0.4308428 -0.8523214 
82 19.5 553.5 0.8663359 0.2993896 -0.3997848 
89.5 22 568.5 0.760881 0.2032633 -0.6162339 
92 22 571.3333 0.8577887 0.1754077 -0.4831465 
82.25 24.5 560 0.6897088 0.5801897 -0.4332225 
88 24 567 0.7069863 0.3823156 -0.5949833 
77 25.33333 554 0.507697 0.7698652 -0.3867188 
70 30 555 0.4537968 0.8098154 -0.3718432 
43 30 534 0.2663315 0.6628392 -0.6997941 
68.25 31.75 556.75 0.4646194 0.7374097 -0.4902608 
41 31.5 536 0.3362181 0.7654036 -0.5487393 
65 33.7 556.9 0.4499883 0.6317508 -0.6311905 
68.14286 34.28571 559.5714 0.5097905 0.6129972 -0.6036125 
55.77778 42.77778 557.1111 0.5206817 0.6122848 -0.5949773 
67.8 43 569.6 0.4516411 0.6608945 -0.5993654 
43 42 546 0.567072 0.4232528 -0.706602 
29.16667 43.08333 535.9167 0.6011592 0.4000793 -0.6917689 
67.875 46 572.25 0.4817331 0.5514073 -0.6810898 
-145 105 603 0.2317131 0.4970548 -0.8362091 
-142 103 602.6667 0.1975412 0.4472284 -0.8723326 
-146 102 600 0.2432211 0.4993447 -0.8315638 
-130 101 604 -0.007793973 0.6239244 -0.7814459 
-139 100 601.5555 0.2327092 0.4107285 -0.8815603 
-136.25 97.75 601 0.09015425 0.5431594 -0.8347755 
-139.5 96.9 599.9 0.2742087 0.446467 -0.8517492 
-151 94 595.8889 0.1755437 0.2994618 -0.9378204 
-148 91 595.2222 0.03593493 0.2137435 -0.9762287 
-157 89 596.3333 0.05134313 -0.8084718 -0.586291 
32 76 551 0.08168295 -0.2804638 -0.9563828 
-141 78 579 -0.4467722 0.3826147 -0.8087031 
-147 78 584 -0.540395 0.5791181 -0.6104059 
-153 78.5 590.5 -0.5607314 0.7101911 -0.4256866 
-159.5 78.5 596.5 -0.5341483 0.7371137 -0.4139434 
29 72.75 551 0.2135415 -0.1358962 -0.9674359 
35 70 553.8889 0.3171703 -0.4783976 -0.8188643 
46.66667 64.33334 561 0.3407207 -0.2507682 -0.9061041 
43 57.33333 558 0.6471157 0.2537197 -0.7189351 
41.42857 55 556.2857 0.6895323 0.2375173 -0.6842008 
44.66667 55 559.1667 0.6257168 0.316396 -0.7130021 
41.125 46.125 547.75 0.494549 0.5187393 -0.6973742 
28.6 45.8 536.6 0.4984259 0.4670221 -0.7303849 
65.25 46.75 572 0.5310659 0.480754 -0.6977425 
53.75 46.25 559.5 0.5308202 0.6596746 -0.5320332 
-49.2 -11.6 581 -0.1773081 -0.8547486 -0.4878182 
-55 -13.5 584.1667 -0.02170634 -0.8275901 -0.5609131 
-58 -15 587 -0.1015467 -0.832429 -0.5447479 
-58.25 -16.75 589.75 -0.06663343 -0.8767608 -0.4762884 
-66.85714 -17.42857 592.8571 -0.06709325 -0.8627588 -0.5011446 
-184 -20.5 671 -0.797328 -0.01095908 -0.6034468 
-187.2 -20 674.6 -0.5740611 -0.2963274 -0.7633112 
-186 -23 673 -0.8151955 0.1433614 -0.5611629 
28.8 -46.6 623 -0.1787831 -0.7921234 -0.5835899 
31 -48 625 -0.2665168 -0.817643 -0.5103223 
34 -50.25 626 -0.7710298 -0.4260372 -0.4732921 
31.8 -50.6 628.8 -0.6932215 -0.5391194 -0.4783244 
28.5 -51 632 -0.374182 -0.7361602 -0.5639646 
30 -58 636 -0.9360786 0.07759913 -0.3431257 
28.4 -56.2 638.6 -0.684325 -0.4999426 -0.5308078 
31.66667 -53.66667 632.3333 -0.7075194 -0.4117607 -0.5743426 
34 -53 623 -0.9322186 0.3189138 -0.1710629 
-52 -10 579 -0.06889353 -0.8336066 -0.5480455 
-55.28571 -8.428572 577.5714 -0.1645718 -0.8184975 -0.5504345 
-52.09091 -7.454545 575 -0.1565055 -0.8516946 -0.5001224 
-61 -5.5 574.5 0.1850923 -0.8761482 -0.4450901 
29 10.5 524.5 -0.05655479 -0.787677 -0.6134871 
86 11 564 0.9039583 -0.3493005 -0.2466749 
35.25 13.25 521.875 0.167722 -0.149666 -0.9744073 
38.5 12.83333 523 0.2303583 -0.1227764 -0.9653295 
37 15 522 0.2677252 0.3526664 -0.8966324 
35.6 16.4 523.2 0.1986985 0.3924406 -0.8980587 
90 18.75 568.25 0.8201349 0.03905883 -0.5708355 
92 19 571 0.886744 -0.05872273 -0.4585158 
91 23 570 0.7785425 0.2282326 -0.5846207 
77 24.5 551 0.5614058 0.7626457 -0.32124 
79 24 554 0.6156625 0.7034644 -0.355102 
76 27 555 0.4798858 0.7731827 -0.4146061 
43.875 30.375 535.875 0.2597563 0.794992 -0.548192 
41 30 533.6667 0.2718097 0.7119008 -0.6475468 
67.33334 33.33333 557.6667 0.4822724 0.6098107 -0.6289232 
40.5 33 537 0.4384363 0.6526888 -0.6178763 
39 34.5 538 0.605288 0.5193377 -0.6032535 
66 35 559 0.4829838 0.5663759 -0.667791 
33 41 538 0.5309616 0.4800101 -0.6983339 
41.16667 42.83333 545.25 0.5283893 0.4858621 -0.6962347 
44.22222 43.22222 548 0.5740901 0.4440807 -0.6879048 
65.33334 43.66667 568.3333 0.5239879 0.6775487 -0.516105 
28 42 534 0.5173196 0.4945288 -0.6984423 
31 42 537 0.5782738 0.4813567 -0.6587072 
53.66667 43.66667 556.3333 0.5362173 0.6448568 -0.5446382 
56.5 44 559 0.4926751 0.678804 -0.5445148 
-130 103 605 0.035598 0.5521017 -0.8330165 
-139 102.5 602.6667 0.2486748 0.4536394 -0.8557875 
-142 100.5 601.1667 0.1787331 0.5694669 -0.8023477 
-144.875 100 599.625 0.2482375 0.4548314 -0.8552816 
-118 95 584 -0.4012426 0.8262854 -0.3952936 
-120 93 581 -0.4715782 0.7985538 -0.3740668 
-142 97 599.2222 0.1516651 0.4116715 -0.8986236 
-130 94.33334 596.6667 -0.3095436 0.7984064 -0.5164591 
-129.5 84.5 575.5 -0.4966834 0.5762116 -0.6490653 
-132.5 84.5 578.5 -0.5531266 0.6965905 -0.4569603 
-156.8571 88.28571 598.8571 -0.1970744 -0.8398595 -0.5057644 
-136 84 581.5 -0.4205575 0.7137276 -0.5601111 
-139 84 584 -0.5136071 0.7436456 -0.4280175 
-163 87 604 -0.104271 -0.8460873 -0.5227466 
-135.5 81.75 578.5 -0.6360158 0.5025194 -0.5856263 
-153.8333 85.33334 599.5 -0.5247997 -0.2274839 -0.8202661 
-156.8333 85.33334 602.1667 -0.5216475 -0.2748139 -0.8076889 
-160.125 85.125 604.375 -0.4299904 0.02156739 -0.9025759 
71 75.5 551.625 0.4261225 0.06146465 -0.9025751 
-135 78.5 576 -0.5345659 0.1702349 -0.827804 
73.75 75.75 554 0.7704226 0.08695346 -0.6315759 
-138.875 78.625 578.875 -0.4534992 0.3649309 -0.8131199 
-160.25 81.75 602.25 -0.4687581 0.5308061 -0.7060529 
-160.3333 79 599 -0.5191825 0.7205292 -0.4596599 
-163 79.33334 602 -0.4670217 0.6840038 -0.5603834 
70.85714 72.71429 553.5714 0.2650599 -0.5878037 -0.7643495 
74.6 69.8 560 0.8648714 -0.2750009 -0.4199665 
71 69.92308 557.0769 0.3258734 -0.6455637 -0.6906909 
71.1 67.1 559.9 0.162778 -0.7437226 -0.6483672 
56.125 66.5 562.5 -0.03092748 -0.849326 -0.526962 
71.25 64.75 563.75 -0.01988715 -0.8088154 -0.5877264 
74 63.125 566.375 0.2002684 -0.7985911 -0.5675779 
66 63 568 0.05931042 -0.7904561 -0.6096404 
67.9 60.9 569.1 -0.02329594 -0.7448145 -0.6668649 
74 58.5 571.5 0.1281095 -0.8231943 -0.5531178 
42 53 556 0.6088905 0.4635929 -0.6436877 
46.33333 48.33333 554 0.5059553 0.6665625 -0.547452 
-34.25 -11.75 574.5 -0.2511402 -0.7976815 -0.5483 
-37.5 -12 577 -0.3056175 -0.80997 -0.5005462 
-37.2 -14.6 581.6 -0.1812027 -0.8599241 -0.4771753 
-33 -16 582 -0.2163859 -0.8903685 -0.400526 
-36.75 -16.25 584.25 -0.1640863 -0.8809323 -0.4438852 
-189.875 -20.125 675.125 -0.3281969 -0.4842858 -0.8110204 
-198 -20 679 -0.7529916 -0.1380281 -0.643391 
-203 -21 687 0.9318235 0.2324436 0.2787024 
-201 -22 683 -0.8271286 -0.3137689 -0.4662695 
-196 -22.33333 678.3333 -0.3056958 -0.7284555 -0.6131092 
-198.5 -22.5 680.5 -0.5651839 -0.6517941 -0.5056992 
-191 -25 681 -0.4708914 -0.7429631 -0.4756756 
-174 -50 672.6667 -0.7046923 -0.238399 -0.6682624 
-180 -59.5 675 -0.3809589 0.7677527 -0.5151953 
-173 -54 671 -0.9004508 0.1007511 -0.4231283 
76 -2 563 0.5842844 -0.8017766 -0.1255631 
76 12 537 0.6786507 0.3733168 -0.6325091 
76.33334 18.66667 542.5 0.6969911 0.4210931 -0.5804172 
76.5 24 548.5 0.5903987 0.7183339 -0.3680025 
-157.1429 105.4286 599.8571 0.2879483 0.5145126 -0.8076896 
-154 105.6667 601 0.2555812 0.4762369 -0.8413541 
-154.2 102.8 599.2 0.2345482 0.483564 -0.8432989 
-124.5 100.5 601.75 -0.3045028 0.8193274 -0.4857785 
-154.5 99.5 597 0.2145717 0.4540884 -0.8647327 
-126 99 600 -0.3158309 0.8349774 -0.4506258 
-156.8182 96.90909 595.4545 0.2347723 0.3323689 -0.913462 
-162.7778 94.11111 592.4445 0.3626393 0.2240117 -0.9046057 
-160 91.5 593.6667 0.1834136 -0.4821261 -0.8566878 
-163 90 595 -0.00333687 -0.7973651 -0.6034879 
-142 89 595 -0.1750227 0.5617056 -0.8086123 
-144 87 594 -0.4601353 0.6715695 -0.5807495 
-143 86 592 -0.4354613 0.7095302 -0.554022 
-145 81.66666 587 -0.4452219 0.7108074 -0.544546 
-151 81.33334 593 -0.514472 0.6732708 -0.5310602 
41 76 550.1111 0.05331509 -0.3461606 -0.9366591 
43.8 73.6 552 0.1666918 -0.7056416 -0.6886827 
41.25 72.25 553.25 0.171713 -0.7661271 -0.6193255 
41.2 69.6 556.4 0.2072487 -0.6825583 -0.7008297 
42 66 559 0.4562585 -0.2912341 -0.8408393 
33 64 553 0.5612572 0.1526926 -0.8134343 
29 63.92308 550.5385 0.559508 0.1773651 -0.8096249 
31.875 60.875 551.75 0.5225008 0.164607 -0.8365989 
38.66667 61.33333 556.3333 0.5556625 0.2466786 -0.7939703 
37.875 57.75 554.25 0.495025 0.3268793 -0.8050467 
34.5 57 552 0.4450383 0.568133 -0.6922182 
51 57.5 565 0.5776213 -0.03507107 -0.8155512 
47.33333 58.11111 562.1111 0.5829984 0.1296403 -0.8020638 
37.33333 54.33333 551.6667 0.5784377 0.5288873 -0.621038 
50 55 563 0.6014017 0.2112346 -0.7705166 
31 51 543 0.5444822 0.5420363 -0.6401061 
37 51 549 0.6008151 0.5898929 -0.5394884 
34.5 51 546 0.5540869 0.5945216 -0.5826936 
52.33333 51.33333 563.6667 0.59439 0.4299433 -0.6795949 
29.66667 49.66667 541.3333 0.5455353 0.5139592 -0.6619949 
62.6 52.2 571.2 0.5996836 0.1405677 -0.7877946 
59.125 52.125 568.875 0.5005893 0.3251751 -0.8022914 
55.875 51.625 566.375 0.47915 0.4081994 -0.7770382 
37 48.5 546 0.5696459 0.526562 -0.6310595 
61.71429 48.85714 569.2857 0.5862448 0.3926482 -0.7086215 
55.8 48.4 563.6 0.5034376 0.5950688 -0.6264532 
61.75 45.5 566.5 0.6036065 0.5810762 -0.5459026 
58.6 45.6 563.2 0.537392 0.629255 -0.5614697 
-58 -10.875 580.875 -0.1164367 -0.7842382 -0.6094367 
-61 -12 583 -0.04476804 -0.769879 -0.6366178 
-64 -13 584.6667 -0.04486464 -0.8287184 -0.5578647 
-49.25 -14.75 586.5 -0.07403433 -0.8143979 -0.575565 
-46 -16 587.3333 -0.215596 -0.8603165 -0.4619242 
-49 -17.5 590.3333 -0.01981431 -0.8690495 -0.4943281 
58 -33 628 0.5730972 -0.8066982 -0.144214 
31.5 -55.5 627 -0.9208085 0.2788276 -0.272703 
-67 -7.5 575.1667 0.1524445 -0.950294 -0.2714811 
-64 -8 577.6667 0.06270929 -0.9302494 -0.3615295 
76.5 4.5 539 0.6634939 -0.6926793 -0.2827918 
83 7 553 0.9321448 -0.2564532 -0.2556128 
43.81818 9.909091 524.0909 0.1692281 -0.5006688 -0.8489361 
82 11 550 0.9669947 0.06557036 -0.2462151 
46.66667 12.66667 524.5 0.3536709 0.2195162 -0.9092467 
85.25 15.75 560.25 0.8568777 0.06393898 -0.5115394 
84 16 557.3333 0.9295165 0.206099 -0.3058144 
88 16 564 0.9321077 -0.1497772 -0.3297607 
86.5 19 563 0.84166 0.1964939 -0.5029896 
31.33333 18.33333 522 0.3268997 0.4547257 -0.8284692 
87 22 565 0.7341585 0.3194862 -0.599116 
31.63636 21.90909 524.5455 0.3137833 0.4612079 -0.8299562 
87 26 568 0.6362927 0.4373119 -0.6355233 
81 29 565 0.5674199 0.5779941 -0.5864788 
84 29 568 0.474854 0.6232572 -0.6213407 
49.75 30.25 539 0.3475075 0.795108 -0.497033 
62.2 30.6 550.8 0.3486655 0.8223811 -0.4495795 
34.5 30.33333 530.8333 0.3077262 0.582024 -0.7526969 
74.5 32 562.5 0.4620741 0.65951 -0.5929031 
48 32 541 0.3321517 0.7971177 -0.5042607 
71.33334 34.33333 562.3333 0.5358385 0.5557457 -0.6356288 
58.33333 33.33333 551.6667 0.5312324 0.5543733 -0.6406735 
61.71429 33.85714 554.4286 0.4891952 0.5556219 -0.6722889 
74.66666 34.66667 565.3333 0.5383999 0.6062011 -0.5853596 
55.33333 36.66667 551.6667 0.5307873 0.4751294 -0.7017955 
62 37.22222 557 0.5249122 0.5278664 -0.6677007 
68 37.33333 562.3333 0.5152611 0.593948 -0.6178445 
30 35 532 0.4956172 0.4817959 -0.7226592 
34.875 37 536.25 0.4604701 0.6050577 -0.6495173 
41.125 37.125 541.875 0.5368209 0.4397344 -0.7200395 
74.5 38 568.5 0.5673882 0.6688237 -0.4803596 
28.33333 36.83333 531 0.5337873 0.4502797 -0.7157649 
47.66667 37.66667 547.3333 0.5025933 0.4952971 -0.7085767 
74.2 40.2 571.8 0.5382637 0.7195473 -0.4387753 
52.6 39.6 551.8 0.4924801 0.4925719 -0.7175211 
55.875 39.75 554.25 0.4746726 0.5547094 -0.6833619 
59 40 557.1429 0.5279781 0.5983586 -0.6026659 
62 40.16667 559.6667 0.4597628 0.657459 -0.596964 
68.2 40.2 565.6 0.4527231 0.7703084 -0.4490733 
71 40.66667 568.6667 0.448018 0.7760062 -0.443953 
49 39 549 0.4795394 0.4995761 -0.7214331 
65.2 40.6 562.6 0.4688631 0.7553061 -0.4579082 
61.8 42.8 563.2 0.4752315 0.7427881 -0.4716152 
35.33333 43.33333 541.5 0.5400075 0.4796121 -0.6916388 
-133 102.8333 604.5 0.1134756 0.4864711 -0.8662963 
-136.5 102 603 0.3335595 0.5157755 -0.789122 
-144 101 601 0.3026606 0.5446531 -0.7821443 
-142.25 99.25 600 0.228837 0.4733999 -0.8506035 
-117.5 94.5 581 -0.430702 0.8341288 -0.3445648 
-145.1429 97.28571 598.5714 0.2372248 0.3531663 -0.9049851 
-121 94 584.5 -0.461158 0.791273 -0.4015224 
-129.6667 93.33334 593.3333 -0.3384377 0.8465022 -0.4109671 
-133 93 595.6667 -0.3204274 0.8096122 -0.491787 
-123 90 578 -0.4776704 0.7766607 -0.4106447 
-133 91.66666 593 -0.3299346 0.8521333 -0.4062165 
-136 90 591 -0.3799841 0.8329129 -0.4023284 
-130.25 85.25 577.25 -0.5258766 0.7566004 -0.3885996 
-136.5 85.5 584 -0.4955419 0.7831618 -0.3756274 
-154.3333 88 598.5 -0.3645682 -0.7252079 -0.5840921 
-157.5 87 601 -0.372326 -0.5544327 -0.7442968 
-155 84.5 601 -0.5406353 0.2897199 -0.7897948 
71 77 554 0.3521433 0.3958165 -0.8481299 
-163 85 605.3333 -0.4104884 -0.2776704 -0.8685611 
-136.2857 79.14286 577.5714 -0.5019598 0.2861435 -0.8161853 
-160 80 601 -0.4484199 0.6717709 -0.589613 
70.8 73.6 551.6 0.2721825 -0.2699059 -0.9236165 
-163 78 600 -0.4744677 0.7393852 -0.4776923 
73.2 73.4 554 0.7619338 -0.0186589 -0.6473861 
73.33334 70.33334 557.1667 0.6117369 -0.5645986 -0.5540816 
73.57143 67 560.2857 0.3730077 -0.6752676 -0.636301 
53.25 66.25 562.25 0.1969717 -0.7092848 -0.6768437 
73.8 64.6 563.4 0.2088074 -0.7301691 -0.6505787 
70.9 63.3 566 -0.108939 -0.8268777 -0.5517296 
67.5 63 568 -0.04875124 -0.7943094 -0.6055542 
74.5 62 567 0.2023426 -0.6906468 -0.6943086 
64.90909 61.09091 568.9091 0.1322042 -0.6812708 -0.7199945 
71 58.27273 572.0909 0.06120303 -0.7818167 -0.6204973 
44.125 52.125 556.875 0.5304831 0.5237626 -0.6665287 
50.66667 46.66667 556.3333 0.5566695 0.6496332 -0.5177797 
44.33333 46.33333 550.3333 0.5305762 0.5477073 -0.6469201 
-37 -10.83333 574.8333 -0.3325975 -0.7710569 -0.5430011 
-34 -15 580.3333 -0.2521294 -0.8812277 -0.3998356 
-34.2 -16.6 584 -0.1811307 -0.8910441 -0.4162115 
-32 -18 586 -0.1902808 -0.8612435 -0.4712249 
-193 -20 675.4445 -0.2626669 -0.3834602 -0.8854176 
-196.75 -20.25 677 -0.6175409 -0.1553208 -0.7710505 
-200 -20 681.3333 -0.8584469 -0.173817 -0.4825522 
-202 -23 688 0.780892 0.6014966 0.1685516 
-195.6667 -23.66667 681 -0.2875017 -0.8748165 -0.3899217 
-192 -26 682 -0.5028495 -0.7868873 -0.357702 
-189 -26 677.3333 -0.6489761 -0.5526876 -0.5228446 
-176 -50 675.6667 -0.6971759 -0.4795679 -0.5328794 
-174 -52.5 672.5 -0.9038464 -0.1535801 -0.399343 
-180 -57 676 -0.6516648 0.7034405 -0.283733 
128 -15 703 -0.7887716 0.6146856 0.001066734 
124 -13 688 0.4442264 -0.8255864 -0.3479512 
126 -14 694 0.4533883 -0.8651292 -0.2144542 
124 -12 684 0.4058757 -0.8888691 -0.2125481 
132 -11 690 0.2969223 -0.9381784 -0.1779284 
126 -12 687 0.433962 -0.8491859 -0.3009324 
129 -11 685 0.2251803 -0.965705 -0.1292583 
135 -10 690 0.2585114 -0.9573688 -0.1289071 
124 -11 678 0.2177351 -0.9559824 -0.1966953 
127 -11 682 0.2081856 -0.9657483 -0.1548844 
131.5 -9 675.5 0.1899382 -0.9616473 -0.1978838 
133 -8 673 0.1948331 -0.9438667 -0.2667502 
126 -11 680 0.2072169 -0.9639173 -0.167107 
128 -10 678 0.2029344 -0.9650286 -0.1659445 
130.5 -8.5 672 0.1547095 -0.9455506 -0.2863551 
130 -11 688 0.2716137 -0.9496497 -0.156178 
125 -10 674.5 0.1827767 -0.9459214 -0.2680027 
131 -10 681 0.1964 -0.9684137 -0.1536296 
125 -9 672 0.0587142 -0.8824611 -0.4667068 
136 -9 685 0.2560163 -0.9600595 -0.1128784 
127 -10 676 0.1820866 -0.9561432 -0.2294226 
130 -10 679 0.1917764 -0.9669695 -0.1679039 
127.5 -9 672 0.04715209 -0.9278179 -0.3700414 
134 -9 678 0.2449872 -0.9579379 -0.1494531 
125 -7.5 669.5 0.007798281 -0.6976555 -0.716391 
127.5 2 657 0.00578328 -0.8532572 -0.5214581 
125 3 656 0.09677446 -0.688551 -0.7187018 
128 -7.5 669 -0.05046825 -0.7772861 -0.6271198 
125.5 2 658 0.01702455 -0.8760689 -0.4818854 
124.8 4.4 654.4 0.1210923 -0.5951884 -0.7944101 
130.75 -7.25 668.75 0.23783 -0.7614272 -0.6030469 
125 -5 668 -0.1423451 -0.6840322 -0.7154284 
128 -4.4 666.4 -0.04948924 -0.6424601 -0.7647195 
125 -3 665 0.02014427 -0.7845751 -0.6197065 
127.5 1 660 -0.03154782 -0.8824555 -0.4693368 
125.25 -4.25 666.75 -0.02482338 -0.8062292 -0.5910825 
128.25 -2.75 665.25 -0.006185197 -0.7075828 -0.7066034 
130 -1 663 -0.1015609 -0.7903491 -0.6041803 
125 0.5 660.3333 0.06100447 -0.8681005 -0.4926257 
128.5 0 662 0.04857984 -0.8170241 -0.5745535 
124 29 640 0.4146284 -0.4322495 -0.8007769 
131 -4.6 666.2 0.009201893 -0.6601583 -0.7510701 
124.8 -1.6 663.2 0.07523011 -0.7959736 -0.6006384 
130 0 661 -0.02454479 -0.8802212 -0.4739284 
124 26 643 0.6347961 -0.5501738 -0.5425336 
127 26 646 0.5517116 -0.6945235 -0.4617916 
126 27 645 0.5409112 -0.6772388 -0.4987611 
127.5 29 641.5 0.4137514 -0.6834864 -0.6013786 
130.5 -2.5 665.5 -0.06006994 -0.7492939 -0.6595077 
127.8 -1.4 663.4 0.08497731 -0.8239603 -0.5602395 
125 25.33333 644.6667 0.6192053 -0.6404521 -0.4543192 
125.2 27.8 641.8 0.5275041 -0.6503823 -0.5465733 
127.6667 27.66667 644.6667 0.5035083 -0.7400268 -0.4459147 
124.5 7 653.5 0.5746333 0.0206042 -0.8181517 
125 10.5 657.5 -0.8220825 0.5381002 -0.1860877 
125 12 649 -0.9796576 0.1037194 0.1717946 
125 10.5 653.5 -0.9580783 0.2112786 -0.1935133 
124 11 660 -0.6252498 0.3778964 -0.6828302 
125 18 651 0.9324715 -0.3025664 -0.1973589 
130 26 652 0.6179115 -0.7604296 -0.1998305 
124.4 12.8 659.8 -0.5968522 -0.08302757 -0.7980438 
125 24 647 0.6952626 -0.6085157 -0.3825162 
127 24 652 0.7571223 -0.539991 -0.3676621 
132 27 658 0.8032122 -0.5218215 -0.2873196 
129 27 647 0.5975057 -0.7055799 -0.3809775 
125 12.5 654 -0.9898309 -0.106741 -0.09402758 
124 15 656 -0.8187714 -0.5623292 -0.1157559 
125 14 658 -0.8199687 -0.1803321 -0.5432602 
124 16 653 -0.8318992 -0.5199935 -0.1937799 
124 15 659 -0.6021198 -0.4790535 -0.6387171 
127.5 25.5 648.5 0.5655386 -0.7511892 -0.3404131 
125 23 650 0.75216 -0.5308216 -0.3904919 
128.25 76 658 -0.3284583 0.4554771 -0.8274394 
129 73 654.6667 -0.3558177 0.4899592 -0.7958227 
125 72.5 656.5 -0.06338204 0.4718152 -0.8794164 
129 70 650 -0.9847664 -0.0178566 -0.1729631 
124.5 31 639.6667 0.3656654 -0.2434539 -0.8983424 
127 34.5 639 -0.9942194 0.07134798 -0.08023291 
127 37 641.3333 -0.8631388 0.1243639 -0.489413 
125 38 644 -0.07109001 0.5824115 -0.8097796 
126 39 643 -0.847414 0.3689571 -0.3817854 
127 41 645 -0.2804469 0.7021857 -0.6544348 
129 77 650 -0.9951363 -0.05551938 0.0813726 
129 72.5 648.5 -0.9948236 -0.1011487 0.009740581 
127 71 656 -0.2904942 0.4187849 -0.8603675 
125 69.5 654.5 -0.1313654 0.5052016 -0.8529446 
130 67 651 -0.8041053 0.1889635 -0.5636554 
127.875 67.125 653.375 -0.4267263 0.2715659 -0.8626451 
127 31 641 0.3984303 -0.2224741 -0.8898082 
125.5 35 641 -0.2653327 0.8415538 -0.4705165 
127 37 636 -0.9661785 0.2500873 0.06289425 
127 40 640 -0.9551004 0.2553087 -0.1503353 
125.3333 75.33334 658 0.006098722 0.5506652 -0.8347039 
128 73 656.5 -0.3150301 0.4698526 -0.8246179 
127 31 640 0.3903813 -0.2275453 -0.8920906 
124.8 33.4 639.6 0.3438933 -0.004327603 -0.9389988 
125 36.6 642.6 -0.2106377 0.3220662 -0.922987 
124.8571 40 645 -0.04046779 0.7756171 -0.6299052 
127 40 642 -0.902572 0.3605392 -0.2353196 
129 75.5 649 -0.993481 -0.102098 0.05070988 
130 76 657 -0.4063243 0.5277284 -0.7459245 
129 72 650 -0.9953055 -0.03149311 -0.09151582 
125 71 656 -0.06499412 0.4886027 -0.8700823 
