ply
format ascii 1.0
comment VCGLIB generated
element vertex 971
property float x
property float y
property float z
property float nx
property float ny
property float nz
element face 0
property list uchar int vertex_indices
end_header
-91 58.5 508.75 0.015893 0.9564024 -0.2916193 
-76 60 525 -0.1288844 0.9369193 -0.324917 
-69 58 519 -0.4705994 0.7838571 -0.4050979 
-84.5 57 506.5 0.1708772 0.9450888 -0.2785824 
-69.75 57 514.75 -0.1285807 0.9499076 -0.2848553 
-82.5 55 502.5 0.2027474 0.9252657 -0.3205883 
-81.5 54 499.5 0.273056 0.9037212 -0.3297403 
-84.33334 54 496.3333 0.2780848 0.8597925 -0.4282821 
-87.75 53.5 494.125 0.1741726 0.8529353 -0.492103 
-184 65 603 -0.5345798 0.3800288 -0.7548527 
-91.09091 52.27273 490.9091 -0.0203075 0.8325225 -0.5536189 
-87.8 50.8 490.4 0.2970421 0.7306303 -0.6147727 
-183 61 600 -0.488589 0.4733664 -0.7329427 
-186 61 603 -0.5118604 0.5597275 -0.6516933 
-84 48 490 0.2931961 0.7051698 -0.6455786 
-180.875 58.875 598.25 -0.4497588 0.2804511 -0.8479765 
-179 55 598 -0.3866895 -0.05701615 -0.9204458 
-239 57 635 -0.5161865 0.7980463 -0.3109241 
-242 57 639 -0.4991478 0.7937151 -0.3476607 
-79.3 43.6 488.6 0.3581512 0.5438436 -0.7589216 
-178 53 597 -0.290599 -0.2344207 -0.9276848 
-196 53 602.4445 -0.4875466 0.2021704 -0.8493677 
-81 42 487 0.2934172 0.5575053 -0.7765914 
-85.15385 41.07692 484.7692 0.3391312 0.4858736 -0.8055538 
-88.5 40.5 483 0.3399975 0.5128836 -0.7882589 
-198 49.5 603 -0.4061728 -0.003431899 -0.9137898 
-90.2 38.6 481.2 0.2949516 0.4286282 -0.8539798 
-162.5 -18.5 637 -0.6845351 -0.3531283 -0.6377398 
-150 -18.5 622 -0.9342276 0.06917956 -0.3499042 
-161 -20 638 -0.4146578 -0.6742538 -0.6110979 
-114.75 -18.75 586.75 0.1402147 -0.9001769 -0.4123367 
-162.5 -21 640 -0.4569077 -0.6753912 -0.5788627 
-78 -20 598 0.03909723 -0.8650466 -0.5001658 
-112 -20 590 0.0636031 -0.8933195 -0.4448989 
-76 -21 599.3333 -0.07151059 -0.8310089 -0.5516434 
-116 -21 591 0.1232227 -0.8940348 -0.430718 
-79 -22 601 0.008109995 -0.7765899 -0.6299543 
-106.2 -21.4 593 0.1057386 -0.8984978 -0.4260529 
-152 -22 626 -0.938028 0.1128133 -0.3276837 
-109 -23 596 0.02166153 -0.9054513 -0.4238971 
-70 -24.66667 602.6667 -0.04401594 -0.6900272 -0.7224439 
-160.5 -25.5 644 -0.6200501 -0.5323561 -0.5763115 
-79 -25.5 605.3333 -0.04286966 -0.8523385 -0.5212306 
-157 -27 638 -0.9205151 -0.03275445 -0.3893317 
-79 -27 608 -0.09344874 -0.8574687 -0.505979 
-159 -28 642.6667 -0.8984671 -0.1157879 -0.4234973 
-82 -28.57143 610.8571 0.01404767 -0.821554 -0.5699577 
-78.5 -30 612 -0.2421052 -0.662106 -0.7092254 
-77 -31.5 613 -0.6663134 -0.2474222 -0.7034265 
-157 -34 633 -0.9151849 0.2376945 -0.3254812 
-76.16666 -34 611.3333 -0.6851681 0.1396104 -0.7148802 
-78 -34 614 -0.7862897 0.06045314 -0.6148934 
-79.66666 -36.33333 616.3333 -0.7168078 0.3839239 -0.5820559 
-155 -37 626 -0.9359328 0.009277403 -0.3520567 
-153 -39.5 623.5 -0.6513903 -0.6135112 -0.4464244 
-124 -42 627 -0.01088078 -0.8109803 -0.5849724 
-121 -43.5 629 -0.03599514 -0.8458493 -0.5322062 
-118 -45 631 -0.0003122772 -0.8322749 -0.5543631 
-82.66666 -43 596 -0.4941568 0.8558544 -0.1527167 
-121 -45.5 632.5 -0.03804262 -0.8656368 -0.4992251 
-84 -44 594 -0.5653554 0.7940347 -0.2233438 
-136 -47 636 0.06471417 -0.8540367 -0.5161718 
-85.5 -45 595.5 -0.5834241 0.8038819 -0.1157166 
-129.8333 -49.5 639 -0.04748461 -0.8534833 -0.5189525 
-136 -51 642 0.0676622 -0.9031559 -0.4239473 
-83 -63 574 -0.3619271 0.535224 -0.7632457 
-85 -61.66667 575.3333 -0.3366649 0.6215823 -0.7073135 
-91.2 -60.8 580.4 -0.6612077 0.4063599 -0.6306155 
-148 -65 665 0.00965054 -0.8545021 -0.5193583 
-145 -64 664 0.01976555 -0.8859901 -0.4632827 
-100 -59 610 -0.9417118 0.2940024 -0.1635284 
-85 -55.3 580.9 -0.3639669 0.6903887 -0.6252131 
-143 -63 661 0.08061642 -0.9271213 -0.3659877 
-159.8 -61.4 657.4 0.04778115 -0.8342177 -0.5493613 
-145 -62 659 -0.01049932 -0.8930554 -0.4498244 
-162.5 -60 655 -0.02831474 -0.7860501 -0.617514 
-70.5 -53 576 0.2313348 0.7684191 -0.596671 
-153.75 -58.5 654.25 0.05278783 -0.8966397 -0.4396029 
-72.75 -52 578.125 -0.1025891 0.8234249 -0.5580743 
-163.2 -57.6 651 -0.356452 -0.765003 -0.5363883 
-76.25 -51.25 580 -0.1624109 0.6902876 -0.7050714 
-161 -57 649 -0.1397537 -0.7645221 -0.6292654 
-99 -54 615 -0.8260169 0.5280146 -0.1972225 
-94 -51.5 599 -0.8169119 0.55649 -0.1515709 
-163 -54.66667 648 -0.3318674 -0.6331652 -0.699261 
-85 -49.57143 586.8571 -0.4850302 0.7399178 -0.4661196 
-78.33334 -49.66667 582 -0.3221925 0.5935848 -0.7374613 
-90.5 -49.5 594 -0.6421852 0.6759875 -0.3614404 
-139 -52.5 645 0.08926861 -0.8698437 -0.4851836 
-89 -48 595 -0.5943854 0.7683356 -0.2374159 
-73.2 -47 584.4 0.2549777 0.7892671 -0.5586089 
-97 -9.5 571.8333 0.04184197 -0.9181548 -0.3940065 
-97 -8 568 0.05790161 -0.9021582 -0.4275022 
-165 -7 645.3333 -0.8158041 0.07521948 -0.5734159 
-103 -6.6 563.4 0.1851625 -0.9004721 -0.3935287 
-100 -7 565.6667 0.1096177 -0.9054669 -0.4100166 
-106 -6 561 0.06490172 -0.8715405 -0.4860091 
-103.25 -5 560 0.05179506 -0.9419553 -0.3317192 
-100.1667 -4.333333 557 0.08304407 -0.9278164 -0.3636763 
-97 -3 555 0.1464513 -0.8766118 -0.458371 
-93.8 -1.8 554.2 0.1858541 -0.8892425 -0.4179786 
-96.8 -0.8 551 0.06295286 -0.9037054 -0.4235015 
-85 3 548.5 0.1527513 -0.9233577 -0.3522467 
-85.2 4 545 0.09866025 -0.9566452 -0.2740367 
-82 4 547 0.04696218 -0.9569101 -0.2865617 
-88 4.5 542 0.1564077 -0.9202059 -0.3588283 
-91 5.5 539 0.08999171 -0.9006805 -0.4250603 
-111.75 7 533 -0.1118423 -0.8339085 -0.5404516 
-108.8571 8.428572 530.5714 0.01066916 -0.9292018 -0.3694189 
-106 9 528 -0.004721564 -0.945875 -0.3244969 
-109 10 526 -0.04383195 -0.8276433 -0.5595403 
-115 14 529.6667 -0.9137114 0.170658 -0.3687917 
-178 17.5 656.5 -0.01681243 -0.851705 -0.5237518 
-172 19 653.3333 -0.2645097 -0.7508788 -0.6051576 
-169.1667 19.83333 651 -0.4176141 -0.6099178 -0.6734974 
-166.4 20.2 648.4 -0.5017349 -0.455783 -0.7352034 
-113 15 526 -0.8962611 -0.103968 -0.431169 
-114 16.5 527.5 -0.9307968 0.2170087 -0.2941505 
-169 22.5 647.6667 -0.1417818 -0.7578896 -0.6367899 
-208 23 644.5 -0.2232897 -0.8919615 -0.393124 
-201 25 641.5 0.2210317 -0.8798943 -0.4206318 
-211 26 639.6667 -0.2658706 -0.8820823 -0.3889006 
-208 27 636 -0.2453257 -0.9201762 -0.3051083 
-212 28 636 -0.2242398 -0.9213655 -0.3174934 
-190 30 633 0.1467735 -0.9440441 -0.2953615 
-193 30 630 0.1306927 -0.9628555 -0.2362814 
-115 27 543 -0.9222325 0.2352791 -0.3068077 
-250 37 653 -0.482987 -0.8522714 -0.2008905 
-195.8571 35.57143 620 0.07644576 -0.8251823 -0.5596697 
-190.125 37.875 617.125 -0.04329959 -0.8447401 -0.5334223 
-229.5 39 633.5 -0.332588 -0.8764613 -0.3481392 
-226.5 38.75 629.5 -0.4183576 -0.8640361 -0.280033 
-229 40 629.6667 -0.3608772 -0.8895904 -0.2799939 
-199 39 614 0.1246253 -0.8953598 -0.4275506 
-92 31 487 0.02373777 -0.865135 -0.500977 
-195 40 614 0.1182059 -0.9086769 -0.4004169 
-88 31.55556 484.8889 0.08064628 -0.8739994 -0.4791881 
-199 40.5 610.5 -0.02704752 -0.8563058 -0.5157604 
-232 42 627 -0.5145704 -0.7703076 -0.3766215 
-86 33 483 0.09727722 -0.6580548 -0.7466598 
-202 42 609 -0.04734845 -0.7707981 -0.6353176 
-82 34.75 483 0.1523508 -0.0194717 -0.9881346 
-199 43 607 -0.06812658 -0.7987316 -0.5978183 
-195.6667 44.5 604.8333 -0.09321415 -0.7571879 -0.646512 
-199 46 604 -0.1318452 -0.6137974 -0.7783762 
-190.1 46.5 601.5 -0.1490108 -0.6764362 -0.7212697 
-81.91666 38.16667 484.25 0.2513216 0.4411395 -0.8615297 
-183.5 126 587 0.9673836 -0.1657892 0.1915282 
-186 115.75 592.75 0.975138 0.02222727 -0.220481 
-184.75 115.875 595.875 0.8867428 0.1473724 -0.4381422 
-184.5 111 578 0.963655 -0.2005586 0.1764805 
-186.6667 107 584 0.9611251 -0.2628323 0.08460393 
-187 105 582 0.9751684 -0.1878377 0.1173182 
-175 107.1 595.4 0.1235219 0.5609127 -0.8186082 
-171 104.5 595 0.3567309 0.4724184 -0.8059553 
-175 104 593.3333 0.1470379 0.5152326 -0.8443431 
-117.5 88 569 -0.5602686 0.6196957 -0.5496148 
-120.5 88 572.5 -0.5154909 0.7053671 -0.4865454 
-52.66667 76.66666 502.6667 -0.8210562 0.4043247 -0.4029742 
-54 76.5 506 -0.8243958 0.4251435 -0.3736639 
-59 78 520 -0.7295761 0.6075224 -0.3140628 
-190.6 89.4 593 0.6713076 -0.7113223 -0.208247 
-120.8 85.6 569.6 -0.3977771 0.5100068 -0.7626706 
-183.8571 89 599.1429 0.07952595 -0.9234273 -0.3754432 
-187 88 601 0.04762371 -0.9039041 -0.4250759 
-192 87 594 0.7879969 -0.6010639 -0.1333538 
-61.33333 77 524 -0.775784 0.5294634 -0.3432606 
-177 88 604 0.04875328 -0.9382816 -0.3424191 
-184 87 603 0.0221906 -0.8865757 -0.462051 
-54.25 73.75 503 -0.8414314 0.3345011 -0.4243846 
-123 83 570 -0.5587099 -0.04426971 -0.8281809 
-126.875 82.875 572.375 -0.4168337 0.425104 -0.8034527 
-181 86.42857 605.2857 0.06080436 -0.8747317 -0.4807778 
8 77 539 0.4951732 0.2537063 -0.8309252 
-41 70.5 498 0.5506099 0.3849519 -0.7407029 
-62 74 521 -0.7986259 0.5065583 -0.3249544 
-178 85 608 0.03960933 -0.8436105 -0.5354927 
15 77 544.3333 0.5429046 0.05785043 -0.8377995 
-187 84 609 -0.05893062 -0.8887203 -0.4546466 
-124 79.75 571.8333 -0.2360881 -0.4106111 -0.8807162 
-39 68.5 499 0.5163686 0.4113106 -0.7511238 
-42.66667 68.5 496.3333 0.5643453 0.4434334 -0.6963342 
-62 71 517.3333 -0.8239525 0.3605367 -0.4371676 
-63.66667 71 520.3333 -0.8014202 0.4056248 -0.4395387 
12 72 541 0.5826555 0.2459912 -0.7745973 
-66 70.5 524 -0.8340558 0.3603863 -0.4176994 
-170 81 610 -0.4734478 -0.3076065 -0.8253639 
-62 68 514.75 -0.8365882 0.3366587 -0.4321819 
-66 67.5 521.5 -0.827467 0.3559945 -0.4342422 
-59 64 508 -0.8371046 0.2114878 -0.5045086 
-61.5 65 511.8333 -0.8566294 0.2228536 -0.4653197 
14.6 68.4 541.2 0.5714151 0.1590557 -0.8051 
11.22222 68 538.7778 0.594803 0.215191 -0.7745336 
102 77 640 0.8102013 0.4385494 -0.3889065 
4 64 531 0.5604985 0.5319986 -0.6346802 
-60.5 62 509 -0.8081043 0.371418 -0.4571828 
10.2 64.8 536.8 0.671328 0.2722338 -0.689353 
103 75 640 0.8402007 0.3538471 -0.4109197 
23.75 65.25 547.25 0.5636194 0.1960646 -0.8024287 
17.25 64.83334 542.5 0.5966727 0.2710711 -0.7553158 
101.5 74 637 0.8696623 0.3414731 -0.3564878 
7 61 531 0.4972233 0.5825964 -0.6429234 
-30.77778 58.88889 499.3333 0.563067 0.09566477 -0.8208556 
-58.5 59.16667 502.8333 -0.8356831 0.1933255 -0.5140614 
10 61 534 0.6573782 0.4917899 -0.5709612 
-60.66667 58.66667 506 -0.7930684 0.3501747 -0.4984176 
-63 58.5 509.5 -0.8022342 0.4157661 -0.4284375 
105 72 642 0.8038262 0.4236663 -0.4175768 
23 62 545.5555 0.5142236 0.3302759 -0.7915124 
19.25 61.75 542.75 0.5726832 0.3542628 -0.7392779 
16.5 61 540 0.4887046 0.5588539 -0.6699628 
9 60 532 0.6259185 0.5418059 -0.5609567 
26.1 61.9 547.7 0.5531446 0.2688596 -0.7885085 
-28.36364 56.09091 500.9091 0.2124257 -0.5320507 -0.8196324 
-64.66666 56.66667 511.6667 -0.559228 0.6886333 -0.4615715 
10 58 531 0.6228365 0.4835166 -0.6150499 
-60.2 55.6 503.6 -0.6773386 0.1742606 -0.7147346 
-67 55 510 -0.1080006 0.9067436 -0.4076174 
22.33333 58.33333 542.6667 0.5389666 0.5910469 -0.6001488 
-27.75 53.75 503.25 0.07024064 -0.7771234 -0.6254163 
101 65 626 0.8853785 0.2673879 -0.3802745 
22.75 55.25 539.5 0.5200444 0.6135045 -0.5942778 
-30.91667 52.66667 506 0.07807817 -0.8318443 -0.5494896 
103 63 627 0.8435987 0.3076127 -0.4401313 
25.57143 55.42857 542.2857 0.5341792 0.6110127 -0.5842227 
101 62.5 622 0.8600565 0.262989 -0.4371951 
-25 50.33333 508.4445 -0.01505626 -0.8571036 -0.5149241 
-22.25 49 511 0.04344114 -0.7896295 -0.6120442 
105 59 629 0.8789985 0.2935222 -0.3757746 
-64.4 46.2 497.8 0.3883774 0.5014203 -0.7731369 
114 59 644.5 0.6769887 0.2794432 -0.6808802 
-31.25 46.875 511.3125 0.2639908 -0.1269004 -0.9561408 
-66.8 44.6 496 0.3865581 0.5304893 -0.7544229 
115.4 56 645.2 0.7497463 0.1458735 -0.6454467 
112.75 56.25 642 0.7634106 0.3502253 -0.5427214 
-28 44 511.3333 0.2610482 0.3899068 -0.8830779 
-31.71428 43.71429 510 0.2925294 0.3438423 -0.8922999 
117 52 647 0.7522994 0.2217393 -0.6203848 
-43 41.375 505.25 0.2672552 0.3785529 -0.886156 
-50 40 501 0.3070106 0.4505507 -0.8383011 
-39.5 -18 588 -0.1292424 -0.846083 -0.5171459 
-25 -18.5 584 -0.1263877 -0.8469653 -0.5164067 
-42.8 -18.4 590 -0.2518052 -0.8488016 -0.4648978 
-37 -21 593 -0.06519307 -0.880744 -0.469084 
-34 -23 596 -0.08878008 -0.8433076 -0.5300476 
-54.75 -22.25 599 -0.0579585 -0.8872183 -0.4576947 
-45 -24 600 -0.1289416 -0.7901984 -0.5991332 
-49 -24.5 601.5 -0.04877046 -0.7706001 -0.6354501 
-53 -26 604 -0.1071127 -0.7679279 -0.6315168 
-55 -27 605.6667 0.02784193 -0.7406263 -0.6713402 
-52.14286 -28.57143 607.5714 0.1267146 -0.6554374 -0.7445437 
-60 -31 607 0.2792489 -0.03453058 -0.9595977 
-51.5 -31.5 610.25 0.2796207 -0.5893346 -0.7579558 
-57.875 -34.125 607 0.2829902 0.25886 -0.9235303 
-61.1 -33.9 605.9 0.2348094 0.2763965 -0.9319172 
-64 -36 604 0.07160638 0.7913448 -0.6071624 
-49.5 -37 614 0.7762409 -0.08788245 -0.624281 
-61 -38 602.3333 0.2512428 0.82373 -0.5082774 
-50 -40.5 612 0.8223469 0.295095 -0.4864817 
-58 -39.5 602 0.3919433 0.7950521 -0.462896 
-61.4 -39.6 599 0.2306281 0.8782988 -0.4188102 
-4.2 -43.6 623 -0.1255634 -0.7848552 -0.6068247 
-60.75 -42.25 595.25 0.2869217 0.8049322 -0.5193844 
-4 -45.5 626.1667 -0.07183654 -0.885087 -0.4598485 
-1 -47 628.3333 -0.0949372 -0.9109227 -0.4015056 
-58.25 -43.75 593.5 0.3276678 0.764502 -0.555131 
-67 -43 590.3333 0.1001242 0.7587033 -0.6436959 
-4 -48 631 -0.01015108 -0.876276 -0.4817026 
-44 -47 612 0.6672432 0.7202152 -0.1899384 
-60 -45 592 0.3645125 0.7317075 -0.5759643 
-64 -45 589 0.2144282 0.6902507 -0.6910677 
-7 -49.33333 633.3333 -0.01829428 -0.8594327 -0.5109215 
-41 -48 618 0.7117904 0.6889553 -0.1367296 
-67 -46.125 587.5 0.09017854 0.7455012 -0.6603755 
-13 -51.5 636.5 -0.04716454 -0.8720535 -0.4871328 
-57.75 -60.875 574.375 0.3153235 0.5507696 -0.7728027 
-30 -67.5 626.5 0.9429014 0.3322141 -0.0238891 
-33 -63.66667 602 0.9179446 0.3896202 -0.07465898 
-31 -64.5 617 0.9177516 0.3766523 -0.125957 
-34.66667 -61 599.3333 0.8661625 0.4444793 -0.2284751 
-66.6 -57.2 574.6 0.3188297 0.7118893 -0.6257485 
-63 -57 577 0.1045824 0.7278122 -0.6777551 
-32 -61 620 0.8884858 0.4566735 0.04519212 
-35 -58.5 608 0.8559044 0.5124097 -0.06974368 
7.75 -63.75 656.75 -0.1998076 -0.883684 -0.4232959 
-66.875 -54.25 577.75 0.3461035 0.7248418 -0.595665 
-58 -54.75 581.125 0.3020734 0.6992788 -0.6478896 
-36 -57.5 605 0.8578902 0.5025782 -0.1069566 
-39.5 -55.25 599 0.7287751 0.6096131 -0.3118635 
8 -62 653.3333 -0.1943289 -0.8015733 -0.5654348 
11 -61 651 -0.101236 -0.7969509 -0.5955003 
-51 -54 586 0.6262707 0.6209766 -0.4713523 
-37.33333 -55 608 0.8351187 0.5497257 -0.01945443 
-52.5 -53 585 0.4415165 0.7520558 -0.489362 
-45 -54 592 0.5338842 0.6526778 -0.5375681 
5.25 -58.25 648.25 -0.09237026 -0.9180911 -0.3854562 
2 -57 645.6667 -0.100749 -0.914512 -0.391813 
-57.85714 -49.57143 587 0.3401913 0.7937245 -0.5042532 
-1 -56 644.6667 -0.1487994 -0.8391443 -0.5231591 
2.25 -54.25 642.25 -0.07349577 -0.831588 -0.5505087 
-19 -53 641 -0.06746104 -0.8868765 -0.4570549 
-9.666667 -52.66667 639.3333 0.05885828 -0.9117787 -0.4064421 
-21.75 -11 571.25 -0.1297415 -0.8550739 -0.5020118 
-25 -9.5 569.5 -0.07178077 -0.8500414 -0.5218018 
-199 -10.5 684.5 -0.8650028 0.1682228 -0.4727274 
-31 -6.666667 566 -0.2319217 -0.8686743 -0.4377411 
-200 -8 688 -0.9225245 0.200464 -0.329792 
-28.33333 -6 562.8333 -0.09867032 -0.9164835 -0.3877141 
-27.5 -5 560.3333 -0.04011034 -0.920419 -0.3888703 
-190.2 -3.8 675 -0.7377546 0.2093562 -0.6417851 
-37 -5 564 -0.09899551 -0.9196619 -0.3800288 
-196 -3.5 681.5 -0.7800507 0.1643347 -0.6037508 
-31 -3 557.3333 -0.2525938 -0.8447095 -0.471871 
-21 -3 555 -0.1460958 -0.8563964 -0.4952186 
-24.75 -1.5 553.5 -0.08112483 -0.8557263 -0.5110297 
-22 -0.3333333 551 -0.1553844 -0.8514573 -0.5008754 
-201 1 693 -0.6100285 -0.7311525 -0.3054198 
-193.2 2.2 678 -0.487844 -0.421609 -0.7643651 
-31.2 1.2 550.4 -0.1912599 -0.8063568 -0.5596502 
-61.25 5 547.75 0.06634101 -0.9303586 -0.3605992 
-58 6 546 0.01754891 -0.8926564 -0.4503961 
-25.25 7 538.25 -0.1594889 -0.8464085 -0.5080906 
-39.33333 9 537 -0.07440802 -0.8545889 -0.5139467 
-42.8 10 536 -0.1307549 -0.9256628 -0.3550375 
-40 10.5 533.1667 -0.07456864 -0.935152 -0.3463097 
-37 12 530 -0.08953479 -0.8522432 -0.5154269 
-40.25 13 529.25 -0.1032241 -0.8677167 -0.4862227 
2 13 523.5 -0.1030356 -0.8806844 -0.4623621 
-43 14.5 527 -0.09173095 -0.9435844 -0.3181728 
-0.875 14.375 520.875 -0.004775724 -0.9074287 -0.4201791 
-3.75 15 519 0.0553589 -0.8838216 -0.4645372 
-7 16 517 0.05498415 -0.8609118 -0.5057742 
-3.666667 17.55556 515.1111 0.07730439 -0.8759766 -0.476119 
-13 18 512 0.004214489 -0.8495201 -0.5275395 
-3.571429 19.42857 511.5714 0.1511139 -0.7200544 -0.6772638 
-7.555555 20.66667 509.2222 0.1718861 -0.629872 -0.7574407 
101 24 595 0.7405154 -0.6043682 -0.293898 
-3.8 22.66667 509.6 0.4404376 -0.07979149 -0.8942304 
100 27 588 0.8358694 -0.06603659 -0.5449418 
101 29 590 0.8363248 0.1861912 -0.5156488 
-1.5 28 513 0.4778166 0.4358065 -0.7627345 
-37 32.5 502 0.3269449 0.4134214 -0.8498175 
-64.75 32.75 489 0.4878721 -0.001862806 -0.8729131 
-34.55556 34.22222 503.7778 0.3390113 0.5003929 -0.796667 
-52.42857 35.14286 497.6429 0.3888525 0.4581981 -0.7992799 
-67.8 34.6 488.8 0.3980486 0.263687 -0.8786504 
122.5 47 648 0.2964605 0.434813 -0.8503228 
-46.16667 37 500.8333 0.3222879 0.528756 -0.7852055 
-43.2 37.93333 503.2 0.3539727 0.4980218 -0.7916297 
-39.625 38.875 505.375 0.2501906 0.5345579 -0.80725 
-33.90909 40.81818 508.3636 0.2505365 0.4299075 -0.8674163 
-171.8571 125.2857 607.4286 0.2562172 0.5449233 -0.7983805 
-175 124.3333 606 0.1301747 0.5504931 -0.8246284 
-172 122.5 605.5 0.2515626 0.503343 -0.8266572 
-165 120 607 0.3178476 0.5510716 -0.7715524 
-168.8 119.4 604.4 0.2127106 0.5238307 -0.8248367 
-172 118 603 0.1342088 0.5577668 -0.8190752 
-165.3333 117 604.3333 0.3405606 0.524438 -0.7803738 
-172 115 600 0.2195968 0.4829491 -0.8476659 
-174.8571 116.2857 601.1429 0.1660351 0.6387682 -0.7512706 
-180.6 113.4 598 0.2693927 0.4595312 -0.8463207 
-178.2222 100.7778 590.8889 0.1937774 0.4960079 -0.8464198 
-181 98.66666 589 0.2277308 0.4345971 -0.8713576 
-184 94 589 0.1466237 -0.7998471 -0.582019 
-186.5 94.5 586.75 0.5493213 -0.557243 -0.6226768 
-187.3333 92.66666 590.1667 0.3621793 -0.8802108 -0.3066843 
-178.1667 92 592.6667 -0.01536866 -0.8676547 -0.4969298 
-181 91 596 0.003055697 -0.9194195 -0.3932663 
-171.75 89.75 595.75 -0.04887982 -0.9190856 -0.3910145 
-31.07143 77.07143 508.8571 0.5562033 0.3180315 -0.767785 
-27.5 77.1 511.5 0.5679705 0.2977924 -0.7672869 
-28 73.83334 509.5 0.5348163 0.3084759 -0.7866474 
24 76 550 0.3799909 -0.3568982 -0.8533643 
-1.6 73.8 530.8 0.616857 0.2074168 -0.7592534 
-29 70.5 507 0.5593985 0.4326722 -0.7070134 
-32 70 504 0.5139555 0.5141806 -0.6866353 
-22.77778 70.88889 512.4445 0.6447827 0.2531034 -0.7212448 
-25.75 70.25 510 0.567152 0.414494 -0.7117115 
-24 69 511 0.5928167 0.408299 -0.6941616 
26 74 550.8889 0.07315521 -0.1452103 -0.9866926 
-6.5 71 526.5 0.6763415 0.2054656 -0.7073515 
-30 68.25 505.25 0.6173519 0.4474663 -0.6470321 
-3.428571 71.14286 529.2857 0.5920598 0.2565544 -0.7639666 
-23 67 510 0.6163918 0.4945378 -0.6127754 
-196.6667 80.66666 611.6667 0.4302277 -0.851964 -0.2984316 
-49 64.76923 490.6154 -0.3900021 0.3949707 -0.8318032 
-198 79 613.5 0.5804871 -0.7527355 -0.310522 
-189.5 79.33334 616.5 -0.1268221 -0.6790977 -0.7230093 
-4 68 527 0.6065066 0.4056213 -0.6838282 
2.363636 68.09091 532.8182 0.6514784 0.2813561 -0.7045671 
95 77 622 0.8772501 0.3162248 -0.361157 
-45.125 61.75 490.5 0.4852813 0.03215292 -0.8737667 
-52.75 62.25 496.5 -0.8150811 0.1134461 -0.5681311 
-55 62 499.875 -0.7479547 0.2975253 -0.5933317 
-51.5 59.33333 494.1667 -0.7487964 -0.3596167 -0.5567583 
97 73 624 0.8685887 0.4079343 -0.2813242 
-49.5 58 496 -0.1249437 -0.8928919 -0.432589 
115.8 76.4 657.8 0.2440551 0.4892236 -0.8373156 
113.6667 74.66666 656 0.4159284 0.4444003 -0.7934179 
-45.85714 57 497.5714 -0.006718753 -0.8988429 -0.4382195 
-49.14286 55.57143 499.7143 -0.01040792 -0.9130445 -0.4077272 
-40 55 502 -0.07041923 -0.8876746 -0.455055 
121.875 71.125 656.125 -0.01187503 0.4799167 -0.8772337 
118 70 655 0.1582944 0.6078776 -0.7780924 
113.2 68.2 651 0.4589934 0.5494651 -0.6981498 
-49 53.11111 503.6667 0.02647008 -0.6057742 -0.7951963 
122.125 68.125 654.625 -0.01936745 0.4978468 -0.8670488 
-45.85714 52.14286 505.4286 0.1475289 -0.5819358 -0.7997411 
20.125 53.125 536 0.48719 0.4488297 -0.7491313 
16.875 52.875 533.5 0.474622 0.3256423 -0.8177353 
-48.91667 50 505.4167 0.2368366 -0.2872637 -0.9281099 
-51.85714 47.85714 505 0.2287881 0.3241695 -0.9179162 
70.25 53.25 576 0.46709 -0.1261715 -0.8751615 
19.875 49.5 533.375 0.4583248 0.471771 -0.75324 
-55.25 46.9375 503.0625 0.377762 0.3560366 -0.8547127 
74 52.91667 577.9167 0.4233679 -0.1791866 -0.8880607 
25.875 46.875 536.25 0.4203813 0.4930684 -0.7616844 
22.44444 46.77778 533.3333 0.5892614 0.3839934 -0.7108588 
19.33333 46.33333 530.6667 0.4884422 0.4708432 -0.7346638 
-52 44 503.1667 0.3007837 0.3695545 -0.8791807 
72 50 577 0.4699522 0.1958181 -0.8606975 
17.66667 44.66667 529 0.4279633 0.4510204 -0.7832164 
111 50 635 0.8900809 0.3207155 -0.3238793 
25.8 43.2 534 0.4057325 0.4882226 -0.7726705 
-185 -16 671 -0.6048027 -0.4182984 -0.6776726 
-67 -18 594 -0.03865775 -0.8269421 -0.5609566 
-64 -19.5 595.5 -0.05196608 -0.7933086 -0.606598 
-31 -25 599 -0 -0.8944272 -0.4472136 
-27.75 -26 601 -0.07422657 -0.8910798 -0.4477357 
-31.25 -27 603 -0.05346458 -0.7310867 -0.6801866 
-40 -30.5 608.3333 -0.1004571 -0.8448713 -0.525453 
-22 -34.5 610.8333 -0.1285314 -0.8423703 -0.5233469 
-28 -36 614.3333 -0.2024621 -0.8475249 -0.4906228 
-25 -38 617 -0.08361094 -0.8769848 -0.473188 
-24.8 -39.4 619.8 -0.146042 -0.8599136 -0.4891016 
-51 -42 609 0.7463233 0.6031056 -0.2815407 
26 -46 623.3333 -0.1221902 -0.835843 -0.5351973 
23 -47 625.3333 -0.07776167 -0.8767136 -0.4746856 
22.75 -48.75 629.75 -0.06524377 -0.9275299 -0.3680103 
-48.8 -45.8 601.8 0.4646685 0.7701892 -0.4369118 
25 -50 632 -0.1797303 -0.8144621 -0.5516779 
24 -52 634 -0.08488163 -0.7621213 -0.6418459 
-28 -70 654 0.9782766 0.1154028 -0.1722128 
-28 -66.5 656.5 0.9278321 0.01233967 -0.372794 
25.5 -64.5 641.5 -0.8521716 0.4890791 -0.1860246 
-4 -63.5 659.75 -0.07754687 -0.8711534 -0.4848486 
25.83333 -60.83333 645.1667 -0.68836 -0.5361338 -0.488591 
-10 -62 656.3333 -0.002061371 -0.9235278 -0.383526 
-13 -61 654 0.03366937 -0.8525873 -0.5214991 
-13 -59 651 0.01261592 -0.8677731 -0.4968005 
-10 -57.5 648 0.09711943 -0.9196351 -0.3805776 
16.75 -57.75 645.25 -0.1306663 -0.8426741 -0.5223281 
17.25 -55.5 642 -0.04069939 -0.8782736 -0.4764232 
26 -54.83333 639 -0.4039903 -0.7336829 -0.5463527 
5 -53 639 -0.1453234 -0.898971 -0.4131975 
8.2 -52.4 636 -0.1308162 -0.9037688 -0.4075403 
-203 -11 696 -0.9202519 0.2239767 -0.3208908 
-52 -6 572.6667 -0.1390207 -0.8685774 -0.4756538 
-66.85714 -4.571429 566.1429 0.1692659 -0.8893371 -0.4247689 
-61 -4 571.5 0.2859462 -0.8107835 -0.5107494 
-57.33333 -3.333333 569.3333 -0.2128752 -0.8660199 -0.4524308 
-65 -3 564 0.386809 -0.731635 -0.5613281 
-207 -2 711 0.7927442 0.5663139 0.2254892 
-66.8 -1.6 562 0.2729539 -0.751341 -0.6008186 
-63 -1.666667 565.3333 0.6032541 -0.6517061 -0.4597429 
-61 -2 568.3333 0.2289776 -0.8748281 -0.4269017 
-46 -0.5 560 -0.2087017 -0.8907918 -0.4036503 
-59 1 562 -0.2378902 -0.830059 -0.5043911 
-55.5 1 559 -0.1821 -0.8867758 -0.4248157 
-52 1.5 557.5 -0.06842135 -0.8969786 -0.4367471 
-49 3 553.3333 -0.09858467 -0.9283283 -0.3584516 
-45.5 3 551.5 -0.1946127 -0.9132198 -0.3579882 
-48.75 4 551 -0.08475526 -0.9578922 -0.2743343 
-40 4 548 -0.05380215 -0.9493828 -0.3094797 
-43 5.285714 544.7143 -0.1970798 -0.8707095 -0.4505824 
-205.5 7.5 681.5 -0.4743853 -0.8308057 -0.2910681 
-202 7 678.5 -0.4585325 -0.7936776 -0.3997798 
-34.125 5.5 542.375 -0.1573874 -0.8326977 -0.5308895 
-55 7.666667 542 -0.01665429 -0.8936273 -0.4485008 
-52 9 540 0.00873856 -0.8739222 -0.4859873 
-210 12 673 -0.3787454 -0.8985438 -0.2217452 
-55 10 538 -0.01446671 -0.9558928 -0.2933592 
-57.71429 10.42857 535.5714 0.05800826 -0.919101 -0.3897287 
25.9 11.2 524 -0.065465 -0.7718393 -0.6324386 
-61.25 11.5 533.25 0.1254236 -0.8655108 -0.484933 
-60.85714 13.42857 530.1429 0.1460937 -0.8631775 -0.4833024 
19.75 13.5 520.5 0.02317312 -0.7837921 -0.6205909 
-58 15 526.6667 -0.01514149 -0.9599949 -0.2796082 
22.8 14.6 519 0.2786793 -0.3560351 -0.8919511 
98 17.5 590.5 0.9007806 -0.2917731 -0.3216564 
93 20.25 575 0.9395435 -0.03227656 -0.340905 
7.75 20 514.1667 0.1879022 -0.02234577 -0.9819335 
95 22 580 0.9202517 -0.1114543 -0.3751197 
105 23 613 0.6701799 -0.7115048 -0.2112342 
107 23 618 0.6415368 -0.7428414 -0.1913566 
97 23 584 0.9103043 -0.1280825 -0.3936256 
5.2 23.1 514.1 0.361446 0.2928994 -0.8851931 
94.33334 26 578 0.8778642 0.1446205 -0.4565517 
109 27 612 0.8302732 -0.4849232 -0.2747653 
110.5 29.5 614.5 0.9380257 -0.1767215 -0.298123 
11 26 517.4445 0.2518018 0.394644 -0.8836583 
13 28 519 0.3650349 0.4716038 -0.8027076 
119.6667 38 639 0.7033207 0.5025101 -0.5028158 
-185 126 595 0.969222 -0.2177935 0.1147811 
-186 124 593 0.9747373 -0.1665187 0.1488588 
-185 122.5 592 0.9790208 -0.1388712 0.1491084 
-186 122.3333 596 0.9711964 0.1333984 -0.1974398 
-185 119 589 0.9656799 -0.1799789 0.1872698 
-185 116.5 586 0.9525091 -0.1989094 0.2305677 
-186 116.6667 590.6667 0.9952737 -0.08261979 0.05103077 
-185 110 580 0.9441677 -0.2193392 0.245841 
-186 110.5 585 0.9818048 -0.1665388 0.09123651 
-175 109.5 597 0.1362966 0.5100921 -0.8492522 
-187 103 579 0.9797704 -0.09446813 0.1764252 
-166 106 597 0.2763697 0.6076818 -0.7445419 
-169.125 104.25 595.375 0.2945956 0.4536549 -0.841077 
-189 93 582 0.8710849 -0.4844244 -0.08089644 
-191 89.5 590.5 0.78957 -0.6071181 -0.08936988 
-40.66667 76 501 0.4849826 0.3853674 -0.7850375 
-55.25 77.25 509 -0.8229081 0.4438162 -0.3547527 
-59 77 517 -0.8084736 0.463279 -0.3629644 
-123 85 570 -0.4705319 0.5194069 -0.7133136 
-181 89.4 599.2 0.06994895 -0.9099608 -0.4087523 
-178 88 602 0.03005565 -0.8677905 -0.4960206 
-42.57143 74.14286 499.1429 0.4575476 0.4021074 -0.7930698 
-181 87 603 0.05871082 -0.8935265 -0.4451557 
-59 74 515 -0.8183197 0.3959359 -0.4166385 
-120.75 82.875 569 -0.2732283 -0.1198809 -0.95445 
-183.8571 86.14286 604.5714 0.01856777 -0.8961251 -0.4434129 
10 76.75 539.75 0.5500029 0.2052138 -0.809558 
-61 74.25 517.75 -0.8292097 0.3965464 -0.3939065 
-118 80.5 569.5 -0.1888015 -0.657921 -0.7290363 
-187 85 607.3333 -0.04840498 -0.8797497 -0.4729666 
13.5 77.25 542.75 0.5710399 0.1226603 -0.8117068 
-54.83333 71.16666 502.6667 -0.8225579 0.2698728 -0.5005669 
-64 73 522 -0.7910876 0.4141089 -0.4502158 
-178 84 608 0.03960937 -0.8436105 -0.5354928 
-121.125 79.25 571.375 -0.07742613 -0.7396836 -0.668486 
11.6 74.2 541 0.6252744 0.1507912 -0.7656984 
-36.90909 68.09091 499.7273 0.4928277 0.4209925 -0.7615026 
-43.25 67.5 494.5 0.5655257 0.4612085 -0.6837159 
-63 70.5 518.5 -0.8252138 0.3340239 -0.4554672 
-174.875 82.875 611 -0.3114094 -0.6141888 -0.7251182 
-176 80.5 613 -0.4889461 -0.06314678 -0.8700254 
-63 67 516 -0.8341116 0.3589259 -0.4188438 
-172.1667 80.16666 610.8333 -0.3329483 0.3096444 -0.8906547 
-57.75 65.25 506 -0.889169 0.1201921 -0.4415113 
102 78 642 0.8435621 0.4753437 -0.2499027 
18 66 544 0.5969419 0.2601629 -0.7589307 
-31.42857 61.85714 500.4286 0.6067247 0.3999037 -0.6869951 
-57.5 62 503.25 -0.7890239 0.3336774 -0.5158495 
103 77 645 0.8052343 0.4211756 -0.4173833 
5.125 65.125 533 0.4953109 0.441869 -0.747943 
-60 61 507 -0.7983408 0.4425611 -0.4084014 
8.875 65 535.875 0.6648984 0.2799737 -0.6924773 
104 74 642 0.8593441 0.3787462 -0.3436264 
-61.75 59.5 508.75 -0.7965577 0.4394091 -0.4152296 
8.3 61.8 533.1 0.5939391 0.4848872 -0.6419663 
-26 57 501 0.4651012 -0.1505349 -0.8723646 
20.6 62.2 544.2 0.5746323 0.3437237 -0.7427326 
103.5 71 639 0.8021733 0.405476 -0.4383005 
4.666667 58.66667 527.5 0.4736103 0.5160999 -0.7136765 
106 70.5 642 0.7548388 0.4946734 -0.4307166 
13.71429 58.85714 535.8571 0.5295373 0.5653245 -0.6324543 
10.8 58.8 533.4 0.6297782 0.5453461 -0.553152 
8.166667 58.91667 530.25 0.5211679 0.5258856 -0.6721818 
23.33333 59.33333 544.5 0.5410264 0.526674 -0.6556714 
20.14286 59.28571 541.7143 0.5176095 0.551128 -0.6544757 
17 59.11111 538.8889 0.4738449 0.6042525 -0.6405857 
104.5 68 637 0.8441061 0.4451867 -0.2988204 
102 66 628 0.8779941 0.3438568 -0.3329999 
26.75 59.25 547 0.6341884 0.431994 -0.6412382 
-25 53.5 503.75 0.1382281 -0.7388384 -0.6595535 
7.5 56 527.5 0.5511138 0.4624619 -0.6945521 
105 65 633 0.8528672 0.3073435 -0.4220871 
26.25 56.75 544.25 0.5041131 0.6006923 -0.6205148 
20.33333 56.33333 538.6667 0.5096637 0.598099 -0.6184824 
14.11111 55.55556 532.8889 0.5370165 0.5498934 -0.6397113 
-21.61539 52.84615 505.8462 0.297486 -0.4865764 -0.821429 
104 62 629.6667 0.8733025 0.2676309 -0.4070831 
-66.72727 50.09091 499.6364 0.294356 0.6964929 -0.6544098 
-27.64286 50.14286 508.8571 -0.001708831 -0.7825806 -0.622547 
112.8333 62 645 0.6898062 0.5028451 -0.5208785 
102 59.5 623.5 0.9035461 0.2118466 -0.3724587 
103.3333 59 626 0.8579941 0.2584056 -0.4439289 
-22.25 48 512.5 0.02082109 -0.6174226 -0.786356 
-58.2 46 501 0.385089 0.5099849 -0.7691697 
107.5 56.5 632.5 0.8244373 0.3623254 -0.4347683 
103 56 624 0.8327866 0.1810938 -0.5231364 
-60.25 44.75 499.25 0.4198922 0.5971812 -0.6834217 
-67.42857 43.57143 494.7143 0.3741418 0.467751 -0.8007665 
112 55.5 639.5 0.8528064 0.3035393 -0.4249532 
-59 43 498 0.474479 0.4539015 -0.754217 
-25 44 512.3333 0.3293767 0.3183214 -0.8889222 
119.2 53.4 648.6 0.4435988 -0.01813475 -0.896042 
122.2857 53 650 0.1250261 -0.1337337 -0.983099 
-35 40 507 0.2992709 0.4908268 -0.8182456 
-51.85714 40.42857 500.8571 0.3535854 0.4585355 -0.8153052 
-199 -13 684 -0.864527 0.2764821 -0.419703 
-37 -18 588 -0.1049024 -0.8480914 -0.5193617 
-27.8 -18.4 584.6 -0.1590869 -0.8530256 -0.4970299 
-34.2 -19.6 589.8 -0.1423613 -0.8674654 -0.4766937 
-43.25 -19.75 592.5 -0.2860058 -0.8203816 -0.4951513 
-40 -21 593 -0.1139463 -0.8740519 -0.4722813 
-43.25 -21.75 596.25 -0.2278912 -0.872421 -0.4323739 
-46 -22.5 599 -0.1832013 -0.7962638 -0.5765426 
-34 -24 597 -0.09276219 -0.8349985 -0.5423769 
-51.8 -24.8 602 -0.1190662 -0.7767893 -0.6184025 
-46.25 -27.75 605 -0.08839923 -0.8213819 -0.5634869 
-49.5 -29 608 0.009638723 -0.7890888 -0.6142036 
-46.5 -32 613 -0.01437476 -0.810502 -0.5855595 
-49.25 -31.25 611.25 0.3471619 -0.7205291 -0.6002636 
-67 -30.66667 605.4445 -0.1717429 -0.1379443 -0.9754363 
-49 -34 613.8889 0.5120772 -0.4491322 -0.7321594 
-67.25 -34.75 607 -0.04648361 0.354614 -0.9338567 
-63.90909 -33.72727 605.7273 -0.04008281 0.09515428 -0.9946553 
-57.33333 -36.33333 607 0.3636416 0.3977185 -0.8423686 
-45.6 -37.6 620 0.456363 -0.7044222 -0.5436195 
-48 -37 616 0.744655 -0.1973898 -0.6375942 
-61 -36.5 604.5 0.2139782 0.632354 -0.7445413 
-64 -37.5 602.3333 0.1207027 0.8549994 -0.5043877 
-57 -39 604 0.4005012 0.7457365 -0.5324246 
-64 -39 599 0.1323156 0.9088682 -0.3955393 
-47 -40 618 0.8928028 0.04791927 -0.4478917 
-51.25 -39.75 610.5 0.7557305 0.3326905 -0.5640821 
-1 -44 622 -0.1451176 -0.783044 -0.6048 
2 -45 623 -0.05604202 -0.8264135 -0.5602679 
-1 -46 626 -0.1390252 -0.8943337 -0.4252519 
-4 -47 629 -0.05110597 -0.8982971 -0.4364063 
-1 -48 630.6667 -0.02213161 -0.8979732 -0.4394933 
-43 -46 621 0.8152993 0.5780101 -0.03451967 
2 -49 633 -0.09449096 -0.8317584 -0.547037 
-19 -50 635.3333 -0.129939 -0.7834748 -0.6076867 
-16 -51 636.6667 -0.1329247 -0.8600785 -0.4925404 
-42.5 -48.5 611 0.6747072 0.7189026 -0.1671806 
-60.9 -46 589.9 0.3849168 0.7004676 -0.6009861 
-19.25 -51.75 639.25 -0.08655524 -0.8851814 -0.4571237 
-33 -64.5 605 0.9194769 0.389095 -0.05627999 
-30 -67 630 0.9514121 0.3003918 -0.06767435 
-32 -63.5 614 0.9110142 0.3931867 -0.1243275 
-58 -58.5 575.6667 0.2044808 0.6456776 -0.7357229 
-33.5 -61 608.5 0.8902729 0.4455413 -0.094378 
-45.875 -57.875 586.625 0.4759302 0.6405533 -0.6026458 
-61 -57 577 0.1208903 0.7571695 -0.6419345 
11.2 -64.6 657 -0.1421939 -0.8411236 -0.5218162 
-57.85714 -55.57143 579 0.3045473 0.8020899 -0.5137145 
-49.2 -54.9 587.1 0.5634838 0.6518044 -0.5075796 
-46 -55.22222 589.5555 0.4576769 0.6758578 -0.5777094 
-36.5 -57.5 601.5 0.8093559 0.567486 -0.1513359 
14 -63 654 -0.02774246 -0.8515852 -0.5234817 
-38 -56 599 0.7338961 0.6110621 -0.2966473 
8 -60 651.3333 -0.1784897 -0.8051473 -0.5655788 
13.8 -58.6 648.2 -0.06697129 -0.8525611 -0.518319 
-39.5 -52 611 0.7625904 0.6430427 -0.07036958 
-4 -56 645 -0.1129167 -0.8393155 -0.5317888 
-7 -54 643 0.06322888 -0.784202 -0.6172758 
-38 -51 621 -0.8074743 -0.5737818 -0.1369665 
-66.5 -48 586 0.1299698 0.7760475 -0.6171371 
-40.5 -49.5 615 0.7284575 0.6530433 -0.2070851 
-21.66667 -12 573 -0.1183343 -0.8206627 -0.5590258 
-31 -10.5 571.5 -0.1552937 -0.8030518 -0.5753189 
-28 -9.5 569.5 -0.0821241 -0.8521956 -0.5167381 
-31 -8 568.3333 -0.2160205 -0.8060304 -0.5510447 
-22.2 -7.6 566 -0.1391626 -0.8549412 -0.4997093 
-25 -6 563 -0.02259355 -0.9127513 -0.4078904 
-25.14286 -4.857143 560.2857 -0.02155611 -0.9230198 -0.3841481 
-43.25 -4.75 565.75 -0.2620406 -0.8429067 -0.4699396 
-39.83333 -4 563 -0.2400718 -0.8466094 -0.4749926 
-22 -3.833333 557.1667 -0.1436139 -0.8960649 -0.420051 
-193 -1 679 -0.7289546 0.03034756 -0.683889 
-43.5 -2 562 -0.2601595 -0.8371485 -0.4811438 
-28 -1.5 553.6667 -0.09459834 -0.8423423 -0.5305758 
-31 0 552 -0.2005329 -0.8299952 -0.5204753 
-198 3 681 -0.3872278 -0.8266733 -0.4082472 
-195 3 679 -0.3787704 -0.716339 -0.5859962 
-190.2 4.4 675.4 -0.4188569 -0.3520855 -0.8370153 
-208 6 692 -0.5332852 -0.8133402 -0.2325608 
-204 6 685 -0.5393541 -0.7962523 -0.2740064 
-198.5 5 677.5 -0.3780563 -0.7552731 -0.535384 
-64.25 4.75 547.5 0.04120187 -0.9385251 -0.3427436 
-67 6 544.75 0.06213439 -0.9068892 -0.4167629 
-28 7 538.6667 -0.114786 -0.8545077 -0.5065972 
-37 9 537 -0.04960287 -0.842396 -0.5365713 
99 10 619 0.6788182 -0.7051802 -0.2047605 
-34 10 535 -0.07471959 -0.9353839 -0.3456501 
-36.875 10.5 533 -0.05226012 -0.9291041 -0.3661071 
-40 12 531 -0.1351455 -0.8277839 -0.5445269 
2 12 525 -0.1236532 -0.8036378 -0.5821308 
-37 13 529 -0.07841208 -0.8554242 -0.511958 
-33.71429 13.57143 526.8571 -0.1781311 -0.8952641 -0.4083767 
-7 13.5 524 0.01880508 -0.928162 -0.3717011 
-3.75 14 521 0.03481071 -0.9295467 -0.3670575 
2 16 517.75 -0.07287136 -0.8302808 -0.5525608 
-1 17.66667 515 0.1169876 -0.8422434 -0.5262508 
-16 18 512.3333 -0.03912356 -0.9214283 -0.3865738 
-1 20 512 0.3047746 -0.6208788 -0.7222341 
-2 22 510 0.4183188 -0.09829271 -0.9029663 
1.928571 22.57143 512.3571 0.2672778 0.2038245 -0.9418165 
103 27 594 0.8846179 -0.3122745 -0.3463176 
104 29 597 0.9574487 -0.09715232 -0.2717599 
-4.6 25.8 510 0.428183 0.394363 -0.8131034 
-6 27 511 0.4509247 0.3868986 -0.8043485 
-3.818182 28.72727 512.5455 0.4253254 0.4051467 -0.8092927 
-8 28.8 510 0.4990833 0.3098913 -0.8092486 
-46.09091 31.81818 497.8182 0.3444639 0.4436761 -0.8273428 
-55 32 494.1667 0.467362 0.2931093 -0.8340622 
-39.33333 33 502 0.2743916 0.559876 -0.7818237 
-49.33333 34 498 0.2880009 0.5272042 -0.7994443 
-46 35 500.0833 0.3448249 0.4828421 -0.8049591 
-42.83333 35.66667 502.1667 0.3600794 0.4557324 -0.8140336 
-36.9 38.5 505.8 0.2736587 0.5566597 -0.7843729 
-53 37 498 0.4186982 0.5089147 -0.7521287 
-54 38.66667 499 0.4240505 0.4842305 -0.7653117 
121.3333 49.33333 649 0.4319854 0.2679418 -0.8611596 
-21 153 574 -0.5933415 0.7489854 -0.2949014 
-26 152 579 -0.4941958 0.8115082 -0.3118091 
-49 137 582 -0.4845284 0.8292483 -0.2785312 
-51 133 575 -0.5878227 0.7546417 -0.291514 
-65 132 597 -0.5246657 0.7944195 -0.3059799 
50.75 125.25 571.75 0.8356156 0.2451831 -0.4915607 
50.66667 121.6667 569.3333 0.8346646 0.2737328 -0.4779177 
48 119 563 0.851107 0.4075775 -0.330904 
49.33333 119 566 0.8025769 0.3608308 -0.4750489 
49.66667 115.6667 562.6667 0.8343508 0.4208127 -0.3560554 
48 113 556 0.8243086 0.3016873 -0.4790616 
50 113 560.25 0.8100579 0.471237 -0.3489152 
45 110 550.3333 0.7372617 0.4040727 -0.5414523 
49.5 110.25 556.75 0.7807273 0.3874581 -0.490246 
46.5 108 550.5 0.5362998 0.7010877 -0.4699562 
50.5 107 553.5 0.5822862 0.7473139 -0.3201009 
51 105 550 0.7617196 0.5410327 -0.3564646 
41 102 538.3333 0.02128345 0.9110357 -0.411778 
38 101.3333 535.6667 0.271656 0.7937631 -0.5441903 
34.8 100.6 532.4 0.336737 0.8424407 -0.4205971 
32.25 100 530.5 -0.07849773 0.7946259 -0.6020032 
51 102 547 0.8582944 0.3266262 -0.3957853 
38.5 99 533 -0.07922668 0.8864326 -0.4560268 
53 102 551 0.897333 0.2620693 -0.3551243 
32.28571 97.57143 527.8571 -0.1161124 0.5371515 -0.8354557 
29 98 529.5555 -0.3925242 0.5257202 -0.7546808 
51 96 541 0.928602 0.2303621 -0.290915 
35 95 527.7778 0.06355424 -0.2737071 -0.9597111 
35 92.66666 530 0.05716094 -0.8327499 -0.5506908 
57 96 559 0.931886 0.2544377 -0.2585534 
32 91 532.5 0.02932348 -0.8340554 -0.550901 
50 92 538 0.8691252 0.0115609 -0.4944571 
57 93 556 0.9119166 0.2603604 -0.3172077 
46.71429 89.14286 533.8571 0.4129235 -0.5468712 -0.7283036 
49.2 89 536.4 0.7200512 -0.3439357 -0.6026894 
46.5 87 537 0.2036626 -0.8498082 -0.4861559 
31.81818 86.63636 539.0909 -0.1182679 -0.8024806 -0.5848398 
63 90 571 0.9384868 0.2101786 -0.2739846 
28.66667 85.16666 542 -0.03694764 -0.7945567 -0.6060649 
38.18182 83.72727 542 0.02529722 -0.782674 -0.6219177 
63 86.5 568.5 0.8971735 0.2110517 -0.3879909 
29 82.71429 544.4286 -0.01503078 -0.6533399 -0.7569156 
32 81 545.5 -0.07271665 -0.7499461 -0.6574901 
62.33333 82.66666 565.6667 0.7819564 0.4673415 -0.4124758 
29 79.5 547.5 0.01571586 -0.7582862 -0.6517323 
62.5 80.5 562 0.6665568 0.6521165 -0.3611733 
64 79 561 0.3460039 0.8912281 -0.293247 
-136.5 77 577.1667 -0.5811654 0.02352651 -0.8134453 
-135.5 75 576 -0.2470883 -0.3281102 -0.9117516 
-163.3333 77 599 -0.5073836 0.7173782 -0.4774205 
-138.8182 74 578.4545 -0.3452135 -0.3569952 -0.867976 
-129.875 71.125 578.75 -0.234993 -0.3808532 -0.8942758 
-138.9091 70.81818 581 -0.2867443 -0.594266 -0.7514158 
-136 68.25 581.5 -0.292228 -0.3321655 -0.8968104 
-139.2 68 583 -0.3709571 -0.314436 -0.8737968 
-121 65 580.3333 -0.1751246 -0.6014093 -0.7795116 
-118 63 581.6667 -0.2276031 -0.7198121 -0.6557953 
-120.6667 61.66667 584.3333 -0.2227831 -0.7699811 -0.5979103 
-136 61.57143 586.4286 -0.08400635 -0.7490454 -0.6571712 
-132.5 59.5 587.75 -0.06014171 -0.6164572 -0.7850882 
-131 58 589 -0.1242827 -0.638907 -0.7591783 
-132.8889 56 590.1111 -0.0006411708 -0.7016168 -0.7125542 
-135.5 55 592 0.1969239 -0.8082026 -0.5550041 
-145.125 53.625 593.125 0.03384704 -0.737879 -0.6740839 
-141.75 52 595 0.009439309 -0.7318099 -0.6814435 
-145.3333 50.66667 596.3333 0.000332622 -0.8097861 -0.586725 
-135.8 49 599.4 0.09677017 -0.8634301 -0.4951 
-96 -12 576 0.0517052 -0.8917159 -0.4496324 
-94.2 -12.4 578 0.1560399 -0.8823131 -0.4440441 
-102.5 -14 580 0.1754929 -0.8437364 -0.5072585 
-100 -15 581.6667 0.08122784 -0.8544065 -0.5132169 
-102.8 -16.8 584.4 0.1407074 -0.8982149 -0.416427 
-165.8 -21.4 642.2 -0.577482 -0.4307073 -0.6935458 
-168.6 -22.2 645 -0.6332736 -0.3811344 -0.6735735 
108 -38 731 0 1 -0 
95.5 -41 747.5 0.0837483 -0.9932308 -0.08049048 
-169 -48 660 -0.9333576 0.1704178 -0.3159137 
-172 -49 668 -0.8905086 -0.1122576 -0.4408998 
-171 -51 666 -0.9421616 0.05826746 -0.3300551 
-170 -52 663 -0.9495931 0.1544879 -0.2727755 
-176 -64.5 657 0.9890107 -0.01797719 0.1467473 
-166.25 -58.25 654 -0.3788157 -0.7627712 -0.524098 
-179 -59 667 0.701897 0.7113067 0.03719373 
-169 -57.5 658 -0.7818329 -0.1123113 -0.6132891 
-180 -57 670 0.6454028 0.7601088 0.07543123 
-100 -11 574.6667 0.08537617 -0.8914284 -0.4450463 
-162 -10 639 -0.8141391 0.3232973 -0.4823447 
-160.3333 -10 636 -0.8389999 0.279121 -0.4670874 
-161 -7 639 -0.8304414 0.2800286 -0.4816132 
-152 -7.5 623.5 -0.832289 0.2031896 -0.5157607 
-153 1.5 630.5 -0.8297527 0.1253428 -0.5438746 
-154 4.8 632.4 -0.7544278 -0.1372136 -0.641881 
-140 32.5 619 -0.6854357 -0.07636429 -0.7241177 
-139.5 35 617.1667 -0.6116778 -0.3022954 -0.7310731 
-133 36 610 -0.790473 0.254329 -0.5571977 
-138 39 615 -0.3746994 -0.369406 -0.8503761 
-128 38.5 602.5 -0.8104975 0.2775851 -0.5157911 
-136.2 40.4 613.4 -0.3569889 -0.672011 -0.6488146 
-138.8 42 611.4 -0.1141294 -0.8511555 -0.5123561 
-139 44 608 -0.02565429 -0.8954501 -0.4444219 
-136 45 606 -0.01730883 -0.7711424 -0.6364274 
-139.25 46.25 604.75 -0.02879132 -0.8188961 -0.5732192 
-129.7143 47 602 -0.3981655 -0.6900705 -0.6043733 
-23 153 578 -0.5365134 0.7717433 -0.341417 
-48 139 587 -0.5201715 0.8110612 -0.2675843 
-60 132 589 -0.5137907 0.8204707 -0.2506934 
45 125 562 0.8494313 0.3201279 -0.4195052 
-68 130 597 -0.5275811 0.7992417 -0.287873 
49.4 124.8 569 0.8519769 0.2613338 -0.4536959 
51 123 571 0.8317997 0.2832497 -0.4773667 
49 118 564 0.8340764 0.3925084 -0.3876258 
50.66667 116.3333 565.6667 0.8111588 0.4274544 -0.3991294 
44.66667 112.8333 551 0.8243447 0.1537481 -0.5448095 
49 112.5 557.5 0.8122498 0.4220659 -0.4026298 
51 111 560 0.7886715 0.4652116 -0.4019645 
48 108 553 0.5944713 0.7071118 -0.3828796 
49.5 106.5 550.5 0.5080665 0.8137764 -0.2821994 
35.25 101.75 535.25 0.1999217 0.8048484 -0.5587936 
37 100 534 0.1959042 0.8443543 -0.4986858 
50.66667 101 545 0.8918555 0.339867 -0.2984698 
31.6 98.4 529.2 -0.1161124 0.5371515 -0.8354557 
54 100.5 553.5 0.9025527 0.2923148 -0.31615 
38 95 527.9167 -0.05478782 -0.1020851 -0.9932659 
55 98.5 553.5 0.9253573 0.1877283 -0.3293509 
53.33333 98 551 0.9114274 0.2163624 -0.349982 
51 94.5 539.5 0.9031829 0.1316456 -0.4085708 
38.09091 92.72727 529.9091 -0.0006434434 -0.7601744 -0.6497188 
28.75 91 532.5 -0.006230307 -0.8242244 -0.566229 
56.66667 95 557 0.9153286 0.2499329 -0.3157643 
47.57143 88.57143 535.5714 0.3700621 -0.6369269 -0.6762974 
29.22222 86.77778 538.7778 -0.0189787 -0.840573 -0.5413659 
32 85 541 -0.1245802 -0.7861481 -0.6053519 
62.66667 89 569.3333 0.9101343 0.1746954 -0.3756823 
35 83.66666 542.4445 -0.03102162 -0.7165429 -0.6968529 
32.25 82 544 -0.07042193 -0.7174708 -0.6930197 
61 83.5 562.5 0.9053793 0.3358098 -0.2598466 
29 81 545.5 -0.01101227 -0.754792 -0.6558717 
32 79.5 547.5 -0.0005825027 -0.8272815 -0.5617872 
68 79 559.6667 -0.09855093 0.966252 -0.2380021 
-135 77 576 -0.4867874 -0.03034282 -0.8729934 
-139.1 77.1 578.4 -0.4229491 0.2046579 -0.8827397 
-161 78 598 -0.501515 0.7435518 -0.442282 
-135.9091 74.09091 577.8182 -0.2357937 -0.4701565 -0.8505024 
-132.75 71.75 579 -0.1251881 -0.5427956 -0.8304824 
-136 70.5 580.5 -0.2334079 -0.4479142 -0.8630723 
-140 70 583 -0.3217615 -0.5661712 -0.7588937 
-129 68.5 579 -0.2221188 -0.318457 -0.9215468 
-138 68.5 582 -0.4033612 -0.2943809 -0.8663946 
-118.4286 64.71429 580.4286 -0.1708877 -0.6456708 -0.7442491 
-121 63 582 -0.1133056 -0.7400256 -0.662966 
-118.125 61.375 583.75 -0.427067 -0.6394114 -0.6393487 
-139.2222 61.55556 586.4445 -0.002603055 -0.6601749 -0.7511075 
-129.8571 59.28571 587.5714 -0.1278937 -0.4857014 -0.8647181 
-133.1667 58.5 589 -0.05190756 -0.507507 -0.8600827 
-130 56 589.6667 -0.2508301 -0.6396645 -0.7265766 
-142 53.5 593.5 -0.0004557406 -0.7116634 -0.7025205 
-145 52 595 0.006206715 -0.7251905 -0.6885204 
-142 51 596 0.01518993 -0.7745357 -0.6323478 
-139.2 49.4 598.6 0.004897824 -0.7968215 -0.6041951 
-97 -12.5 577.6667 0.02323494 -0.8946971 -0.4460688 
-100 -14 581 0.07967517 -0.849955 -0.520796 
-100.25 -16 583.75 0.1014311 -0.8769678 -0.4697225 
-103.3333 -15.33333 581.1667 0.1781911 -0.845287 -0.503724 
-165.75 -19.25 641.25 -0.7125737 -0.3017404 -0.6333967 
-168.4 -19.2 644.8 -0.7495655 0.08647161 -0.6562577 
-166.5 -23 644 -0.311429 -0.7246992 -0.6146732 
74 -29 688 0.71195 -0.6580099 -0.2452552 
71 -30 681 0.8282799 -0.5303788 -0.1806956 
119 -36 723 0.07664087 -0.9812899 -0.176625 
110 -38 731 0 1 -0 
67 -34.5 675.5 0.9327584 -0.329723 -0.1457551 
-171 -50 667 -0.9435708 -0.00783661 -0.3310783 
-177 -64 663.6667 0.6363763 0.2773985 -0.7197745 
-176 -62 656 0.9849997 -0.01901334 0.1715055 
-177 -61.5 659.5 0.894111 -0.4204053 -0.1543532 
-167 -59 656 -0.548879 -0.5166898 -0.6570871 
-167 -56 653 -0.6711053 -0.4300835 -0.6038591 
-170 -53 661 -0.953314 0.06531379 -0.2948331 
-102 -11 574 0.1491967 -0.8769301 -0.456874 
-152 -10 622.3333 -0.8448077 0.005897868 -0.5350376 
-159.3333 -7 636 -0.8406735 0.3048078 -0.4476163 
-153 -5 626 -0.8284906 0.3542365 -0.433728 
-154.5 2.25 633 -0.7825609 0.006218247 -0.622543 
-156.5 6 634 -0.6792356 -0.2405039 -0.6933952 
-153 6 631 -0.7693856 -0.1200639 -0.6273997 
-139.25 31.75 617.25 -0.7718999 0.01144892 -0.635641 
-134 32.5 610 -0.824431 0.2436033 -0.5108533 
-135.7143 38.14286 613.7143 -0.6542323 -0.1194534 -0.7468005 
-126.5 38 600 -0.8540004 0.3740635 -0.3616072 
-139.1429 40.71429 614 -0.265929 -0.6798849 -0.6834019 
-136 41.85714 611.1429 -0.2494331 -0.7982045 -0.5483181 
-127 41 601.6667 -0.8395605 0.1281494 -0.5279356 
-125 41.5 599.5 -0.8525856 0.231896 -0.4683184 
-135.75 43.75 608.25 -0.09325142 -0.8517956 -0.515508 
-139 45 606 -0.03969337 -0.8104581 -0.5844502 
-136 46 605 0.001127045 -0.83285 -0.5534976 
-133 47.8 602.2 -0.05560301 -0.8641286 -0.50019 
-29 150 579 -0.5185514 0.7945995 -0.3157785 
-30 148 575 -0.5650836 0.7735122 -0.2869835 
39 126 548 0.8570189 0.3705736 -0.3580416 
39 123 545 0.8684487 0.3095945 -0.3872313 
36 120 538 0.8644031 0.08746132 -0.4951343 
-67 133 603 -0.5290162 0.8010467 -0.2801181 
38.75 119 542 0.8858138 0.09027724 -0.4551746 
37.4 116.2 539 0.8620793 0.03164928 -0.5057842 
52 119 570 0.7977242 0.3129038 -0.5154874 
54 116 571 0.7973103 0.3123812 -0.5164438 
40 110 543 0.7706739 -0.06622164 -0.6337795 
44.2 107.4 547.8 0.643783 0.5239165 -0.557723 
40.9 107 544.7 0.537099 0.3081113 -0.7852338 
44 105 544 0.1697028 0.8329093 -0.5267475 
29 104 537 0.002313899 0.6163481 -0.7874704 
46.5 103.5 541.5 0.3804354 0.8322626 -0.4032467 
52.5 107 557.5 0.850847 0.4207681 -0.3146642 
54 105 561 0.8911318 0.3146486 -0.3269258 
52.66667 95 545 0.9334047 0.2360178 -0.2702797 
54 92 548 0.9456615 0.2097899 -0.2484201 
37 79 550 -0.1507062 -0.768771 -0.6215134 
-144.625 76.875 581.375 -0.4963872 0.4159356 -0.7619693 
-157.6667 77 593 -0.4871683 0.6868395 -0.5393687 
-141.8571 74 580.1429 -0.4515662 -0.1535859 -0.8789194 
-147.9 71.1 583.8 -0.3433119 -0.2167242 -0.913875 
-156.6 70.8 588 -0.5045193 0.08341359 -0.8593617 
-150.5 69 585 -0.323743 -0.2611382 -0.909394 
-163.75 71.25 592 -0.4813671 0.3034108 -0.8223306 
-153.7143 67.85714 586.8571 -0.3545455 -0.1362796 -0.9250543 
-158 67 589 -0.3926807 0.008652709 -0.9196342 
-150.6667 65 586.4445 -0.2779248 -0.3207915 -0.9054561 
-148 62.25 587.25 -0.1846564 -0.4945726 -0.8492938 
-152 61 589 -0.1154221 -0.4540611 -0.8834627 
-144.75 60 588 -0.123574 -0.5350946 -0.8357053 
-142 58 589 -0.07358243 -0.4681141 -0.8805991 
-145 56 590.5555 -0.03239725 -0.6725779 -0.7393169 
-137 54 591 0.1630148 -0.8291129 -0.5347877 
-118 53 585 -0.7769878 -0.03364537 -0.6286159 
-133 53.5 593.5 -0.008873282 -0.7086288 -0.7055257 
-130 52 595 -0.04395912 -0.7161468 -0.696564 
-117 49 581 -0.943427 0.1467354 -0.2973455 
-133.25 50.75 596.5 -0.02248344 -0.7858554 -0.6180015 
-147.8 49.4 598.6 0.143722 -0.9009866 -0.4093499 
-142 48 602 -0.1236753 -0.9144335 -0.3853775 
-72 -14 586 0.1323208 -0.8896134 -0.437126 
-88 -14 583 0.1075778 -0.8666934 -0.4871032 
-91.14286 -13.42857 581.2857 0.1337693 -0.8475174 -0.5136342 
-71 -15 588 0.03371953 -0.8721074 -0.4881512 
-73 -16 590 0.02538616 -0.8956913 -0.4439511 
-91 -15.5 584.1667 0.15073 -0.8581837 -0.490715 
-76 -17 592 0.003946882 -0.9018968 -0.4319337 
-172 -19 651 -0.7880192 0.3457174 -0.5094166 
-180 -19 665 -0.8911514 0.07590797 -0.4473111 
-182 -21 668 -0.856603 0.1216696 -0.5014259 
-172 -22.5 649 -0.7732901 0.1217805 -0.6222475 
-174 -22 651.3333 -0.7699965 0.2200665 -0.5988958 
-184 -25 668 -0.7740034 0.5349817 -0.3386937 
-180.5 -25.5 661 -0.7669717 0.4910187 -0.4131042 
-169 -25.14286 647.7143 -0.3269006 -0.6489623 -0.6870109 
-176 -25.5 654 -0.6856419 0.2094161 -0.6971658 
