ply
format ascii 1.0
comment VCGLIB generated
element vertex 963
property float x
property float y
property float z
property float nx
property float ny
property float nz
element face 0
property list uchar int vertex_indices
end_header
-8 152.5 518.5 0.8575575 0.280437 -0.4312193 
-6 152 522 0.8063784 0.313712 -0.501337 
-24.14286 144.8571 495.1429 0.1608531 -0.8080206 -0.5667707 
-27.11111 143.5556 498 -0.09368484 -0.8647303 -0.4934214 
-6.6 149.6 519.2 0.8444798 0.2811029 -0.4558893 
-17.8 143.8 500.3 0.465137 -0.2789547 -0.840138 
-77.6 147.8 515.8 -0.1397331 0.7478002 -0.6490529 
-80.75 146 513.5 0.1422633 0.8576636 -0.4941401 
-84 146 511 0.1833344 0.8634301 -0.4699754 
-78 145 512 0.06948925 0.8070636 -0.5863613 
-83.6 143.4 507 0.2406332 0.8558212 -0.4578928 
-27.1 141.6 501.1 -0.2496564 -0.8719646 -0.4211287 
-80.5 142 506 0.2274838 0.7854437 -0.5756121 
-24 140 503.5 -0.1599274 -0.8943776 -0.4177462 
-44.75 123.25 500 0.3021029 0.4246643 -0.8534601 
-48 122.9167 498.8333 0.1933201 0.5658059 -0.8015554 
-50.5 120.75 497 0.291006 0.5586429 -0.7766812 
-42 120.3333 500 0.0955945 0.411948 -0.9061791 
-48 119 496 0.3583711 0.5895686 -0.7238641 
-45.4 116.2 495.8 0.389117 0.3729631 -0.8423102 
-42.1 116.9 497.6 0.2885635 0.3776127 -0.8798522 
-42.875 114.125 496 0.4365002 0.1012098 -0.8939934 
-39 112 496 0.2491802 -0.003780778 -0.9684498 
-32.36364 111 500 0.2586114 -0.1077689 -0.9599511 
-36 110.875 498.25 0.4813007 -0.2519641 -0.8395617 
-29.92308 108.0769 500.8462 0.199501 -0.2598912 -0.9448047 
-39.21053 107.9474 498.0526 0.2573078 -0.4874264 -0.8343909 
-38.90909 105.0909 500.9091 0.03434 -0.7719898 -0.6347066 
-69.25 104 506 -0.01871613 -0.8557188 -0.5171027 
-38.57143 103 503.8571 -0.1290573 -0.8461654 -0.5170575 
-66.125 102.875 507.125 -0.05281829 -0.8613785 -0.5052102 
-68.90909 101.3636 509.9091 -0.07540055 -0.9001515 -0.4290012 
-72.25 101 512.75 -0.1058594 -0.9055337 -0.4108559 
54.14286 99.57143 528.4286 0.03184127 -0.7927687 -0.6086904 
81.125 98.5 530.5 -0.07955729 -0.8190379 -0.5681968 
83.75 97 532 -0.01345761 -0.8283034 -0.5601182 
80.9 95.9 534.1 -0.04321197 -0.8995716 -0.4346304 
89 95 536 -0.1688956 -0.7495726 -0.6400118 
81.18182 93.09091 537.2727 0.007576087 -0.4550419 -0.8904378 
84.25 92 539 -0.1003974 -0.2993453 -0.9488481 
84 89 538 -0.02064303 0.4943812 -0.8690001 
80.875 90.125 539 -0.0161442 0.07220088 -0.9972594 
78 88 539 -0.367648 0.385717 -0.8462017 
74.83334 86.5 537 -0.07304469 0.906934 -0.4148917 
68.75 85 534.75 -0.04494118 0.8806295 -0.4716695 
71.75 83.25 531.25 -0.03606358 0.7613403 -0.6473487 
60.25 80.75 528.75 0.02850247 0.7509837 -0.6597053 
56.875 78.75 527 -0.06396501 0.6157223 -0.7853627 
60 77.5 525.625 -0.06360614 0.6264346 -0.7768744 
89.57143 74 516.7143 -0.0821918 0.8168477 -0.570968 
72.18182 74.90909 521.8182 -0.2300234 0.7076288 -0.6680948 
90 72 513.5 -0.08863957 0.876905 -0.4724202 
87 73 515 -0.09796885 0.8239147 -0.5581816 
68.5 73 521 -0.1105319 0.7467632 -0.6558411 
87 70 507 -0.1623018 0.9485776 -0.2717698 
71.8 72.2 519.1 -0.2052831 0.7429268 -0.6371175 
9 2.5 555 -0.1789092 -0.847586 -0.4995893 
12.4 0.8 555.8 -0.2225917 -0.7510621 -0.6215776 
9 0 558.1111 -0.2135289 -0.7287594 -0.6506268 
18 -2.5 558.5 -0.1079562 -0.7207245 -0.684764 
9.142858 -2.714286 561 -0.230485 -0.7281221 -0.6455347 
12.5 -5 562 -0.1946534 -0.8033395 -0.5628105 
9 -5.5 564.3333 -0.237766 -0.8659014 -0.4400934 
5.692307 -6.230769 567.3846 -0.06611019 -0.5841772 -0.8089293 
13 -10 569 0.1875614 -0.4386012 -0.8788912 
9 -9 568 -0.01073009 -0.2618815 -0.9650404 
18.25 -13 573.25 0.1510286 -0.7889972 -0.5955451 
11.25 -11.75 568 0.2585624 -0.004539281 -0.9659839 
0 -15 565 0.006419264 0.8759636 -0.4823346 
-2 -16 561 -0.02390038 0.9906715 -0.1341598 
3.666667 -17 557 0.1155682 0.9368438 -0.3301027 
30 -19 579 -0.04041839 -0.807732 -0.5881628 
15.33333 -17.66667 570.1667 0.7436638 0.5860918 -0.3216531 
6 -18 555 0.1289921 0.9396608 -0.3168575 
17 -19 568 0.7199603 0.6514437 -0.2393291 
21 -23.75 570.5 0.7955311 0.5456201 -0.2634937 
24.5 -27 577 0.8485047 0.4801608 -0.2224535 
25 -29 574 0.8508685 0.4785669 -0.2167869 
-51 -57.5 652 -0.05994462 -0.872306 -0.4852719 
-51 -60 656 -0.1073019 -0.8107597 -0.5754609 
-51 -62 659 -0.157125 -0.846283 -0.5090352 
-43 -63.5 655 -0.5343142 -0.6921036 -0.4852845 
-47.5 -63.5 660.5 -0.281827 -0.7404547 -0.6101642 
26 -41.5 557.5 0.9118381 0.3337177 -0.2391319 
69 -41.5 613 0.003314216 -0.8798206 -0.4752945 
23 -35.5 555.5 0.9105008 0.3016916 -0.2827907 
26.33333 -36 564 0.9019032 0.2854344 -0.3241882 
69 -40 610 4.046461e-07 -0.8944269 -0.4472143 
78.25 -38.5 607.25 -0.1182744 -0.7899763 -0.6016216 
22 -33 555 0.8738397 0.3714467 -0.3137381 
68.5 -37 606 -0.1434909 -0.804672 -0.5761192 
71.85714 -36.42857 604 -0.02280274 -0.911305 -0.4111001 
23.33333 -33 558.6667 0.9066195 0.3284122 -0.2649275 
12 5 548.5 -0.09009229 -0.9072671 -0.4107918 
15 5.5 546 -0.2782519 -0.8729876 -0.4005852 
18.14286 5.571429 543.5714 -0.229002 -0.8648984 -0.4466642 
14 8 542 -0.2167518 -0.8559259 -0.469478 
0 10 541 -0.01418287 -0.8951258 -0.445588 
2.5 11 539 -0.1138078 -0.9687626 -0.2203336 
36 10 528.6667 -0.1623893 -0.8503838 -0.500477 
38 11 527 -0.1865243 -0.8689992 -0.4583112 
42.14286 11.42857 524.5714 -0.1603904 -0.8427945 -0.5137824 
149 12 586 0.6319962 0.7186547 -0.2900282 
-3 12.66667 533.6667 -0.01511787 -0.9164198 -0.3999328 
144 13 580 0.6830703 0.6770354 -0.2739306 
152 13 595 0.515336 0.7938706 -0.3227976 
146 14 587 0.6985834 0.657097 -0.2832045 
-3.25 14 531 0.004406597 -0.9294947 -0.3688092 
35.75 14 521 -0.07430312 -0.9675835 -0.2413737 
144 15 584 0.706055 0.6419919 -0.2988857 
33 14.5 519.1667 -0.1418444 -0.9329142 -0.3309856 
142 16 580 0.9360725 0.1347769 -0.324967 
148 18 595.3333 0.9306719 0.1114255 -0.3484743 
30.5 16 517 -0.1710497 -0.8611941 -0.4786301 
32 17 515 -0.2158701 -0.8972417 -0.385172 
36.25 17 512.5 -0.08779296 -0.9046823 -0.4169441 
39.2 17.6 510.4 -0.03657965 -0.9277167 -0.3714886 
147.5 20.5 592.5 0.9317206 -0.1275749 -0.3400318 
42 19 507.3333 -0.1283977 -0.8925723 -0.4322369 
39 20 506 -0.06782462 -0.8996997 -0.431208 
47.6 20 503.4 -0.1219823 -0.9361064 -0.3298868 
45 21.42857 501 -0.1431421 -0.8959258 -0.4205086 
53.75 21.5 498.375 -0.09572054 -0.8796819 -0.4658297 
151 25 598 0.9045296 -0.2027818 -0.3751076 
44.75 23 498 -0.0933413 -0.9230117 -0.3732784 
47.75 23.5 494.75 -0.08184958 -0.9175175 -0.3891816 
63.25 23.75 492.25 -0.03765718 -0.9218336 -0.3857522 
66.14286 25 489.4286 -0.03709524 -0.8841069 -0.4658101 
60.11111 27.33333 485.6667 -0.1125934 -0.9034775 -0.4135834 
62.5 26 488 -0.01269529 -0.8622878 -0.5062594 
56 28 484 -0.09459074 -0.8942282 -0.4375028 
78 28 481 0.006368247 -0.8259176 -0.563755 
57.22222 30.44444 479.8889 -0.104085 -0.8744634 -0.4737934 
60.5 31 478 -0.1231014 -0.8453314 -0.5198663 
56.875 32.375 477.25 -0.1025901 -0.8641433 -0.4926781 
66 32.90909 474.0909 -0.01808525 -0.9035743 -0.4280495 
63.33333 34 471.3333 -0.02807008 -0.8755972 -0.4822257 
57.25 35 473 -0.05211833 -0.8145952 -0.5776836 
59.55556 35.77778 470.6667 -0.3167184 -0.6975647 -0.6427231 
146.5 42.5 570 0.9061649 -0.2747307 -0.3215402 
56.91667 39 470.4167 -0.3896811 -0.03996565 -0.9200823 
149.5 48 573.5 0.8674434 -0.3406907 -0.3625906 
48 42.5 476.5714 -0.3603603 0.5979441 -0.7159632 
51.26667 41.93333 474.5333 -0.4359244 0.4922759 -0.7534152 
54.28571 41.14286 471.8571 -0.3623434 0.463853 -0.808423 
44 42.66667 479.3333 -0.4571241 0.5875326 -0.6677148 
176.8333 51.5 580 -0.01500083 -0.836956 -0.5470647 
47.5 45.375 479.375 -0.4884024 0.4904515 -0.7217482 
54.6 44.7 474.8 -0.3447674 0.5799004 -0.7381402 
50.75 48 479.4167 -0.3933854 0.4562865 -0.7981545 
53.75 48 477.75 -0.3720932 0.4885447 -0.7892216 
8.5 52 506 -0.256288 0.9107128 -0.3239113 
53.84615 51.15385 479.6923 -0.3715529 0.5233511 -0.7668456 
-23.75 146.25 494 0.1596383 -0.7855763 -0.5978172 
-7 152 520 0.8575577 0.280437 -0.4312193 
-8 151 518 0.8575576 0.2804369 -0.4312194 
-17 147.25 500 0.7711515 -0.03074322 -0.6359089 
-26.63636 144.7273 495.4546 -0.01365887 -0.8397684 -0.542773 
-81 148 516.25 -0.002263215 0.839606 -0.543191 
-87 146 510.6667 0.2440845 0.8885472 -0.388467 
-5.4 150.2 521.6 0.802285 0.2981831 -0.5171323 
-21 143 500 0.1493055 -0.7304524 -0.6664438 
-23.76923 143.5385 498.0769 0.1407229 -0.8825097 -0.4487469 
-78.5 147 514 -0.06524509 0.8002858 -0.5960586 
-84.33334 144.6667 509.3333 0.1960959 0.8677056 -0.456764 
-86.8 144.2 507 0.2744854 0.8689685 -0.4117664 
-23.91667 141.3333 501 0.09963496 -0.8246166 -0.5568486 
-78 141.6 506.6 0.1819123 0.8302988 -0.5267938 
-27.25 140.625 504.125 -0.1898792 -0.9262813 -0.3254978 
-24 139 505 -0.1724624 -0.8995374 -0.4013593 
-51.25 123 497.9167 0.3437871 0.4513668 -0.8234553 
-41.81818 123.0909 500.7273 0.1848885 0.5132809 -0.8380687 
-44 120.5 500 0.3395367 0.351063 -0.8726223 
-51.25 119.625 495.75 0.2874622 0.5636652 -0.7743688 
-47.8 120.3 497.4 0.2562639 0.5495856 -0.7951633 
-44.57143 117.7143 497.5714 0.3798092 0.5635715 -0.7335749 
-45.14286 114.1429 495.1429 0.3707566 0.09794065 -0.9235514 
-41.625 113.625 497 0.1217635 0.1345411 -0.9833984 
-30 111.25 500.1667 0.2296786 -0.06919101 -0.970804 
-38.91667 110.8333 497.1667 0.1934806 -0.2075045 -0.9589094 
-36.5 108.75 498.75 0.3201486 -0.4308279 -0.8437371 
-32.8125 108 500.3125 0.2380485 -0.3651015 -0.9000188 
-36.25 105 501.375 0.0677138 -0.6908318 -0.7198377 
-40 104 503.5 -0.161506 -0.8750457 -0.4563014 
-66.5 104 506 -0.09194294 -0.8659742 -0.4915642 
-35.875 102.75 503.875 0.01889478 -0.8714797 -0.4900673 
-69 103 507.5 -0.02990606 -0.8384346 -0.5441811 
-66 101.3333 510 0.0223632 -0.9113508 -0.4110228 
-75.14286 101 513.4286 0.008361848 -0.9061554 -0.4228622 
50.7 99.3 528.1 -0.01275374 -0.7863828 -0.617608 
83.75 98.25 530.75 0.004364346 -0.8277918 -0.5610185 
81 97 532 -0.09125528 -0.7994356 -0.5937806 
84.09091 96.09091 533.9091 0.0009207428 -0.8937504 -0.4485636 
87 95 536 0.002548434 -0.6974044 -0.7166733 
84 92.9 537.3 -0.03116086 -0.67682 -0.7354888 
81.5 92 539 0.1611775 -0.4501407 -0.8782911 
84.25 90.5 539 0.1259317 0.2045764 -0.9707161 
81 90 538 -0.1843646 0.05031978 -0.981569 
75 88 540 -0.1717479 0.6359845 -0.7523473 
77.75 87 537.25 -0.1769894 0.8278033 -0.5323687 
72 85 533.25 -0.09055521 0.851873 -0.5158607 
68.75 83.75 531.75 -0.04637022 0.8265887 -0.5608931 
57 80.8 528.8 0.00142152 0.718067 -0.6959726 
60.25 79 527 -0.05064917 0.6825784 -0.7290552 
57.25 77.25 526 -0.07753856 0.5539221 -0.8289499 
91 73 515 -0.101124 0.8426551 -0.5288728 
87.25 74 517 -0.1027063 0.7987784 -0.5927939 
68.875 74.5 522.25 -0.1093192 0.733533 -0.6708045 
87 71 512.6667 -0.1750565 0.9004792 -0.398111 
86 70 509 -0.2192291 0.9583938 -0.1828109 
83 70 512 -0.1186788 0.9340196 -0.3369315 
69.1 71.8 518.9 -0.117574 0.7794458 -0.6153379 
12 2.2 554.6 -0.2374173 -0.7668796 -0.5962623 
12 -0.5 557.5 -0.2313804 -0.7424664 -0.6286548 
14.85714 -2.428571 558.8571 -0.1447072 -0.7091792 -0.6900178 
11.85714 -3.285714 560.7143 -0.2295762 -0.738213 -0.6342999 
8.5 -4 563 -0.2107053 -0.7767906 -0.593464 
12 -5.833333 564.3333 -0.1780993 -0.867107 -0.4651948 
3.076923 -5.923077 567.1539 -0.06253675 -0.5137333 -0.8556678 
11.875 -8.875 567.625 -0.02573339 -0.4518156 -0.8917402 
12.6 -12.2 569 0.5566685 -0.08957016 -0.8258919 
9 -12 568 0.1406334 0.06961486 -0.9876113 
14.5 -15 570.8333 0.7015705 0.2031721 -0.6830227 
-3.2 -15.4 564.2 -0.009784274 0.9430505 -0.3325058 
3 -16 559 0.04725305 0.9754112 -0.2152674 
-0.25 -16 561.5 0.006862535 0.9898867 -0.1416942 
6 -17 558.3333 0.1303367 0.9517286 -0.2778941 
27 -19 579 -0.03108515 -0.7914461 -0.6104481 
17 -19 571 0.710768 0.656488 -0.2526508 
3 -17.66667 554.6667 0.09799906 0.9287102 -0.3576223 
15 -18.33333 566.3333 0.6361203 0.7307899 -0.2475825 
20 -22 571 0.7331836 0.6195246 -0.2804123 
20.5 -24.5 567.5 0.8074077 0.5414126 -0.2344467 
23.5 -26.5 574 0.8506822 0.484936 -0.2029208 
-48 -57.5 652 -0.173933 -0.8395433 -0.5146983 
-47.75 -60.25 655.75 -0.2778246 -0.8050088 -0.5241891 
-44.33333 -62.33333 655.3333 -0.5343141 -0.6921036 -0.4852846 
-47.75 -62.25 658.25 -0.1928943 -0.8054553 -0.560387 
-51 -63 661 -0.1817134 -0.800168 -0.5715866 
-49 -65 662 -0.2946196 -0.7644919 -0.5733686 
43 -52 627 0.7875031 -0.2854351 -0.5462286 
26 -43 555.5 0.9101304 0.3491708 -0.2230303 
72 -41.5 613 -0.06173304 -0.8827181 -0.4658303 
23.66667 -36 558 0.9144014 0.2948262 -0.2773946 
72 -40 610 -0.02444945 -0.8842378 -0.4663966 
22 -35 554 0.9187903 0.2542785 -0.3019387 
75 -39 608 -0.05288692 -0.7987968 -0.5992718 
69.25 -36.25 604.25 -0.1558309 -0.8741264 -0.4600214 
23 -33 556 0.8892372 0.3367592 -0.3095972 
9 5 549 -0.1159531 -0.9017411 -0.4164348 
17 5 545 -0.2601499 -0.8985429 -0.3534724 
15.25 6.75 543.25 -0.2384811 -0.8570082 -0.4567974 
-3 10 541 -0.004753226 -0.8991009 -0.4377156 
33.5 10 529 -0.1743563 -0.8798802 -0.4420529 
3 11 536.5 -0.2008753 -0.9154899 -0.3486081 
39.2 11.6 524.8 -0.1489649 -0.861537 -0.485349 
0 12.5 534 -0.05527374 -0.9006128 -0.4310935 
147 13 585 0.630714 0.7189961 -0.2919667 
149 13 590 0.6438632 0.7133116 -0.2768153 
36.33333 13 523 -0.09322758 -0.8825457 -0.4608923 
144 14 581 -0.8019863 -0.5657713 0.1916266 
0 14 531 -0.05088523 -0.9134872 -0.403673 
33 14 521.6667 -0.09982905 -0.9475533 -0.3036067 
35.75 14 519 -0.0650546 -0.9590245 -0.2757535 
33 17.28572 513 -0.21977 -0.9005977 -0.3750001 
41.75 17.5 510.25 -0.08472731 -0.9322181 -0.3518389 
39.25 19 508 -0.06254048 -0.8767776 -0.4768119 
48.33333 19 505 -0.09976611 -0.8712172 -0.480653 
41 20 506 -0.1295979 -0.928364 -0.3483457 
45 20 503.6667 -0.1138932 -0.9153426 -0.3862334 
47.8 20.4 501.2 -0.1383088 -0.9229953 -0.3590965 
151 24 600 0.9244307 -0.1861929 -0.3328063 
51 21.5 498.5 -0.09001689 -0.8662848 -0.4913731 
48 23 497 -0.09418038 -0.9096456 -0.4045676 
45 23.5 495.5 -0.07900131 -0.9185652 -0.3872942 
65.875 23.5 492.375 -0.05967344 -0.9170575 -0.3942649 
151 28 597 0.8566434 -0.3451011 -0.3834938 
63.125 25 489.5 -0.01553686 -0.8933663 -0.4490604 
66 26 488 -0.05346538 -0.8838385 -0.4647268 
57.27273 27.63636 485.9091 -0.08669437 -0.8777445 -0.4712206 
60 28 484 -0.1280282 -0.8996926 -0.4173272 
60 30.18182 479.7273 -0.09116942 -0.8862401 -0.4541659 
59.875 32 476.5 -0.1192858 -0.8584188 -0.498887 
62.875 32.875 474.125 -0.05859021 -0.9169802 -0.3946069 
65.8 34 471.2 0.001408324 -0.8642095 -0.5031302 
170 42 591 -0.2995772 -0.5667573 -0.7674893 
59.5 35 473 -0.1900495 -0.8277696 -0.5279003 
56.875 36.25 470.75 -0.1472408 -0.5233786 -0.8392825 
147.5 45.5 570.5 0.8927909 -0.3036985 -0.3327038 
150.5 47.5 576.5 0.8501238 -0.3815489 -0.3629187 
45.54546 42 477.2727 -0.4252273 0.5477956 -0.7204872 
59 40 470 -0.5684798 0.04312098 -0.8215664 
176.75 50.5 583.25 -0.01898127 -0.9120425 -0.4096562 
53.77778 42.22222 473.3333 -0.388406 0.4950727 -0.7772025 
60.5 41 469 -0.4137666 0.4694288 -0.7800217 
151 51.5 574.5 0.8139051 -0.3584473 -0.4572461 
44.76923 44.69231 480.2308 -0.3879004 0.5123364 -0.7661884 
48.4 44.2 477.6 -0.4038908 0.5640367 -0.7202325 
52 44 475 -0.377362 0.5856489 -0.7173655 
51 47 478 -0.368609 0.5142046 -0.7744166 
13 53 505 -0.1490261 0.9225785 -0.3558654 
51.15385 51.07692 480.4615 -0.384486 0.495359 -0.7789673 
54.66667 50 478 -0.4033132 0.4341235 -0.8055279 
-2 147.5 527 0.8471888 0.2166367 -0.4851184 
-2 144 524.3333 0.853722 0.2501156 -0.4567285 
0.25 143.75 528 0.8526166 0.2466398 -0.4606667 
-2.5 141.1667 522 0.9052935 0.141361 -0.4005755 
-3.3 138.2 519 0.8964478 0.006077483 -0.4431076 
-1 137 523 0.8342724 0.0700589 -0.5468832 
150 137 578 0.1935803 -0.9808752 0.02026571 
32 128 547 0.1360188 0.9257459 -0.3528363 
20 125 532 0.1884931 0.8938619 -0.4067937 
18 124 530 0.2691818 0.8449155 -0.4622326 
40 128 551 0.09072913 0.9422145 -0.3224903 
36.5 127 546.5 0.09739761 0.9245018 -0.3685245 
33.5 126 542.5 0.1449766 0.9310233 -0.334929 
30.33333 126 539.3333 0.1734486 0.9300088 -0.3240359 
28 125 536 0.1576753 0.891382 -0.4249432 
165 135.75 588.75 -0.4866523 -0.8657911 -0.1165134 
21 122.3333 528 0.2842726 0.8828163 -0.3739314 
25 121 527 0.1602352 0.9011961 -0.4027037 
21.5 120.5 524.5 0.1827156 0.8659027 -0.4656475 
31 118 525 0.2184353 0.85142 -0.4768333 
168 132.25 589.75 -0.9769793 -0.04807351 -0.2078473 
23.71428 117.1429 519 0.2567751 0.7998953 -0.5424334 
167 127 583 -0.9642988 0.1852896 0.1891973 
42.25 111.5 518.5 0.3050074 0.7750769 -0.5533773 
24 111 513.5833 0.03655781 0.2565531 -0.9658386 
21.25 109 514 0.1286189 -0.6214874 -0.7727941 
152.6 123 590 0.3185439 0.1655947 -0.9333318 
23.9 107.6 516.1 -0.02369585 -0.9016163 -0.4318872 
162 119 584 -0.2662291 0.8925245 -0.3640358 
156 120 588.6667 0.04686317 0.8687847 -0.4929676 
153 120 586.6667 0.1131635 0.8860809 -0.449505 
28 106 517 -0.08237931 -0.8876209 -0.4531477 
153 118 582.6667 0.0964912 0.927659 -0.360747 
156 117 579 -0.153336 0.9622126 -0.2250222 
36 105 518.7778 -0.111884 -0.9209539 -0.3732639 
33 104.5 521.5 -0.06556407 -0.8349029 -0.5464783 
-29.5 100 508 0.01223064 -0.8605914 -0.5091491 
35.85714 103 522.5714 -0.08400952 -0.8097695 -0.5807028 
-32.85714 99.42857 510.5714 -0.001200773 -0.8414715 -0.5403003 
39 101.3333 525.3333 0.09869118 -0.779713 -0.6183104 
-36.3 99 513 -0.03754153 -0.9348707 -0.352998 
167.5 104 554 -0.00254822 -0.9998943 -0.01431601 
-38.75 98 515 -0.04346505 -0.8424021 -0.5370935 
-36 96.5 516.8333 -0.02572843 -0.8331558 -0.5524396 
173 103 563 -0.4478925 -0.855958 0.2583179 
170.75 102.25 561 -0.2375322 -0.9440857 0.2286496 
164.3333 102.1667 555 0.4745244 -0.6864058 -0.551066 
-45 95.72727 518.9091 -0.07139758 -0.8973182 -0.4355715 
167.6667 102 558.1667 0.399255 0.3147583 -0.861117 
-41.75 95 521 -0.01729584 -0.8766826 -0.4807583 
-42.18182 92.72727 524.9091 -0.1142324 -0.8507827 -0.5129521 
-45 92 527 -0.06882193 -0.8334025 -0.5483649 
-42 90.66666 527.8889 0.02481321 -0.8633278 -0.5040331 
-15.25 89 531 -0.0108375 -0.8343699 -0.5510983 
-18.2 87.6 531.6 0.1211526 -0.7642806 -0.6334013 
-21 86 533.5 -0.01390828 -0.7226188 -0.6911068 
-17.85714 84.57143 535 0.004785385 -0.4973325 -0.8675469 
-27 83.33334 536.1111 -0.03054715 -0.2885593 -0.9569746 
-17.75 81.5 536 -0.01777596 0.08631457 -0.9961094 
-23.85714 77.42857 535 -0.169979 0.3304008 -0.9284086 
-33.09091 75.18182 534.7273 -0.02423478 0.5070212 -0.8615929 
-30 73 533 -0.0988236 0.5912246 -0.8004295 
-32.75 71.25 532 -0.1026309 0.4774166 -0.8726628 
-35.83333 69 531.5833 -0.0833401 0.3049392 -0.9487184 
-114.1429 4 543.1429 -0.01066244 -0.9256511 -0.378228 
-117 3 546 0.02167535 -0.9283251 -0.3711371 
-120 2 548 0.1074471 -0.8660988 -0.4881886 
-122.8571 0.5714286 549 0.1502041 -0.8694251 -0.4706791 
-81.2 -0.6 555.2 -0.13091 -0.8528343 -0.5055058 
-120.1429 -0.4285714 551.8571 0.07992759 -0.8757761 -0.4760545 
-87 -2.5 558 0.04121964 -0.8464429 -0.5308818 
-78.33334 -3.666667 561.1667 -0.05894556 -0.8857884 -0.4603306 
-77.8 -5.4 564 -0.01045359 -0.9313842 -0.3638877 
-98.6 -6.8 566.6 0.007045464 -0.8909119 -0.4541217 
-80.77778 -8.777778 570.5555 -0.02440185 -0.8323038 -0.5537823 
-84 -10 573 -0.01236564 -0.8290198 -0.5590825 
-87 -11 574 -0.0008100024 -0.8410622 -0.5409379 
-84.14286 -12.57143 577.1429 -0.01799584 -0.89872 -0.4381537 
-72.14286 -14.42857 579.7143 -0.008674189 -0.8354036 -0.5495685 
-75 -16 582.6667 -0.03053527 -0.894408 -0.4462083 
-71.5 -17 584 -0.04668862 -0.9101941 -0.411542 
-68.8 -17.6 585.6 0.05656613 -0.8935857 -0.4453143 
-66 -19 588.3333 0.1066404 -0.8191456 -0.5635852 
-87 -20 590 -0.019553 -0.8376825 -0.5458075 
-89.75 -21 592 -0.007245568 -0.8736974 -0.4864159 
-93 -22 594.3333 -0.06840025 -0.8825715 -0.4651765 
-90 -23 596 -0.007723492 -0.8585769 -0.5126266 
-99 -23.5 598 0.03479458 -0.8765631 -0.4800276 
-96 -25 600.6667 -0.09004648 -0.870368 -0.4840984 
-93 -26 601.3333 -0.08939725 -0.8725247 -0.4803217 
-66 -55 648 -0.03183366 -0.8317159 -0.5542882 
-63 -56 650 0.05743323 -0.8543497 -0.5165153 
-35 -51.5 555.5 -0.9894112 -0.0132429 -0.144534 
-98 -58 613 0.7093972 0.6973858 0.1020224 
-35 -55 558 1 0 0 
-68.5 -54 647 -0.1147132 -0.7676221 -0.6305531 
-66 -52 645 -0.01511594 -0.7873098 -0.6163724 
-74.75 -50.25 643 -0.06223922 -0.8716101 -0.4862326 
-35 -44 561 -0.9708404 0.2287082 -0.0718445 
-69 -49 640 -0.1052589 -0.8691384 -0.4832382 
-60 -48 637 0.07262842 -0.848556 -0.5240972 
-60.25 -45.75 634.5 -0.007847318 -0.8305572 -0.556878 
-57.33333 -44 630.3333 0.02527294 -0.8910268 -0.4532468 
-51.25 -42.75 628 -0.1030365 -0.8842821 -0.4554434 
-87 5.428571 543.1429 0.03419884 -0.9164645 -0.3986518 
-89.83334 6.333333 540 0.09302622 -0.8935766 -0.4391663 
-90.16666 8.5 536.5 0.04386285 -0.8524991 -0.5208851 
-99.14286 9.714286 534.1429 0.1225999 -0.8776144 -0.4634246 
-93 11.5 531.3333 -0.1375696 -0.8297964 -0.5408444 
-63.125 14.5 527.875 0.06367151 -0.8884242 -0.454586 
-177 17.66667 634.3333 -0.3063233 -0.9346269 -0.1806613 
-60.14286 15.57143 525 0.01513144 -0.893195 -0.4494148 
-179 19 632 -0.3049731 -0.8682417 -0.3913409 
-71.92308 18.15385 522.1539 -0.1619246 -0.3100263 -0.9368374 
-179.5 21.5 628 -0.5360903 -0.6903114 -0.4858781 
-74.66666 20.16667 523 -0.3206947 0.3372223 -0.8851192 
-170 24.5 622 -0.8079407 0.3306731 -0.4877367 
-56 21.66667 517 -0.4794638 0.07252659 -0.8745596 
-173 26 627 -0.1315409 -0.2001698 -0.9708909 
-171.125 27.125 625.75 0.1181269 -0.0644142 -0.9909071 
-168 26.66667 622 -0.5490891 0.7201064 -0.4242029 
-74.66666 23.66667 525.8333 -0.4083214 0.4365554 -0.8016814 
-66 24.30769 522.0769 -0.3274949 0.4738559 -0.8174398 
-164 28 620 -0.469474 0.842488 -0.2642124 
-163 28 617 -0.4357291 0.8686249 -0.2358623 
-160 28 613 -0.4097885 0.8850799 -0.2206966 
-176.7 30.1 621.5 0.2148558 -0.4208752 -0.8813065 
-173.2857 29.71428 624.2857 0.5181684 -0.3477974 -0.7813696 
-75.09091 27.09091 527.7273 -0.4066415 0.3266411 -0.8531988 
-71.77778 26.44444 525.6667 -0.3290474 0.5037638 -0.7987177 
-173.9091 32.90909 621.8182 0.5229815 -0.5125721 -0.6809995 
-167.3333 32.33333 627 0.3810751 -0.2585236 -0.887664 
-133 29 570 -0.2306811 0.9345863 -0.2708037 
-78.66666 28 530 -0.3494897 0.2805606 -0.8939478 
-77 30 529 -0.4225802 0.2423744 -0.8733159 
-182.75 35.75 622.25 -0.6684097 -0.3477277 -0.657506 
-174 36 619.1111 0.3710441 -0.5574811 -0.7426581 
-128 33 577 -0.4115255 0.8713089 -0.2673346 
-126 33 575 -0.4144227 0.8629688 -0.2890307 
-11.75 30 498.8333 -0.3968986 -0.06069211 -0.9158536 
-176 37 617 0.05921118 -0.4995099 -0.8642823 
-174.125 39.125 616.375 0.3506949 -0.4583706 -0.8166453 
-73 34 530 -0.360136 0.2581101 -0.8964827 
-185 41 625 -0.8356528 0.1743545 -0.5208501 
-173.8 43 613.6 -0.08347002 -0.7401002 -0.6672964 
-5.5 35 499 -0.3131273 0.6451661 -0.6969305 
-176.4286 45 613.7143 -0.4861008 -0.2406903 -0.8401037 
-12.16667 36.66667 503.3333 -0.267144 0.5486456 -0.7922261 
-14.5 38 505 -0.3847739 0.5228363 -0.7606519 
-173.5 46 611 -0.3224489 -0.5474203 -0.7722421 
-128 52 559 -0.147358 -0.9719824 -0.1831278 
-54 52 530 -0.1305877 0.5072011 -0.8518766 
-51 54 530.1111 -0.2822083 0.3721691 -0.8842221 
-11.875 53.875 522.25 -0.2151808 0.7007822 -0.6801482 
-47.81818 57.09091 530.0909 -0.2718664 0.3040118 -0.9130529 
-6.142857 57.28571 524.4286 -0.0948087 0.4689658 -0.878113 
-45 59.75 530.1667 -0.1905145 0.1872635 -0.9636579 
-14.625 59.875 526 -0.263245 0.318646 -0.9105859 
-41.75 63 530 -0.03744494 0.2478218 -0.9680818 
-15.25 62.8125 527.5625 -0.1595487 0.3891564 -0.9072495 
-12 62 526 -0.1547676 0.4918047 -0.8568402 
-39 66 531.25 -0.05393896 0.3124147 -0.9484132 
-17.75 65.25 529 -0.02007014 0.4318947 -0.9017008 
-22 145 495.6667 0.241914 -0.7812757 -0.5754008 
-87 148 515 0.1782638 0.8444742 -0.5050597 
-19 144.25 498.5 0.6180237 -0.4245613 -0.6616603 
-26 142 499 0.01831833 -0.8661597 -0.4994317 
-27.66667 143 500 -0.2302549 -0.8776948 -0.4202791 
-83.75 146.5 513.25 0.1549733 0.8765169 -0.4557425 
-81 143 507.6667 0.185975 0.8257755 -0.5324548 
-18.3 141.5 501.2 0.2437671 -0.6766078 -0.6948233 
-77.75 143.5 509.5 0.1828295 0.8286335 -0.5290936 
-20.75 140 503.5 0.02555902 -0.8520939 -0.5227645 
-18.2 139 505 0.07475854 -0.8250253 -0.560129 
-47.5 124 500 0.2386121 0.6537709 -0.7180863 
-45.6 122.6 499 0.3909586 0.4231585 -0.8173667 
-42 119 499 0.1237769 0.5718151 -0.8109912 
-47.81818 117.2727 494.8182 0.4278493 0.3730305 -0.823282 
-51 111.25 493 0.2660488 -0.376892 -0.8872263 
-33.6 111.4 499 0.3534317 -0.08616806 -0.9314833 
-30 105.875 502 0.1792151 -0.5970637 -0.7819188 
-32.83333 104 503.5 0.1472174 -0.76183 -0.6308265 
-72 104 506 -0.00282316 -0.8640957 -0.5033197 
-30 103 505 0.1243014 -0.7704365 -0.6252815 
-75.125 103 507.5 0.02371067 -0.8844861 -0.4659636 
-72.14286 102 509.8571 -0.05691713 -0.9245983 -0.3766676 
-70 101 512 -0.08350798 -0.9180334 -0.3876093 
44.66667 99.33334 528.6667 0.100413 -0.79728 -0.595199 
89.66666 98.5 530.3333 -0.08338958 -0.8049282 -0.5874835 
87 97 532 -0.01361291 -0.8115295 -0.5841529 
90.16666 96 533.9167 -0.1617976 -0.8466377 -0.5069776 
81 95 536 -0.02374263 -0.7103437 -0.7034544 
90 93.07692 536.9231 -0.1438313 -0.4739278 -0.8687376 
86.5 92 539 -0.1611427 -0.2036787 -0.9656852 
87.42857 89.85714 537.5714 -0.3693836 0.1224403 -0.9211754 
69 88 539.6667 0.1472752 0.6639711 -0.7331115 
76 86 535 -0.05172661 0.9209195 -0.3863053 
71.85714 86.57143 537.1429 -0.03252866 0.8971829 -0.4404598 
77.5 85 533 -0.1033443 0.8257612 -0.5544713 
75.25 83 530.75 -0.1267694 0.8153136 -0.564972 
71.5 82 530 -0.05466331 0.7809628 -0.6221809 
62.875 80.5 528.5 -0.01196305 0.7059891 -0.7081217 
66.5 79 527 -0.01816223 0.6968585 -0.7169787 
63.14286 77.57143 525.5714 -0.02201391 0.6790903 -0.7337247 
74.66666 75.66666 521.6667 -0.2290622 0.7054522 -0.6707219 
77.85714 74.57143 519.5714 -0.119199 0.703312 -0.7008166 
90 71 509.3333 -0.1883746 0.9579527 -0.2164294 
83.83334 72.66666 516 -0.1546337 0.8309859 -0.5343695 
75 72.66666 518.5 -0.2114506 0.7460178 -0.6314635 
81 71 513.5 -0.1380205 0.8852074 -0.4442503 
83.5 69 506.5 -0.1867264 0.960528 -0.2062021 
81 69.33334 510 -0.09991003 0.9337599 -0.3436721 
15 0.5 555 -0.2461128 -0.7836006 -0.5704373 
17 -1 557 -0.1819503 -0.7878221 -0.5884135 
18 -4 560 -0.09934338 -0.7914991 -0.6030424 
-1 -4 566 -0.09680882 -0.7007305 -0.7068274 
15 -5 562 -0.09645557 -0.8245655 -0.5574837 
17.875 -6.375 563.75 -0.1179389 -0.8442552 -0.5228035 
-2.8 -5.9 567.5 -0.1844993 -0.4319312 -0.8828338 
18.2 -8.4 567.2 -0.1683285 -0.8361154 -0.5220888 
15.2 -9.6 569.4 0.2108702 -0.5277471 -0.8228102 
18.125 -11.5 570.625 -0.02237333 -0.7631293 -0.6458585 
17.66667 -14.66667 574.3333 0.4054247 -0.4789738 -0.7785981 
11.8 -15.2 567.6 0.4278395 0.5964307 -0.6791346 
3.4 -15.2 564.6 -0.002416367 0.8699124 -0.4932003 
6 -16 560.6667 0.1182747 0.9634281 -0.2404525 
-3.5 -16 559 -0.01826078 0.9860045 -0.1657161 
18.66667 -17.33333 576.3333 0.8056987 -0.00539634 -0.592301 
-3 -17 556 0.003969797 0.9422467 -0.3348963 
22 -19 579 0.5377064 -0.305697 -0.7857616 
21.28572 -20.85714 577 0.8000858 0.3405856 -0.493826 
22 -23.5 574 0.8252839 0.5234761 -0.2118471 
23.33333 -24.33333 577.6667 0.8548396 0.4663773 -0.2274678 
22 -26 569 0.8356097 0.5093578 -0.205697 
26 -31 574 0.8566044 0.4734382 -0.2051469 
24.66667 -30 570.6667 0.8405625 0.5089103 -0.1856477 
-44.33333 -59.66667 652.3333 -0.5517809 -0.6672006 -0.5003811 
-51 -61 657 -0.1077133 -0.8200179 -0.5621108 
-46 -64 660 -0.4420818 -0.649094 -0.6190645 
-43 -67 660 -0.7364739 -0.4679338 -0.4885122 
27 -42 561 0.9305173 0.3079435 -0.1982638 
24.33333 -39 555 0.8951536 0.3796987 -0.2335141 
26.66667 -39.33333 564.3333 0.9350182 0.2117985 -0.2843983 
77.66666 -42.5 613.1667 -0.1823715 -0.8540111 -0.4872431 
75 -41 611 -0.1442442 -0.8559165 -0.4965889 
77.5 -40 609 -0.131607 -0.7576584 -0.6392443 
69 -39 608 -0.0424689 -0.7819643 -0.6218747 
75 -36 603 -0.004885757 -0.8949322 -0.4461757 
24 -32.5 561.5 0.8865581 0.3672451 -0.2813289 
14 5 548 -0.1726106 -0.9092877 -0.378684 
11.75 6 546 -0.08068707 -0.9006976 -0.4268881 
9 7 544 -0.1066707 -0.8770354 -0.4684339 
12 8 542 -0.09205443 -0.8505439 -0.5177848 
3 10 540.5 -0.1573417 -0.9306622 -0.3303202 
39.14286 9.571428 527.8571 -0.1596281 -0.8852658 -0.4368334 
0 11 539 -0.07955583 -0.9609444 -0.2650603 
6 10 537 -0.1342809 -0.9364399 -0.3241128 
-3.5 11.33333 537 -0.03926475 -0.9504011 -0.3085386 
6 11.5 534.1667 -0.1090386 -0.8823497 -0.4577876 
36 11 527.3333 -0.1505255 -0.8544993 -0.4971649 
146 12 581 0.6753712 0.6929898 -0.2522677 
32.85714 12.42857 525.1429 -0.1296426 -0.8967565 -0.4231084 
42.2 12.8 522 -0.2108661 -0.8909445 -0.4021859 
3.5 13 532 -0.1078149 -0.8748858 -0.4721768 
152 15 600 0.7725587 0.5057172 -0.3839312 
6 14 530 -0.07295808 -0.8943453 -0.4413883 
39 14 521 -0.06288482 -0.9599652 -0.2729696 
42 14 519 -0.1774112 -0.9064784 -0.3831739 
145 16 587 0.9187527 0.2567859 -0.2999241 
151 18 601.75 0.9084951 0.1004115 -0.4056527 
21 17 518.6667 -0.1856175 -0.8462451 -0.499415 
38.75 17 512.75 -0.006340426 -0.9266087 -0.3759738 
35.8 18.2 510 -0.1037108 -0.8936423 -0.4366319 
150 21.5 598 0.9020159 -0.1948276 -0.3852395 
54 19 505 -0.07261664 -0.8526708 -0.5173773 
35.6 20.2 506.4 -0.1292538 -0.8899091 -0.4374416 
51 20 503 -0.01384994 -0.9528919 -0.3029939 
54.2 20 501 -0.08396829 -0.9396899 -0.3315604 
149 23 595 0.9165554 -0.2309843 -0.3264543 
46 22 499 -0.1222401 -0.8951936 -0.4285858 
51.33333 23 495.1667 -0.08341709 -0.9054657 -0.4161413 
60 24.33333 491.6667 -0.05872959 -0.925238 -0.3748142 
56.75 25 490 -0.090331 -0.9159601 -0.39097 
60 26 488 -0.04347692 -0.8445214 -0.5337541 
63.125 27.125 485.875 -0.08264803 -0.9354082 -0.3437744 
66.25 27.5 483.5 -0.09608896 -0.9058153 -0.4126325 
65.90909 29.63636 480.0909 -0.05306572 -0.875192 -0.4808566 
63.25 31 477.75 -0.05519164 -0.8618432 -0.504163 
66 32 476 -0.01866529 -0.8762944 -0.4814143 
57.14286 33.57143 474.4286 -0.04423157 -0.8182338 -0.5731816 
165.1818 41.90909 592.4545 -0.2082166 -0.4245415 -0.8811415 
60.5 34 472 -0.2776898 -0.8467584 -0.4537495 
147 42 573 0.9075588 -0.2833007 -0.3099643 
62.75 35 470 -0.1312698 -0.8113442 -0.5696393 
149 43 578 0.8882866 -0.3187765 -0.3306489 
168 44 591 -0.2749489 -0.6918398 -0.6676532 
176.75 48.25 586.5 0.246499 -0.8737719 -0.4192386 
146 47 566 0.8980747 -0.265254 -0.3508593 
179 49 589 0.2997833 -0.8123748 -0.5001772 
49 41.33333 475 -0.4338832 0.5016444 -0.7483972 
179 50 585 0.07130161 -0.9122598 -0.4033587 
66 42.25 467.25 -0.2905273 0.5198646 -0.8033273 
50 43 476 -0.3833757 0.588591 -0.7117471 
53.5 45.875 476.625 -0.3416565 0.6034849 -0.7204699 
64 44 469 -0.400151 0.538629 -0.7414567 
48 47.76923 480.0769 -0.4204664 0.4910119 -0.7629648 
17.5 53 503.5 -0.2893305 0.9068341 -0.3064964 
-21.0625 146.75 494.875 0.6034459 -0.511443 -0.6117834 
-18.63636 146.9091 498 0.7224911 -0.218284 -0.6560173 
-20.90909 144 497.9091 0.326702 -0.7731851 -0.5435538 
-83.5 148 515 0.1571181 0.8535122 -0.4968207 
-87 147.5 513.5 0.140005 0.8631301 -0.4851856 
-23 143 500 0.1696906 -0.7766995 -0.6065831 
-80.8 144.6 510.2 0.194004 0.8592128 -0.4734089 
-20.9 141.3 501.1 0.1322514 -0.7010312 -0.7007602 
-17.85714 140.2857 503.5714 0.1374088 -0.7892118 -0.5985513 
-20.75 139 505 0.02064175 -0.8705937 -0.4915695 
-44.9 119.9 498.6 0.3824101 0.3824907 -0.8411085 
-50.5 117.5 494.25 0.1646999 0.5231915 -0.8361487 
-47.54546 113.6364 494.1818 0.4464561 -0.03024856 -0.8942941 
-49 112 493 0.3185148 -0.1673815 -0.933023 
-35.91667 107.75 500 0.254162 -0.5187641 -0.8162632 
-33.07692 105.5385 502 0.1383648 -0.6139635 -0.7771127 
-29.58333 104.4167 503.5 0.1236496 -0.7069266 -0.6963948 
-75 104 506 0.02075119 -0.9044754 -0.4260208 
-33.4 103 504.2 0.09687242 -0.8116649 -0.5760346 
-71.875 103 507.5 -0.0009786901 -0.8806406 -0.4737839 
-74.85714 102 510.1429 0.027751 -0.9449204 -0.3261218 
-65 101 512 0.03239503 -0.9236583 -0.3818454 
48.14286 99.57143 528.2857 -0.03008845 -0.7836164 -0.6205159 
87.11111 98.55556 530.4445 0.0002796371 -0.8313295 -0.5557798 
89.75 97 532 -0.1180055 -0.8110826 -0.5729046 
86.9 95.9 534.1 -0.006232732 -0.8934602 -0.4490991 
84 95 536 -0.04281862 -0.7016369 -0.711247 
87 93.1 536.9 -0.1193175 -0.45917 -0.880299 
86.33334 90.66666 539 -0.4196286 0.1654144 -0.8924964 
89.9375 90.25 537.75 -0.1973231 0.3005753 -0.9331228 
72.25 88 540 -0.003125862 0.7109798 -0.7032055 
78.25 86 534.75 -0.1244726 0.9120091 -0.3908274 
69.14286 86.42857 537.4286 0.06478509 0.7832232 -0.6183562 
75 85 533 -0.0268166 0.8137961 -0.5805315 
78 83.5 531 -0.1403041 0.8469558 -0.5128163 
69.33334 82 530 -0.02388524 0.7563716 -0.6537061 
66.14286 80.42857 528.2857 -0.026631 0.7187611 -0.694747 
62.8 79 527 -0.01502453 0.7052365 -0.708813 
78 76 521 -0.166057 0.6870427 -0.7073878 
69.25 76 524 -0.08014237 0.7168505 -0.6926058 
65.81818 77.81818 525.6364 -0.04041774 0.6880949 -0.7244942 
85 74 517 -0.19449 0.7976797 -0.5708596 
75.4 74.2 519.8 -0.2190031 0.6969458 -0.6828647 
78 73 518 -0.1359417 0.745333 -0.6526858 
91 71 508 -0.122336 0.9516854 -0.2816536 
88 71 511 -0.1794133 0.952521 -0.2459973 
85 71.5 513.5 -0.1687233 0.8576726 -0.4857264 
81.33334 72.33334 516.1667 -0.1946878 0.818993 -0.5397659 
84.33334 70 510.6667 -0.1801625 0.9427029 -0.2808072 
82 69 508 -0.1968753 0.9618536 -0.1899413 
14 2 554 -0.2482623 -0.777557 -0.5777292 
18 -0.1666667 554.8333 -0.2375599 -0.8070814 -0.5405414 
14.75 -1 557.5 -0.1469826 -0.7736346 -0.6163486 
12.5 -2 559 -0.2215212 -0.7019458 -0.676905 
14.6 -3.8 560 -0.1435685 -0.7264957 -0.672006 
-3 -4 566 -0.1132684 -0.6752281 -0.7288603 
18.25 -5.25 562 -0.08262592 -0.8292834 -0.5526862 
15.18182 -6.272727 563.9091 -0.09214038 -0.863662 -0.4955786 
0 -6 567.25 -0.03860323 -0.3171781 -0.94758 
-4 -6.5 569 -0.3192708 -0.3903074 -0.8635545 
15 -8.2 567.2 0.006700688 -0.7423398 -0.6699901 
17.66667 -9.666667 569.3333 -0.08571193 -0.7112005 -0.6977445 
15 -12 570.4445 0.2615234 -0.2718491 -0.9261229 
12.66667 -14.33333 569.3333 0.5331979 0.3633813 -0.7639725 
9 -14.5 567 0.1028614 0.6138489 -0.7826935 
18.66667 -15.66667 576 0.5626572 -0.3885471 -0.7296904 
16 -15 573 0.7945058 -0.004883103 -0.607237 
5.8 -15.6 563.8 0.09181668 0.9537032 -0.2863913 
13 -17 566 0.6058953 0.7057213 -0.367217 
3.25 -16 561.5 0.05626579 0.9808188 -0.1866243 
0.5 -16 559 0.03316833 0.9825363 -0.1830911 
0 -17 556 0.02759022 0.9415891 -0.3356321 
24 -19 579.3333 0.1385341 -0.5919212 -0.7940011 
17.8 -18.2 573.8 0.7888291 0.3931106 -0.4724538 
22 -23 577 0.8436253 0.4616648 -0.274157 
20.33333 -21.33333 574 0.7779801 0.5760413 -0.2508456 
23 -25 575 0.8404311 0.5026517 -0.2025266 
22 -27 567 0.8173498 0.5427041 -0.1934211 
23.33333 -27.66667 570.6667 0.8400263 0.5032106 -0.2028176 
26.33333 -30 577 0.8359739 0.5021355 -0.2213763 
-45.5 -58 651.5 -0.3994706 -0.7364394 -0.5459673 
-45.66667 -60.66667 654.6667 -0.5160788 -0.6226546 -0.588187 
-48.5 -61 657 -0.2133033 -0.7993396 -0.5617453 
-43 -61 652 -0.6393666 -0.5789541 -0.5059866 
-45.2 -63.2 658.2 -0.5104446 -0.7285437 -0.4568046 
-43 -65 658 -0.5810217 -0.6615162 -0.4741414 
-44.75 -66 661 -0.5909179 -0.6073328 -0.5310018 
28 -42.5 564.5 0.9307079 0.2660401 -0.2510088 
25 -41 554.5 0.903012 0.3532147 -0.2445582 
26 -39 561 0.9030825 0.3269725 -0.2784438 
25 -38.5 558 0.8903501 0.3818064 -0.2479931 
75 -42 613.3333 -0.1265676 -0.8457198 -0.5184001 
78.25 -41.25 610.25 -0.1457816 -0.8221326 -0.5503142 
24.75 -36.25 560.75 0.8915523 0.3076599 -0.3323851 
75 -40 610 -0.1199579 -0.8694801 -0.4791811 
72 -39 608 -0.001448901 -0.8030541 -0.5959045 
75 -37 606 -0.001522591 -0.8519278 -0.5236571 
78 -36.57143 604.1429 -0.0663822 -0.8828036 -0.4650283 
25 -33.5 563.5 0.878508 0.3700527 -0.3021336 
24 -30 567 0.8361044 0.5192322 -0.1769958 
9 6.4 545.8 -0.07643622 -0.907613 -0.4127908 
11.75 7 544 -0.09964646 -0.8755972 -0.4726523 
9.25 8 542.75 -0.1115691 -0.8648831 -0.4894178 
6 10 539.3333 -0.1415775 -0.9578962 -0.2497815 
42 9.5 527.5 -0.1633192 -0.8792515 -0.4474861 
-3.25 11 539 -0.02576467 -0.9526356 -0.3030207 
3.5 10 538 -0.1754404 -0.9772898 -0.1188501 
0 11 537 -0.09881864 -0.9531233 -0.285991 
33 11 528 -0.183076 -0.871269 -0.4553827 
2.666667 12.33333 534 -0.1225355 -0.8848452 -0.449482 
36 12.2 524.8 -0.111294 -0.8977563 -0.4262008 
154 14 599 0.7725587 0.5057172 -0.3839312 
6 13 531.6667 -0.08751751 -0.8641059 -0.4956428 
39 13 522.6667 -0.1052119 -0.8712061 -0.4795107 
2.75 14 530.5 -0.06656359 -0.9147323 -0.3985399 
39.2 14 518.8 -0.01942991 -0.9450146 -0.3264504 
23.33333 17 518 -0.1617408 -0.8382506 -0.5207453 
42 17 513 -0.06507188 -0.9389238 -0.3379167 
151 20 601 0.9345827 0.09789751 -0.3420107 
33 18.5 510 -0.1522444 -0.8935868 -0.4222846 
36 19 508 -0.1051381 -0.8759227 -0.4708561 
51.25 19 505 -0.03870959 -0.8466257 -0.5307791 
33.14286 20.57143 506.5714 -0.1030067 -0.90035 -0.4227995 
54 20 503 -0.0760379 -0.9572791 -0.278989 
50.75 20 501 -0.0589316 -0.9480296 -0.3126771 
48.33333 21.66667 498.6667 -0.1220397 -0.8198565 -0.5594119 
150 26 596 0.9115463 -0.2462669 -0.329296 
50.5 23 497 -0.09176514 -0.9075453 -0.4098058 
54.125 23 494.875 -0.1147049 -0.9023661 -0.4154254 
57.125 24.5 491.875 -0.06118181 -0.9212769 -0.3840647 
60 25 489.3333 -0.04147742 -0.9114341 -0.4093502 
56.75 26 488.25 -0.08118542 -0.8620135 -0.5003417 
65.85714 26.57143 486.4286 -0.06105718 -0.9263075 -0.3717881 
63.2 27.8 483.2 -0.116914 -0.9008078 -0.4181822 
63.1 29.7 479.9 -0.07673027 -0.8777357 -0.4729614 
66.25 31 477 -0.05301115 -0.8624705 -0.5033234 
62.8 32 476.2 -0.073987 -0.8590038 -0.5065948 
60.11111 33.44444 474.2222 -0.1702233 -0.8465374 -0.5043794 
168 42 591.5555 -0.3174586 -0.3613012 -0.8767449 
148 41 576 0.8745849 -0.2953736 -0.3845201 
66 35 470 -0.007431084 -0.8292944 -0.5587627 
164.3333 44.33333 591 -0.09758791 -0.6855495 -0.7214559 
149.5 45 577 0.8939086 -0.2955831 -0.3369839 
178 48 589 0.4782239 -0.7919959 -0.3795317 
148 48 571 0.886963 -0.2739123 -0.3718451 
178 50 585 0.07130161 -0.9122598 -0.4033587 
63.1875 42.0625 468.4375 -0.3969658 0.4998505 -0.7697842 
66.5 41.5 465.75 -0.2588148 0.2260284 -0.9391091 
149.3333 50.66667 570.3333 0.8696983 -0.30511 -0.3879857 
51 45.15385 477.0769 -0.3824821 0.5763381 -0.7221785 
148 52 567 0.9122119 -0.2235755 -0.3433417 
66.25 44.5 468.75 -0.3068846 0.5762445 -0.7574722 
46 47.5 481 -0.4932303 0.4713147 -0.7311541 
49 50 481 -0.4061862 0.4970795 -0.7667625 
16 53 505 -0.1879544 0.9392655 -0.2871472 
19 53 501.5 -0.3221924 0.854978 -0.406454 
-15.375 156.125 506.75 0.7972607 0.2593224 -0.5450938 
-12.5 155.5 509.75 0.8587064 0.2799853 -0.4292222 
-22 147.75 492.5 0.6049709 -0.3825601 -0.6983252 
-11.25 153.25 512.25 0.8955352 0.1779121 -0.4078774 
-95.66666 147 507 0.2258107 0.8787023 -0.420585 
-89.33334 147.3333 512.6667 0.2670248 0.8792855 -0.3944046 
-15.5 141.0833 504.0833 0.5806528 -0.5566557 -0.5941185 
-33.125 123.25 503.875 0.3137928 0.7802337 -0.5410817 
-29.75 121 503 0.2681819 0.6834671 -0.6789339 
-32.83333 120 501.3333 0.2278165 0.2854227 -0.9309315 
-51.14286 116.1429 493 0.2595215 0.3596571 -0.8962675 
-35.75 117.375 500.25 0.2998622 0.3876959 -0.8716505 
-49 114 493 0.2260224 -0.09355593 -0.9696191 
-47.64286 110.8571 494.3571 0.3746211 -0.2610194 -0.8896785 
-50.85714 108.4286 495.1429 -0.06257765 -0.7510734 -0.6572465 
-48.2 107 497.4 0.02098714 -0.8038268 -0.5944931 
-45.5 106 498.5 0.1461991 -0.8537436 -0.4997478 
-48.25 105.25 501.125 -0.07687595 -0.9269044 -0.3673395 
-51.2 104.2 504.2 -0.05338348 -0.8879234 -0.4568832 
-57.25 103 507.5 -0.01190599 -0.9193013 -0.3933746 
-54.125 102 510.125 -0.05175864 -0.9064292 -0.4191746 
-62.5 101 512 0.06348577 -0.8985702 -0.434213 
62.85714 99.42857 528.5714 0.02432337 -0.7264993 -0.6867366 
71.77778 98.55556 531.2222 0.01459767 -0.8527378 -0.5221353 
69 98 533 0.008124206 -0.82216 -0.5691985 
69 97 532 0.04877823 -0.8020548 -0.5952553 
72 96.46154 533.9231 0.02832213 -0.8088045 -0.5873953 
75 95 536 -0.003251173 -0.7349619 -0.6781006 
72 93.5 537.5 -0.0170118 -0.7955261 -0.6056805 
69 92.5 539.3333 0.1761828 -0.6381841 -0.7494537 
72 90 540.8889 -0.02271812 -0.1044156 -0.9942743 
89.75 88 536.25 -0.06420325 0.6782956 -0.7319789 
84 85 533 -0.05228504 0.848421 -0.5267334 
81 86.33334 534.3333 -0.05370475 0.8523457 -0.5202141 
81 84 530.75 -0.1048128 0.9148731 -0.3898993 
45 80.5 529 -0.1051949 0.5671155 -0.8168929 
81 76 521 -0.134795 0.6701981 -0.7298389 
48.1 78 527.3 -0.1450462 0.5262353 -0.8378771 
84.1 75 518.9 -0.185443 0.7477646 -0.6375414 
80 73 518 -0.1532993 0.765829 -0.6245041 
78.125 71.5 516 -0.2071167 0.8609509 -0.4646141 
78.66666 68 507 -0.2095885 0.9535502 -0.2163672 
75.5 69 511 -0.2335234 0.9193784 -0.3165599 
69.16666 69.33334 516 -0.1425192 0.8142542 -0.5627418 
74.5 67 507 -0.162671 0.9387223 -0.3038728 
72 68.66666 513.6667 -0.2283534 0.9011353 -0.368524 
0 3.5 555 0.005699775 -0.9279976 -0.3725426 
-3 2 558 -0.004923819 -0.8443782 -0.5357249 
0 1 559 -0.01517305 -0.8201573 -0.5719369 
3.25 -0.5 560.75 -0.2183516 -0.7112527 -0.6681634 
-3 -2.5 564.5 -0.08327169 -0.7578738 -0.6470651 
14 -7 566 -0.05530505 -0.7887982 -0.6121592 
0 -9 568 -0.1517033 -0.09805061 -0.9835508 
-3.6 -8.8 569 -0.3247279 0.01387391 -0.9457058 
-3 -12 568 -0.1392147 0.261289 -0.9551688 
6 -14.2 566.8 0.09484925 0.693131 -0.7145441 
9 -16 564.3333 0.2218263 0.9151638 -0.3365535 
12 -17 564.3333 0.4545471 0.8483229 -0.2715422 
10 -17 560 0.2460073 0.9257672 -0.2871158 
21.5 -27.25 564 0.8168104 0.5411009 -0.200076 
22 -29.5 560.5 0.8320422 0.4844719 -0.2701718 
-45 -67 663 -0.5664799 -0.6094844 -0.5546434 
30 -42.5 571 0.9373847 0.2038547 -0.2824064 
28 -42 567 0.925145 0.2236737 -0.3067196 
75 -43 615 -0.1471457 -0.8222009 -0.549849 
84.2 -42.6 612.6 -0.05328794 -0.8117227 -0.581607 
81 -41.5 610 -0.054935 -0.8390093 -0.5413369 
86.8 -38.6 607.2 -0.08629392 -0.8217087 -0.5633367 
90 -38 604.6667 -0.1218219 -0.896342 -0.4262986 
29 -35.5 577.5 0.9338825 0.3129671 -0.1729602 
81.2 -36.6 604 -0.008853002 -0.8555211 -0.5176922 
28 -35 574 0.888674 0.4242637 -0.1739513 
25 -32 566 0.8614002 0.4536199 -0.2285139 
28 -33 576 0.8758249 0.4260448 -0.2267523 
23.33333 -30 563.6667 0.8408015 0.491306 -0.2273131 
0 5 551 0.01231663 -0.8874086 -0.4608192 
-3 6 549 0.02113699 -0.9125826 -0.4083458 
6 6.5 546.1667 -0.1905202 -0.8705913 -0.4536221 
3 8 545 -0.1108196 -0.8780983 -0.46547 
6 8.5 542.6667 -0.1786679 -0.8803298 -0.4394283 
9.25 9.5 540 -0.1045133 -0.9329447 -0.3445161 
12 10 537 -0.05500687 -0.9718348 -0.2291538 
15.25 10 535 -0.1014873 -0.9638798 -0.2462437 
11.75 11.25 533.5 -0.1760262 -0.8929483 -0.4143165 
30.2 11.6 527.8 -0.1972723 -0.8810583 -0.4299069 
9 13 531.25 -0.1384059 -0.879333 -0.4556505 
27 13 526 -0.1319311 -0.8839391 -0.4486044 
150 14.5 597.5 0.6693125 0.6366882 -0.3829477 
29 14 524 -0.1150051 -0.9427539 -0.313032 
21 15 522 -0.1642559 -0.9323992 -0.3219499 
24.2 15.8 519 -0.1609874 -0.8520926 -0.4980173 
38.875 15.5 516 0.03382195 -0.8991557 -0.43632 
145 17.5 588 0.8927783 -0.01471471 -0.4502558 
43 16 514 -0.1029609 -0.9132974 -0.3940647 
24 17.8 516 -0.1082186 -0.9403315 -0.3225917 
145 20 586 0.9405254 -0.1666977 -0.2960132 
21.25 18.5 513 -0.1110793 -0.9263889 -0.3598126 
30.4 18.8 510 -0.1228172 -0.8988482 -0.4206993 
60.125 18.5 504 -0.08453812 -0.8824512 -0.4627452 
26.75 20 509 -0.1186803 -0.8826719 -0.4547587 
30 20.5 507.5 -0.1000842 -0.9144291 -0.3921768 
59.85714 20 501.1429 -0.07156091 -0.8964463 -0.4373361 
66.5 19 499 -0.1214866 -0.8764842 -0.4658504 
146 23 587 0.9012191 -0.2326429 -0.3656246 
63 20.83333 498.3333 -0.2370952 -0.8766931 -0.418563 
66.33334 22 495 -0.118899 -0.8533976 -0.5075191 
147 26 588 0.9064248 -0.2653532 -0.3286057 
57 23 494.5 -0.03203999 -0.8902897 -0.4542662 
53.875 24.5 492.5 -0.01397195 -0.9295145 -0.3685209 
145 28 580 0.9093327 -0.2472242 -0.3346556 
50.5 26 491 -0.1761207 -0.9050035 -0.3872342 
52 25 490 -0.1658048 -0.8840583 -0.436978 
54 26.5 488.5 -0.06624021 -0.8158221 -0.5744967 
45.14286 28 486.1429 -0.02345565 -0.8453727 -0.5336619 
86.75 28 481 -0.07981025 -0.832094 -0.5488625 
145 33 574 0.8895072 -0.3219584 -0.3242218 
48 30.57143 480.4286 -0.1075986 -0.8927508 -0.4375141 
164.75 38 595 0.01867709 -0.861551 -0.5073273 
145 37 572 0.8937328 -0.2916667 -0.3408404 
44.6 32.2 479.4 -0.1879057 -0.8414248 -0.5066516 
48 33 476.875 -0.06346275 -0.8580062 -0.5097038 
167 40 593 -0.03766618 -0.6040289 -0.7960718 
51.25 34 474.75 -0.1109849 -0.8295351 -0.5473153 
48 35.75 473.5 -0.2584085 -0.3643423 -0.8946953 
169 43 590 -0.3095555 -0.709542 -0.6330289 
144 42 564 0.8968322 -0.292697 -0.3316934 
165.1 45.5 589.1 -0.2333115 -0.839972 -0.489911 
65.77778 36.22222 468.2222 -0.06688807 -0.8032941 -0.5918147 
168.5 45.75 587 -0.1449563 -0.7032582 -0.6959997 
45.5 38.5 475 -0.3401146 0.4162051 -0.8432648 
63.14286 38.92857 467.1429 -0.3968804 0.03590282 -0.9171679 
66.07143 39.14286 465.8571 -0.2900107 0.08108532 -0.9535822 
171 47.5 586 -0.05267926 -0.6349698 -0.7707388 
168.6667 49 584 -0.1272124 -0.6589254 -0.7413733 
174 50 585 0.1210914 -0.7164652 -0.6870331 
164.8333 51.33333 582.6667 -0.03847107 -0.858454 -0.5114457 
168.5 52 580.5 0.02179026 -0.7790624 -0.6265677 
62.25 43 470 -0.4085841 0.5941296 -0.6928702 
-3.285714 48.42857 506.2857 -0.3478367 0.6274631 -0.6966345 
65.4 45.6 470.2 -0.3733521 0.5721186 -0.7302662 
-3 50.6 510.4 -0.2487044 0.8961985 -0.3673888 
1 50 508 -0.2347908 0.869876 -0.4338076 
60.17647 48.11765 474.4706 -0.4530395 0.4008557 -0.7962851 
-12.75 152.75 507.75 0.823517 0.2148027 -0.5250521 
-14 151 506 0.8029901 0.1428783 -0.5786127 
-26.92308 147.1538 492.4615 -0.1847871 -0.5659162 -0.8034878 
-9.2 153 515.8 0.8696755 0.2648072 -0.4165834 
-11.66667 149.8333 510.1667 0.9084819 0.07189944 -0.411693 
-9.75 149.75 513.25 0.8488446 0.2207371 -0.4803519 
-93 148 510.6667 0.226473 0.8737351 -0.4304613 
-14.63636 147.0909 503.9091 0.8864563 0.06961849 -0.4575461 
-89 146 508 0.2808787 0.8751714 -0.3939317 
-15.55556 143.8889 501.5555 0.7196356 -0.2607075 -0.6435497 
-38.5 124 503 0.1556859 0.775746 -0.6115391 
-36.4 122.6 501.6 0.1641915 0.6320708 -0.7573161 
-39.14286 120.1429 500 0.1623302 0.3765308 -0.9120709 
-39.27273 116.9091 498.2727 0.2762506 0.4323364 -0.8583536 
-30 117 501.0833 0.1292447 0.2489562 -0.9598524 
-32.33333 114 500 0.2643284 0.1589398 -0.9512458 
-36 114 498.125 0.3776956 0.258787 -0.8890306 
-42.625 111.375 496 0.1046867 0.01614951 -0.9943741 
-45 108.5 496 0.280408 -0.5151741 -0.809918 
-42 108 497.6 0.1971862 -0.4925215 -0.8476675 
-41.75 105.3333 500.8333 0.0958339 -0.8357899 -0.5406212 
-45 104 504.1667 -0.05590346 -0.9148151 -0.3999852 
-41 103 505 -0.1340855 -0.90299 -0.4082036 
-62.85714 103 506.7143 -0.04937169 -0.8903617 -0.4525689 
-59.875 102 510.375 0.06362955 -0.9028242 -0.4252762 
-56.75 101 512 -0.008997013 -0.8516617 -0.5240148 
56.85714 99.42857 528.5714 -0.01133297 -0.8240547 -0.5663969 
78 98.5 531.25 -0.1377577 -0.8302231 -0.5401412 
78.16666 96.5 534.0833 -0.110176 -0.8471095 -0.5198719 
69 95 536 0.1459346 -0.7321477 -0.6653291 
78 93.11111 537.5555 -0.168704 -0.5664039 -0.8066757 
75 92.2 539.2 -0.1230827 -0.6209961 -0.7740895 
78 90 539.4167 -0.271833 -0.303558 -0.9132137 
83.75 88 537.25 -0.01060781 0.693064 -0.720798 
87 87 535 -0.04923054 0.7890077 -0.6124077 
87 85 532 -0.01582651 0.8902991 -0.4551012 
50.875 80.5 528.5 -0.01976348 0.5962747 -0.8025371 
54.2 78.6 527 -0.03198719 0.6063875 -0.7945257 
90.2 75.6 518.6 -0.06745367 0.710978 -0.6999718 
51 77 526 -0.07528812 0.5158958 -0.8533365 
73 71 517 -0.2146611 0.8004175 -0.5596896 
77.75 70 512.75 -0.1995431 0.9118918 -0.3586584 
74.33334 70 515.3333 -0.2306561 0.8264536 -0.5135876 
70 67 508 -0.1500635 0.9583226 -0.2431024 
6 3 555 -0.1182525 -0.9114141 -0.3941327 
3.25 2 558 -0.1037107 -0.8068538 -0.5815763 
6.142857 0.2857143 558.5714 -0.2434365 -0.7135473 -0.6569543 
-3.125 -0.125 561.125 -0.01496507 -0.8357291 -0.5489379 
6.25 -2.25 561.5 -0.2336236 -0.7571638 -0.6100188 
3.181818 -3.090909 564.0909 -0.1875794 -0.7573914 -0.6254377 
6.5 -5 565 -0.1915952 -0.8150584 -0.5467826 
9 -6.5 567.3333 -0.1127342 -0.6498317 -0.7516714 
5.75 -9 568 0.09069031 -0.06956309 -0.9934466 
3 -12 567.2222 -0.01852141 0.1540667 -0.9878868 
