ply
format ascii 1.0
comment VCGLIB generated
element vertex 955
property float x
property float y
property float z
property float nx
property float ny
property float nz
element face 0
property list uchar int vertex_indices
end_header
-164 25 581 0.9633592 -0.01926685 0.2675216 
-98 22.42857 513 0.001344061 -0.925063 -0.3798116 
-187 28 610 -0.8467312 -0.1374705 -0.5139534 
-184.5 28 606.5 -0.6470509 -0.2668037 -0.7142416 
-94 23 511 -0.03753655 -0.8785894 -0.4761004 
-92 24.57143 509.5714 -0.04144563 -0.8905941 -0.4529067 
-187 30.66667 611 -0.883068 0.09104314 -0.4603281 
-71.14286 25.14286 507 0.03156933 -0.9105214 -0.412255 
-183 31 605 -0.7858008 -0.01938987 -0.6181756 
-176 30.5 599.5 -0.1869719 -0.6989381 -0.6903093 
-169.3333 31 594.3333 -0.5596346 -0.6378104 -0.5291569 
-74.25 26 505 -0.02843154 -0.8754021 -0.4825586 
-190.5 33.5 618 -0.876094 0.2445536 -0.415515 
-71 27 503 -0.0006373906 -0.8836407 -0.4681653 
-80 28 501 0.03236677 -0.9496049 -0.3117739 
-188 35 614 -0.8254568 0.251414 -0.5053832 
-186 35 612 -0.8266424 0.3361657 -0.4512816 
-77.25 29 498.75 0.06890784 -0.8789317 -0.4719436 
-74 30.2 497.6 -0.04096786 -0.849184 -0.5265058 
-180 38 602 -0.8239633 0.1919284 -0.5331491 
-161 37 572.6667 -0.9108117 0.09946463 -0.4006606 
-64.85714 31.42857 494.5714 0.1669238 -0.7522379 -0.6373968 
-178 40 600 -0.8089612 0.2121617 -0.548242 
-69 32 493 0.1082333 -0.7837894 -0.6115224 
-65.2 34.06667 492.4667 0.382857 0.01320288 -0.9237133 
-161.5 47 576.5 -0.8824916 0.2279746 -0.4113833 
-163 47.5 579.5 -0.8787277 0.2234083 -0.4218133 
-185 56.33333 591.3333 -0.3401236 -0.8707104 -0.3552174 
-50 50 504.7778 0.1831007 0.05108266 -0.9817661 
-188 58.5 590 -0.3838207 -0.8869751 -0.2568205 
-185 58 588 -0.2690735 -0.8941965 -0.3577879 
-85.8125 49.75 492.1875 0.2860262 0.4767142 -0.8312236 
-181.9 59 584.8 0.1598191 -0.8552021 -0.4930388 
-90 49 490 0.358476 0.4543591 -0.8155077 
-82.66666 50.66667 494 0.2464815 0.5022182 -0.828869 
-47.25 52.75 505 0.1146283 -0.05998585 -0.9915957 
-176.25 61.25 581.5 -0.1225931 -0.8787293 -0.4613088 
-93 52 490 0.2819028 0.4825487 -0.8292633 
-86.11111 53.33333 494 0.2134006 0.4482345 -0.8680703 
-179 62.5 578.5 -0.1508599 -0.892973 -0.4240761 
-56 55 503 0.1051146 -0.4374849 -0.893061 
-182.5 64 578 -0.1729606 -0.8118162 -0.5577089 
-179 64.5 575.8333 -0.09110088 -0.8626935 -0.4974541 
-92.66666 55.5 493 0.2509785 0.5398031 -0.8035064 
-89.25 56 494.5 0.2554949 0.4430006 -0.8593444 
-51 58.75 502 0.4745481 0.008897923 -0.8801846 
112 74 642 0.8044054 0.4709857 -0.3620835 
-187.75 66 573.5 0.05190321 -0.919713 -0.3891454 
-92 58.2 495 0.1719969 0.7326123 -0.6585562 
-182 68.28571 570.2857 -0.117878 -0.8882033 -0.4440719 
-52 60 503 0.5536886 0.1704014 -0.8151026 
112 77.5 645.5 0.874382 0.2744634 -0.4001575 
115 79.5 651 0.6864074 -0.5707235 -0.4506878 
-196 69 568 -0.198447 -0.8470715 -0.4930402 
-71.16666 61.33333 494 0.02557715 -0.7758483 -0.6304009 
113 80 649 0.7910025 -0.4372334 -0.427951 
-200 71.2 567.2 -0.3166223 -0.8293582 -0.4603426 
-73.875 62.5 491.875 0.2026811 -0.6969887 -0.6878425 
-197 72 564.4286 -0.1294674 -0.7355767 -0.664955 
-77 63 489.8 0.07025342 -0.7252966 -0.6848427 
-71.11111 65.05556 491.8889 0.2529581 0.1518411 -0.9554877 
-184.8333 73.5 560.6667 -0.1310996 -0.8650532 -0.4842476 
-79.77778 65.22222 488.8889 -0.494472 -0.4071603 -0.767931 
-190 94 527 0.2126409 -0.7480973 -0.6285971 
-196.4 92.8 525.4 -0.578389 -0.4472142 -0.6822504 
-193.875 92 528.375 0.09153043 -0.9312263 -0.3527604 
-191 91.5 530.5 0.1682364 -0.8034658 -0.5710861 
-190 82 541 -0.7832888 -0.1214797 -0.6096731 
-191.5 80 543.5 -0.8869701 -0.2405964 -0.3942047 
-98.25 0 557 0.04421359 -0.8652585 -0.4993724 
-113.1429 0.4285714 555.1429 -0.06642539 -0.8478594 -0.5260437 
-137 -1 559 0.02096836 -0.8716167 -0.4897394 
-130.5 -3 563 0.008676526 -0.8416803 -0.5399065 
-139.8 -2.4 561.6 -0.04601318 -0.8632661 -0.5026475 
-134 -4.571429 564.5714 0.03053636 -0.860359 -0.508773 
-131 -5.777778 567.2222 0.01071743 -0.904201 -0.4269727 
-152 -6 569 0.01426825 -0.9538013 -0.3000991 
-143 -7 571 -0.1053048 -0.8433223 -0.5269899 
-145.8333 -7.833333 573 -0.08291379 -0.8525897 -0.5159614 
-149 -9 575 0.00127141 -0.8718345 -0.4897988 
-152 -10 577 -0.002308049 -0.8855659 -0.4645081 
-176 -12 599 -0.9425023 0.03167273 -0.3326958 
-148.75 -11.25 579.25 -0.07637912 -0.8526317 -0.5168999 
-148.8 -13.4 582.2 -0.0729325 -0.8370721 -0.5422095 
-152.3333 -14.5 584.8333 0.03385568 -0.8307822 -0.555567 
-148.5 -16 586 -0.01185166 -0.8186041 -0.5742359 
-145.8333 -17.16667 588 -0.02730835 -0.8520127 -0.5228083 
-151.75 -19.25 591.75 -0.06685483 -0.8386202 -0.5405982 
-170 -34.5 617.8333 0.00511205 -0.8536265 -0.5208606 
-58.25 -53.25 543.25 -0.8541475 0.2048035 -0.4780037 
-46.5 -53.125 531.5 -0.6498848 0.02017193 -0.759765 
-67 -56 542.5 0.984823 0.1710692 0.02930891 
-55 -70 541 -0.3739269 -0.5255744 -0.7641664 
-53 -71.5 543.1667 -0.06960703 -0.7769098 -0.6257524 
-34.83333 -74 539.8333 -0.3991776 -0.7283885 -0.556873 
-37.66667 -73.66666 543.1667 -0.5044109 -0.6987709 -0.5072367 
-34.72727 -76.90909 543.0909 -0.3241781 -0.6974219 -0.639149 
-53.25 -67.83334 539.6667 -0.3113685 -0.387989 -0.8674758 
-56.6 -68.2 542.4 -0.7494346 -0.2423947 -0.616111 
-49 -67 538 -0.3661334 -0.6490655 -0.6668286 
-52.5 -64.875 537.75 -0.4118529 -0.4337115 -0.8014184 
-55 -61.5 538 -0.5821113 -0.1845895 -0.7918795 
-167 -36 620 0.03031359 -0.7336319 -0.6788707 
-116.25 2 553 -0.05093248 -0.8206561 -0.5691481 
-112.6667 3 551 -0.02039291 -0.9093921 -0.4154397 
-110 4 548.8571 0.01775584 -0.9038582 -0.4274638 
-106.75 5 547 -0.01046986 -0.8893296 -0.4571469 
-116.25 6 545.25 -0.01114067 -0.859153 -0.5115975 
-119.3333 7.5 543.1667 -0.07231095 -0.8666098 -0.4937192 
-119.1429 9.571428 539.8571 -0.08044861 -0.9035594 -0.4208426 
-128.1429 10.57143 537.4286 0.03717576 -0.8876418 -0.4590315 
-134 12.57143 533.8571 -0.001713676 -0.859248 -0.5115564 
-125 14 532 0.05298006 -0.839367 -0.5409771 
-128.25 15 530 0.04358405 -0.9464713 -0.3198323 
-125 15.42857 528 0.04967508 -0.9285809 -0.3677905 
-122.25 17 526 -0.03182751 -0.824202 -0.5654008 
-125 18 524.5 0.0437632 -0.8689081 -0.4930349 
-128.0909 19.27273 521.9091 0.049324 -0.8779765 -0.4761561 
-121.8 24.6 510.2 -0.09416186 -0.901196 -0.4230594 
-137 26 508 -0.1093294 -0.9200134 -0.3763275 
-140.2 27.8 506.8 -0.5601631 -0.645395 -0.5193099 
-137 28 504 -0.08684941 -0.9332574 -0.3485511 
-134 29 501.5 -0.01842167 -0.8920594 -0.4515427 
-137 30.2 500.2 -0.1411706 -0.8414259 -0.5216064 
-138 33 497 -0.3010244 -0.8287226 -0.4718086 
-140 34.5 502 -0.9182906 -0.1282686 -0.3745524 
-130.2857 55.71429 483.5714 -0.4250604 0.3697458 -0.8262033 
-127.5 57 485 0.3318882 0.5498869 -0.7664689 
-125.1818 58.90909 486.5454 0.1107732 0.550491 -0.8274594 
-131.5 61 488.5 -0.4129764 0.8536522 -0.3173775 
-190 101 523 -0.260925 -0.592925 -0.7618124 
-193 101 524.5 -0.4657719 -0.5418133 -0.6996392 
-196.8333 100.1667 528.1667 -0.2010374 0.1790671 -0.9630778 
-190.9 98 526 -0.3451442 0.1429626 -0.9275976 
59.2 -1.2 531 -0.09068862 -0.8439674 -0.5286726 
68 -3 533.75 -0.08941716 -0.9283652 -0.3607528 
68 -4.5 537 -0.1388039 -0.8837761 -0.4468483 
70 -6 539 -0.1431758 -0.8469639 -0.5120085 
68.33334 -7 540.6667 -0.1731309 -0.8551403 -0.4886317 
64.85714 -7.571429 543.1429 -0.0712235 -0.883423 -0.4631319 
82.66666 -11.66667 545.8333 -0.08719055 -0.9261683 -0.3668925 
89.25 -13.25 549 -0.05289101 -0.9181062 -0.3927894 
95.75 -16.25 552.25 -0.2154008 -0.8462522 -0.4872985 
76.8 -16.6 558.4 -0.2074661 -0.868363 -0.4504481 
98 -18 555 -0.1968998 -0.8628826 -0.465472 
80 -18 560 -0.1226254 -0.8709551 -0.4758154 
86.5 -19 559 -0.1392164 -0.8899665 -0.434256 
83 -19 561 -0.1773543 -0.8680905 -0.4636426 
80 -20.14286 563.8571 -0.1040042 -0.8862373 -0.4514053 
77 -21 566 -0.1444523 -0.8773143 -0.4576606 
80 -22 567.6667 -0.1438857 -0.8921133 -0.4282884 
86.2 -26.6 576.2 -0.0197278 -0.9169664 -0.3984763 
82 -27 578 -0.140532 -0.9113508 -0.3868987 
86 -28 579 -0.09411805 -0.8817407 -0.4622502 
88.5 -29.75 581.75 -0.262097 -0.8612512 -0.4353754 
97 -33 581 -0.7940642 -0.1291184 -0.5939618 
89.25 -34 588.25 -0.3936071 -0.7771999 -0.4909518 
-2 -73 544 0.8017408 -0.241581 -0.546672 
-7.125 -73.875 537.125 0.626949 -0.3998504 -0.6686216 
-12.8 -85.2 543.8 0.1632092 -0.7193398 -0.6752133 
-6.875 -80.125 543.125 0.5936972 -0.5785806 -0.5592569 
91 -36 590 -0.458438 -0.730845 -0.505668 
95.5 -34.75 582.5 -0.8319219 0.2335657 -0.5033419 
97 1.5 526 0.3870937 0.08023445 -0.9185429 
94.71429 3.142857 526 0.2288992 0.3705528 -0.9001643 
93 5 527 0.3082813 0.3629228 -0.8793461 
91 6 526 0.3673582 0.474259 -0.8000789 
95 7 528.4445 0.2917779 0.4717835 -0.8320373 
98.2 7.6 530 0.2801078 0.5265163 -0.8026957 
95.21429 9.857142 530.6429 0.2709578 0.4890337 -0.8291128 
78 14 527 0.3383655 0.5783389 -0.742316 
96 14 533 0.2811569 0.606944 -0.7433504 
80 15.41667 528.6667 0.2911988 0.4952963 -0.8184649 
97.85714 15.57143 534.5714 0.2035089 0.6425803 -0.7386979 
96 17 536 0.354762 0.5924199 -0.7233137 
85.25 18.5 532 0.3749903 0.4314902 -0.8204867 
89 19 534.2222 0.3234928 0.5618687 -0.7613514 
92.5 20 536 0.2608249 0.6727027 -0.6924171 
82 21 532 0.2470069 0.6192802 -0.7453052 
89 22 536.7143 0.3366895 0.7662743 -0.547233 
97 21 541 0.376318 0.8380007 -0.3951451 
95 22.5 543 0.2916092 0.910197 -0.2941183 
38 40.5 546 0.4099947 0.825595 -0.3876819 
29.75 44 545 0.3783487 0.4882257 -0.78644 
38.375 47.375 551.5 0.5847256 0.2117602 -0.7831051 
31.71428 46.85714 546.7143 0.5140278 0.2432242 -0.8225676 
26.25 52.66667 546.5 0.4545844 0.384456 -0.8034592 
19.92308 59.07692 546 0.5238358 0.3594162 -0.7722799 
14.75 65.75 545 0.5150547 0.3931706 -0.7616663 
-194 100.625 527.75 -0.3949601 -0.09625194 -0.9136422 
-192 99 527 -0.3933056 -0.1082017 -0.9130187 
98.28571 0.8571429 527 0.3714121 0.01832971 -0.9282872 
89 0.9090909 524.7273 0.03726429 -0.5149055 -0.8564367 
56 -1 531.3333 -0.1852854 -0.8018619 -0.5680553 
71 -3 533 0.005319125 -0.942265 -0.334826 
74 -4 535 0.01228194 -0.8255756 -0.5641578 
71.28571 -5.428571 537.2857 -0.08362075 -0.8597843 -0.5037644 
67.75 -6 539.75 -0.1769894 -0.8655292 -0.4685445 
71 -7 540 -0.1214645 -0.8637033 -0.4891453 
73.8 -8.6 542.4 -0.1311556 -0.8371098 -0.5310795 
80 -11.42857 545.5714 -0.02644401 -0.9311484 -0.3636803 
76.8 -12 548.4 -0.04473851 -0.9073495 -0.4179897 
95 -13 547 -0.1054651 -0.8695213 -0.4825037 
98.14286 -14.42857 548.8571 -0.2165249 -0.8521748 -0.4763562 
88.66666 -14.5 552 -0.06348135 -0.8750991 -0.479762 
89 -16.5 554.8333 -0.02402973 -0.8530123 -0.5213372 
85.75 -17.75 557.5 -0.1932572 -0.8679914 -0.4574302 
82.5 -18 560 -0.1452603 -0.8750411 -0.4617386 
99 -19 556 -0.3289192 -0.8011324 -0.499999 
80 -19 561.6667 -0.1134337 -0.8575977 -0.5016563 
82.85714 -20.57143 564 -0.1390216 -0.8694205 -0.4741107 
86.5 -22 565 -0.09279422 -0.9027207 -0.4201005 
83.14286 -22.42857 567.2857 -0.1267015 -0.8903397 -0.4373121 
83 -25 571 -0.1347637 -0.9097149 -0.3927565 
85.75 -25.25 572.75 0.05255877 -0.9142653 -0.4016922 
76.85714 -25.42857 575.8571 -0.08077676 -0.8960875 -0.4364656 
80 -27 578.6667 -0.1598575 -0.8892934 -0.4284891 
90 -31 583 -0.2805564 -0.8387193 -0.4667313 
91.75 -32.75 584.75 -0.3969246 -0.7334846 -0.5517711 
-3.4 -74.2 542.2 0.8301475 -0.3446256 -0.4382787 
-6 -75 539 0.6903117 -0.498292 -0.5245711 
-5 -76 541 0.7118927 -0.5072835 -0.4856668 
-6 -78 542 0.6909072 -0.4975816 -0.5244616 
-16.2 -85.2 543.4 0.1062569 -0.7651145 -0.6350662 
91.90909 3.636364 525.3636 0.3219487 0.2936168 -0.9000768 
95.5 4.125 527.125 0.2432486 0.4515137 -0.8584669 
92 7.2 527.5 0.3286858 0.4652205 -0.8219097 
89 9.75 528.3333 0.3645239 0.5228471 -0.7705539 
92.125 10.125 530 0.2285808 0.5325866 -0.8149248 
77 12.8 525.5 0.3467406 0.4244865 -0.8364103 
86.09091 12.90909 528.4545 0.3113501 0.5238218 -0.7928883 
83 15 529 0.228329 0.6053884 -0.7624767 
86 15.75 530.8333 0.2966089 0.5027154 -0.8119732 
89.5 17 533 0.2712145 0.5585314 -0.7838912 
77.4 19.4 530 0.3625973 0.4776276 -0.8002468 
95.25 19.125 536.375 0.3753814 0.600257 -0.7062439 
79.6 21.4 532 0.1740873 0.6845526 -0.7078711 
90 23 540 0.3610305 0.855829 -0.3704236 
92.5 23 542.5 0.3101707 0.9000583 -0.3060872 
37 42 547 0.4656538 0.6350232 -0.6163701 
50.3 43.9 557.4 0.4816387 0.4584949 -0.7468645 
35.44444 44.44444 548.1111 0.4536148 0.4388263 -0.7756708 
37.14286 46.42857 550 0.5468594 0.2771516 -0.7900201 
47.33333 47.33333 557.3333 0.5189052 0.4691793 -0.7145685 
50.66667 47.66667 560.3333 0.5306681 0.5142421 -0.6737555 
25 56 547 0.5113042 0.3497564 -0.7850085 
22.75 58.25 547 0.4223701 0.4357983 -0.794785 
26 59 549.3333 0.5029739 0.3906543 -0.7709777 
14.125 68.125 545.75 0.5231516 0.3168274 -0.7911592 
12 71 545 0.5523509 0.03532334 -0.832863 
-191.2 100 527 -0.3933057 -0.1082016 -0.9130187 
-194.1111 98.22222 527.2222 -0.2534313 0.2982913 -0.9202146 
92 1 525.3333 0.13574 -0.32263 -0.9367415 
54 -1 532 -0.1926552 -0.7986957 -0.5700606 
74 -3 534 0.01555449 -0.9308052 -0.3651845 
71 -4 535 -0.02796631 -0.8710358 -0.4904228 
74 -5.5 537.1667 -0.02656031 -0.8369204 -0.5466799 
64.8 -5.6 540.2 -0.08649199 -0.8676493 -0.4895957 
74.33334 -7.333333 540.3333 -0.1270027 -0.8429253 -0.5228264 
71 -8.571428 543.1429 -0.193188 -0.8747872 -0.4443262 
75 -10 544 -0.1662354 -0.850824 -0.498462 
77.2 -11.4 545.8 -0.07097919 -0.9249221 -0.3734716 
80 -12 548.6667 -0.005258698 -0.9237116 -0.3830526 
97.75 -13 546.25 -0.1737205 -0.8433005 -0.5085916 
95.25 -14.25 549.25 -0.1447253 -0.8659778 -0.4786825 
91.75 -15 552.5 -0.1464705 -0.8632786 -0.4830077 
92 -16.42857 554.8571 -0.1083745 -0.875709 -0.4705197 
83.2 -17.4 558 -0.1933579 -0.8684002 -0.4566113 
86 -21 564 -0.1220451 -0.879725 -0.4595529 
86 -22.8 567.6 -0.04141119 -0.9116516 -0.4088723 
83.2 -25.4 572.8 -0.1297388 -0.8981226 -0.4201709 
79.6 -25.8 576 -0.1486156 -0.8965299 -0.41731 
77 -27 579 -0.06286829 -0.8870441 -0.4573841 
80.5 -28 580 -0.1038961 -0.8893653 -0.4452358 
92.16666 -31.33333 582 -0.3305038 -0.8101153 -0.4842316 
89 -31.83333 585 -0.3007073 -0.8168308 -0.4923034 
-4.333333 -74 540.1667 0.8002419 -0.4089527 -0.4386009 
-4.428571 -76.85714 543.2857 0.6992745 -0.4483528 -0.5567721 
-6.8 -77.2 540.2 0.7045566 -0.5106674 -0.4927664 
-19.125 -85.5 543.5 -0.1555032 -0.7293852 -0.6661952 
92 -40 579 -0.7920721 0.6090083 0.04160162 
92.66666 -34.33333 585.6667 -0.627217 -0.5668932 -0.5340701 
89 3.846154 524.4615 0.1591128 0.1170303 -0.9802995 
98.07692 3.846154 527.7692 0.2986723 0.4232471 -0.8553693 
89.5 8 527 0.3668606 0.5817986 -0.7258952 
92 9 528.8 0.266989 0.6005623 -0.7536856 
79 12.5 526 0.3765069 0.4888028 -0.7869653 
83 13 527.6667 0.2237229 0.555465 -0.8008787 
76 15 526 0.3238902 0.5646244 -0.7591406 
92.33334 16.16667 533.3333 0.3047836 0.5001597 -0.8105229 
83 16.09091 530.2727 0.2394438 0.5106581 -0.8257693 
76.5 18.5 528.75 0.3314506 0.4597209 -0.8238916 
80 19 530.3333 0.2652825 0.4494216 -0.8530214 
94 18 535 0.3811357 0.5672335 -0.730056 
97.66666 18.66667 537.6667 0.29706 0.7345204 -0.6101108 
76.77778 21.55556 531.1111 0.3129383 0.645186 -0.6969969 
94 21 538 0.3406641 0.7897701 -0.510109 
92 22.5 540.5 0.2896036 0.8873476 -0.3588092 
51 35 545 0.2708284 0.9072034 -0.3219224 
34.66667 42.77778 546.4445 0.379146 0.6943973 -0.6116051 
37.88889 43.44444 549.2222 0.5260208 0.5050132 -0.684298 
62.6 47.2 569.2 0.5262479 0.5187196 -0.6737902 
35.1 46.9 549.1 0.5038957 0.278169 -0.8177476 
49.66667 46.66667 558.5 0.5475659 0.4611764 -0.6982034 
75 48 581 0.5527843 0.5502438 -0.6258286 
23 56 546 0.458854 0.3943732 -0.7961927 
26.5 56 548.3333 0.5218121 0.3553132 -0.7755415 
23.2 59.6 548.2 0.4224974 0.4384799 -0.7932411 
12 69 545 0.5884275 0.2044381 -0.7822776 
14 71 546.3333 0.4893417 0.03309265 -0.8714641 
-24 163 481 -0.1951065 0.895883 -0.3991579 
-26 159 473 -0.3379562 0.8747246 -0.3473363 
-28 160.5 479 -0.3812025 0.8223403 -0.422423 
-35 165 495 -0.2780393 0.819546 -0.5010373 
-33 160 484 -0.4113906 0.8212695 -0.3953154 
-32.5 158.5 479.5 -0.4058675 0.8353106 -0.3708475 
-38 163 493 -0.09141501 0.8534041 -0.5131713 
-40 162 491 0.04033346 0.8735123 -0.4851283 
-38.66667 161 489.6667 -0.07283108 0.8903685 -0.4493771 
-38.5 159 486 0.07749882 0.9006509 -0.4275768 
-44 155 476 -0.115867 0.8905193 -0.4399435 
-41.33333 154.3333 474.3333 0.1857124 0.9032151 -0.3869283 
-47 151.6667 471 -0.4890624 0.7597765 -0.4284364 
-57 148 472 0.04213812 0.6769356 -0.7348351 
-47.33333 146.3333 464.5 -0.5791261 0.4246755 -0.6958905 
-53.5 147 470.5 -0.1766149 0.7681297 -0.6154542 
-75 142 459 0.545114 -0.7963364 0.2621052 
-75 141 455 0.5486774 -0.7982491 0.2484986 
-55 145 469 -0.3357708 0.452632 -0.8260644 
-81 138 459 0.5707276 -0.7902635 0.2230552 
-83 140.3333 471.3333 0.44592 -0.8798044 0.1646198 
-85 139 469 0.5329161 -0.8241573 0.191743 
-85 138 465 0.5223287 -0.8111423 0.2630987 
-91 134 469 0.5755137 -0.7788829 0.2492496 
-94.33334 134.3333 477.3333 0.4778798 -0.8529167 0.2101524 
-101.5 131.5 486 0.5588097 -0.8189886 0.1303438 
-103.5 130.5 488.5 0.5052404 -0.8372108 0.2093092 
-105 129 485 0.5478083 -0.8234107 0.1479895 
-94.16666 131.5 492.6667 -0.30274 -0.3652544 -0.8803055 
-107 127 482 0.56992 -0.8006788 0.1846742 
-98.06667 131 494.6 -0.05808707 -0.6215338 -0.7812309 
-95.8 128 494.2 -0.5329792 -0.03453195 -0.8454233 
-100 121 496 -0.5207959 0.00519929 -0.8536654 
-82.75 119.25 491 -0.330617 -0.1061245 -0.9377792 
-86.25 116.125 491.6875 -0.3726945 0.02770237 -0.9275405 
-89 113.1 492.5 -0.4022071 0.2244382 -0.8876131 
-92.45454 113.0909 494.3636 -0.4014101 0.236961 -0.8847143 
-91.63636 110.1818 492.8182 -0.4793431 0.1338101 -0.8673667 
-50.5 109 497 -0.1889297 -0.8411848 -0.5066692 
-74.25 108 496 0.08745404 -0.8244466 -0.5591419 
-64.76923 107.2308 498 0.1938742 -0.8632498 -0.4660606 
-68 106 500 0.153674 -0.6816142 -0.7153925 
-65.125 104.75 501.625 0.1357705 -0.6849849 -0.7157949 
-62 103.3333 503.2222 0.2032442 -0.5980619 -0.7752508 
-80 101.0833 494.0833 0.5461695 0.209558 -0.8110391 
-64.85714 101.1429 503.5 0.2557689 -0.1210335 -0.9591315 
-80.85714 98.14286 492.7143 0.6306581 0.1963526 -0.7508102 
-47 100.5 509 -0.008231174 -0.7611764 -0.6484926 
-77.25 97.9375 494.75 0.4902573 0.2842076 -0.8239381 
-50.08333 98.33334 510.1667 0.132544 -0.6193162 -0.7738731 
-47 97 512 0.1034408 -0.6496498 -0.7531635 
5 95.66666 513 -0.04676846 -0.879292 -0.4739814 
14 94 515.8333 0.02787717 -0.8433175 -0.5366922 
11.25 93 517 0.00174829 -0.8153563 -0.578957 
13.8 91.93333 518.8 -0.0234198 -0.8914044 -0.4526033 
-7 91 521.6667 0.008156925 -0.8112484 -0.5846449 
-0.8571429 89.42857 524.7143 -0.01039746 -0.910123 -0.4142079 
-4 88.25 528 0.1948164 -0.9097937 -0.3664995 
-7.5 87 528 0.1493827 -0.8787185 -0.4533637 
-4.111111 86.33334 531.5555 0.1942986 -0.8181314 -0.5412107 
-13 83.25 531.25 0.3420104 -0.1722131 -0.9237812 
-4.071429 82.85714 534.2143 0.2555005 -0.5296932 -0.8087921 
-3.909091 79.90909 536 0.3693886 -0.2737891 -0.8880268 
-7 80.25 534.25 0.369498 -0.237728 -0.8983077 
-10.44444 79.88889 532 0.5086868 0.004631743 -0.8609393 
0 79 539 0.420045 -0.4214385 -0.8037113 
-16.09091 76.81818 528.4545 0.5338247 0.2481125 -0.8083758 
-18 75 527 0.5584051 0.3837275 -0.7354842 
-1.571429 77.14286 537.7143 0.6405537 -0.02696289 -0.7674399 
1 73 538 0.5390497 0.2972489 -0.788079 
56 0 530.3333 -0.1693466 -0.8024827 -0.5721392 
98 -2.1 527.5 0.2492474 -0.5591574 -0.7907078 
95 -3 530.5 -0.07908652 -0.8530352 -0.5158259 
80 -3 533 -0.1022195 -0.9012837 -0.4209974 
77 -4 534.6667 -0.1006684 -0.8743736 -0.4746963 
97.66666 -4.5 531.6667 -0.04709551 -0.7573071 -0.6513587 
80 -6 537 -0.1307915 -0.8144012 -0.5653709 
83 -7 537.6667 -0.07515574 -0.8308618 -0.5513804 
80.16666 -8 539.8333 -0.08541081 -0.8750668 -0.4764066 
76.75 -9 542 -0.08043361 -0.8318433 -0.5491514 
80 -10 543.6667 -0.03373609 -0.8319248 -0.5538619 
71.33334 -10.33333 545.8333 -0.1786684 -0.8764353 -0.447145 
74 -12 549 -0.1233203 -0.9109364 -0.3936839 
64.75 -12 552 -0.05336733 -0.8696319 -0.4908078 
61 -13 553 -0.03669432 -0.8700998 -0.4915079 
59 -13.5 554.875 -0.02759756 -0.9027838 -0.4292085 
68 -15 557.6667 -0.0594401 -0.9009025 -0.4299321 
29.25 -17 570.5 -0.06496478 -0.9164261 -0.3948961 
32.25 -18 573.25 -0.03997111 -0.8873663 -0.4593293 
67.83334 -17 561.3333 -0.1434129 -0.859818 -0.4900467 
34.75 -19 574 -0.1346924 -0.8303274 -0.5407535 
68 -19 565 -0.1078245 -0.8889136 -0.445204 
65.16666 -19.5 567 -0.1389772 -0.9084883 -0.3941249 
32 -19.83333 575.8333 -0.02986859 -0.8610788 -0.5075936 
28 -21 578 -0.01131759 -0.8454964 -0.5338613 
32.25 -22.25 579.75 -0.04119181 -0.8371094 -0.5454823 
74 -25.5 576.1667 -0.1245182 -0.8749161 -0.4679926 
56 -26.5 582 -0.09606495 -0.8404751 -0.5332665 
52.5 -27 584 -0.1160785 -0.880562 -0.4594958 
71.16666 -26.33333 578.8333 -0.1967366 -0.8749518 -0.4424409 
56 -28 585 -0.1488815 -0.8685155 -0.4727739 
59 -30 587.3333 -0.1101404 -0.8784484 -0.4649704 
53 -31 591 -0.07926806 -0.8546585 -0.5131038 
28.8 -56.6 638.8 -0.1374147 -0.8303979 -0.5399597 
31.5 -58 640 -0.07861813 -0.8453687 -0.5283663 
-15.75 -86.75 546 0.07553882 -0.8829776 -0.4632973 
-16 -88 549 0.09950841 -0.9036844 -0.4164765 
-19.5 -91 556 0.01928858 -0.9378309 -0.3465563 
4 -68.5 556 0.9752043 0.09070795 -0.2018627 
31.8 -55.6 636 -0.1557535 -0.8547119 -0.4951852 
35 -55 634 -0.1237485 -0.833065 -0.5391559 
-80 -53.5 641.5 0.07660541 -0.3658493 -0.927516 
31.8 -53.2 632.6 -0.1325214 -0.7549634 -0.6422371 
50 -52 627 -0.09083909 -0.8739108 -0.4775229 
32 -51 629.6667 -0.1732844 -0.8594933 -0.4808781 
47 -51 626.6667 -0.1348764 -0.8700908 -0.4740786 
50.2 -50.4 624.4 -0.1081933 -0.8583225 -0.5015742 
11.33333 -47 618.3333 0.7286389 -0.5483065 -0.4104211 
13.8 -46.8 621.2 0.3542812 -0.7669043 -0.53511 
14.25 -44.75 618 0.3504265 -0.8174655 -0.4571121 
53.25 1.75 528.25 -0.1696677 -0.8582281 -0.4844146 
61.75 2 526 -0.05340905 -0.8382475 -0.542668 
59.28571 3 524.5714 -0.0549681 -0.8659692 -0.4970673 
62.14286 4.571429 521.8571 -0.02139714 -0.7832643 -0.6213205 
52.75 6 521 -0.1134808 -0.7929103 -0.5986782 
50.22222 7.888889 518.7778 -0.0630472 -0.823333 -0.564046 
49.75 10 516.3333 -0.01938633 -0.2463299 -0.9689922 
28.88889 12.88889 515.7778 -0.1349844 -0.7201959 -0.6805124 
70 12.5 523 0.2928312 0.4913645 -0.8202505 
74 13 524.4445 0.2351741 0.4584398 -0.857045 
37.25 13.5 514 0.2371914 -0.1982201 -0.9510252 
35 15.5 514 -0.002098427 0.2395259 -0.9708878 
71.11111 15.77778 525.5555 0.2485931 0.4999483 -0.8296103 
33 17 515 0.1932844 0.3642937 -0.9110056 
34.92308 18.76923 516.2308 0.1401399 0.5161811 -0.8449365 
67.33334 18.83333 526 0.2677214 0.5325233 -0.8029597 
71 19 527.3333 0.2249231 0.4630456 -0.8573204 
38.75 19.5 518 0.3945008 0.5098054 -0.7645048 
73.5 21 529 0.2414588 0.6137718 -0.7516527 
35 22.2 518.4 0.1414804 0.5454251 -0.8261325 
71.4 22.6 530.4 0.2727627 0.6639594 -0.6962459 
116 23 570 0.2409208 0.9557613 -0.1687527 
143.5 27 633 0.2588187 0.8593605 -0.4410356 
133.5 28 618.5 0.7383813 0.5427367 -0.4002875 
140 31 632.75 0.8068094 -0.2239437 -0.5467246 
143 31 635.8571 0.4742881 -0.5353917 -0.6988609 
146 30.33333 638.3333 0.3511845 -0.429957 -0.831749 
35.2 25.8 521.2 0.1464164 0.5346406 -0.8322991 
38 28 522.6667 0.2142121 0.438119 -0.8730207 
140.1429 34.14286 630 0.4213316 -0.5874667 -0.6909144 
145 33 635 -0.1276832 -0.8394778 -0.5281799 
133.75 34.25 624 0.7414945 0.310233 -0.5949299 
29.14286 30.85714 521.8571 0.2838277 0.4211763 -0.8614246 
140 36.75 627.5 -0.4609895 -0.8167356 -0.3470326 
32.25 32 524 0.3530344 0.6371986 -0.6850875 
80.25 34.5 570 0.430871 0.7437016 -0.5111341 
86 35 575 0.3524223 0.7650251 -0.5390132 
92.5 35 581 0.4811271 0.7068896 -0.5184823 
136 39 628 0.2833157 0.5464155 -0.7881385 
31 33 523 0.2941939 0.5730668 -0.764882 
38 33.2 527.8 0.1465944 0.8788599 -0.4539993 
43.75 34.5 534.25 0.306523 0.9100457 -0.279035 
50.5 34 540.5 0.3081957 0.9188471 -0.2464455 
29.2 34.6 524.8 0.2974249 0.8182541 -0.4919336 
134 41 629 0.5913034 0.5842651 -0.5558728 
36 35 531 0.2597634 0.8813058 -0.3947443 
35 36.5 534 0.2324647 0.9137191 -0.3332828 
38 37.5 537 0.2002136 0.9075972 -0.3690284 
86.25 40.75 581.25 0.3794715 0.5720374 -0.7271689 
32 39.75 540 0.1856299 0.9116066 -0.366763 
133.3333 47 636.3333 0.6646175 0.5159512 -0.5404424 
128.5 47.5 629.5 0.7694584 0.4901386 -0.4095095 
30 41 542 0.3437211 0.7815086 -0.5206728 
86 46.66667 588 0.4687788 0.7624086 -0.4460714 
80 46 582.6667 0.3785142 0.7322211 -0.5661973 
78 48 584 0.5024934 0.6993939 -0.50828 
83.5 51 593.5 0.4958851 0.634397 -0.5929911 
86.5 51 596 0.4369493 0.4992304 -0.7482274 
84 53 596 0.5315289 -0.167511 -0.8303115 
17 50 540.0833 0.5249916 0.2618102 -0.8098391 
20.28572 50.14286 542.1429 0.4334488 0.3834111 -0.8155478 
18 53.66667 542.3333 0.5325965 0.3336536 -0.777828 
112 65 626 0.4684255 0.8198034 -0.3293934 
98.5 64.5 593 0.7676546 0.4428233 -0.4632644 
111 72 637 0.765288 0.5641018 -0.3100379 
97.5 71 600 0.8450118 0.4815885 -0.2324385 
8.125 65.125 539.625 0.4748835 0.4600338 -0.7502364 
13 67 544 0.5016 0.3232701 -0.80243 
10.45455 71.09091 543.4545 0.6432373 0.06221752 -0.7631349 
-18.5 164 483.5 0.5037722 0.8033563 -0.317541 
-19 160 474.5 0.5034828 0.8063201 -0.3104078 
-17 158 475 0.7008291 0.6696051 -0.2459016 
35.2 170.6 518 0.1367149 0.6449717 -0.7518779 
37 169 517 0.2844243 0.5328715 -0.7969636 
-13 158.25 483.25 0.6948174 0.6221747 -0.360732 
-9.5 155 488 0.8504577 0.4468254 -0.2776127 
-9 152 485 0.8104112 0.5175248 -0.2745937 
-8 151 484 0.7713283 0.5756985 -0.2713376 
-7 145.6667 477 0.7532693 0.5638035 -0.3386903 
24 119.5 509.5 0.8099712 0.4427397 -0.3846145 
26.5 118.75 513.25 0.8170092 0.4269904 -0.3875245 
26 116 510 0.7967354 0.4092306 -0.4446831 
20 103.6923 503.8462 0.5422785 -0.5531445 -0.6324281 
-89.5 94 484 -0.1148947 -0.03635564 -0.9927122 
-91 93 484 -0.1148946 -0.03635564 -0.9927122 
-76.875 95.125 494.625 0.4799168 0.2763663 -0.8326473 
-80 95 492.125 0.5152351 0.3337891 -0.789378 
7.75 97.66666 510 0.02437679 -0.8664337 -0.4986967 
-77.25 91.75 492.75 0.5545526 0.2798597 -0.7836773 
-47 95.25 513.0625 0.1091772 -0.3481959 -0.9310424 
-51 94 511 0.529146 0.09273557 -0.8434482 
-64 92 503 0.5675555 0.2668952 -0.7788759 
-49.71429 92.14286 512.4286 0.4846552 0.1794691 -0.856096 
-72 89 495.6667 0.4877978 0.03242679 -0.8723542 
-75 89 493 0.5678916 0.05604982 -0.8211927 
-55 90 509 0.5182243 0.2922907 -0.8037473 
-65.1 89.1 500.9 0.5533806 0.3878253 -0.7371306 
-68.42857 88.92857 498.2857 0.4539571 0.2895284 -0.8426721 
-61.5 89.1 503.8 0.5817706 0.2694683 -0.7674177 
-58.3 89.1 506.5 0.5221282 0.2940466 -0.8005741 
-74.13333 86 494.9333 0.4207189 -0.2447052 -0.8735645 
-52.5 87 509 0.5223306 0.3949561 -0.7557648 
-65.58334 85.75 498.8333 0.5782694 -0.0430959 -0.8147069 
-59.35714 86.14286 504.0714 0.5063235 0.3275902 -0.7976975 
-53.07692 83.07692 506.6154 0.5616454 0.2639346 -0.7841511 
-56.28571 82.78571 504.5714 0.453059 0.2124123 -0.8658051 
-202.2857 89 555 0.5523327 -0.8048114 -0.2172724 
-54 80 505 0.4282334 -0.1134593 -0.8965172 
-21.85714 83.28571 525.6429 0.4714816 -0.02771608 -0.8814403 
-202.8333 86 551.6667 0.5407834 0.1968676 -0.8177997 
-48 78 508 0.3986493 0.06929902 -0.9144815 
-82 76 496 -0.8077207 0.2599482 -0.5291637 
-24.4 80.2 524.2 0.4572841 0.2246508 -0.8604785 
-193.75 82.75 546.75 -0.7983598 0.0211091 -0.6018106 
-200.1429 83 551 -0.3071239 -0.1750349 -0.9354345 
-192 79.5 545 -0.8744684 -0.3319191 -0.3537439 
-194.3333 80 548.3333 -0.7606086 -0.3850804 -0.5226737 
-197.25 80.375 551.875 -0.3218906 -0.6807857 -0.6579645 
-199.75 79 554.25 -0.01280614 -0.7806122 -0.6248845 
-49.84615 73.92308 507.7692 0.3438538 0.2000871 -0.9174584 
-194 77.5 552 -0.4488092 -0.8563227 -0.2555031 
-190.25 76.25 554.5 -0.1050001 -0.9620075 -0.2520248 
-28 71.16666 518.5 0.4204666 0.2059084 -0.8836343 
-31.5 70.85714 516.5 0.520909 0.05444929 -0.851874 
-29 69 517 0.4715811 0.09179847 -0.8770316 
-122.1429 1.285714 554.7143 -0.0017208 -0.8384132 -0.5450325 
-137 0 557 0.02275809 -0.8231164 -0.5674167 
-98 -1 559 -0.04655008 -0.8511361 -0.5228771 
-95.2 -2.6 560.6 -0.1049812 -0.8048869 -0.5840687 
-101.1429 -4.428571 564.2857 0.03738436 -0.8446383 -0.5340304 
-104 -6 567 0.02688142 -0.8957412 -0.4437627 
-96 -7 568 -0.01202079 -0.913642 -0.4063418 
-92 -7.5 569.5 0.01197846 -0.8749101 -0.4841373 
-89 -9 572 -0.008989321 -0.8051762 -0.5929676 
-92 -10 574 -0.1237474 -0.8170276 -0.563163 
-83.16666 -11.5 576 -0.08200508 -0.8480921 -0.5234646 
-79.5 -13 577 -0.0942186 -0.8705435 -0.4829874 
-77 -14 579.2 0.02520586 -0.9051993 -0.4242392 
-86 -15 581 0.04315531 -0.8590171 -0.5101247 
-82.75 -16 583 -0.01959563 -0.8645405 -0.5021811 
-86.14286 -17.42857 585.2857 -0.029365 -0.8544837 -0.5186476 
-89.5 -18 587 -0.01456259 -0.8227981 -0.5681472 
-86 -19.5 588.5 -0.01324039 -0.780674 -0.6247982 
-83 -21 590.25 -0.01018566 -0.8221833 -0.5691316 
-86 -22 592 0.004367244 -0.8856559 -0.4643216 
-74 -56 635.6667 -0.7452776 0.5444621 -0.3848666 
-91 -55 619 0.1708206 0.9837455 0.05536419 
-80 -58 634 0.0682596 0.9917811 -0.1082175 
-83.33334 -57 626.3333 0.2076163 0.9766865 0.05457898 
32.25 -59.5 642.5 -0.04027813 -0.860056 -0.5086073 
28 -60 644 -0.09497944 -0.8331883 -0.5447717 
-59.66667 -50 548.6667 -0.8847964 0.3758449 -0.275456 
47 -61.5 642.5 -0.08052676 -0.8353283 -0.5438218 
50.25 -62.75 645.25 0.01474797 -0.9041682 -0.4269221 
41 -63 647 -0.08020895 -0.8802068 -0.4677632 
44 -64 649 -0.001582045 -0.7901095 -0.6129637 
-59.6 -52.8 546 -0.8726123 0.2371331 -0.4269843 
-61.6 -53.2 549.2 -0.855903 0.3245873 -0.4025831 
41 -66 651 -0.05369202 -0.8312953 -0.5532318 
-63 -55 551.5 -0.822892 0.4241707 -0.3780584 
-67 -55 545 0.7757292 0.4847195 -0.4040933 
50 -67 652 -0.04621483 -0.8120688 -0.5817288 
29 -67 654 -0.07101724 -0.8417791 -0.5351305 
32 -68 656 -0.01610773 -0.8184042 -0.5744172 
29 -70 658 0.01372931 -0.727841 -0.6856084 
38 -71.4 659.8 -0.004854418 -0.7999754 -0.6000133 
-66 -60 545 0.9291641 0.3537081 -0.1074456 
70 -73 655 -0.806644 -0.3516398 -0.4750525 
65 -73.83334 660 -0.3494749 -0.7673209 -0.5376671 
-38.66667 -74.66666 545.3333 -0.51327 -0.5521552 -0.6570225 
-36 -78 545 -0.5667936 -0.6101802 -0.5535567 
-24.75 -85.25 546.75 -0.3595229 -0.6336104 -0.6850411 
-32.25 -86.75 551.25 -0.2895347 -0.6411516 -0.7106999 
-24 -88 550 -0.1786219 -0.7747351 -0.6065308 
-28.25 -88.75 551.75 -0.1959512 -0.7790337 -0.595575 
-22 -91 555 -0.05543766 -0.944492 -0.3238232 
-39 -91 563 -0.2302218 -0.9434161 -0.2386716 
-35 -89.33334 557 -0.2640498 -0.8490739 -0.4575491 
-31.83333 -89.66666 554.6667 -0.2348548 -0.8529894 -0.4661035 
-35.66667 -83.66666 551.3333 -0.2503961 -0.5357468 -0.8063977 
-41 -80 549 -0.2415606 -0.4845676 -0.8407394 
67 -79 658 -0.6723014 0.7337767 -0.09789193 
68.75 -76.75 660 -0.964107 0.1580223 -0.2133698 
65.25 -77 663.5 -0.4992441 -0.4182299 -0.7588406 
-72 -53 630 -0.9430126 0.2273991 -0.2429341 
-80 -52 640 -0.005042899 -0.7622755 -0.6472331 
-72 -50 632.3333 -0.8896924 -0.3002717 -0.3439249 
-80 -50.33333 636.3333 -0.1145966 -0.8355256 -0.5373683 
-118 2 553 -0.06051426 -0.8219265 -0.5663698 
-122 3.428571 551.5714 -0.03499006 -0.8925736 -0.4495421 
-125 4.222222 549.1111 0.04010477 -0.9156924 -0.3998739 
-127 5 547 -0.01561959 -0.8605046 -0.5092033 
-119 6 545.6667 -0.05552492 -0.8723868 -0.4856526 
-115.8571 7.428571 542.7143 0.03037292 -0.8746241 -0.4838494 
-116.2 9.2 539.8 -0.01686876 -0.902978 -0.4293555 
-106.8571 10 537.1429 0.02661683 -0.9123973 -0.4084394 
-109.5 11 535 -0.02179284 -0.8547406 -0.5185978 
-100.75 12 534 -0.02184854 -0.8618744 -0.5066508 
-110 13.42857 531.5714 -0.0448386 -0.7962457 -0.6033095 
-110.1667 15.33333 527.6667 -0.07332316 -0.9252066 -0.3723124 
-190 20 629 -0.3765099 -0.9078748 -0.1844009 
-113 17 525 0.00208017 -0.8561146 -0.5167819 
-177 21.5 611.5 -0.5644566 -0.6223023 -0.5423362 
-110 18 524 -0.04920543 -0.8404642 -0.5396283 
-107 18.57143 522.2857 -0.07140476 -0.9083489 -0.4120723 
-194 22 629 -0.4943714 -0.8338271 -0.2456201 
-80 19 519 0.008971085 -0.9512923 -0.3081599 
-77.5 20 517 -0.006157553 -0.8080817 -0.5890383 
-79.875 21.5 515.5 0.02183004 -0.8432897 -0.5370159 
-71 22 512.6667 0.05311979 -0.9327911 -0.3564814 
-73.5 23 511 -0.1520225 -0.8591693 -0.4885871 
-115.5 24 512 0.03753933 -0.8512799 -0.5233674 
-112.7143 24.57143 510.4286 -0.1185452 -0.8880954 -0.4441099 
-98.125 25.375 506.75 0.005810844 -0.92243 -0.3861208 
-95 26 505 -0.02886323 -0.8506076 -0.5250083 
-98 27 504 0.006598323 -0.8876655 -0.4604417 
-100.8571 28 500.8571 0.000411733 -0.9131238 -0.407682 
-103.75 29 499 -0.06541827 -0.8676734 -0.4928117 
-94.75 30 497.25 0.02194355 -0.9173586 -0.3974563 
-112 51 485 0.2759209 0.5142956 -0.8120147 
122.5 69 653.5 0.3977536 0.8831797 -0.2485671 
-35.23077 55.69231 510.1538 0.4572682 0.4673928 -0.756604 
121.5 70.5 658 0.5860174 0.5558257 -0.5896112 
-115.4 53.2 485 0.2433493 0.4876066 -0.8384634 
119.5 71.5 654 0.6847286 0.6843414 -0.2506469 
-110 56.07692 488.5385 0.2101361 0.4224577 -0.8816872 
-37.85714 59.14286 510.0714 0.4103984 0.3559874 -0.8395512 
-34.4 59.2 512.4 0.5790678 0.2383159 -0.7796705 
-25 61.875 518.8125 0.3766033 0.2162679 -0.9007764 
-107 58 490 0.1861328 0.6309612 -0.7531551 
-33 62.14286 514 0.5318215 0.179068 -0.827708 
-176.1667 69 567.6667 0.2021763 -0.8243682 -0.5287171 
-22.75 64.75 520 0.4496973 0.06841515 -0.890557 
-173 70.42857 566.8571 0.005080878 -0.781817 -0.6234873 
-175.875 71.625 564.25 0.2361957 -0.8665674 -0.4396277 
-30 67.66666 518 0.5060456 0.1476648 -0.8497724 
-202.4 73.6 564 -0.03262801 -0.8803245 -0.4732485 
-19.5 163 481 0.2934406 0.8922452 -0.343207 
-19 161 477 0.4545957 0.8256451 -0.3341451 
-18 159 474 0.5596433 0.756162 -0.3391436 
35 172 519 0.1367149 0.6449717 -0.7518779 
-15.5 157.5 476 0.6726745 0.6676425 -0.3190024 
37.90909 170.0909 518.4545 0.2308453 0.5196593 -0.8225963 
34.75 169.25 517 0.151353 0.5757006 -0.8035305 
-13.5 157 479 0.6909683 0.6632935 -0.2874104 
-9.5 155.5 487 0.8422526 0.4753103 -0.2543437 
-8 145.5 474.5 0.767204 0.5626468 -0.307939 
25.25 118.75 510.25 0.80574 0.4385937 -0.3980184 
27 117 513 0.7957382 0.4563881 -0.398134 
22 108 502 0.7907281 -0.2190109 -0.5716497 
21 106 503 0.6022502 -0.5381153 -0.5896836 
18 103 503 0.4292438 -0.6347997 -0.6424789 
16.5 102 502 0.3132788 -0.7504165 -0.5820065 
22.85714 101.5714 507.5714 0.4658321 -0.6284648 -0.6229225 
-91 94 484 -0.1148946 -0.03635566 -0.9927122 
-77.75 94.75 493 0.5326684 0.2977519 -0.7922173 
-89.66666 92.66666 484 -0.1148946 -0.03635561 -0.9927122 
5 97.66666 510.3333 -0.01341948 -0.8642342 -0.5029107 
-64.3 95 503.6 0.6144539 0.1530377 -0.7739676 
-76.25 92.75 494 0.5565887 0.272646 -0.7847759 
-79.54546 92 491.3636 0.4950086 0.1839643 -0.8491901 
-50.14286 95.21429 512.5714 0.3438115 -0.02564643 -0.9386885 
-81 90 490 0.4542418 -0.4397832 -0.7747613 
-67 90 500 0.4747456 0.4359362 -0.7645759 
-51 91.8 511 0.5314942 0.146555 -0.8342875 
-73.66666 89.16666 494.5833 0.6413302 0.06551345 -0.764463 
-46.93333 91.86667 513.2 0.3788772 0.08142641 -0.9218578 
-66 88.5 499 0.5009493 0.3432091 -0.794517 
-75 87 493 0.5162711 -0.3557412 -0.7790458 
-52.875 89.125 509.5 0.4527076 0.2579782 -0.8535239 
-59.75 88.75 505 0.6177445 0.2408405 -0.7485905 
-64.25 86.75 500 0.5456077 0.2396023 -0.8030586 
-71.66666 86.25 495.9167 0.5141021 -0.03584662 -0.8569797 
-68 85.92308 497.6154 0.3731343 0.07230426 -0.9249556 
-61 86 503 0.6044124 0.27314 -0.7483851 
-55 84 506 0.50948 0.2713823 -0.8165671 
-202.6667 88.66666 552.3333 0.8320644 -0.5259591 -0.1761703 
-202 87 554 0.3533408 0.6667941 -0.6561524 
-25.2 82.8 524.4 0.4149318 0.2412887 -0.877275 
-52.93333 80.06667 506.1333 0.5012471 -0.002921849 -0.8652993 
-56.1875 79.75 504.8125 0.2892666 -0.2773531 -0.9161878 
-206 85.4 551.4 -0.1635709 -0.612461 -0.7733926 
-192 83 545 -0.8621337 0.03887147 -0.5051876 
-194.5 83.5 548 -0.6976759 0.09215239 -0.710462 
-25.875 80 522.75 0.5706834 0.2791835 -0.7722546 
-21.81818 79.81818 525.4545 0.5357557 0.2047238 -0.8191789 
-50.25 77.08334 507.9167 0.2789946 0.05613315 -0.9586507 
-27.33333 77.66666 521 0.5124919 0.3304347 -0.7925686 
-82 74.25 495.25 -0.8267573 0.2633287 -0.4971223 
-193 80 546 -0.7797012 -0.2853862 -0.5573336 
-200.1 80.6 552.3 -0.1511083 -0.6639214 -0.7323762 
-197 79 554 -0.2162058 -0.8126718 -0.5411282 
-48 73 508 0.4772962 0.1384368 -0.8677694 
-191 77 551.3333 -0.2112826 -0.954753 -0.2092995 
-208.5 78 557.5 -0.3580273 -0.6476814 -0.6725513 
-194.25 77 555.25 -0.2824032 -0.9127374 -0.2952271 
-30 70.8 518 0.4793684 0.1510524 -0.8645167 
-205 74 564 0.002631569 -0.8883939 -0.4590744 
-119.3333 1.333333 554.6667 -0.06216777 -0.8694513 -0.4900914 
-140.25 0 557 -0.03432351 -0.8253822 -0.5635301 
-94.6 -1.4 558.6 -0.08963982 -0.8493125 -0.5202238 
-97.8 -2.4 561.2 -0.1665233 -0.8206902 -0.5465689 
-100.5 -3 563 0.0493003 -0.8161343 -0.5757554 
-94.5 -4 562 -0.079596 -0.7998359 -0.5949177 
-103.8571 -4.571429 563.8571 0.07354958 -0.8616419 -0.502159 
-100.8571 -6 567.2857 -0.009493356 -0.8918786 -0.4521753 
-89 -7.5 570 0.1054761 -0.8500443 -0.5160424 
-92 -9 572 -0.09341111 -0.8625422 -0.4972881 
-88.85714 -10.42857 573.4286 -0.02028212 -0.8001915 -0.5994015 
-85.8 -11.6 575.8 0.09159321 -0.8275104 -0.5539289 
-77.5 -13 577 0.04753707 -0.873243 -0.4849607 
-80.25 -13.75 579 -0.06232756 -0.8817371 -0.4676056 
-83 -15 581.3333 -0.01967946 -0.8473588 -0.530656 
-86 -16 583 0.008990942 -0.8735607 -0.4866322 
-83 -17.5 585.5 -0.02026151 -0.8462497 -0.5324011 
-91 -18 587 0.06067859 -0.7992464 -0.5979325 
-83 -19.5 588.5 -0.0008462194 -0.8051167 -0.5931159 
-86 -21 590 0.0007327161 -0.8079074 -0.589309 
-83 -22 592 -0.00182387 -0.8750787 -0.4839773 
-57 -24 593 -0.7514001 -0.3539243 -0.5568982 
29 -59 642.25 -0.1111279 -0.8425031 -0.5271045 
-58.66667 -49.66667 545.6667 -0.8706973 0.3353339 -0.3597741 
50 -61.66667 642.6667 -0.005273752 -0.8584978 -0.5127901 
46.8 -62.6 645.2 -0.08630607 -0.9147902 -0.3946014 
44 -63 647 -0.04747654 -0.9073092 -0.4177752 
-64 -54 554 -0.6337842 0.6770285 -0.374099 
41 -64 649 -0.07821996 -0.7851318 -0.6143693 
44 -66 651 -0.0006317457 -0.8169016 -0.5767767 
32 -67 654 -0.04545834 -0.8420374 -0.5375003 
29 -68 656 -0.05122279 -0.7969377 -0.6018858 
-67 -56.5 549.5 0.7344611 0.286144 -0.6153768 
32 -70 658 0.03430225 -0.7456825 -0.6654179 
35 -71.5 660.3333 0.04209018 -0.8104292 -0.5843227 
-66 -60 550 0.7449057 0.6071954 -0.2764587 
-67 -58.66667 546.6667 0.9719229 0.2281479 -0.05757152 
70 -75 656 -0.9426187 -0.005767234 -0.3338215 
67.5 -75 660 -0.5904855 -0.6935988 -0.4126109 
64.5 -75 662 -0.270593 -0.7380635 -0.6180954 
-38.125 -77.125 546.125 -0.4398648 -0.5347373 -0.7215089 
-22.14286 -86.28571 545.8571 -0.3501318 -0.7584202 -0.5497332 
-25.2 -86.6 548.2 -0.2921441 -0.7468143 -0.5974281 
-21.75 -88 548.75 -0.1789677 -0.8803331 -0.4392999 
-31 -88.375 552 -0.1647119 -0.7847109 -0.5975774 
-24 -91 556 -0.08202587 -0.9531609 -0.2911292 
-28 -90 554.6667 -0.1229136 -0.9386151 -0.3223258 
-38 -90 558.3333 -0.1288272 -0.897127 -0.4225717 
-38.14286 -83.42857 551.1429 -0.03378456 -0.5989265 -0.800091 
-40.8 -82.4 550 -0.195387 -0.5290326 -0.8258017 
-43.85714 -79.71429 549.8571 -0.2387376 -0.5603117 -0.79313 
56 -81 641 -0.02463095 0.9948644 0.09817422 
63 -80 647 -0.35068 0.9276991 0.1280544 
67.6 -77.2 662.6 -0.5831579 -0.3949152 -0.7099077 
70 -76 654.5 -0.945026 0.1150735 -0.306078 
-75 -55 639 -0.7898939 0.09089329 -0.6064702 
-76.66666 -52.66667 639.1667 -0.4562887 -0.6473574 -0.6105154 
-72 -52 632 -0.8983534 -0.08187187 -0.4315765 
-80.5 -51 638 -0.02161773 -0.8579693 -0.5132461 
-77 -50.5 635.8333 -0.2129214 -0.7518073 -0.6240595 
-73.33334 -49.33333 633.6667 -0.5010982 -0.5695841 -0.6515172 
-119 3 552 -0.0431394 -0.8701987 -0.4908088 
-128 4.333333 548.8333 -0.05059579 -0.9079198 -0.416079 
-126 5 547 0.009724706 -0.8583035 -0.5130502 
-122 6 546 -0.007768629 -0.8615789 -0.5075642 
-113 7.571429 543 0.02677245 -0.8688759 -0.4943056 
-117 8 541 -0.006510557 -0.8577529 -0.5140211 
-112.75 9.25 540 -0.01355229 -0.9084046 -0.4178725 
-109.8571 10.14286 536.7143 -0.009072483 -0.9141747 -0.4052188 
-107.25 11 535 0.02831903 -0.8601471 -0.5092595 
-104 12 534 0.02120787 -0.8395419 -0.5428809 
-107 13.57143 531.2857 -0.01980155 -0.8234662 -0.5670197 
-110 15 530 -0.06529425 -0.8961516 -0.4389179 
-106.8571 15 528.2857 -0.0600688 -0.9237013 -0.378375 
-176.3333 19 612.6667 -0.6249868 -0.5671536 -0.5364031 
-115.8 16.8 525.2 0.0005215956 -0.829255 -0.5588703 
-192 20 634 -0.4367865 -0.8794526 -0.1891579 
-194 21 634 -0.4367865 -0.8794526 -0.1891579 
-110 19 521.6667 -0.0002043662 -0.9588674 -0.2838544 
-77 19.33333 518.6667 0.01623194 -0.9023396 -0.43072 
-80.25 20 517 -0.007697229 -0.8294382 -0.5585455 
-77 21.5 515.5 0.0043688 -0.8111193 -0.5848644 
-74 22.2 512.8 -0.1436438 -0.8894097 -0.433955 
-71 23 511 -0.0458163 -0.8550681 -0.5164876 
-116.3333 24.66667 510.1667 0.06640856 -0.9105158 -0.4081065 
-114 24 512 -0.09281926 -0.8428807 -0.5300347 
-95.2 25 507.2 -0.01807237 -0.9340973 -0.3565607 
-99 26 505 0.0008522003 -0.8510367 -0.5251055 
-95.25 27 504 0.003035037 -0.8834948 -0.4684311 
-103.8571 28 501.1429 -0.02390058 -0.9085249 -0.4171466 
-188.5 37 617 -0.8542857 0.3516076 -0.3828422 
-101 29 499 0.004136297 -0.8629386 -0.5052918 
-98 30 498 0.001312258 -0.8854921 -0.4646527 
-188.5 40 620 -0.8540367 0.3511491 -0.3838173 
-193 61 587 -0.3198665 -0.8674602 -0.3810491 
-112.9375 53.125 485.75 0.2742074 0.5190791 -0.8095475 
121 70 655 0.5346044 0.7071365 -0.4627703 
-37.25 56.75 509.25 0.5232211 0.4020606 -0.7513901 
120 72 657 0.5250595 0.6749579 -0.5184057 
-34 57 512 0.4896491 0.4507031 -0.7463983 
-107.0909 55.90909 488.9091 0.07357682 0.4910881 -0.8679971 
-35.75 58.75 511 0.5631881 0.2648543 -0.7827333 
-22.375 62.125 520 0.4752114 0.1978913 -0.8573291 
-110.3333 58.33333 489.4445 0.161052 0.6002905 -0.7833987 
-172 69 568 -0.01217029 -0.8759295 -0.4822856 
-113 60 491 0.2529951 0.8272542 -0.5016413 
-25 65 519.1667 0.3679807 0.08175484 -0.9262323 
-175.75 70.25 566.25 0.2239135 -0.8469598 -0.4822053 
-33 64.5 514 0.5213608 0.2467839 -0.8168725 
-202.5 71 570 -0.3277832 -0.86373 -0.3827907 
-173 72 565 0.05364687 -0.7766086 -0.6276951 
-27.77778 67.77778 518.3333 0.3783898 0.1303764 -0.9164187 
-203.25 73.25 566.25 -0.2331626 -0.8766312 -0.4208954 
-31.75 68.08334 516.0833 0.4722817 0.067208 -0.8788818 
-18 168 494 0.3756501 0.8229131 -0.4262643 
-17 166 491 0.5281406 0.754182 -0.3902271 
-15 162 487 0.6767865 0.6410366 -0.3619834 
50 169.8333 518.8333 -0.09565302 0.5726906 -0.814172 
-10.5 160 492 0.7894032 0.5265824 -0.3155213 
-13 155.3333 476.6667 0.7742094 0.5425742 -0.3259034 
-9 158 494 0.7723738 0.5067967 -0.3828783 
-12.33333 152.6667 473.6667 0.8464717 0.4548322 -0.2767912 
-11 152 478 0.8354558 0.4201237 -0.3542734 
-6.25 155.25 494.75 0.7232868 0.5967203 -0.3475357 
-9 149 480 0.7789325 0.53117 -0.3333507 
-6 152.5 491 0.7413088 0.575061 -0.3460726 
-4 152.3333 494.6667 0.6752926 0.6068893 -0.4191244 
-4.5 148 487 0.6875023 0.5794933 -0.4376392 
-3 147 488 0.6590179 0.6374645 -0.3991673 
-0.8 149.2 494.8 0.4554129 0.7154066 -0.5298985 
-1 146.5 491 0.540804 0.7264377 -0.424051 
3 147 494 0.5545376 0.6626102 -0.503424 
20.75 119.25 503.25 0.8157308 0.3530576 -0.4581851 
19.42857 113 497.7143 0.8852556 0.002825757 -0.4650964 
24 113 506 0.8445048 0.03309931 -0.5345241 
18 109 497 0.7484214 -0.2853716 -0.598689 
21 109.75 500.75 0.8042927 -0.1123451 -0.5835168 
23.14286 109.8571 504.1429 0.9013367 -0.03452718 -0.4317405 
25.22222 110 507.5555 0.7382984 -0.09204559 -0.668164 
26.5 106.875 509.5 0.748355 -0.04243634 -0.6619396 
10.75 103.5 497.875 0.09870688 -0.9254583 -0.3657649 
14.25 103 500.5 0.1261265 -0.8702448 -0.4761996 
5.25 102 501.5 -0.03203033 -0.8657494 -0.4994518 
14.25 101.3333 504 -0.03485728 -0.8987647 -0.4370436 
11 100 506 0.08762426 -0.8751985 -0.4757621 
21 100 509 0.4870396 -0.6794567 -0.5487541 
13 99 507 0.02101582 -0.8769108 -0.4801936 
-85.2 95.8 488.4 0.6179397 0.3634027 -0.6972009 
21 97 512 0.2537285 -0.7476034 -0.613768 
16.75 97.66666 510.25 0.03001296 -0.863715 -0.503086 
-58 96 509 0.426166 0.1198297 -0.8966735 
-86.07143 92.14286 486.2857 0.4610035 -0.3493887 -0.8157226 
-83.05264 91.94736 488.8421 0.3515046 0.1026323 -0.9305435 
-89 90 487 0.03836844 -0.8109493 -0.5838572 
-56.5 94 508 0.4449252 0.1821467 -0.876849 
-92.25 89.5 489.25 -0.2175815 -0.9091344 -0.355152 
-83.11111 88.22222 491.8889 0.0399701 -0.8424371 -0.5373102 
-25 91.75 521.3125 0.1585063 -0.6216598 -0.7670821 
-82.90909 86.27273 495 -0.364598 -0.7354285 -0.5711509 
-28 89 522.4445 0.3484625 -0.3603641 -0.8652812 
-77.5 82.5 493 0.1000308 0.1954858 -0.9755918 
-197 90 545.6667 -0.3771232 -0.905223 -0.1958303 
-80 82.83334 494.9167 -0.3599257 -0.209123 -0.9092421 
-201 90 550 0.5251155 -0.8471209 -0.08148526 
-62.35714 83.14286 501.3571 0.4190548 0.1069892 -0.9016354 
-27.25 86 524 0.5798758 -0.05256619 -0.8130074 
-30.93333 85.93333 521.6 0.5454502 0.05544414 -0.8363075 
-46.92308 82.92308 510.6154 0.4885196 0.2603371 -0.8328105 
-60 81 502 0.531011 -0.09905303 -0.8415556 
-76.8 80.2 494 -0.04512231 0.0132813 -0.9988931 
-49.33333 80.33334 509 0.4467271 0.2421876 -0.8612666 
-66 78 499 0.5677353 0.0632164 -0.8207803 
-196 85 550 -0.5152786 0.1439869 -0.8448406 
-74.30769 77.07692 494.8462 0.4309992 0.06483795 -0.9000199 
-67 76.5 500 0.5921265 0.08392249 -0.8014631 
-208.5 83.5 553 -0.3042683 -0.4747386 -0.8258596 
-59.25 77.1875 503.8125 0.5633685 -0.1207084 -0.8173405 
-71.25 74 495.6667 0.4035786 0.3109701 -0.8604777 
-74.6 73.2 493 0.4902717 0.4641047 -0.7377266 
-64.8 74.3 500.3 0.4419191 0.1828284 -0.8782263 
-68 74 497.6364 0.6234732 0.3110875 -0.7172906 
-209 80.125 555.375 -0.3323488 -0.533333 -0.7778819 
-205.8333 77.66666 555.5 -0.1740382 -0.7694833 -0.6144966 
-197.2222 76.77778 558.1111 -0.1192728 -0.9398628 -0.3200501 
-38.06667 71.2 513 0.3202276 -0.0112569 -0.9472739 
-200 76 560.6 -0.01733379 -0.8819375 -0.4710476 
-196.75 74.75 561.75 -0.0872445 -0.7619103 -0.6417798 
-130.8571 1.428571 554.8571 -0.008375401 -0.8619108 -0.5069908 
-128 0 557.3333 -0.05448437 -0.8563086 -0.5135827 
-107 -1 558 0.02765691 -0.8872049 -0.4605461 
-110 -3 561 0.1187284 -0.8502901 -0.5127478 
-115.75 -5.25 564.25 -0.02271195 -0.9240013 -0.3817144 
-112.8 -6 567.2 -0.00842174 -0.9387144 -0.344593 
-77 -8.5 570 -0.1047183 -0.814423 -0.5707445 
-81 -9 572 -0.1419738 -0.824387 -0.5479321 
-77 -10.57143 573.2857 0.05142744 -0.8430423 -0.535383 
-73.8 -11.6 575.6 0.04383615 -0.8543215 -0.5178929 
-91.875 -13.875 579 -0.08742476 -0.8357047 -0.5421758 
-74 -16 583 -0.05285009 -0.8283626 -0.5576938 
-71.14286 -17.57143 585.1429 -0.03491224 -0.8670999 -0.4969094 
-71 -19.5 588.5 0.0009313427 -0.8099971 -0.5864331 
-74 -21 590.3333 -0.02354957 -0.7852373 -0.6187469 
-71 -22 591.3333 0.01719113 -0.7909576 -0.6116296 
-68.14286 -23.42857 593.8571 0.05054962 -0.8232251 -0.5654601 
-63 -50 561 -0.858279 0.5074978 -0.07617862 
-84 -57 637 0.4749071 0.7111267 -0.5184226 
-64 -51 565 -0.8161139 0.5721626 -0.08116716 
-74 -57 628 0.6908856 -0.7227633 -0.0170384 
41.5 -59 641 -0.1155564 -0.7987459 -0.5904673 
-75 -58 624 -0.5480761 0.8364192 0.003952621 
35 -61 645 -0.0552507 -0.8858277 -0.4607132 
-66 -53 567.5 -0.8010412 0.5797656 -0.1490136 
-67 -54 564 -0.749422 0.6574081 -0.07862026 
32 -62.5 648 -0.006444913 -0.8291006 -0.5590623 
-67.5 -55 560 -0.6822633 0.7043785 -0.1958774 
32 -65 651 -0.04491751 -0.8105307 -0.5839712 
44 -67.5 654 -0.03514234 -0.9021633 -0.4299608 
40.5 -68.5 656.5 -0.02829219 -0.8257582 -0.5633144 
47.2 -71.4 660 -0.1495987 -0.8461538 -0.5115115 
56 -73 660.3333 -0.09827152 -0.8649192 -0.4921967 
-64 -61 551 -0.4913368 0.3983815 -0.7745194 
53 -74 663.3333 -0.194373 -0.7776108 -0.5979469 
50 -75 665 -0.1003708 -0.7176049 -0.6891798 
71 -73 646 -0.9207374 0.3796791 -0.08992537 
56 -76 664 -0.09508923 -0.7650096 -0.6369604 
-40 -88 556 -0.2226004 -0.8172497 -0.5315564 
-28 -91 558 -0.04420609 -0.9302499 -0.3642539 
